ply
format ascii 1.0
element vertex 1392
property float x
property float y
property float z
end_header
0.16988067 0.29762819 0.00000000
-0.05750106 -0.09979733 0.00000000
-0.68335597 -0.24590857 -0.00000053
-0.11146488 -0.51386561 0.00000000
0.12303462 0.05092061 0.00000938
0.10260138 0.35990020 0.00000505
0.39316975 0.15114992 -0.00000053
0.12607921 -0.52843459 0.00000000
-0.19994941 0.14784813 0.26359522
-0.19495534 0.10585606 0.29098406
-0.17849733 -0.77159317 0.00000000
0.33960201 0.42405398 -0.00000078
-0.54712958 -0.54282832 0.00000000
0.64446460 -0.28658895 -0.00000083
-0.26401154 0.35495220 0.10552866
-0.31693087 -0.10673512 0.00000000
0.15370397 -0.59788042 0.00000000
-0.16883359 -0.42897074 0.00000000
-0.29031580 0.29988965 0.12229223
0.67090603 0.06954576 -0.00000068
0.64603465 -0.06313538 -0.00000123
0.67833443 -0.08550437 -0.00000133
0.25960219 0.51644040 -0.00000025
-0.71927561 -0.58153744 -0.00000027
-0.49213176 -0.18155880 -0.00000018
-0.70187578 -0.73897874 -0.00000008
0.10485532 0.35861843 0.00000000
-0.53853314 0.17357168 0.05123456
-0.29873111 -0.08688760 0.00000000
-0.55307992 -0.60301483 0.00000000
-0.24388890 -0.11494362 0.00000000
0.73295849 -0.35093315 -0.00000109
0.41319060 0.28577744 0.00000065
0.18877286 0.14946954 0.00000691
0.76091734 -0.44176126 -0.00000090
-0.76018673 -0.14537566 -0.00000079
-0.35307221 -0.64089548 0.00000000
-0.37211103 -0.32392294 0.00000000
0.23427348 0.37401152 -0.00000025
-0.33514433 -0.73483396 0.00000000
0.17228970 -0.68718089 0.00000000
-0.40529997 -0.32950637 0.00000000
0.28241508 -0.72527335 0.00000000
0.20384453 0.02939246 0.00000000
0.23175629 -0.66316637 0.00000000
-0.03225959 0.40543910 0.00000000
0.52833419 -0.30624908 -0.00000030
0.75096454 0.02865415 -0.00000184
-0.05069301 0.59698474 0.00000000
-0.08602977 -0.18502531 0.00000000
-0.28280699 -0.25272915 0.00000000
0.38329643 0.35526726 -0.00000085
0.31789529 0.43250277 -0.00000071
-0.31776878 0.45836621 -0.00000038
-0.77855784 -0.41531007 -0.00000048
-0.07925552 0.39284207 0.00000000
-0.42502896 -0.65917617 0.00000000
0.33903061 0.12581553 -0.00000026
0.33468567 0.42511913 -0.00000017
0.17929161 0.54560870 -0.00000032
-0.11716853 0.62741571 -0.00000010
-0.49807798 0.29001050 0.00694265
0.62794541 -0.25595654 -0.00000081
-0.57447778 0.13249708 0.05422480
-0.00058242 -0.09129721 0.00000000
-0.36979872 0.40311747 0.01578716
0.17743346 -0.27447465 0.00000000
-0.25276484 0.31240368 0.13688674
-0.11519405 0.65879998 -0.00000012
-0.50346976 -0.66423936 0.00000000
0.03304862 0.50366614 0.00000000
-0.71802968 -0.25809314 -0.00000060
0.14380301 -0.04795927 0.00000000
-0.06384732 -0.66952420 0.00000000
-0.41346434 0.22388289 -0.00000037
-0.57347875 -0.25995122 -0.00000029
-0.38354472 0.06380151 -0.00000017
-0.00256929 0.22535732 0.00000000
0.47027353 -0.28206304 -0.00000009
-0.21013170 0.38941146 0.11684935
-0.74272132 -0.35075983 -0.00000056
-0.28621560 -0.79571741 0.00000000
-0.74278158 -0.19302056 -0.00000071
-0.21340048 0.34649380 0.13996121
0.50126733 0.24696652 -0.00000116
-0.18145514 0.21510604 0.23517026
0.57625655 -0.74832867 0.00000000
-0.03952070 -0.50345029 0.00000000
-0.11224669 -0.23597462 0.00000000
-0.60961122 -0.72745278 0.00000000
-0.07724408 -0.06060641 0.00000000
0.35884367 -0.05708022 -0.00000002
-0.39701342 0.11902161 0.16552701
-0.04849446 -0.30644358 0.00000000
-0.18250881 0.26674241 0.20445654
-0.21333581 -0.69919011 0.00000000
-0.47434230 -0.63116301 0.00000000
-0.12260514 -0.11712748 0.00000000
0.35684542 0.18302255 0.00000345
-0.28556360 0.28629229 -0.00000016
0.41063009 -0.09619557 -0.00000017
0.14062909 0.60394154 -0.00000025
-0.27253812 0.33340924 0.11311608
-0.13216551 0.40108023 0.00000000
-0.30774364 0.29645188 0.11413716
-0.73378154 0.06554452 -0.00000092
0.23733785 -0.42850605 0.00000000
-0.08835764 -0.54617756 0.00000000
0.54283059 -0.57770915 0.00000000
0.53750689 -0.51178792 0.00000000
-0.28123405 -0.23965511 0.00000000
0.38124540 0.06372306 -0.00000033
-0.13754964 0.41402095 0.14481326
-0.31898173 0.25337936 -0.00000020
-0.31184430 0.08372850 0.23574629
0.61403599 -0.03486487 -0.00000114
-0.63074483 -0.79525822 0.00000000
0.08646293 -0.73675866 0.00000000
-0.40505518 -0.78790940 0.00000000
0.59703050 -0.01649204 -0.00000110
-0.51949921 -0.06158674 -0.00000035
0.73061556 0.01589777 -0.00000173
0.56181946 0.23414720 -0.00000140
-0.17714714 0.26627955 0.20785174
0.33744524 0.33663275 0.00000126
-0.39699591 -0.75581533 0.00000000
0.35008525 0.21659387 0.00000302
0.58349258 0.19993794 -0.00000118
0.50537650 0.03143640 0.00000313
0.18311331 -0.35216541 0.00000000
-0.13175905 0.35572448 0.18217046
0.46531384 0.24137604 -0.00000100
0.29940473 0.22038456 0.00000393
0.60602584 -0.53027733 -0.00000023
0.21852116 0.36700643 0.00000304
0.10409643 -0.71415681 0.00000000
0.09389698 0.50798002 0.00000000
-0.32053997 -0.07137181 0.00000000
0.77218258 -0.15098785 -0.00000161
-0.74500951 -0.54423096 -0.00000032
0.44539566 -0.00201249 -0.00000048
0.17427174 0.13107253 0.00000000
0.28625340 0.14879409 -0.00000007
-0.73392440 -0.74188820 -0.00000007
0.05807269 0.06312448 0.00001018
0.63028332 0.11086390 -0.00000147
0.68745015 -0.70236249 -0.00000024
-0.16243918 0.58211261 -0.00000015
-0.19473942 -0.23321358 0.00000000
0.31362089 0.17099598 0.00000448
-0.10399136 -0.37183760 0.00000000
-0.32811245 0.31344009 -0.00000027
-0.28924894 0.09027218 0.00000000
0.19008633 -0.36814984 0.00000000
0.02233304 -0.01372599 0.00000000
0.70277742 -0.78162967 -0.00000005
0.36213757 0.31606497 -0.00000069
0.58640185 -0.11996682 -0.00000088
-0.16906693 -0.42314722 0.00000000
0.40150576 0.28462345 -0.00000080
-0.06965645 -0.46566288 0.00000000
0.44077589 0.27603633 -0.00000095
0.61481318 -0.22611818 -0.00000081
-0.30409018 0.16462930 0.19310813
0.54256674 0.16065880 -0.00000119
0.62028974 -0.73374007 0.00000000
0.13891890 0.07663281 0.00000875
0.33709604 0.20821271 0.00000341
-0.25593475 0.09437961 0.26212808
-0.18387389 0.20230819 0.00000000
-0.22099022 0.42428370 0.09019217
-0.38649520 -0.34777507 0.00000000
-0.53772758 -0.31014920 -0.00000017
-0.48659395 0.14890594 -0.00000046
0.00600035 -0.04178692 0.00000000
-0.66810905 0.04905671 -0.00000076
-0.21843697 -0.06919939 0.00000000
0.46398204 -0.25894251 -0.00000011
0.31385072 -0.47431620 0.00000000
0.59931447 -0.11382425 -0.00000094
0.04430920 0.08085498 0.00000000
0.23644899 0.21917902 0.00000514
0.26924424 0.36076528 -0.00000037
0.21343902 -0.35358529 0.00000000
0.31210825 0.46902075 -0.00000047
0.15753785 0.03605924 0.00000908
0.77166796 -0.57430951 -0.00000056
0.06411714 -0.30394401 0.00000000
-0.55876804 -0.14798517 -0.00000035
-0.09530664 0.56786653 0.07975868
-0.31218528 -0.14653107 0.00000000
0.17197181 -0.35193699 0.00000000
0.21100693 0.49485277 -0.00000036
-0.11073346 -0.38556702 0.00000000
0.53482575 -0.37391444 -0.00000021
-0.20848564 -0.44913241 0.00000000
-0.21874916 0.13401146 0.00000000
0.09715977 0.09566382 0.00000000
0.57709593 -0.54043652 -0.00000009
-0.21961523 0.29193352 0.16814245
-0.42049114 0.13712942 -0.00000031
-0.05046726 -0.00072921 0.00000000
0.09837591 0.58226113 0.00000175
-0.30658785 0.35488665 0.08074838
0.42531429 -0.24040159 0.00000000
-0.62271609 -0.44567635 -0.00000023
-0.70685272 -0.60741588 -0.00000024
0.35058276 0.02924489 -0.00000013
-0.41017932 -0.53300974 0.00000000
-0.13937966 0.61908013 -0.00000014
0.51473163 -0.00235001 -0.00000078
-0.12628575 -0.33102362 0.00000000
-0.16563682 0.12177800 0.29879313
0.12694957 0.03576062 0.00000955
-0.60205198 -0.09284858 -0.00000050
-0.53739269 -0.04059821 -0.00000040
-0.48099293 -0.33220384 -0.00000003
-0.55429909 0.24543497 -0.00000069
0.15832615 0.08033797 0.00000841
0.44767019 0.25332458 0.00000053
0.60687898 -0.49748222 -0.00000030
-0.19724550 0.06766201 0.00000000
0.04529012 0.24121819 0.00000770
-0.72247058 0.05695543 -0.00000088
0.43408357 0.29778621 -0.00000096
0.35712626 -0.67245204 0.00000000
-0.14702631 0.38941375 0.15363304
-0.45576194 -0.69595988 0.00000000
-0.26688172 -0.02668343 0.00000000
-0.05995320 0.12550354 0.00000000
0.07939162 -0.14997102 0.00000000
-0.29417710 0.19197182 -0.00000009
-0.50504404 -0.00167031 -0.00000037
-0.31229388 -0.22790825 0.00000000
0.07746845 -0.67827612 0.00000000
-0.55302910 -0.68551368 0.00000000
0.19901581 0.05535217 0.00000817
0.17237847 -0.34505212 0.00000000
-0.21585590 0.09437846 0.00000000
-0.65708642 0.06036879 -0.00000075
0.56625235 -0.68229804 0.00000000
-0.18205363 0.45444296 0.09530871
-0.39624988 -0.64181337 0.00000000
0.25422413 0.27116744 -0.00000015
0.22650969 0.37148865 -0.00000021
0.09958906 0.35585649 0.00000516
-0.14554470 0.56834241 -0.00000011
-0.66593277 -0.28092218 -0.00000047
-0.16623167 -0.07472874 0.00000000
-0.53123692 -0.19550928 -0.00000025
-0.06508015 0.23470967 0.00000000
0.27308477 -0.72265542 0.00000000
0.63301397 -0.72342021 -0.00000001
0.79655154 -0.79757848 -0.00000001
0.68709939 -0.16397098 -0.00000123
0.54229153 -0.02822067 -0.00000085
0.08894410 0.48761881 0.00000000
-0.26258844 -0.40228533 0.00000000
0.34936082 -0.60780211 0.00000000
-0.15072738 0.56830812 0.04719562
-0.68860083 -0.38619293 -0.00000042
0.44786169 0.34069811 -0.00000093
0.46836918 0.19855391 0.00000105
-0.45184077 0.18931603 -0.00000042
0.47983488 -0.47219763 0.00000000
0.06581019 0.09734337 0.00000000
-0.03770536 -0.15862722 0.00000000
-0.03239650 0.04124468 0.00000000
0.06435791 0.70286301 0.00000039
-0.10591722 0.66089971 0.01934322
0.05559792 -0.29427671 0.00000000
0.08103990 -0.53065216 0.00000000
-0.45347696 0.17799520 -0.00000042
-0.70834466 -0.67846102 -0.00000015
0.30846425 0.13292165 0.00000522
-0.36631831 -0.18912484 0.00000000
0.39800508 0.36539106 -0.00000038
-0.38299305 0.30597913 0.06471935
-0.09585375 0.51592817 0.00000000
-0.60937648 -0.73873121 0.00000000
0.39606457 0.29875020 -0.00000080
0.37667360 0.21564284 0.00000253
-0.29378045 0.13580397 0.21592047
0.07414170 0.22301746 0.00000754
0.20497297 0.39616704 -0.00000016
-0.61939343 -0.51795208 -0.00000016
0.57601787 -0.78310909 0.00000000
0.76150593 -0.01392957 -0.00000181
0.17876651 0.06533813 0.00000832
0.17077096 0.11738687 0.00000000
-0.30718579 -0.02014140 0.00000000
0.75089484 -0.34222479 -0.00000114
0.23321402 -0.60420633 0.00000000
-0.24424858 0.31036730 -0.00000009
0.29848181 0.15017167 -0.00000013
-0.72182061 -0.78884826 -0.00000001
-0.04869497 -0.21811225 0.00000000
-0.14231759 0.54508103 -0.00000008
-0.43112106 -0.51988535 0.00000000
0.06350377 0.20964587 0.00000000
-0.33394545 -0.03992238 0.00000000
-0.20805981 -0.52485482 0.00000000
-0.26065474 -0.79058973 0.00000000
-0.51371538 0.04797000 0.13891641
0.03836233 0.00919071 0.00000000
-0.35067904 0.04356557 -0.00000008
0.11152788 0.37776314 0.00000465
0.08678147 0.63949951 0.00000101
0.15406386 0.14665950 0.00000000
-0.73356412 -0.18204925 -0.00000070
0.03579749 0.17865080 0.00000000
-0.36846683 -0.22230132 0.00000000
0.40275310 0.12614079 0.00000352
0.33297328 -0.46857909 0.00000000
-0.26732419 -0.57224356 0.00000000
0.45087358 -0.62966184 0.00000000
-0.31677561 0.34000363 0.08348529
-0.48448533 0.31472790 0.00045790
-0.14671361 -0.22102651 0.00000000
-0.35457716 -0.06229789 0.00000000
0.19135704 0.34545370 0.00000392
0.06764729 0.48399214 0.00000000
-0.28698419 0.46319124 0.02904331
-0.35795619 -0.29190621 0.00000000
0.21539285 0.49748342 0.00000092
-0.54204642 0.12693710 0.07637062
0.41388024 -0.13305000 -0.00000012
-0.66710418 -0.69138129 -0.00000011
0.31967547 0.44885330 -0.00000074
-0.63903116 0.06168397 -0.00000071
0.65162073 -0.15508854 -0.00000109
0.31422071 0.12657736 -0.00000015
-0.39281152 -0.28231967 0.00000000
-0.71872428 -0.40836784 -0.00000047
0.76885992 0.01088673 -0.00000158
0.19829093 -0.18614039 0.00000000
-0.49088558 0.23842998 0.04120230
0.57670223 -0.68465748 0.00000000
-0.45504530 -0.59084232 0.00000000
-0.16488723 -0.69826527 0.00000000
0.13641303 -0.45641918 0.00000000
-0.23401828 0.43681060 0.07529576
0.67961357 -0.53781730 -0.00000054
0.36326810 0.28964528 -0.00000065
-0.34762161 0.07070346 0.22248366
-0.13318482 0.59091201 0.04424534
0.72047121 -0.39529616 -0.00000096
-0.16648080 0.25210476 0.00000000
0.41563661 0.35032104 -0.00000047
-0.30972271 -0.37022736 0.00000000
-0.07168996 0.56615271 0.09452418
0.42834765 0.11184740 0.00000327
-0.26942149 0.50673260 0.01390001
-0.29758211 0.09549796 -0.00000001
0.54470557 -0.29679765 -0.00000039
-0.47922951 0.19352922 -0.00000049
0.49563210 0.17736832 -0.00000101
-0.01095053 0.56093914 0.00000000
-0.17973893 -0.48412084 0.00000000
0.07607787 0.08276722 0.00000961
-0.67615779 -0.31456979 -0.00000046
-0.19529473 0.49092135 0.06632643
0.07778008 0.44132898 0.00000421
0.08871497 0.18836506 0.00000000
0.35585425 -0.71252617 0.00000000
-0.17434391 0.43907629 0.10876028
0.34927690 -0.52361854 0.00000000
0.20153831 0.20467082 0.00000000
-0.28256664 -0.73939385 0.00000000
0.72838384 0.06684529 -0.00000181
0.74983496 -0.75248748 -0.00000012
0.55380275 -0.01910324 -0.00000092
0.50133506 0.03787318 0.00000310
-0.56806985 -0.79748612 0.00000000
-0.56536124 0.17344362 -0.00000065
-0.73436222 -0.73533253 -0.00000008
-0.16600610 0.23881618 0.00000000
-0.72073777 0.07549211 -0.00000090
0.24156536 -0.47656487 0.00000000
0.07103537 0.61676252 0.00000000
-0.38538041 -0.59068374 0.00000000
-0.67194479 -0.74291443 -0.00000007
0.32313793 -0.74904352 0.00000000
-0.21557704 0.32056593 0.15380616
0.57172850 -0.71812348 0.00000000
0.01945775 -0.72027129 0.00000000
-0.55735982 0.04670089 0.11421507
0.28928074 0.35910659 -0.00000046
-0.69194165 -0.75544270 -0.00000006
0.31209085 0.44819753 -0.00000071
-0.09700603 -0.69197241 0.00000000
-0.05305615 0.21833132 0.00000000
0.54435609 -0.48114506 -0.00000006
-0.36715769 0.13251387 0.17506560
0.00450647 0.37831603 0.00000626
-0.56187293 -0.00335041 -0.00000049
-0.12331367 0.25947114 0.00000000
-0.66102367 -0.40824796 -0.00000034
0.57757113 -0.60678769 0.00000000
-0.07229867 0.60683946 0.07045251
-0.29294130 -0.76187621 0.00000000
-0.65905614 -0.50885536 -0.00000025
-0.52010261 0.09493403 -0.00000049
0.12136033 0.63696568 0.00000039
-0.31047273 0.27171459 -0.00000020
0.30165076 0.20515476 0.00000414
0.08310502 0.36078006 0.00000533
0.27534925 0.08082630 0.00000000
0.37783586 0.08651235 -0.00000035
-0.50457933 0.04963763 0.14326989
0.57862116 0.10145003 -0.00000123
0.49085411 -0.17017553 -0.00000038
-0.16875406 -0.76599916 0.00000000
-0.31012932 -0.13203542 0.00000000
0.21965066 -0.36251274 0.00000000
-0.76903982 -0.61420872 -0.00000023
-0.23067971 -0.74606259 0.00000000
-0.24726172 -0.02173135 0.00000000
-0.08418713 0.50048991 0.00000000
0.55915300 -0.25318864 -0.00000052
0.41142189 -0.76503742 0.00000000
0.21986878 0.08257147 0.00000000
-0.18890574 -0.43045924 0.00000000
0.40348491 -0.64088502 0.00000000
-0.03989911 0.02467663 0.00000000
-0.35410744 -0.12374458 0.00000000
-0.36079857 0.05514490 -0.00000011
0.64750897 -0.75307572 -0.00000002
0.49670504 0.09742117 0.00000220
-0.46045225 0.08275904 0.14968538
0.06990393 -0.36283999 0.00000000
0.01665262 0.17272884 0.00000000
-0.04079776 -0.53894369 0.00000000
-0.57490424 -0.38012322 -0.00000018
-0.32370986 0.34841373 0.07454082
0.07078054 -0.19923409 0.00000000
-0.44760882 -0.69734494 0.00000000
-0.24245935 0.11700539 0.25679421
0.25247960 0.52067477 -0.00000058
0.57377435 0.14648533 -0.00000129
-0.45399900 -0.32988828 0.00000000
0.11378651 0.55171394 0.00000196
-0.22280356 0.07136037 0.00000000
-0.09792121 0.13378239 0.33126799
0.56785587 -0.26704937 -0.00000054
0.53968678 -0.23019417 -0.00000048
0.38930406 -0.72427976 0.00000000
0.65072927 0.09163460 -0.00000152
0.74712211 -0.47719567 -0.00000081
0.10144392 -0.19455571 0.00000000
-0.03879530 -0.28955518 0.00000000
-0.27023691 -0.33676412 0.00000000
0.43897800 0.02022801 -0.00000050
-0.21416944 0.04088023 0.00000000
-0.25192158 0.46587000 -0.00000024
0.02737297 0.59076140 0.00000273
0.60196072 -0.68009324 0.00000000
0.08260909 0.57900805 0.00000000
-0.10371584 0.30495577 0.00000000
0.59273499 0.06449502 0.00000090
-0.77141073 -0.55569992 -0.00000031
0.12368702 -0.75464224 0.00000000
-0.18718886 -0.41992646 0.00000000
0.33252738 0.41387614 -0.00000074
0.69813559 -0.46958576 -0.00000074
0.12011183 -0.35968935 0.00000000
0.45928937 -0.42656403 0.00000000
0.04414003 0.55454796 0.00000000
-0.41193061 -0.42261689 0.00000000
0.45729704 -0.63208609 0.00000000
0.67627784 -0.64364963 -0.00000033
-0.56879466 0.11096885 0.07008673
0.01253591 -0.79884707 0.00000000
-0.60121014 -0.74980356 0.00000000
-0.54661042 0.22895558 -0.00000066
-0.36650919 -0.79523721 0.00000000
0.49118342 -0.01447616 -0.00000066
-0.09359877 0.31505445 0.22812172
-0.41328086 -0.79098476 0.00000000
-0.04960092 0.45138599 0.00000000
-0.54854601 -0.36597475 -0.00000014
-0.27909334 0.46349482 0.03346607
0.40613307 0.09262529 0.00000402
0.77773166 -0.45343646 -0.00000087
-0.51646749 -0.59002381 0.00000000
-0.04348231 0.13631367 0.00000000
0.45656723 -0.49574207 0.00000000
-0.25740947 -0.32290107 0.00000000
-0.36565791 -0.45686213 0.00000000
-0.75206386 -0.25582910 -0.00000067
0.68261176 -0.08113898 -0.00000136
-0.77249953 -0.36750997 -0.00000054
-0.25709298 0.17616541 0.00000000
0.04365495 0.34864805 0.00000000
-0.10192979 0.10601339 0.00000000
-0.79404615 -0.01627442 -0.00000097
0.73744319 0.05480447 -0.00000171
0.36275012 0.15864146 0.00000375
-0.47500006 0.07294253 0.14692739
-0.30593484 0.15903749 -0.00000009
0.63889541 -0.48931336 -0.00000045
-0.56605961 0.11388175 0.06998306
0.79047376 -0.47977875 -0.00000080
-0.38055992 0.20452316 0.12527789
0.20460704 0.19077768 0.00000000
-0.33573270 0.25516627 -0.00000023
-0.02103366 0.26355026 0.00000000
0.79554239 -0.28214280 -0.00000129
0.28063914 0.48346787 -0.00000064
-0.51976240 0.20267888 -0.00000058
-0.15452891 0.35742088 0.16790873
0.23908133 0.38785586 0.00000229
0.73086458 -0.07405930 -0.00000157
-0.11660454 -0.35882184 0.00000000
0.41908973 -0.34931276 0.00000000
0.03078538 0.67931807 0.00000000
-0.09673734 -0.28089780 0.00000000
0.14733507 0.01494849 0.00000955
0.76540363 -0.47623280 -0.00000081
0.03839223 0.14356473 0.00000000
-0.46247582 -0.60206059 0.00000000
0.26798730 -0.73136640 0.00000000
0.09301780 0.63263900 0.00000101
-0.54750480 -0.05784581 -0.00000041
-0.38319007 -0.68857364 0.00000000
-0.14821683 0.52164001 0.07586261
0.02213639 0.73364342 0.00000066
-0.24509106 0.49890756 -0.00000026
0.01077969 -0.59584813 0.00000000
0.02204604 -0.20153030 0.00000000
0.63699034 -0.48860990 -0.00000044
0.23300300 0.25095536 0.00000470
0.53394258 0.06000538 -0.00000097
-0.65944021 0.08969867 0.02964653
0.04007433 0.48995581 0.00000405
0.69922264 -0.28958983 -0.00000106
-0.69315628 -0.78215383 -0.00000002
0.12203016 -0.76025566 0.00000000
0.06980371 0.07108444 0.00000000
0.07333615 -0.61406330 0.00000000
-0.24179880 0.36945794 0.11002125
-0.49029062 0.20633604 -0.00000052
0.34622286 0.30539550 0.00000161
0.12688783 -0.62807604 0.00000000
-0.24845620 -0.55199280 0.00000000
-0.32650328 -0.10491654 0.00000000
0.47302554 0.03819869 0.00000364
-0.76547020 -0.09989634 -0.00000084
0.63783684 0.02941665 -0.00000136
0.78857128 -0.48962217 -0.00000078
0.41495837 -0.50852504 0.00000000
0.02550770 -0.31802947 0.00000000
0.13279869 0.24049284 0.00000639
-0.14066080 0.06111451 0.00000000
-0.14004161 -0.37661861 0.00000000
-0.49761754 -0.09189295 -0.00000027
-0.40770068 0.38685277 -0.00000050
0.06008559 0.15409001 0.00000000
-0.08497869 0.50837010 0.12046024
-0.51448869 -0.67842012 0.00000000
0.76933675 0.02353800 -0.00000180
0.61169269 0.03435832 0.00000104
-0.40263128 0.21295931 -0.00000034
0.40549141 0.24693291 0.00000145
0.21030644 -0.47923359 0.00000000
0.61531814 -0.38286992 -0.00000053
-0.11513813 -0.21860670 0.00000000
-0.19284398 0.27472489 0.00000000
-0.08282938 -0.12369946 0.00000000
-0.72413325 -0.59835683 -0.00000025
0.11358063 0.21746163 0.00000702
0.28247419 -0.51224946 0.00000000
-0.06890723 0.52742031 0.11872390
-0.66646605 -0.09285778 -0.00000063
0.63493367 -0.63377675 -0.00000018
-0.04808389 0.15109371 0.00000000
0.34597272 -0.39208854 0.00000000
0.02251981 -0.40956393 0.00000000
0.02894976 -0.01336784 0.00000000
0.77328281 -0.20703521 -0.00000148
0.28685910 -0.53236712 0.00000000
-0.14100646 -0.71085115 0.00000000
-0.71761970 -0.45302836 -0.00000042
0.48648725 0.17486468 -0.00000097
-0.03647065 0.29600628 0.00000000
0.03969707 0.61607500 0.00000000
-0.56523865 -0.64535390 0.00000000
-0.26954293 0.29050250 0.13987302
-0.44954193 -0.51538147 0.00000000
0.76108523 -0.21911134 -0.00000145
-0.18925611 -0.10822579 0.00000000
-0.21662974 -0.45292400 0.00000000
-0.54042907 -0.12190678 -0.00000034
-0.68272930 0.09744229 0.01155703
-0.38941555 0.24833707 0.09457600
0.20019843 0.25214908 0.00000520
0.42747998 0.15962019 -0.00000069
-0.20950671 -0.43514977 0.00000000
0.07427266 0.38775209 0.00000506
-0.34770338 0.18027790 0.15856349
0.04097726 0.14347793 0.00000000
0.24943270 -0.66662850 0.00000000
0.64167978 -0.25688197 -0.00000087
0.22736447 0.48328797 0.00000092
0.26372552 -0.05758486 0.00000000
0.79702766 -0.18120150 -0.00000155
0.38316163 0.02285339 0.00000562
-0.08650762 -0.21947981 0.00000000
0.12824617 -0.69903042 0.00000000
0.12537143 0.57367642 -0.00000013
0.52219958 0.15802969 0.00000070
-0.24730085 -0.42338790 0.00000000
0.02798842 -0.27582348 0.00000000
-0.70108342 -0.18655525 -0.00000062
-0.26804348 -0.48341939 0.00000000
-0.43290473 0.26813701 -0.00000045
0.50990954 -0.20630518 -0.00000040
-0.76052689 -0.10971835 -0.00000082
-0.34041631 -0.34690253 0.00000000
-0.24499776 -0.34861608 0.00000000
0.57099626 0.19815631 -0.00000137
-0.03070736 -0.57359457 0.00000000
0.65198792 -0.74874276 -0.00000004
-0.40746916 0.28565600 0.06229846
-0.25424172 0.52952993 0.00945966
-0.29239909 -0.58721708 0.00000000
0.33217887 -0.57257876 0.00000000
0.74711533 -0.68580890 -0.00000029
-0.32281606 0.10964869 0.21424147
-0.16228946 -0.08794773 0.00000000
0.77842353 -0.00043235 -0.00000191
-0.42019649 0.02762997 -0.00000021
0.26866849 0.43439444 0.00000095
0.77364983 -0.71769159 -0.00000021
0.71807068 -0.45839044 -0.00000084
0.06388004 0.40641752 0.00000000
-0.14358632 0.18891444 0.27251196
-0.39941410 0.28036601 0.07007751
-0.63220655 -0.15832057 -0.00000050
0.32564886 0.02803689 0.00000664
0.45221568 -0.61761369 0.00000000
0.53735748 -0.43271764 -0.00000011
0.00540191 -0.08070564 0.00000000
-0.43107295 0.19883606 0.09914804
0.16598834 0.04541617 0.00000881
0.62606330 0.06772422 0.00000021
-0.59020918 -0.32023808 -0.00000027
-0.51924210 -0.30001898 -0.00000014
-0.21438862 0.52772711 0.03374163
0.29064377 -0.70165763 0.00000000
-0.38250770 0.32418146 0.05439186
0.30236115 0.01632671 0.00000719
0.62787841 -0.12694922 -0.00000104
0.07887305 0.26464986 0.00000684
-0.22559883 -0.78273495 0.00000000
-0.18278325 0.59496867 0.01296884
-0.32108868 0.22451147 -0.00000018
0.56863329 0.08889743 -0.00000117
0.08232369 0.59765053 0.00000179
-0.23994146 0.05083108 0.00000000
0.07414036 0.05705179 0.00001003
0.41053839 0.03911680 0.00000483
0.72111793 -0.55062048 -0.00000062
0.69896916 -0.19048061 -0.00000123
-0.37077866 0.21661491 0.12393110
0.69785291 -0.32314722 -0.00000099
-0.59179416 0.10017712 0.06297057
0.64243274 -0.03129084 -0.00000127
0.21934332 -0.43767127 0.00000000
0.72931839 -0.41003296 -0.00000097
-0.49968626 0.06056535 -0.00000041
-0.48440773 0.28186766 0.01965786
-0.30946748 -0.57437514 0.00000000
-0.64594789 0.08927606 0.03775779
-0.76627334 -0.32545829 -0.00000059
-0.69791944 0.01645693 -0.00000080
0.04267961 0.52715110 0.00000000
-0.43647851 0.15914242 0.11913507
-0.26948416 0.35873931 0.10013101
-0.05748130 0.66473776 -0.00000000
-0.72822945 -0.78044278 -0.00000002
0.12960045 -0.70975775 0.00000000
-0.30289485 -0.09731221 0.00000000
0.34214798 -0.51115789 0.00000000
-0.77504468 -0.02361520 -0.00000093
0.41309043 -0.06898915 -0.00000023
-0.12136114 -0.70770542 0.00000000
-0.73270723 -0.14352724 -0.00000073
0.74791480 -0.22800744 -0.00000137
0.16760250 0.13681918 0.00000742
0.02613921 0.11107175 0.00000994
-0.33691247 0.11606698 0.20228317
0.63771791 0.05803950 0.00000015
-0.05062533 -0.25923138 0.00000000
0.46500336 0.02652670 0.00000399
0.13925061 0.07375481 0.00000879
-0.45454131 -0.71469115 0.00000000
-0.06797281 0.60500940 0.07404088
0.15023188 0.26647896 0.00000574
0.54784295 0.03227929 -0.00000098
0.36605428 0.10775072 0.00000453
-0.50353748 -0.60658320 0.00000000
0.43034124 0.33203534 -0.00000045
0.13604627 -0.69225722 0.00000000
-0.31215024 0.48708493 0.00044558
0.36099996 -0.66248218 0.00000000
0.24414495 0.04306732 0.00000767
-0.27790649 -0.18946082 0.00000000
-0.72918005 0.03359983 0.02169479
-0.58562973 0.09892067 0.06729633
-0.11271704 -0.36047174 0.00000000
0.18782319 -0.21960590 0.00000000
0.69926833 -0.05205171 -0.00000148
-0.62027897 -0.48379355 -0.00000019
-0.65969795 -0.13302669 -0.00000058
0.17763623 0.21199780 0.00000614
-0.11507100 0.30726697 0.22014468
-0.41385101 0.23513136 -0.00000038
-0.13453334 -0.02372960 0.00000000
-0.76847542 -0.79235926 -0.00000001
0.00334711 -0.41376719 0.00000000
-0.35791522 -0.66603108 0.00000000
0.01963595 0.25355513 0.00000000
-0.33056493 0.10263412 -0.00000009
0.60810902 -0.38747281 -0.00000050
0.06232377 0.57417275 0.00000245
-0.15348472 0.63310049 0.00781986
-0.14613726 0.27910116 0.21845394
0.09465265 -0.07807280 0.00000000
-0.28545978 -0.18895277 0.00000000
0.67126554 -0.14877677 -0.00000119
-0.11582718 -0.45368320 0.00000000
0.04385484 0.74377120 -0.00000009
-0.29859050 0.13383880 0.21426215
0.08641709 -0.62690465 0.00000000
-0.46265823 0.31785667 0.01135750
0.51417308 -0.01081926 -0.00000076
-0.00317967 -0.01757393 0.00000000
-0.05087362 0.52680567 0.00000000
0.38524983 -0.54537022 0.00000000
-0.32147586 -0.31063660 0.00000000
-0.46868112 -0.08648748 -0.00000022
0.09228061 0.58422167 -0.00000001
-0.36233291 -0.17401748 0.00000000
0.11948563 -0.38559068 0.00000000
0.22469660 -0.45550479 0.00000000
-0.11306595 0.18620171 0.29188400
0.47334116 -0.71192548 0.00000000
-0.50339670 0.27078070 -0.00000061
-0.06345902 0.65679060 0.04648808
0.04037261 0.04146833 0.00000000
-0.16505225 -0.41101616 0.00000000
-0.21103523 0.36059691 -0.00000006
0.78467415 -0.74016409 -0.00000015
0.78068435 -0.17203217 -0.00000157
0.25441596 -0.11354866 0.00000000
0.32107453 -0.72937152 0.00000000
-0.65275911 -0.41963357 -0.00000031
0.18204499 0.41987890 -0.00000010
0.30930535 -0.19092530 0.00000000
0.66071250 -0.68528685 -0.00000019
-0.31632132 -0.42903326 0.00000000
-0.14793159 0.45930024 0.11236757
0.54021235 0.22144617 -0.00000128
-0.19224241 -0.70343311 0.00000000
-0.34721708 -0.25139223 0.00000000
0.06828235 0.10105427 0.00000945
-0.75228796 -0.65716267 -0.00000018
-0.42442512 -0.41895331 0.00000000
-0.43571344 -0.72454961 0.00000000
0.19082290 -0.13101590 0.00000000
0.13386375 0.31443600 0.00000000
-0.22666091 -0.04720002 0.00000000
-0.09229004 -0.79393357 0.00000000
0.50130557 0.03852428 -0.00000079
0.25618438 0.46066222 0.00000075
0.56391332 -0.50746490 -0.00000010
-0.21716087 -0.61384207 0.00000000
-0.77531115 -0.64522918 -0.00000019
0.73413522 -0.33963309 -0.00000112
0.64287201 -0.78537175 0.00000000
-0.03803589 0.10709522 0.00000000
-0.46546440 -0.35774836 0.00000000
-0.63054536 -0.43595768 -0.00000025
0.39673627 -0.54296873 0.00000000
-0.67129123 -0.20027199 -0.00000055
-0.03027246 -0.18659176 0.00000000
0.14815027 -0.34663770 0.00000000
0.45927464 -0.04668190 -0.00000046
0.21525766 0.01044717 0.00000000
0.70367474 0.04987366 -0.00000098
-0.52388586 -0.57368170 0.00000000
-0.35845437 -0.11323572 0.00000000
-0.08042011 0.52016520 0.11624198
-0.18179895 -0.43753996 0.00000000
0.07316079 0.44374585 0.00000000
0.03241042 0.56602477 0.00000000
0.24853271 0.32142871 -0.00000021
-0.58163787 -0.06542488 -0.00000048
0.14870923 -0.42571783 0.00000000
-0.11477357 0.37558170 0.18049650
0.09676154 0.36848219 0.00000000
0.66614404 0.05463627 -0.00000153
0.50936958 -0.68522136 0.00000000
-0.65853218 -0.06495137 -0.00000064
-0.18398453 0.38708246 0.13344851
0.79776446 -0.13648911 -0.00000166
0.12036429 -0.45989579 0.00000000
0.41174619 0.26252659 -0.00000081
-0.63769643 -0.42415102 -0.00000028
-0.60878885 0.07589683 0.06721741
-0.53679573 -0.49859276 0.00000000
0.49549225 0.18907308 0.00000069
-0.00987376 -0.42764856 0.00000000
-0.23167389 -0.71008121 0.00000000
0.49993430 -0.01871060 -0.00000069
-0.51050295 -0.18536748 -0.00000022
-0.09118184 0.50685368 0.00000000
0.01142287 -0.47709707 0.00000000
0.37817480 -0.05199197 -0.00000011
0.00496614 0.56964914 0.00000338
-0.27931806 -0.39084226 0.00000000
-0.17176994 0.37742661 0.14619709
-0.20342379 0.07780914 0.00000000
-0.52607280 -0.51532520 0.00000000
-0.17765806 -0.74390477 0.00000000
-0.45155891 0.08725173 0.15225062
0.56174113 -0.73328541 0.00000000
0.22408331 -0.15224656 0.00000000
-0.63790583 -0.67176363 -0.00000006
-0.24419156 0.31349814 0.14124625
0.20047480 -0.09181402 0.00000000
0.04507954 0.04515054 0.00000000
0.16398480 0.62138918 -0.00000038
0.26965759 0.48053349 -0.00000059
0.65981356 0.06977771 -0.00000153
-0.23926967 0.03678492 0.00000000
-0.06519579 0.21528877 0.00000000
0.17032045 0.51092622 -0.00000022
-0.39107477 0.01057346 -0.00000014
0.01011012 0.65569444 0.00000201
-0.35114200 0.26621607 0.10646440
-0.32604344 -0.77043086 0.00000000
0.05520217 0.24270811 0.00000753
0.33529585 -0.13691016 0.00000000
-0.13767346 0.58151068 -0.00000010
-0.25516161 0.13740617 0.00000000
-0.38440445 -0.19395826 0.00000000
0.48847562 0.04733272 -0.00000075
-0.02821497 -0.39291185 0.00000000
-0.00118873 0.30749395 0.00000000
0.58311562 0.09451644 -0.00000124
-0.63065613 -0.16069193 -0.00000050
0.55431754 -0.15349147 -0.00000068
0.58993983 -0.29160131 -0.00000059
-0.38568590 0.08575989 -0.00000019
-0.09084703 -0.35356915 0.00000000
0.10809371 0.47293843 0.00000000
-0.29839784 -0.50637391 0.00000000
-0.34298682 0.15214514 -0.00000016
0.73026071 -0.53667664 -0.00000066
-0.37986035 0.19395414 -0.00000027
-0.48551623 -0.51790983 0.00000000
-0.39443894 0.09258364 0.18243881
0.28551965 -0.44513415 0.00000000
-0.27401200 0.20959079 -0.00000006
0.30305687 -0.44747958 0.00000000
-0.33534920 -0.22826440 0.00000000
0.54924302 -0.48341768 -0.00000008
0.00380415 -0.29404844 0.00000000
-0.49684706 -0.00974212 -0.00000034
-0.42664605 -0.19961559 -0.00000003
0.76546723 -0.77578186 -0.00000006
0.33003505 0.06283224 -0.00000011
0.35232730 -0.73775839 0.00000000
0.73115047 -0.30975662 -0.00000116
-0.12926916 0.45953626 0.12310859
-0.31029495 -0.63885847 0.00000000
-0.69021341 -0.61378727 -0.00000022
-0.11597285 0.40472784 0.00000000
-0.09061741 -0.67914572 0.00000000
0.52737307 -0.39103984 -0.00000015
-0.49847552 -0.22535539 -0.00000016
-0.32113879 0.06773370 -0.00000004
-0.66678149 -0.63107003 -0.00000016
0.11710741 -0.57378984 0.00000000
-0.05709100 0.57696525 0.00000000
-0.36092389 -0.32028215 0.00000000
0.76430259 -0.02652576 -0.00000180
-0.49516318 0.24254356 0.03631094
-0.67036373 -0.36392321 -0.00000040
-0.43143694 0.17745528 0.11139905
-0.06643265 0.56234974 0.00000000
0.18222502 -0.36357959 0.00000000
0.17765898 -0.38994804 0.00000000
0.19943330 0.16741142 0.00000000
0.59096981 -0.23629368 -0.00000069
0.39692612 0.17277901 0.00000285
-0.21571353 -0.66771645 0.00000000
-0.37208040 -0.02477879 -0.00000006
0.40333744 -0.47120229 0.00000000
-0.12671477 0.27037935 0.23485964
0.14286276 0.29716575 0.00000000
-0.32844409 -0.25220358 0.00000000
0.65935174 0.06346545 -0.00000151
0.10302227 -0.25482689 0.00000000
-0.62997241 0.03548014 0.07842864
-0.04672453 -0.62075450 0.00000000
-0.03614693 0.68928222 0.04346889
-0.16138121 0.20618059 0.25207440
0.46812555 0.17156793 -0.00000089
0.08711065 0.42521611 0.00000000
0.23932788 0.11933988 0.00000000
0.09191335 -0.59678446 0.00000000
0.00974782 -0.16759538 0.00000000
0.13086087 -0.42333976 0.00000000
-0.12175490 -0.20427304 0.00000000
0.10707759 0.68159601 -0.00000008
0.30681468 0.29483066 0.00000255
0.11956281 -0.05744739 0.00000000
0.20113212 -0.75821054 0.00000000
0.06358471 -0.77487564 0.00000000
-0.11222531 -0.40838370 0.00000000
0.76260453 -0.53066889 -0.00000067
0.73249530 0.00574482 -0.00000172
-0.12630059 -0.52911542 0.00000000
0.20145047 0.22489313 0.00000000
-0.01413210 0.21122036 0.00000000
-0.13781235 0.33149549 0.19276530
0.11690246 0.26745113 0.00000622
0.23323919 0.12588695 0.00000659
-0.28075834 0.14471086 0.21831930
0.09614647 -0.39572275 0.00000000
-0.10176498 0.57150566 0.07387272
-0.74036585 -0.05001470 -0.00000083
-0.24492980 -0.50838254 0.00000000
0.07007815 0.21436475 0.00000773
-0.34805566 0.44934038 0.00151754
-0.03213523 0.34126464 0.00000000
-0.69150025 -0.75972330 -0.00000005
-0.65309574 -0.61092311 -0.00000015
0.21111173 0.18956759 0.00000000
-0.20848764 0.30334370 -0.00000001
0.40224879 -0.16970141 -0.00000000
-0.12890548 0.50088586 0.09921736
0.09187144 -0.51263302 0.00000000
-0.13452136 -0.51696295 0.00000000
-0.34656215 0.34987788 0.06036633
-0.54414117 -0.35420600 -0.00000014
0.40752532 -0.48660456 0.00000000
-0.35845063 0.08465300 -0.00000013
0.33608522 -0.18559884 0.00000000
-0.15642711 0.46312088 -0.00000004
0.24007906 -0.24421562 0.00000000
0.42073133 0.15576583 0.00000268
-0.48494456 -0.07988171 -0.00000026
0.34032571 -0.26010721 0.00000000
0.20705942 -0.68078759 0.00000000
-0.65849936 -0.50681538 -0.00000025
-0.67377147 -0.73711464 -0.00000008
0.72808155 -0.20273331 -0.00000133
0.20375201 0.33438929 0.00000386
0.02834709 0.71484661 0.00000085
-0.30007690 0.43373527 0.03858167
0.30403264 -0.53930311 0.00000000
0.14470270 -0.07788030 0.00000000
0.11688452 -0.39462896 0.00000000
-0.18992791 0.17293743 0.25481200
0.68517119 -0.40677893 -0.00000079
-0.43279518 -0.51462780 0.00000000
0.08936029 -0.57528956 0.00000000
0.08909798 0.23704838 0.00000000
0.14761760 0.60117899 -0.00000028
0.12788288 0.12206573 0.00000824
0.05242621 0.14295262 0.00000906
-0.12965804 -0.53993794 0.00000000
-0.03801743 0.24960145 0.00000000
-0.27948230 0.34560505 -0.00000019
0.61586398 -0.27152044 -0.00000073
0.21608561 -0.34867185 0.00000000
-0.24150890 0.04240074 0.00000000
-0.16259491 0.36433636 0.00000000
-0.62336803 -0.05051255 -0.00000058
0.56687047 -0.32241001 -0.00000044
-0.18422914 0.60600623 -0.00000022
0.31644939 0.46621261 -0.00000076
0.39316700 -0.39777271 0.00000000
-0.08367499 0.54912032 0.09746634
-0.04387577 0.74800165 -0.00000005
0.36533834 -0.53607198 0.00000000
-0.60665854 -0.01321707 -0.00000058
-0.32326757 -0.02415141 0.00000000
-0.00981352 -0.70447250 0.00000000
0.18515373 0.46826859 0.00000199
0.53835590 -0.27421941 -0.00000040
-0.71989408 -0.69239994 -0.00000013
0.57558032 -0.33353515 -0.00000045
0.24132532 -0.11302463 0.00000000
-0.53096129 0.24465432 0.01421318
-0.79475092 -0.14336438 -0.00000082
-0.11517701 0.02808543 0.00000000
-0.11274915 -0.21030821 0.00000000
0.75043985 -0.19177015 -0.00000145
-0.28577771 0.15258870 0.21080135
0.23918554 0.27455892 -0.00000009
0.28658941 0.23492178 -0.00000022
-0.05866068 0.70940309 0.01861655
-0.59792895 -0.49136352 -0.00000013
-0.67592309 -0.72211997 -0.00000010
-0.07433880 0.35008794 0.00000000
0.06146415 -0.54114956 0.00000000
-0.21654549 -0.32496104 0.00000000
0.52200065 -0.35802810 -0.00000018
-0.21705870 0.22431943 0.20904583
-0.47541731 -0.22233154 -0.00000011
0.64023696 0.11969099 -0.00000093
-0.24987106 0.41798488 0.07702869
-0.36777047 0.13980097 0.17046064
0.42755540 -0.22759851 -0.00000001
0.74771320 -0.75771571 -0.00000011
-0.34556008 -0.36773731 0.00000000
0.65507693 -0.27158343 -0.00000090
0.11899573 -0.04531582 0.00000000
0.66882489 -0.43204368 -0.00000068
0.78411518 -0.39937663 -0.00000100
-0.46446851 -0.25404334 -0.00000006
-0.15733659 0.14084483 0.00000000
-0.07279385 -0.37755912 0.00000000
-0.65184480 -0.69215104 -0.00000007
-0.77004437 -0.55836122 -0.00000030
-0.07010536 -0.04439117 0.00000000
-0.20790957 0.41329953 0.10421996
0.30466384 0.02752853 0.00000699
0.30822976 0.43293266 -0.00000067
-0.55959813 -0.35818265 -0.00000017
-0.27581438 -0.63514424 0.00000000
0.63531397 -0.79118302 0.00000000
-0.67331893 0.10956280 0.00997727
0.21465071 0.43212244 0.00000202
0.14340122 0.27216353 0.00000000
0.33953595 -0.42712853 0.00000000
-0.34694015 0.31586615 0.07997194
-0.22446390 -0.64874416 0.00000000
0.00439725 0.04779998 0.00000000
-0.67589296 -0.42443877 -0.00000036
0.39643615 -0.72425882 0.00000000
0.05959318 0.39206736 0.00000522
-0.04024538 0.58971937 0.00000000
0.23507525 0.41303906 0.00000195
-0.45796338 -0.57019595 0.00000000
0.73030368 -0.24959101 -0.00000126
-0.68417269 0.07036063 0.02650196
-0.16186822 0.21229964 0.24822364
0.71152999 0.08214311 -0.00000177
0.09565097 0.49369821 0.00000315
-0.63736209 -0.29409010 -0.00000039
-0.31977409 -0.41747801 0.00000000
-0.48607177 0.26147717 0.03057379
-0.39726033 0.11157559 0.16972348
0.31887740 0.15510127 0.00000465
-0.53875211 -0.15270171 -0.00000031
0.17896502 0.27946774 0.00000000
0.23161158 0.34584206 -0.00000019
-0.51061573 -0.71440960 0.00000000
0.67564078 0.02197154 -0.00000151
-0.53230155 -0.78131925 0.00000000
0.57816853 0.09651619 0.00000065
-0.11639848 0.19260685 0.28620778
0.52216130 -0.03947062 -0.00000074
-0.04527708 -0.46108682 0.00000000
-0.78457892 -0.06361166 -0.00000091
-0.21709124 -0.18502968 0.00000000
0.79803766 -0.34846620 -0.00000113
-0.48292001 0.29286924 -0.00000058
-0.69033781 -0.32527750 -0.00000048
0.29682716 0.38568354 0.00000122
0.42619852 0.27006559 0.00000067
-0.36480869 0.14573624 0.16872736
0.45805302 -0.25497316 -0.00000009
-0.57630483 -0.47252319 -0.00000011
0.25497235 0.07576315 0.00000702
-0.13328057 0.33060672 0.00000000
0.34343208 -0.55595764 0.00000000
0.22053779 0.40762798 -0.00000025
-0.24738447 0.07719398 0.27712988
-0.15848177 -0.70032313 0.00000000
0.70648065 -0.14694113 -0.00000134
-0.72740385 0.00218812 -0.00000085
0.10506064 0.65585629 -0.00000019
0.18635306 -0.32727395 0.00000000
-0.75364597 -0.22465662 -0.00000070
-0.05653820 -0.11957943 0.00000000
-0.41981598 -0.68614525 0.00000000
-0.16001022 -0.15977453 0.00000000
-0.04944292 0.51263142 0.00000000
0.06357092 0.73318205 -0.00000015
-0.19406931 -0.24725506 0.00000000
-0.70123719 -0.73820866 -0.00000008
-0.39772935 0.15230776 0.14570668
0.30852307 0.01589122 0.00000000
0.11424112 -0.01685816 0.00000000
0.16458862 0.08517922 0.00000824
0.53023621 -0.38641380 -0.00000017
0.50341743 0.23074548 -0.00000114
0.74436382 -0.20662925 -0.00000140
-0.29635864 0.05813294 0.00000000
-0.57111897 0.22797497 0.00052720
0.22146663 -0.79017526 0.00000000
0.64175205 -0.75201273 0.00000000
-0.54049406 -0.05535395 -0.00000040
0.19732717 -0.06718296 0.00000000
0.22968325 0.51325190 0.00000038
-0.30372702 0.20130784 -0.00000012
0.23934435 0.29453488 0.00000385
-0.68494222 -0.26507755 -0.00000052
-0.03086936 0.59452699 0.00000000
-0.04921243 0.45374305 0.17315172
-0.39807115 -0.00007493 -0.00000014
-0.10790409 0.65337785 -0.00000010
0.05768847 0.58868797 0.00000230
-0.62917168 0.03386666 -0.00000067
-0.30115346 0.10226839 0.23117097
0.47533729 0.32404255 -0.00000119
0.16036548 0.06306945 0.00000000
-0.44120941 0.21087815 0.08621980
-0.55593532 0.08849082 -0.00000056
0.49609866 -0.48279644 0.00000000
-0.31797294 0.44405386 0.02213488
-0.37691900 -0.01382931 -0.00000008
0.57412370 -0.33957506 -0.00000044
0.39726899 0.03392861 0.00000517
-0.04541896 -0.35108532 0.00000000
-0.44251981 -0.41489448 0.00000000
-0.24381306 0.27396331 0.16451226
0.20957821 -0.01382227 0.00000000
-0.36408446 -0.47933481 0.00000000
0.55663229 0.05261467 -0.00000105
0.12374103 0.16544637 0.00000765
0.16104144 0.57737649 -0.00000029
0.11772714 0.35394314 0.00000000
-0.55529859 -0.44335784 -0.00000009
-0.45551364 0.23046596 0.06646358
0.05411414 0.65947539 0.00000000
-0.26061934 -0.12593290 0.00000000
-0.24073297 0.23369293 0.18978183
-0.68319892 -0.37008608 -0.00000042
0.35025970 0.44263750 -0.00000076
0.20483351 -0.34946467 0.00000000
0.25136993 0.01869532 0.00000000
-0.72914935 -0.57926214 -0.00000028
0.56809225 0.21626837 -0.00000139
-0.36104784 -0.27351584 0.00000000
0.01631185 0.71627836 0.00000101
-0.56920387 0.22370501 0.00413257
0.06079527 0.25806413 0.00000721
0.15056073 0.26088469 0.00000000
-0.14513213 -0.09548797 0.00000000
0.19416099 0.28581590 0.00000000
0.35540233 0.08898167 -0.00000026
-0.22293290 -0.47383800 0.00000000
-0.00181144 0.04282477 0.00000000
0.48890238 0.10123160 -0.00000085
-0.38535804 0.07297090 0.19916479
-0.06286028 0.72330892 0.00806260
0.03740543 0.47072206 0.00000437
0.63004065 -0.46613104 -0.00000045
0.14133900 -0.73431719 0.00000000
0.18039257 -0.60128368 0.00000000
-0.20423713 0.49064967 -0.00000016
-0.64322698 0.02703999 -0.00000069
-0.05862647 0.52419581 0.12659630
-0.11790387 -0.61254771 0.00000000
0.68674253 -0.78926442 -0.00000003
0.09225100 0.59518780 0.00000165
0.18004929 0.42520719 -0.00000011
-0.58748443 0.14184163 -0.00000067
0.49731763 -0.45125247 0.00000000
0.51432709 0.20922829 -0.00000115
0.59224987 0.04559073 -0.00000119
-0.20785459 0.42164176 -0.00000011
-0.01224482 0.63181484 0.00000000
-0.49513380 -0.14599881 -0.00000022
0.70130618 -0.70072002 -0.00000025
-0.05708593 0.47478122 0.15629872
0.35219935 0.12603190 0.00000449
-0.79355707 -0.73641402 -0.00000008
-0.14975222 -0.05083988 0.00000000
-0.47026339 0.04487728 0.16604815
0.13398679 -0.21275956 0.00000000
-0.28676526 0.21773069 -0.00000010
0.23312556 0.34278193 0.00000316
0.58581639 -0.38934200 -0.00000040
-0.58706156 -0.18197074 -0.00000038
-0.33728018 0.26974682 -0.00000025
0.04513453 0.57294435 0.00000000
-0.76196550 -0.20200923 -0.00000074
0.71801383 -0.38310412 -0.00000097
-0.67930323 -0.07606182 -0.00000068
-0.51456252 -0.26292377 -0.00000016
0.77802995 -0.06887360 -0.00000178
0.63052551 -0.70863038 -0.00000002
-0.34671944 -0.73538293 0.00000000
-0.41785498 0.17164198 -0.00000034
-0.53435004 -0.25615879 -0.00000021
0.64334412 -0.13877295 -0.00000109
0.27191519 0.16989983 -0.00000005
-0.10547630 0.50654669 0.00000000
-0.27966271 -0.71198245 0.00000000
0.67778589 -0.56162754 -0.00000049
-0.52025342 -0.30157342 -0.00000014
0.34200725 -0.53028370 0.00000000
0.03252439 -0.13016980 0.00000000
0.33985515 -0.29052902 0.00000000
0.48179356 -0.32932306 -0.00000006
-0.02190790 0.07257728 0.00000000
0.27847955 -0.18791711 0.00000000
-0.48023777 -0.68707867 0.00000000
0.40987768 0.10692177 -0.00000052
0.42874444 0.15829823 0.00000249
-0.43049123 -0.79641075 0.00000000
-0.22949186 -0.26742959 0.00000000
0.51864649 0.25182358 -0.00000124
0.78266228 -0.16414033 -0.00000159
0.01086110 0.31143115 0.00000000
0.75010177 -0.54267349 -0.00000064
-0.38754794 0.21396050 0.11570329
-0.49119263 0.18965800 0.06945324
-0.12281959 -0.65972089 0.00000000
0.24660726 -0.09676805 0.00000000
0.13035264 -0.48014756 0.00000000
0.61339603 -0.51947532 -0.00000029
-0.24305684 0.43130455 -0.00000019
-0.03711219 0.75326643 -0.00000004
0.25872409 0.27859591 0.00000374
-0.66462659 0.04118600 0.05490206
-0.10308641 -0.77585132 0.00000000
-0.04548803 0.19861317 0.00000000
-0.00742138 -0.27378543 0.00000000
0.69037412 -0.18546585 -0.00000120
-0.17746766 0.13531980 0.28400307
-0.12637980 -0.40558877 0.00000000
-0.23166730 -0.10247226 0.00000000
0.14455375 -0.23112404 0.00000000
-0.55218589 -0.08691446 -0.00000039
0.66931803 -0.44965322 -0.00000065
0.27059302 0.51806685 -0.00000049
0.58881300 -0.30006074 -0.00000057
-0.08709522 -0.31111823 0.00000000
0.07298213 0.26151974 0.00000000
-0.08454935 0.17557176 0.31470306
0.72743331 -0.00727396 -0.00000168
-0.43304034 -0.58524102 0.00000000
-0.06636057 0.49940845 0.13653687
-0.32610452 0.08572697 -0.00000006
-0.66273373 -0.36231749 -0.00000039
-0.68110308 -0.73446378 -0.00000008
0.04320838 0.10872565 0.00000972
0.30121253 0.05446756 0.00000000
0.02566679 0.13982520 0.00000000
0.57473254 -0.51746336 -0.00000012
0.38086173 -0.70364888 0.00000000
0.60529576 -0.48985507 -0.00000030
0.79861442 -0.19115242 -0.00000152
0.08862677 0.00923572 0.00001052
-0.31313504 -0.19697829 0.00000000
-0.10838279 -0.22186065 0.00000000
-0.37719037 -0.65233104 0.00000000
-0.34783063 0.01253956 -0.00000005
-0.21384896 0.44718321 0.08100647
-0.25066923 -0.58876666 0.00000000
0.65858343 0.14046587 -0.00000164
-0.18042625 0.55375625 -0.00000017
-0.30160044 0.32843344 -0.00000023
-0.26659654 0.29306540 -0.00000012
0.55462325 0.05832378 0.00000174
-0.78152765 -0.64576094 -0.00000019
-0.09728365 0.36942119 0.19428266
-0.64088334 -0.33216491 -0.00000037
-0.11671487 0.12243920 0.32692500
0.11952404 -0.08239594 0.00000000
-0.44514496 0.24444678 0.06435804
0.27690821 -0.65575253 0.00000000
0.54177334 0.25370245 -0.00000135
0.28881736 0.32436130 0.00000240
0.18313400 -0.12425974 0.00000000
-0.11071833 0.56589133 0.07192636
0.39656761 -0.39389861 0.00000000
-0.44795367 0.27878027 0.04270728
0.61610224 0.00927062 0.00000138
-0.16612566 -0.60670317 0.00000000
0.27442820 -0.50647300 0.00000000
0.69824085 -0.28738835 -0.00000106
-0.04820814 0.72465300 -0.00000004
0.56107568 -0.58089779 0.00000000
-0.46327848 -0.26499876 -0.00000005
0.25154449 -0.67437153 0.00000000
0.38176354 -0.63420869 0.00000000
0.78304678 -0.30345742 -0.00000124
0.18227418 0.27044870 0.00000000
-0.35636330 0.10268498 0.19874555
-0.03417084 0.16773202 0.00000000
0.68292278 -0.78114146 -0.00000005
-0.49602387 -0.68270841 0.00000000
0.37826054 0.00454832 0.00000602
0.57955980 -0.21716343 -0.00000068
0.49219872 -0.06511805 -0.00000057
0.12094492 0.27879209 0.00000599
0.68909483 -0.06753836 -0.00000141
0.57677847 -0.35838459 -0.00000041
0.33172557 0.12985493 0.00000482
-0.63724948 -0.00123613 -0.00000065
-0.20817938 -0.06699966 0.00000000
0.09264116 0.41323495 0.00000440
0.40040925 0.02626088 -0.00000034
-0.09670343 0.38405736 0.18608926
0.03337697 0.76154552 -0.00000007
-0.58267676 0.11526741 -0.00000064
-0.26926887 -0.71225070 0.00000000
0.08997155 0.06730387 0.00000963
0.61920652 -0.21791752 -0.00000084
-0.29845440 0.16338367 0.19711939
-0.26012892 -0.77085546 0.00000000
-0.22411449 0.19587231 0.22151511
-0.59316466 0.03366059 0.10094518
0.03972984 0.44801029 0.00000000
0.18429629 -0.34317861 0.00000000
0.22413606 0.48562701 0.00000095
-0.05367436 0.61195284 0.00000000
-0.73699651 -0.25614020 -0.00000064
0.47732214 0.05283632 -0.00000072
-0.37633115 -0.11042118 0.00000000
0.23419723 0.25521711 -0.00000004
0.11680234 0.28340212 0.00000599
-0.04182407 0.74023718 0.01045724
0.65540733 -0.22562042 -0.00000098
-0.09789756 0.38348087 0.00000000
0.07296763 0.72369379 -0.00000013
-0.52208192 -0.54094282 0.00000000
-0.32106269 0.28209085 0.11474451
0.64742889 -0.60092227 -0.00000029
-0.20414067 -0.64619753 0.00000000
0.18053630 0.46206698 0.00000218
-0.59081585 -0.45035382 -0.00000016
-0.00495220 0.16223382 0.00000000
0.03457845 0.27354025 0.00000738
-0.09570081 -0.43237400 0.00000000
0.23604472 0.08486532 0.00000717
-0.22456457 0.49014678 -0.00000021
-0.65473491 0.07466199 0.04115444
-0.69199212 -0.46474136 -0.00000036
-0.21626934 0.43837721 0.08472874
0.12503327 -0.55989520 0.00000000
0.29649754 -0.55742941 0.00000000
-0.14768285 0.38508107 0.15577591
-0.57055759 -0.48178382 -0.00000008
-0.19006235 0.11794575 0.28678901
0.73493679 0.03142966 -0.00000178
0.04075614 0.24601983 0.00000769
0.14209486 -0.13214736 0.00000000
-0.09325823 -0.23353307 0.00000000
-0.05973060 0.38396565 0.00000000
0.27553983 0.24253177 0.00000402
-0.44997274 -0.43221401 0.00000000
-0.07438638 -0.48309040 0.00000000
-0.64677086 0.10156456 -0.00000076
-0.40760315 -0.75584398 0.00000000
0.32703620 0.30909992 0.00000192
0.78196987 -0.50075215 -0.00000075
-0.61479715 0.07488807 0.06430309
-0.74838523 0.03879339 0.00747234
-0.60770951 -0.60074880 -0.00000006
0.61859164 -0.13419522 -0.00000099
-0.12466659 0.52714022 0.08638425
0.56772284 -0.54864984 -0.00000004
-0.02513996 -0.75122791 0.00000000
0.01910504 0.66600331 0.00000172
-0.51968437 -0.56076023 0.00000000
0.72975001 -0.58992522 -0.00000053
0.15463747 0.20506851 0.00000659
0.36747791 0.28777731 0.00000150
-0.32723484 -0.48825786 0.00000000
-0.39367499 0.23819510 0.09800500
0.22382345 -0.43824762 0.00000000
-0.35556695 -0.46875602 0.00000000
0.41919824 -0.61539110 0.00000000
0.44813303 0.32647880 -0.00000070
-0.64495404 -0.73470551 -0.00000002
-0.18360614 0.16799957 0.26137539
0.53124933 0.03801629 -0.00000092
-0.62419550 -0.24014002 -0.00000041
0.04980300 -0.62392105 0.00000000
-0.16156239 -0.44078244 0.00000000
