ply
format ascii 1.0
element vertex 1401
property float x
property float y
property float z
end_header
-0.42706982 -0.72461742 0.00000000
-0.71205262 0.05364369 -0.00000172
-0.14464088 0.45781898 -0.00000001
0.36403167 -0.58325418 0.12890933
-0.65535131 0.03184609 -0.00000144
-0.53142315 -0.13488908 -0.00000062
-0.40171449 -0.76723154 0.00000000
0.00458669 0.38097100 0.00163065
-0.42157397 -0.33838368 0.00000000
0.09750377 -0.57869263 0.03452762
0.03814043 0.28160895 0.01350613
-0.21404297 -0.30392186 0.00000000
0.49573796 -0.26672025 0.17554831
-0.58452796 0.01303041 0.00000192
-0.14957638 0.37339546 0.00000414
-0.03693637 0.59195855 0.00000256
-0.65344887 -0.08311291 -0.00000123
0.10915656 0.32329025 0.03865405
-0.75734979 -0.50363748 -0.00000074
-0.67359266 -0.06482823 -0.00000135
0.06690280 0.19304804 0.02369133
-0.08892331 -0.03311213 0.00000000
-0.78507822 -0.67874697 -0.00000030
-0.71323629 -0.52058052 -0.00000070
-0.25231232 -0.07606759 0.00000000
0.04960564 0.32945170 0.01756614
0.13401618 0.32994787 0.04745723
-0.14788491 0.02587589 0.00000938
-0.00202937 0.04051336 0.00000000
-0.64186079 0.02771508 -0.00000137
0.09221044 0.08308172 0.03266290
-0.20182108 0.24137605 0.00000533
-0.55535814 -0.36931440 -0.00000030
-0.54729028 -0.18541717 -0.00000059
-0.53229119 0.21746979 -0.00000049
-0.36138516 0.40244018 -0.00000030
0.07591114 0.07887913 0.02689138
0.65502038 -0.01705977 0.23195179
-0.67911006 -0.02970370 -0.00000143
0.44646666 -0.56683177 0.15810086
0.03007217 0.49543583 0.01064903
-0.59615203 -0.38147111 -0.00000046
-0.56268647 0.22747167 -0.00000139
-0.29205964 0.30562032 -0.00000037
-0.22224165 -0.53167712 0.00000000
-0.65203096 0.05865355 -0.00000014
-0.01004845 0.53101022 0.00000388
-0.08305181 0.17474516 0.00000813
0.26809065 0.40051711 0.09493471
0.07185261 0.28519075 0.02545105
0.66396936 -0.41988924 0.23512130
-0.41257724 -0.70967812 0.00000000
0.01590936 -0.37130065 0.00563375
0.22793073 0.01930478 0.08071385
-0.04261193 0.13477523 0.00000000
0.05348069 0.28958224 0.01894547
0.35101230 -0.46628587 0.12429897
0.25014283 -0.59393073 0.08857950
-0.76105487 -0.23933266 -0.00000140
0.53822416 -0.37578576 0.19059335
-0.35315287 0.01025517 -0.00000011
-0.24431809 0.08512742 0.00000000
-0.27600627 -0.78543544 0.00000000
-0.14375828 -0.77540461 0.00000000
-0.10638270 -0.55277632 0.00000000
0.20022131 -0.42829351 0.07090151
0.21147152 0.32151170 0.07488530
-0.08627427 0.33956643 0.00000000
-0.50829148 -0.02225114 -0.00000072
-0.56423539 -0.58647417 0.00000000
0.23005340 0.21234019 0.08146552
-0.55257596 -0.76291393 0.00000000
0.20790698 0.20807311 0.07362313
-0.40405196 0.21477864 0.00000202
0.71102507 0.02940412 0.25178367
-0.04369450 -0.42172803 0.00000000
-0.41136713 0.12119949 -0.00000056
0.67065254 0.02040769 0.23748728
0.25273139 0.08626908 0.08950343
0.10692831 0.34167815 0.03787050
-0.28407523 0.36308067 -0.00000044
0.61022004 0.13915902 0.21608723
-0.16929001 0.41098410 -0.00000003
0.01172440 -0.63984867 0.00415179
-0.34453791 0.34678533 0.00000095
0.19948939 0.05897092 0.07065083
0.17607008 0.26473569 0.06235484
-0.37651342 -0.24826555 0.00000000
-0.25718666 0.01336760 0.00000792
0.48787696 -0.38441387 0.17276480
-0.30897457 0.17589760 0.00000449
-0.22586709 -0.29955447 0.00000000
-0.18229039 0.13806277 0.00000000
0.42358714 -0.56152511 0.14999886
0.51636440 -0.76698337 0.18285275
-0.17427853 -0.64771856 0.00000000
-0.11091945 0.24244087 0.00000669
-0.01285459 -0.08864023 0.00000000
0.33177325 -0.02231100 0.11748608
-0.08509092 0.40911922 0.00000458
-0.56883854 -0.18941673 -0.00000068
-0.31759894 -0.62967382 0.00000000
-0.07602028 0.04302703 0.00001021
0.68697938 -0.25666502 0.24326920
0.57506511 0.14064586 0.20363925
0.67642483 -0.68565015 0.23953253
0.00967248 0.49781670 0.00342518
-0.03533558 -0.37184820 0.00000000
-0.43575422 0.04911600 -0.00000053
-0.06084635 0.27603514 0.00000000
-0.79622944 -0.16837337 -0.00000158
-0.12263421 0.25808748 0.00000000
0.11161575 0.23340910 0.03952489
-0.25827461 0.43075013 -0.00000045
0.20238623 0.53101330 0.07166869
0.18273621 -0.22836232 0.06470976
-0.67467876 -0.42815057 -0.00000071
0.52727531 0.00522057 0.18671569
-0.29249987 0.23470913 0.00000383
0.56902678 0.06455345 0.20150031
0.74361626 -0.31919962 0.26332537
0.28906016 0.32467385 0.10236315
-0.52353943 -0.21437838 -0.00000044
-0.21698926 0.01812245 0.00000000
-0.00899692 0.14417235 0.00000000
-0.48786457 0.28495541 -0.00000077
0.49330300 0.12835325 0.17468551
-0.23556375 0.35960964 -0.00000023
-0.00420726 0.18171311 0.00000921
-0.49507995 -0.21870140 -0.00000031
-0.07035297 0.51882865 0.00000316
0.09054182 -0.01799064 0.03206228
-0.04988109 0.42126994 0.00000493
-0.13095187 -0.21966380 0.00000000
0.49036711 -0.36100240 0.17364656
-0.13018861 0.33980301 0.00000000
-0.29928699 -0.44963267 0.00000000
0.48943653 0.08088223 0.17331641
0.62994764 -0.77432079 0.22307431
0.05552696 0.10131481 0.01966297
-0.31776818 0.13065323 -0.00000017
0.01335635 -0.15216462 0.00472969
0.58761302 -0.36780330 0.20808253
-0.72821309 -0.46133187 -0.00000085
-0.29457718 0.11527583 0.00000578
-0.67792829 -0.71367249 -0.00000022
0.20827051 0.20094952 0.07375802
-0.55688346 -0.16547840 -0.00000067
0.43819118 0.14200197 0.15516973
-0.79015417 -0.41646613 -0.00000096
0.32307112 0.44545611 0.11440389
-0.18505345 0.41160526 0.00000293
-0.11671469 -0.62676535 0.00000000
0.25548984 -0.48740732 0.09047297
-0.72455308 -0.27124057 -0.00000120
-0.21417495 0.49886069 -0.00000038
0.03697827 0.48918946 0.01309459
-0.04503761 0.05678417 0.00000000
-0.38247677 -0.04216151 -0.00000014
0.41729969 -0.20558526 0.14777229
0.28977360 -0.24632787 0.10261339
0.02700362 0.43792562 0.00956240
0.17602362 0.18653542 0.06233960
0.24871890 -0.52208800 0.08807527
0.51044425 -0.00811794 0.18075562
-0.15073242 -0.41356388 0.00000000
-0.38416384 -0.04571979 -0.00000014
0.07358474 0.68383276 0.02605804
0.24770186 -0.77687071 0.08771512
-0.01219952 0.54935041 0.00000358
-0.04553160 0.43659121 0.00000476
-0.59182217 0.11578612 0.00000006
0.68908013 -0.19780708 0.24401302
0.51975882 0.19333123 0.18405374
-0.00087894 0.28535231 0.00000000
0.62405075 -0.34402386 0.22098553
0.01791767 0.08562902 0.00635575
0.44436725 -0.01105617 0.15735696
-0.56933316 0.14586948 -0.00000001
0.56604769 0.11593025 0.20044668
0.29188909 0.43142593 0.10336295
-0.61112787 -0.66333420 -0.00000002
-0.11924490 -0.49333370 0.00000000
0.14391001 0.53289371 0.05096253
-0.47936095 0.04917107 -0.00000072
0.18507549 -0.01199257 0.06553814
0.21748095 0.05611789 0.07701342
0.53535811 0.18575214 0.18957842
0.08303158 -0.20384066 0.02940279
0.33700568 0.15046781 0.11934351
-0.35831690 0.24756885 -0.00000055
0.40013512 0.32867620 0.14169335
0.45343311 0.15160438 0.16056706
0.27719845 -0.20633695 0.09816032
-0.28026905 -0.41714052 0.00000000
0.06363590 -0.74400382 0.02253447
0.55805485 0.03969052 0.19761782
-0.24687124 -0.24399858 0.00000000
-0.57035833 -0.58870954 0.00000000
-0.08240031 -0.77076833 0.00000000
0.59234911 -0.09707551 0.20975925
-0.47815544 -0.39039285 0.00000000
-0.04147268 0.08854958 0.00001005
0.17057353 0.51202182 0.06040432
-0.30009161 0.14143079 0.00000524
0.54698675 0.16411203 0.19369552
-0.10059704 -0.08917589 0.00000000
0.61836666 -0.77701546 0.21897334
0.40032181 0.28660619 0.14175952
0.35420436 -0.65277643 0.12542933
0.64937248 -0.20991963 0.22995208
0.43157232 0.17930042 0.15282586
-0.00805006 -0.31565760 0.00000000
-0.63573942 -0.14289138 -0.00000105
0.27781533 -0.37247930 0.09837877
0.22846306 -0.29516070 0.08090236
-0.54147914 -0.30868363 -0.00000035
-0.73110555 0.05624231 -0.00000162
0.06872005 -0.55683378 0.02433485
0.05420908 0.15199035 0.01919629
-0.29098128 -0.70515796 0.00000000
-0.48160419 0.15388347 0.00000154
-0.58602281 -0.47500601 -0.00000025
0.48000126 -0.15572012 0.16997560
0.56523130 -0.26620368 0.20015675
-0.50640238 0.22392707 -0.00000114
0.58656541 0.03351784 0.20771099
-0.13213676 0.13761636 0.00000000
0.31030915 0.22030165 0.10988504
0.18783207 0.20180832 0.06651429
0.29750909 -0.45941071 0.10535264
0.24715065 -0.24778146 0.08751993
0.49647522 0.17057954 0.17581046
0.52995354 -0.59333595 0.18766487
-0.23026597 0.17906178 0.00000584
-0.12806346 0.17800217 0.00000740
-0.18128757 -0.54809961 0.00000000
0.40013130 -0.09009973 0.14169259
0.57315419 -0.74850500 0.20296290
-0.17142685 0.32798330 0.00000000
0.32237676 0.17595592 0.11416303
0.51198943 -0.68933832 0.18130350
0.10090347 0.07931914 0.03574117
-0.11541328 0.48110359 0.00000304
-0.41040301 -0.54314936 0.00000000
-0.72380084 0.05666769 -0.00000177
0.43804118 0.32392930 0.15511654
-0.44549193 -0.28959855 0.00000000
0.65809854 -0.69114666 0.23304286
0.14310495 -0.24420068 0.05067571
-0.52425722 0.23309561 -0.00000124
0.17840423 0.56355717 0.06317621
-0.35909461 0.43209735 -0.00000075
-0.64607333 0.15313924 -0.00000161
-0.59566436 -0.23583519 -0.00000071
-0.44727142 -0.51756271 0.00000000
0.34999680 -0.60618397 0.12393936
0.17549346 -0.02459254 0.06214499
0.66836717 -0.61069882 0.23667898
-0.51097376 0.00719137 -0.00000078
-0.24194811 0.39354310 -0.00000031
-0.01394674 0.32298016 0.00000000
0.07203903 0.41984734 0.02551015
-0.62100538 0.01225220 0.00000123
-0.78575091 -0.31151832 -0.00000122
-0.15898132 -0.76234600 0.00000000
-0.12937539 -0.55233858 0.00000000
-0.64905337 -0.40377162 -0.00000064
-0.61392319 -0.13875163 -0.00000096
-0.53608522 -0.21725130 -0.00000049
-0.35719074 -0.69635640 0.00000000
0.58732976 0.03471222 0.20798165
0.11558420 0.33657990 0.04093018
0.42403580 -0.71632789 0.15015774
0.63997632 -0.61616680 0.22662535
0.43428848 0.05538317 0.15379253
0.20130705 0.03956495 0.07128599
0.02347367 0.66275001 0.00831240
-0.02521130 0.44879860 0.00000489
0.71996387 -0.33912961 0.25494966
-0.41086143 0.06073066 -0.00000045
-0.06518258 -0.04048919 0.00000000
0.38429114 -0.08786439 0.13608339
0.07518973 -0.05803577 0.02662586
0.10141581 -0.29898089 0.03591293
0.58328368 -0.48258382 0.20654962
-0.06997589 0.24374701 0.00000729
-0.52934504 -0.35634755 -0.00000021
0.05903452 0.25683516 0.02090505
0.25879693 0.48215662 0.09164357
0.21552676 -0.58755482 0.07632141
-0.79584287 -0.41557392 -0.00000096
-0.79518728 -0.78115029 -0.00000005
-0.46428355 -0.69220566 0.00000000
0.19232641 0.50087879 0.06810709
0.43053921 -0.26668194 0.15246065
-0.69484669 -0.51855807 -0.00000063
-0.63758586 -0.13429340 -0.00000107
-0.67783689 -0.20394031 -0.00000112
0.35227363 -0.27264233 0.12474563
0.59499570 -0.47632296 0.21069698
-0.10093975 0.26919489 0.00000000
-0.05182177 -0.63964972 0.00000000
0.20295386 -0.30210888 0.07186915
-0.05693938 -0.50743537 0.00000000
-0.06312035 0.41170013 0.00000487
0.03840953 0.42117924 0.01360672
0.11588852 -0.28696168 0.04103795
0.67082024 0.05787540 0.23754661
0.07419867 0.61212331 0.02627491
-0.35916761 0.34639225 0.00000068
-0.28638959 -0.32449304 0.00000000
-0.03830416 0.03220169 0.00001094
-0.73494962 -0.77926754 -0.00000005
0.36818542 -0.66449658 0.13038024
-0.62776185 -0.32392419 -0.00000069
-0.03093232 0.72415258 0.00000067
-0.15614826 0.37820900 0.00000397
-0.45088088 0.11690056 0.00000275
-0.49629406 -0.60787722 0.00000000
0.05964187 0.53287163 0.02112337
0.06375819 0.26834306 0.02258507
-0.20556538 0.33114994 0.00000388
0.03984400 0.72500149 0.01410935
-0.44443250 -0.67194021 0.00000000
-0.03714245 0.30561109 0.00000000
-0.30489743 0.15171036 -0.00000016
-0.32437646 0.35289709 0.00000124
-0.79862449 -0.43408823 -0.00000091
-0.41019602 0.28788047 -0.00000085
0.11393315 -0.38876971 0.04034552
0.54088323 -0.18130744 0.19153468
-0.32984043 -0.53610680 0.00000000
-0.29426118 0.40756052 0.00000090
0.16442494 0.54215375 0.05822522
0.24252965 0.02381420 0.08588356
-0.26343347 -0.35262625 0.00000000
-0.26033486 -0.76017231 0.00000000
-0.11428484 0.62286224 -0.00000017
-0.65300493 -0.61721383 -0.00000028
0.51979684 -0.39670654 0.18406804
-0.12896874 0.64815770 0.00000006
0.13116137 0.57794082 0.04644614
-0.50750834 -0.64984396 0.00000000
0.27339081 0.05423736 0.09681944
0.37308738 0.12031306 0.13211571
-0.21012833 0.50040884 -0.00000037
-0.07828282 -0.47573338 0.00000000
0.21195050 0.14012592 0.07506205
-0.23934692 -0.07386845 0.00000000
0.56719747 -0.72851038 0.20085353
0.50545574 0.21772722 0.17898881
-0.68213533 -0.74808362 -0.00000013
0.55938642 0.11367260 0.19808800
0.41852502 -0.01567427 0.14820592
0.33017324 -0.32578278 0.11691953
0.13243824 0.44900151 0.04689846
-0.17287939 -0.16126617 0.00000000
-0.30404836 -0.40761311 0.00000000
0.22034581 0.17026544 0.07803437
0.20383419 0.07580130 0.07218906
0.28516804 -0.31613022 0.10098248
0.64225757 -0.09153738 0.22743243
0.21210444 0.41570876 0.07511191
0.00024724 -0.79969674 0.00008755
0.53740396 -0.31828271 0.19030282
0.64431528 0.10591015 0.22816099
0.60891732 -0.79711509 0.21562719
-0.56062138 -0.13586315 -0.00000074
0.37068585 0.40262945 0.13126491
-0.25226412 -0.22274689 0.00000000
0.17869013 -0.02108801 0.06327698
0.39904864 0.00073914 0.14130908
-0.27742745 0.32441706 0.00000262
-0.03268885 0.24833598 0.00000778
0.20130980 0.45446050 0.07128889
-0.29324671 0.23452142 0.00000381
0.59112532 -0.67363069 0.20932671
0.36615406 0.02441201 0.12966705
-0.63955452 -0.24813053 -0.00000088
0.59988801 -0.58743955 0.21242956
-0.02869210 0.75313306 0.00000023
-0.07092300 0.00369892 0.00001087
-0.31222155 -0.76754580 0.00000000
-0.06722863 0.42555752 0.00000460
-0.12901465 0.66934205 -0.00000032
-0.42780594 0.16171173 0.00000245
0.43241475 -0.04709488 0.15312449
0.19870622 0.22135618 0.07037098
-0.22376478 0.17951421 0.00000000
-0.71874504 -0.48932154 -0.00000078
-0.53157512 -0.62473298 0.00000000
-0.41279691 -0.40633941 0.00000000
0.39914261 0.24394202 0.14134201
0.35030178 -0.18214843 0.12404736
-0.02904516 0.68455361 0.00000000
-0.45145463 -0.72307701 0.00000000
0.50748046 -0.38508981 0.17970664
0.58107185 -0.18503354 0.20576596
-0.35762036 0.34897437 -0.00000073
-0.31406128 0.26211940 -0.00000039
0.39809047 -0.23577505 0.14097009
0.61098947 0.11121526 0.21636041
0.12802083 -0.75710585 0.04533419
0.39109149 -0.69094618 0.13849164
0.13390917 0.48440143 0.04742216
0.05738182 0.15088693 0.02032902
0.07258802 0.26087027 0.02571183
-0.39905774 0.38471955 -0.00000097
0.45153807 -0.30003851 0.15989665
0.66273476 -0.09249251 0.23468366
-0.38582429 -0.02913277 -0.00000018
0.30538000 0.39238517 0.10813933
0.04810896 0.63681693 0.01703795
-0.48603906 0.07062521 -0.00000078
-0.38707712 -0.65943678 0.00000000
-0.18058369 -0.14637567 0.00000000
0.23698532 0.09863825 0.08392022
0.03420951 0.24868478 0.01212217
0.25364472 -0.21302650 0.08981958
0.00367116 0.13390390 0.00131030
0.64959606 -0.08837264 0.23003108
0.18003391 0.39709168 0.06375624
-0.23259249 -0.45520291 0.00000000
0.73310972 -0.41955995 0.25960506
0.55264261 -0.21520534 0.19569887
0.49931146 0.04825918 0.17681329
0.48163919 0.10235102 0.17055832
0.18302142 0.06929865 0.06481076
-0.02209149 0.36434582 0.00000000
0.12852726 0.44548221 0.04551352
0.09725547 0.53242287 0.03444238
-0.26719973 -0.26791327 0.00000000
0.16507005 -0.73349349 0.05845390
0.47641315 0.11088501 0.16870463
0.47711341 -0.39794354 0.16895332
0.16869700 -0.55914589 0.05973826
0.51942351 -0.20907040 0.18393557
-0.28814091 0.41477816 -0.00000055
0.32479486 -0.76798439 0.11501496
0.09555456 0.01204742 0.03383737
-0.38764954 0.05346935 0.00000503
-0.28258202 -0.48207140 0.00000000
-0.27867963 0.04124745 0.00000000
-0.42526573 -0.40922947 0.00000000
-0.09154963 0.70730617 -0.00000023
-0.39738062 -0.27008198 0.00000000
-0.09432321 -0.15114772 0.00000000
-0.07210093 -0.36280206 0.00000000
0.47260869 0.27106137 0.16735720
0.02133728 -0.26561180 0.00755587
-0.26628422 0.19634734 0.00000497
0.31723785 -0.59799118 0.11233891
0.26708448 -0.65271883 0.09457881
0.09955048 -0.53133881 0.03525239
0.03094919 0.74883474 0.01095956
0.17187732 0.28855849 0.06086446
0.55759958 0.00369295 0.19745388
-0.46358024 -0.65029328 0.00000000
0.01607536 0.28499931 0.00570029
-0.48817314 0.25086489 -0.00000020
-0.54087808 -0.32495866 -0.00000032
0.17941939 0.57712522 0.06353543
0.09169050 0.10715994 0.03247842
-0.77489500 -0.70272158 -0.00000024
-0.33096111 -0.68063278 0.00000000
-0.10755109 -0.20942977 0.00000000
-0.34033496 -0.64648999 0.00000000
0.49214351 0.22207967 0.17427479
0.10823811 -0.40965394 0.03832881
-0.12300776 0.02911225 0.00000971
-0.05909121 0.52399390 0.00000000
-0.65388273 0.14256416 -0.00000158
0.18939191 0.31568452 0.06706665
-0.41370745 -0.69869325 0.00000000
0.01023729 0.71149857 0.00362640
-0.06741255 0.00566104 0.00001090
0.26101788 0.11548347 0.09243053
-0.02156120 -0.36101998 0.00000000
-0.21744962 -0.29741546 0.00000000
-0.12580455 0.15084747 0.00000000
-0.33137763 -0.58960611 0.00000000
-0.36530173 0.11788484 -0.00000035
0.68677110 0.00714131 0.24319613
-0.44752936 -0.71916894 0.00000000
0.01315718 0.19790270 0.00465917
-0.25317653 -0.03734455 0.00000000
-0.27368200 0.05224828 0.00000000
-0.01869009 0.51942186 0.00000393
-0.74938526 -0.50691383 -0.00000073
-0.59810672 0.07983626 0.00000054
-0.68134994 0.11589227 -0.00000166
0.49369532 -0.06412427 0.17482470
-0.63920707 0.06018745 -0.00000142
-0.35075067 0.00743342 -0.00000010
-0.40199016 0.05782568 0.00000468
0.00587107 0.53177448 0.00207904
-0.08129048 -0.08135031 0.00000000
0.10723947 -0.77783701 0.03797518
0.59027417 -0.41861228 0.20902494
0.03639679 0.18815664 0.01289762
0.05236303 0.27527142 0.01854993
-0.14953553 -0.01089502 0.00000000
-0.58250154 -0.29124879 -0.00000056
-0.30342717 0.29301384 -0.00000040
0.50869675 0.25017550 0.18013662
0.21176083 -0.49488717 0.07498784
0.20294645 -0.41722745 0.07186653
-0.00456122 0.59044274 0.00000307
0.20053299 0.15843910 0.07101188
0.51748053 0.06389348 0.18324715
0.37317022 -0.15937054 0.13214544
0.22958934 0.27164598 0.08130111
0.18883396 -0.25602548 0.06686907
0.49460963 -0.02507466 0.17514842
0.06347709 -0.15040753 0.02247824
-0.03395437 -0.04460068 0.00000000
0.67193919 -0.23352367 0.23794325
-0.17901204 0.55058360 0.00000073
-0.35952141 -0.68030959 0.00000000
0.20174311 0.36041645 0.07144029
0.17111545 0.46685002 0.06059702
0.05357881 0.51182650 0.01897676
0.01178275 0.53250268 0.00417643
0.14632465 -0.26301674 0.05181586
0.52657184 -0.07177975 0.18646669
0.19620238 0.22162454 0.06947835
0.53692372 -0.03604779 0.19013236
0.32947317 0.27401934 0.11667408
0.42011445 -0.29170252 0.14876913
0.65278941 0.09153710 0.23116163
-0.37769061 0.33661091 0.00000049
0.55309336 -0.64684242 0.19585905
-0.69120125 -0.66613113 -0.00000033
0.37459484 0.33855584 0.13265027
0.28839335 0.25050097 0.10212435
-0.08813339 0.37787936 0.00000000
-0.58134442 0.06704679 0.00000108
0.50818837 -0.25148948 0.17995713
-0.46608385 0.32240096 -0.00000114
0.30632992 -0.01164202 0.10847624
-0.19604471 0.59963041 -0.00000042
0.14077611 -0.40304750 0.04985103
-0.65756997 -0.43769948 -0.00000062
-0.64907052 -0.75846764 -0.00000002
0.72455261 -0.12197152 0.25657415
-0.19875062 0.28847864 0.00000000
-0.21509285 0.20337557 0.00000000
0.34637046 -0.61219553 0.12265522
-0.06792536 0.42350873 0.00000000
0.65608246 -0.28299349 0.23232826
0.45945419 -0.41109898 0.16269995
0.00046230 -0.39769473 0.00016371
0.41012297 -0.42308588 0.14523099
-0.25527427 -0.06822274 0.00000000
-0.10556264 0.24894632 0.00000667
0.13456192 0.47622895 0.04765046
-0.20238798 0.16442649 0.00000000
-0.20368742 0.34801806 0.00000364
-0.47790187 -0.77776876 0.00000000
0.02128544 0.74431952 0.00753751
0.68710556 -0.62671549 0.24331463
0.07072430 0.68505474 0.02504515
-0.52891149 0.08820013 0.00000173
-0.78803486 -0.04081882 -0.00000188
0.64648418 -0.68699239 0.22892999
0.22833673 0.09568326 0.08085762
0.52839288 -0.33783021 0.18711192
0.44791874 -0.05994862 0.15861466
0.07855225 -0.00074810 0.02781659
0.10494777 0.44580154 0.03716365
-0.59202622 -0.63737023 0.00000000
-0.01744134 0.07044601 0.00001068
-0.35962234 0.11578015 0.00000452
0.38417528 -0.70319960 0.13604250
0.38794639 -0.05082931 0.13737771
-0.12601933 0.35559684 0.00000000
-0.20927016 -0.46521283 0.00000000
-0.26698132 0.19859414 -0.00000008
-0.37504733 -0.06274643 -0.00000008
0.50161697 -0.23436265 0.17763010
0.22405359 -0.25233536 0.07934089
-0.23908788 0.21251354 0.00000520
0.61858236 0.11970333 0.21904886
0.25903817 -0.73932501 0.09172949
-0.04975985 -0.60581457 0.00000000
0.34450895 0.32924993 0.12199719
0.57094218 -0.40458609 0.20217923
-0.15183937 -0.49423396 0.00000000
-0.41405895 0.20502091 0.00000199
0.66844175 -0.20806010 0.23670473
0.51871628 0.13991711 0.18368464
0.18395267 -0.02618839 0.06514053
-0.66542563 -0.13262604 -0.00000119
-0.14187045 0.22063223 0.00000000
0.01552387 0.02941079 0.00549725
-0.16124031 0.25728889 0.00000000
0.27764929 -0.30624514 0.09831997
-0.50473710 -0.56873724 0.00000000
-0.30505637 -0.50800952 0.00000000
-0.56947651 -0.48819918 -0.00000015
-0.37385236 -0.32660838 0.00000000
0.66235754 0.02305601 0.23455114
-0.11742061 0.13592429 0.00000000
0.24578088 -0.51927118 0.08703487
-0.21301038 -0.65691711 0.00000000
-0.48320618 0.15805048 -0.00000093
0.36197900 0.40816923 0.12818170
0.27729699 0.22804837 0.09819503
0.61940697 -0.58595784 0.21934145
-0.19153278 0.54272616 0.00000062
0.49633879 0.15700137 0.17576048
0.51420630 0.25383045 0.18208744
0.62643133 -0.79737504 0.22182917
0.10978779 0.48631892 0.03888080
0.10752593 0.03129670 0.03808693
0.46521975 -0.68412215 0.16474162
0.47788901 -0.12014054 0.16922758
-0.43390847 -0.36673276 0.00000000
-0.42405085 -0.35699559 0.00000000
-0.32897209 -0.18415092 0.00000000
-0.33269027 0.01838701 0.00000667
-0.56752291 0.22891424 -0.00000141
0.29166428 0.11263890 0.10328282
0.71699390 -0.29851609 0.25389784
0.13933521 0.64788817 0.04934050
0.62605723 -0.72359709 0.22169659
0.41331349 -0.21232288 0.14636073
-0.55347277 -0.42438395 -0.00000020
-0.02994019 0.27690233 0.00000739
-0.73714149 -0.60618884 -0.00000048
0.41793745 -0.47214207 0.14799822
-0.67881474 -0.29041335 -0.00000097
0.14346777 -0.21831353 0.05080419
-0.70618234 -0.62483360 -0.00000044
0.33319796 -0.27764434 0.11799063
-0.59915260 -0.47169013 -0.00000031
0.07488921 0.05033958 0.02652995
-0.44296660 -0.79992284 0.00000000
-0.62103756 -0.71831813 0.00000000
-0.05120669 0.66136708 0.00000131
0.69596842 0.01117032 0.24645195
0.45703760 -0.47567710 0.16184419
-0.08822135 -0.58947936 0.00000000
0.01711154 0.48296637 0.00605947
0.71368677 -0.38792064 0.25272694
-0.35936654 0.36798365 0.00000032
0.02744532 0.51211902 0.00971882
-0.27471506 -0.31322764 0.00000000
0.17346335 0.30425953 0.06142610
0.42726318 -0.55837574 0.15130061
0.65571157 -0.32043267 0.23219698
-0.75226872 -0.04787126 -0.00000171
-0.41978129 0.17703590 0.00000234
0.12605059 0.20599057 0.04464382
0.15256614 -0.75156612 0.05402607
0.47178154 0.24389650 0.16706525
-0.34931662 -0.47442712 0.00000000
0.61143909 -0.12216215 0.21651928
0.28444713 -0.42958336 0.10072720
-0.23527766 0.04448432 0.00000778
-0.57996257 -0.24912431 -0.00000062
-0.12090201 0.33801436 0.00000511
0.24259354 0.35702492 0.08590593
-0.17535639 -0.04137171 0.00000000
0.27049355 -0.05253666 0.09578601
-0.27442289 0.48774899 -0.00000005
0.44675412 -0.19469002 0.15820244
-0.55369423 0.02924645 0.00000224
-0.71462989 -0.66747030 -0.00000033
0.18341788 -0.08297096 0.06495115
-0.33655550 -0.31448940 0.00000000
0.43541007 -0.02022203 0.15418513
0.42113182 0.04256054 0.14912894
-0.01787701 -0.47269923 0.00000000
0.40643867 0.12066559 0.14392581
-0.17984085 0.23401309 0.00000578
-0.48475391 0.28442693 -0.00000070
-0.03145904 -0.00298746 0.00000000
-0.15739437 0.14520924 0.00000000
-0.11941591 -0.60623137 0.00000000
-0.19462685 0.15772628 0.00000000
-0.59744568 0.10560615 -0.00000132
-0.31611323 -0.18391360 0.00000000
0.53165323 -0.63514252 0.18826676
-0.22929780 0.45269918 0.00000140
0.37054362 0.26449349 0.13121473
-0.08816930 -0.48928208 0.00000000
0.24217186 0.02760743 0.08575686
0.42710499 -0.59836248 0.15124458
-0.35801408 0.35471756 -0.00000074
0.04401405 0.60717805 0.01558607
-0.40142063 0.07477146 0.00000441
-0.08245840 0.57234238 0.00000000
-0.15357301 0.59162441 0.00000053
0.25567791 -0.51753246 0.09053956
0.02726848 0.37098446 0.00965620
0.07187938 0.25619571 0.02545362
0.26929110 0.12968350 0.09536018
0.15080647 0.28563572 0.05340865
0.19333495 -0.79899456 0.06846294
0.21206502 -0.36557050 0.07509555
-0.01660025 0.60835939 0.00000000
0.30636697 0.22789100 0.10848906
-0.49684342 0.18652457 0.00000071
-0.68765733 -0.59660718 -0.00000047
-0.73610980 -0.35687055 -0.00000110
0.70205784 -0.69790701 0.24860970
0.35017577 0.20786413 0.12400231
0.56699995 -0.12200242 0.20078284
-0.52782206 0.18082589 -0.00000116
0.38634672 0.24814568 0.13681317
-0.04748744 0.65742649 0.00000142
0.12459666 0.02146150 0.04412164
0.04355006 -0.55639957 0.01542176
-0.04078560 0.54264061 0.00000324
0.21367711 -0.60163428 0.07566642
0.00074643 0.56377272 0.00026432
0.14268407 -0.55901195 0.05052667
-0.52874994 -0.61489711 0.00000000
-0.26221695 0.29355615 0.00000342
0.11157819 0.39966874 0.03951612
-0.16359994 0.22175234 0.00000000
-0.25622719 -0.20038590 0.00000000
0.52667713 -0.53246999 0.18650462
0.50918831 0.20873629 0.18031058
-0.40305782 -0.46178513 0.00000000
-0.15100428 0.61096851 -0.00000031
-0.26360197 0.21949882 -0.00000010
0.30072081 -0.00330358 0.10648996
0.45913602 0.04737740 0.16259105
0.71608138 0.02711861 0.25357439
-0.72401961 -0.03392248 -0.00000162
0.68300656 -0.72337858 0.24186334
0.40785013 0.02178721 0.14443145
-0.22222255 -0.10985350 0.00000000
0.02149657 0.01446176 0.00762414
0.07460382 0.27457743 0.02641839
-0.49391036 0.12247586 -0.00000091
0.60110450 0.07091451 0.21286091
0.68711165 -0.63104793 0.24331680
-0.16433288 -0.46463415 0.00000000
0.42810630 0.12269001 0.15159858
-0.08831573 0.38150729 0.00000000
-0.74756998 -0.04979104 -0.00000169
-0.15792378 0.58796866 0.00000051
-0.60008875 -0.03034150 -0.00000109
-0.16741113 -0.70045863 0.00000000
-0.49023037 -0.43032084 0.00000000
-0.41454349 -0.36370313 0.00000000
-0.16430369 -0.41218045 0.00000000
0.00672917 -0.49971261 0.00238291
-0.01051798 0.08846775 0.00001051
-0.33253291 0.24253086 -0.00000043
-0.23172639 -0.51788108 0.00000000
-0.63234096 -0.71086934 -0.00000003
0.20632318 -0.14703436 0.07306228
0.47885042 -0.04780826 0.16956792
-0.16943666 0.26665126 0.00000000
-0.33488859 0.24264881 -0.00000044
0.06582763 0.72449142 0.02331047
-0.58436423 -0.76598364 0.00000000
-0.69941677 -0.28248168 -0.00000107
0.11898463 0.04772715 0.04214421
0.52177847 0.08177670 0.18477179
0.19005740 0.46040980 0.06730211
-0.44442835 0.09180048 0.00000330
0.05841394 -0.70651104 0.02068529
0.08135016 0.31775999 0.02880737
-0.15261195 0.52203316 0.00000171
0.46437438 -0.34241943 0.16444220
0.66933434 -0.73829473 0.23702179
0.20437804 -0.71600766 0.07237347
0.48839176 0.15937332 0.17294633
-0.46090032 0.03415130 -0.00000061
-0.09834174 0.39934160 0.00000000
-0.51191734 -0.44551476 0.00000000
0.18190359 -0.13770079 0.06441492
0.58580533 -0.74102374 0.20744287
-0.10083680 -0.21495500 0.00000000
0.08659238 0.50976752 0.03066372
0.32457407 -0.54584103 0.11493678
0.23635035 0.14828173 0.08369537
-0.01072258 -0.54202384 0.00000000
0.13662300 0.07179424 0.04838035
0.00525383 -0.24927773 0.00186046
-0.37763360 0.39873501 -0.00000055
-0.71051207 0.00992985 -0.00000045
0.23445134 0.33855715 0.08302621
-0.32475878 0.31894556 -0.00000054
0.06348153 -0.23347751 0.02247981
0.67788849 -0.58005776 0.24005058
-0.20467190 0.54438274 -0.00000042
0.00208045 0.15258552 0.00074674
-0.30264782 0.38519144 0.00000112
0.14818985 0.17847998 0.05248377
-0.65854515 0.10569355 -0.00000158
0.39003718 0.35348351 0.13811805
-0.68939309 -0.37971185 -0.00000086
-0.18808350 0.46069809 -0.00000020
-0.47629784 0.04408346 -0.00000070
0.49492242 -0.65185830 0.17525980
0.42062831 -0.15448765 0.14895092
0.12289623 0.22078158 0.04351948
0.32870672 0.43663506 0.11639954
-0.38359277 -0.40253770 0.00000000
-0.35873548 0.43967563 -0.00000087
0.01965348 0.29440803 0.00696716
0.18951398 -0.63274400 0.06710988
0.07629612 -0.06680071 0.02701765
-0.38825685 -0.20665641 0.00000000
-0.61962770 -0.55702662 -0.00000025
0.72209320 -0.24348706 0.25570346
0.63747373 -0.45334073 0.22573893
0.01436179 0.16565839 0.00509536
0.52673088 0.04042683 0.18652615
-0.48466288 0.06456105 0.00000298
0.17904043 0.18481043 0.06340788
-0.31267797 0.25263762 -0.00000037
0.44493828 -0.36875591 0.15755963
0.08916713 0.02859512 0.03157548
-0.20880280 0.34102671 0.00000366
0.02325737 0.40556809 0.00823580
-0.47773395 -0.27198187 -0.00000014
0.26803653 0.28849180 0.09491570
0.04850211 -0.60426830 0.01717536
0.20430867 -0.76060561 0.07234891
0.27630040 0.27854787 0.09784205
0.64836610 -0.15555939 0.22959563
0.44673412 0.12458750 0.15819491
0.49661371 0.01944833 0.17586220
0.46662293 0.16756983 0.16523998
-0.59820286 -0.27168501 -0.00000066
0.17265712 -0.33961908 0.06114060
-0.09829181 -0.01843841 0.00000000
0.70701519 -0.29948713 0.25036419
-0.04253405 0.25911858 0.00000000
0.47196828 -0.73744224 0.16713138
-0.14924652 -0.29754160 0.00000000
-0.51154635 0.17517051 -0.00000108
-0.10825537 -0.60025932 0.00000000
-0.17520989 -0.58711850 0.00000000
0.59257402 -0.51442007 0.20983948
-0.43033927 -0.73476042 0.00000000
0.31910858 -0.61178236 0.11300136
0.14781523 0.29534133 0.05234369
0.40653035 -0.08997857 0.14395857
0.40601712 -0.24193394 0.14377704
-0.47669215 -0.50160853 0.00000000
-0.16888570 -0.00909843 0.00000000
-0.43099964 0.30355272 -0.00000096
0.23776275 0.43673789 0.08419518
0.36161366 0.15787497 0.12805268
-0.52823679 -0.64908074 0.00000000
0.46580856 -0.70227970 0.16495013
0.18207772 0.29380236 0.06448169
0.56052044 -0.34250445 0.19848868
-0.18008351 -0.64482471 0.00000000
0.31094548 -0.69708828 0.11011068
0.64463885 -0.68937052 0.22827653
-0.34408458 0.07511148 0.00000550
0.67586586 -0.79533370 0.23933487
0.57425435 -0.12252227 0.20335172
-0.70551368 -0.53585957 -0.00000065
-0.42363393 -0.30903435 0.00000000
-0.03150518 -0.15032998 0.00000000
0.47016132 -0.27207847 0.16649132
0.08730810 0.18927337 0.03092533
-0.78563769 -0.14160531 -0.00000165
-0.42075282 -0.67169467 0.00000000
-0.76636455 -0.11359874 -0.00000166
-0.66687809 -0.72612258 -0.00000015
-0.05717180 0.44220257 0.00000000
0.48480959 0.16887102 0.17167975
-0.19078408 0.12166496 0.00000000
0.00933392 -0.58840677 0.00330529
0.07716285 0.54910777 0.02732731
-0.51529131 -0.29536604 -0.00000026
0.11785815 -0.20820913 0.04173542
0.58908623 -0.36883231 0.20860421
-0.14092598 0.62959476 -0.00000030
-0.13049133 0.57584271 -0.00000016
0.08851621 0.39562346 0.03134498
-0.08480598 -0.32009462 0.00000000
-0.13304112 0.33960969 0.00000000
-0.37364676 0.18518337 -0.00000051
0.14350335 -0.01727674 0.05081679
-0.48103033 -0.51599790 0.00000000
-0.43810793 0.22200008 0.00000124
-0.78427694 -0.72246200 -0.00000019
-0.23546017 0.09715787 0.00000000
0.35875856 0.00188586 0.12704187
0.49488820 -0.53275966 0.17524768
0.17152473 0.27916466 0.06073960
0.10152946 0.01623566 0.03595318
0.07410159 0.68495989 0.02624043
0.55632373 -0.65942524 0.19700297
-0.72600631 -0.30984605 -0.00000114
-0.17173424 0.11922278 0.00000000
0.23308548 -0.69502500 0.08253923
0.07933420 0.63946756 0.02809343
-0.33276513 0.42282577 -0.00000009
-0.62654713 0.13446953 -0.00000092
-0.77790164 -0.70633187 -0.00000023
-0.22809857 0.13310488 0.00000656
0.07204644 0.05515799 0.02551277
0.25533122 0.30537894 0.09041657
0.29108025 0.43377133 0.10307650
0.43091081 -0.06573503 0.15259195
0.75146827 0.00153918 0.26610516
-0.71415683 -0.04794142 -0.00000155
-0.24473416 -0.33061364 0.00000000
-0.29490834 0.17151502 -0.00000015
-0.06813878 0.44370317 0.00000432
-0.38976967 0.40613828 -0.00000091
0.70696531 0.02274677 0.25034652
0.07565963 0.50228059 0.02679226
-0.28173047 0.12133684 -0.00000000
-0.24494559 -0.63031230 0.00000000
0.31746793 -0.45602349 0.11242038
0.10650249 -0.08073603 0.03771420
-0.37300859 -0.03445419 -0.00000012
-0.48736194 -0.22372663 -0.00000027
0.03274933 0.07108337 0.01160787
-0.27509861 -0.29462720 0.00000000
0.18739606 -0.12601280 0.06635989
0.52546642 -0.31620573 0.18607559
-0.60689510 -0.26805449 -0.00000070
-0.24387692 0.04593965 0.00000000
-0.13972461 -0.23003697 0.00000000
-0.38028835 -0.30229810 0.00000000
0.30277735 0.24903851 0.10722168
-0.42497560 0.16898816 -0.00000070
-0.38421268 -0.38234439 0.00000000
0.27529491 -0.36141432 0.09748625
0.37929957 0.25179390 0.13431774
0.39612208 0.12042912 0.14027685
0.56880165 -0.37047398 0.20142120
0.20025423 0.49292366 0.07091288
-0.68840704 -0.01147407 -0.00000150
-0.22865475 0.48267427 -0.00000041
0.75204518 -0.51538136 0.26631070
-0.19238856 0.21760395 0.00000583
0.31420971 -0.48770889 0.11126659
-0.00490600 0.16371434 0.00000000
-0.16105285 -0.21037000 0.00000000
0.11617737 0.21261798 0.04114760
-0.22819844 -0.53499655 0.00000000
-0.21592290 -0.04338012 0.00000000
-0.56988465 -0.48217687 -0.00000017
-0.22267377 0.27672553 0.00000446
-0.49237476 -0.19042211 -0.00000035
-0.55267009 -0.66960721 0.00000000
0.16471706 0.42220158 0.05832884
0.23876400 -0.09309470 0.08455008
0.14723855 0.59275154 0.05213924
-0.27658819 0.18168327 0.00000502
0.34058678 -0.20238859 0.12060713
-0.02232534 0.60965574 0.00000000
0.68217660 -0.49149182 0.24156886
-0.53652548 -0.37998920 -0.00000020
-0.79839891 0.00065812 -0.00000198
0.12533560 0.10357081 0.04438331
-0.42582141 0.28469055 -0.00000091
-0.54309675 -0.11214115 -0.00000071
0.22016815 -0.38091134 0.07796500
0.37133448 -0.76959344 0.13149537
-0.08627678 0.23889609 0.00000711
0.25923357 -0.69993146 0.09179868
0.02566282 -0.44519968 0.00908761
0.14873289 0.18708805 0.05266865
0.17039712 -0.10207342 0.06034030
-0.53611619 0.04911118 -0.00000096
0.68361147 -0.39720193 0.24207678
0.54395929 -0.73621222 0.19262453
-0.45806021 0.13220262 -0.00000077
0.35823646 0.36675790 0.12685735
-0.05378669 -0.11328319 0.00000000
-0.10734637 -0.35623043 0.00000000
0.07545661 0.40712763 0.02672533
-0.02076570 -0.66684383 0.00000000
0.23762668 0.04590991 0.08414734
0.43233390 -0.50114887 0.15309622
0.57116034 0.18461229 0.20225566
0.37040871 0.16638014 0.13116710
-0.06611511 0.25125539 0.00000000
-0.61540350 -0.60256864 -0.00000015
-0.10199713 0.22646653 0.00000706
0.16355195 -0.38220324 0.05791631
0.21419948 0.03147541 0.07586010
-0.54045571 -0.63553433 0.00000000
0.65791822 -0.34415705 0.23297842
-0.24304283 -0.20155988 0.00000000
-0.43696839 -0.38850599 0.00000000
-0.71466443 0.00025122 -0.00000164
0.50255612 0.12680349 0.17796446
0.51218340 -0.78872736 0.18137219
0.72609236 -0.32293703 0.25711984
-0.43481659 -0.68132032 0.00000000
0.51267510 0.10468699 0.18154793
0.42553476 -0.66751379 0.15068854
0.35338555 0.38449978 0.12513935
0.11879608 -0.78359676 0.04206756
-0.51304772 -0.76085726 0.00000000
-0.42248991 0.37606082 -0.00000103
-0.34690022 0.27288912 0.00000214
-0.32670783 0.42134727 0.00000005
0.13663437 -0.28327718 0.04838438
0.09437508 -0.71869953 0.03341970
0.53092620 -0.19097401 0.18800879
-0.58097537 0.17939307 -0.00000079
0.15848874 -0.00535400 0.05612335
-0.21947873 0.45311606 -0.00000032
-0.50245172 0.11787768 0.00000175
-0.27354646 0.36450188 -0.00000040
0.28245693 0.01533995 0.10002243
0.23530085 0.53785697 0.08332345
-0.00628243 -0.09340455 0.00000000
0.31031584 -0.20970382 0.10988772
0.09148024 0.60212320 0.03239454
0.03630134 0.61470660 0.01285721
-0.48376007 -0.75256975 0.00000000
-0.20513858 -0.00705329 0.00000000
0.53924314 -0.62693258 0.19095447
-0.70622711 -0.20517113 -0.00000124
0.25224769 -0.15523347 0.08932487
0.00814853 0.75584112 0.00288609
0.68558857 -0.77613799 0.24277781
0.26456081 0.08806117 0.09369221
-0.43377708 0.10957479 -0.00000063
0.44119761 0.21508140 0.15623616
0.23771449 -0.50240754 0.08417843
0.18024409 0.08815630 0.06383560
-0.21857428 -0.13305250 0.00000000
-0.15062881 -0.77104195 0.00000000
0.00754036 0.13921203 0.00267016
0.57329916 0.15659353 0.20301366
-0.04057635 -0.23685402 0.00000000
0.24204180 0.21278251 0.08571076
0.50265599 0.22819517 0.17799801
-0.37873489 -0.54878393 0.00000000
-0.19901075 0.55924867 0.00000020
-0.29879615 -0.39744255 0.00000000
-0.06169538 0.72097545 0.00000014
-0.32796407 -0.16881752 0.00000000
-0.37209565 -0.49239791 0.00000000
-0.09109193 0.28281841 0.00000638
0.48441099 0.11998697 0.17153675
0.33310086 -0.23325725 0.11795625
-0.40528283 -0.70840274 0.00000000
0.26301774 -0.10944382 0.09313871
0.31696072 -0.06033818 0.11224077
0.34829356 0.02630632 0.12334271
0.03368524 0.57422526 0.01192847
-0.30463882 -0.68559933 0.00000000
0.59174208 0.14416765 0.20954442
-0.15662180 0.32930939 0.00000000
0.20496031 0.28001488 0.07257966
0.19933070 -0.43022162 0.07058613
-0.30900599 0.24919357 -0.00000035
-0.05849125 0.63668576 0.00000157
0.09677142 -0.14923719 0.03426828
-0.07839941 0.46710241 0.00000381
-0.43248797 0.19637172 -0.00000078
0.13436057 0.23314834 0.04758596
-0.66402047 -0.74373304 -0.00000010
-0.49473859 -0.63106059 0.00000000
0.08318765 -0.08117964 0.02945805
0.32343821 -0.64245493 0.11453455
0.22191880 0.25993888 0.07858991
0.73458116 -0.57293430 0.26012650
0.11227506 0.37501747 0.03975836
0.60746824 0.03248887 0.21511496
0.02784446 0.41789061 0.00986016
0.61185925 0.01778319 0.21666787
-0.23274170 0.06176125 0.00000000
-0.23598428 0.12220453 0.00000661
0.74190617 -0.25407893 0.26271963
0.37896858 0.04385616 0.13419843
0.44784881 -0.65921320 0.15859030
0.47945701 -0.43125174 0.16978326
-0.25240850 -0.72847667 0.00000000
0.08753536 -0.43526311 0.03099764
-0.61458935 -0.66933664 -0.00000003
0.02140496 0.73025474 0.00757983
-0.16869629 0.12628947 0.00000756
0.68376083 -0.15556246 0.24212933
-0.12134816 0.02553737 0.00000000
0.28701018 0.19946682 0.10163463
0.44846900 0.07670301 0.15881339
-0.32058981 0.14196807 0.00000484
-0.21479998 -0.04190427 0.00000000
-0.75466118 0.01102661 -0.00000183
-0.25389623 0.51859636 -0.00000059
-0.61238243 -0.45258997 -0.00000040
0.19087116 0.29615114 0.06759048
0.29992371 -0.57367508 0.10620770
0.38684390 -0.60006170 0.13698750
0.29848083 0.10876203 0.10569665
0.19232234 0.04924620 0.06810436
-0.04195612 -0.74181121 0.00000000
-0.72751108 -0.17706429 -0.00000138
-0.21818274 0.06508510 0.00000773
-0.06652646 0.21526414 0.00000777
-0.43160834 -0.61022348 0.00000000
0.37830385 0.00834861 0.13396309
-0.07264123 0.46674957 0.00000000
0.31032857 0.31698662 0.10989432
-0.23163579 -0.40688215 0.00000000
-0.27610045 -0.32847059 0.00000000
0.18635125 -0.35313556 0.06598991
0.11648791 0.38144389 0.04125494
0.42775039 -0.76603554 0.15147313
0.31492377 -0.33085262 0.11151945
-0.06561086 0.48000418 0.00000381
-0.05409538 0.22750448 0.00000000
-0.34164028 -0.20528537 0.00000000
0.07736935 0.05451873 0.02740811
0.13059307 0.32252738 0.04624506
0.20379345 0.52281077 0.07216712
-0.20892968 -0.20048066 0.00000000
0.56377251 -0.75053253 0.19964070
0.25117389 -0.72327346 0.08894462
-0.01338639 0.22593465 0.00000841
0.69369924 -0.55966924 0.24564941
-0.21621711 0.00085780 0.00000872
-0.52032790 -0.67504175 0.00000000
0.07297228 0.49768769 0.02584422
0.13710924 -0.02390324 0.04855254
-0.01410981 -0.41150097 0.00000000
0.41496570 -0.51197517 0.14694587
0.60699798 0.01679789 0.21494643
-0.09380600 -0.13711655 0.00000000
-0.76543649 -0.14252290 -0.00000160
-0.15877839 0.03759274 0.00000904
-0.26927462 0.06091470 0.00000702
0.35374636 -0.00856141 0.12526701
-0.53564466 -0.32188242 -0.00000030
0.15349313 -0.28530695 0.05435433
-0.42293539 0.31208059 -0.00000094
-0.06828086 -0.12548443 0.00000000
-0.55674497 -0.65516778 0.00000000
0.40192385 -0.23881916 0.14232755
-0.24221319 -0.25223755 0.00000000
-0.74632633 -0.00775893 -0.00000176
0.36803636 -0.76633141 0.13032746
-0.11398384 0.38978231 0.00000443
-0.69331279 0.10302326 -0.00000173
-0.04967105 0.61303159 0.00000206
0.03285852 0.72074048 0.01163571
-0.27384626 0.35564121 0.00000216
-0.35369078 -0.37273085 0.00000000
0.07132655 -0.42650477 0.02525785
-0.10034631 0.42306725 0.00000414
0.45579008 0.10999655 0.16140515
-0.15383441 0.15076437 0.00000000
0.54544094 0.14409438 0.19314816
0.05289301 -0.22261351 0.01873025
0.13445317 0.56803250 0.04761182
-0.51580207 -0.69893970 0.00000000
-0.28561707 0.11306731 0.00000599
0.29043187 0.14825180 0.10285201
-0.08086176 0.71376443 -0.00000011
0.16750870 -0.50500506 0.05931746
-0.66715460 -0.15925083 -0.00000115
0.16962405 -0.79528564 0.06006654
-0.52588475 -0.21689317 -0.00000045
-0.35155520 0.39189575 0.00000007
0.22733386 0.36314303 0.08050551
0.42812073 0.03994570 0.15160884
0.14031394 -0.53761960 0.04968737
-0.78618693 -0.76762122 -0.00000008
0.55208994 -0.41540428 0.19550344
0.61849428 0.13104137 0.21901725
-0.36976130 -0.29491141 0.00000000
0.62242616 -0.18588844 0.22041003
0.40925004 0.24156896 0.14492118
-0.50521318 0.04019813 -0.00000081
-0.02041346 0.29133655 0.00000000
0.08613913 -0.08851629 0.03050322
-0.51297132 -0.28584712 -0.00000027
-0.54027270 -0.01599600 -0.00000086
0.12485963 0.41834754 0.04421476
0.49845018 -0.06903161 0.17650846
0.04454928 0.64709709 0.01577560
0.45541287 -0.36609543 0.16126885
0.06286703 0.49741578 0.02226595
-0.36570848 0.09817271 -0.00000032
-0.43380535 0.31658280 -0.00000026
0.17502184 -0.19815812 0.06197798
-0.36830980 0.16235280 -0.00000044
-0.56061182 -0.70345205 0.00000000
-0.10876805 0.20182158 0.00000733
-0.23349853 0.22157382 0.00000000
-0.23687177 0.35567385 -0.00000023
0.39153088 0.10825312 0.13864680
-0.19989114 0.02245942 0.00000000
-0.71843463 -0.47961087 -0.00000080
-0.10680680 0.03308554 0.00000000
0.54379492 0.09676530 0.19256535
-0.79115758 -0.02903566 -0.00000191
-0.05299269 -0.69901429 0.00000000
-0.17821541 0.06040642 0.00000840
-0.43363134 -0.14888906 -0.00000017
0.14171815 -0.66242225 0.05018462
-0.71419842 -0.05492975 -0.00000154
0.29670409 0.05498993 0.10507464
-0.51399184 -0.15605920 -0.00000050
-0.78758070 -0.02607839 -0.00000190
-0.57906496 -0.01222250 -0.00000104
0.45265203 -0.28816478 0.16029109
0.20186805 0.11100666 0.07149230
-0.62595602 -0.29377718 -0.00000074
-0.38298540 -0.43818422 0.00000000
-0.51587481 -0.55754024 0.00000000
-0.18679153 -0.32908008 0.00000000
0.01221936 -0.41872830 0.00432707
0.34670531 -0.52003450 0.12277380
0.38900306 -0.68108764 0.13775209
-0.25983132 0.24925077 -0.00000014
0.18323621 0.14148389 0.06489428
-0.44053168 0.02090005 0.00000455
-0.25306333 0.53074255 -0.00000060
-0.54341472 0.03486067 0.00000235
-0.04424145 0.21461499 0.00000000
0.03249537 0.40225799 0.01150712
0.27322297 -0.50815608 0.09675255
0.07763748 0.20547395 0.02749265
-0.60587613 0.13980117 -0.00000142
0.08346857 -0.36525149 0.02955753
-0.49177789 -0.65888905 0.00000000
0.30381587 0.34026349 0.10758779
0.26237655 0.18330703 0.09291158
-0.39675790 -0.31191536 0.00000000
-0.71030801 -0.77871144 -0.00000005
-0.08385272 0.40325930 0.00000469
-0.23847142 0.47962700 -0.00000045
-0.44966148 0.10530711 -0.00000069
-0.06891916 -0.17036589 0.00000000
-0.55638649 -0.00722764 -0.00000095
0.10290140 0.36863719 0.03644415
0.11628105 0.61900964 0.04117678
-0.61787835 -0.54984270 -0.00000025
0.08896981 -0.68083678 0.03150561
-0.44938509 -0.05468363 -0.00000041
-0.23490289 -0.21617035 0.00000000
-0.13129989 0.02147476 0.00000000
-0.34010863 -0.38944753 0.00000000
0.37082835 0.05288506 0.13132168
-0.04498224 0.65590284 0.00000000
0.03184899 0.06503644 0.01127823
-0.16741347 0.25025581 0.00000000
0.01835031 0.66737844 0.00649813
-0.04947388 0.03116128 0.00000000
0.03009189 -0.68398810 0.01065601
0.23148908 -0.62634780 0.08197392
0.49267434 -0.41511640 0.17446366
0.32080871 0.14571294 0.11360834
0.42342482 -0.27335463 0.14994136
-0.51867927 -0.46577622 0.00000000
0.68422224 -0.05935452 0.24229259
0.18571428 -0.57418198 0.06576435
0.06634199 0.28736372 0.02349274
-0.42117784 -0.12165710 -0.00000017
-0.15421565 0.08712474 0.00000000
-0.47320347 0.10074910 0.00000259
-0.47129392 -0.34912882 0.00000000
0.23813464 -0.11098390 0.08432722
0.26490697 0.11069053 0.09380772
0.05491367 0.43877419 0.01944579
-0.34555267 0.05028193 -0.00000015
-0.46357662 -0.12186782 -0.00000035
0.59805263 -0.44674165 0.21177943
-0.23485483 0.23305166 0.00000496
-0.12131117 -0.76224464 0.00000000
-0.49976638 -0.14869045 -0.00000046
0.06417851 0.41531842 0.02273162
0.35016703 0.21079937 0.12399921
-0.03855463 0.40426375 0.00000000
0.02344528 0.40519960 0.00830234
0.38031994 0.29752774 0.13467660
-0.52589647 0.09414485 -0.00000100
0.48509375 0.15110187 0.17178069
0.29299246 -0.75036065 0.10375323
0.67099817 -0.75685225 0.23761103
-0.77584920 -0.41407426 -0.00000096
0.55468831 0.10249322 0.19642462
-0.27161440 -0.34991240 0.00000000
-0.11925915 0.31748556 0.00000544
-0.28161660 0.13117888 -0.00000002
0.25755787 0.45688738 0.09120484
-0.71281177 -0.26565311 -0.00000116
-0.68215639 0.02760039 -0.00000155
-0.46007803 0.15154148 -0.00000082
-0.22682008 0.39506553 0.00000241
0.51708283 -0.49477740 0.18310711
0.18877997 -0.78382541 0.06684995
0.27549672 -0.14374795 0.09755772
-0.13952772 -0.74175882 0.00000000
0.69997557 -0.61452786 0.24787212
0.10420033 -0.47399747 0.03689897
-0.39359089 -0.39077869 0.00000000
-0.01561063 0.52035516 0.00000396
0.52764903 0.09815426 0.18684790
-0.02648957 0.67242486 0.00000000
-0.41460035 -0.19225857 -0.00000002
-0.30771661 0.27932762 -0.00000039
0.43209132 0.18312870 0.15301224
0.29749391 -0.45054864 0.10534727
0.61858107 0.02416499 0.21904814
0.15580414 -0.25577231 0.05517269
-0.07392285 0.58646723 0.00000000
0.30473210 -0.02630989 0.10791042
-0.49061093 -0.44262176 0.00000000
0.62458714 -0.73343385 0.22117603
0.38873806 0.18625869 0.13765772
-0.47179447 0.12246508 0.00000226
-0.13734667 0.23498192 0.00000000
0.68379530 0.03993627 0.24214126
0.34500540 -0.21084193 0.12217183
0.47959235 -0.44869492 0.16983119
-0.10353954 0.43559095 0.00000000
-0.26160387 0.02420998 0.00000000
0.30489714 -0.68413048 0.10796887
0.46470151 0.22017065 0.16455868
0.39382654 0.05832261 0.13946512
-0.10600773 -0.39310808 0.00000000
-0.19409692 0.20901518 0.00000000
-0.14298005 -0.42677698 0.00000000
0.03339523 0.51545595 0.01182578
0.19378616 0.31826621 0.06862725
-0.44044918 -0.39527613 0.00000000
-0.32493487 0.16489384 -0.00000026
-0.22594497 0.31497409 0.00000376
-0.27193067 0.07665816 0.00000000
-0.33303025 0.45839349 -0.00000082
-0.32894625 -0.20640627 0.00000000
-0.37858357 -0.72587431 0.00000000
0.29618582 -0.29968515 0.10488405
0.22962823 -0.26995786 0.08131496
0.27140643 0.42396336 0.09611028
-0.00778297 -0.26177642 0.00000000
0.10619407 0.00461371 0.03760499
0.55104223 -0.19828303 0.19513213
0.51557203 0.03086918 0.18257504
0.22371394 0.20095524 0.07922655
0.71687316 -0.66760620 0.25385600
0.06830187 0.04617777 0.02418677
0.68373638 -0.12492431 0.24212063
0.17657450 -0.38391931 0.06252780
-0.34430236 0.26041815 -0.00000052
0.38304213 0.01838397 0.13564095
-0.46945802 -0.74719090 0.00000000
-0.14622574 0.18268701 0.00000000
0.34212365 0.10266920 0.12115661
-0.03431334 0.73260805 -0.00000003
0.10786154 0.68441748 0.03819526
-0.03205237 -0.00651016 0.00000000
-0.25478950 0.09182472 0.00000000
0.63995930 -0.76092142 0.22661959
0.25051783 0.04829530 0.08871230
0.24361756 -0.47807950 0.08626881
0.36986689 -0.44556359 0.13097567
-0.68386371 -0.69533065 -0.00000026
-0.58871428 0.06127189 0.00000103
-0.74045889 0.02268222 -0.00000179
0.19533213 -0.28113113 0.06917017
0.21363542 0.38275652 0.07565461
0.01488727 0.77527372 0.00527180
0.00029933 -0.05130770 0.00010600
0.30043678 0.00247162 0.10639724
0.64156740 0.00524682 0.22718978
0.34159703 0.13618250 0.12096458
0.51627796 -0.32859011 0.18282186
0.53139088 0.10017252 0.18817293
-0.23406791 -0.05422055 0.00000000
0.37027544 -0.53777896 0.13112035
-0.29350937 0.13543211 0.00000546
-0.48159577 -0.00914484 -0.00000062
0.60749823 -0.66252303 0.21512453
-0.09430225 -0.10314218 0.00000000
-0.09127077 0.03242760 0.00001014
-0.61931178 -0.77348403 0.00000000
-0.35915404 0.01515838 -0.00000015
0.18727091 -0.28389630 0.06631557
0.25123424 0.27337766 0.08896583
0.38828828 0.08325993 0.13750361
0.74107054 -0.57229537 0.26242452
0.17893631 -0.46826644 0.06336416
0.31148876 -0.31338603 0.11030306
0.23495295 -0.71894371 0.08320053
0.56533857 0.12334903 0.20019545
0.26656511 -0.60332114 0.09439489
0.36444212 -0.77519648 0.12905468
-0.56111843 -0.70958223 0.00000000
-0.08921827 0.48678580 0.00000000
0.08615372 0.51868317 0.03050839
-0.02750353 0.52595800 0.00000000
-0.66604608 -0.44344314 -0.00000064
-0.33811368 -0.61090829 0.00000000
-0.30168705 0.37212474 0.00000135
