ply
format ascii 1.0
element vertex 1381
property float x
property float y
property float z
end_header
-0.01955817 -0.44717905 0.18610034
-0.28766642 -0.37516577 0.00000000
-0.01494664 0.16099166 0.14222064
-0.36820107 0.00570394 0.00000620
-0.05686191 0.20825888 0.54106694
-0.58105658 0.10049187 -0.00000124
-0.02807956 -0.68963685 0.26718333
-0.01022280 0.35116115 0.09722022
-0.48205823 0.05228640 -0.00000074
-0.03001493 -0.10595651 0.28559878
-0.19159023 0.11542138 0.00000738
-0.06528888 0.15797199 0.62125139
-0.06761400 0.36404112 0.00000000
-0.00867782 0.36543362 0.08257142
-0.03262580 0.43354816 0.31044883
-0.04894130 -0.76246215 0.46568740
-0.07016777 -0.63622916 0.66766534
-0.03068922 0.26257795 0.29201788
-0.15953213 -0.41799107 0.00000000
-0.39218156 -0.01422969 -0.00000023
-0.04787266 0.28554819 0.45552982
-0.04082934 0.44915386 0.00000000
-0.44960368 0.23566974 0.00000079
-0.00138016 -0.11652638 0.01313252
-0.04055616 -0.60284467 0.38590095
-0.01038678 -0.03015365 0.09883250
-0.06324424 -0.45793094 0.60178677
-0.26326849 -0.23478913 0.00000000
-0.01072013 -0.01969055 0.10200441
-0.33070725 0.01512162 -0.00000002
-0.47660988 -0.20834555 -0.00000025
-0.07152040 -0.05327527 0.68054711
-0.04475006 0.34241951 0.42581733
-0.05104223 -0.08544913 0.48568353
-0.59374707 0.15944924 -0.00000070
-0.03130797 -0.45982523 0.29790237
-0.04163959 0.33574035 0.39621910
-0.02557306 0.19718171 0.24333336
-0.42506343 -0.60414761 0.00000000
-0.02470550 -0.52119318 0.23507836
-0.51107408 -0.73060943 0.00000000
-0.13101612 -0.47636172 0.00000000
-0.12228634 0.34474129 0.00000498
-0.64321355 -0.04754879 -0.00000125
-0.01198287 0.59963127 0.11400787
-0.07872793 0.53096332 0.00000000
-0.70611008 -0.78084259 -0.00000005
-0.34254427 -0.27738358 0.00000000
-0.25965537 0.02751932 0.00000000
-0.48050400 0.29073104 -0.00000115
-0.01406000 0.57626719 0.00000314
-0.44039340 0.19072623 -0.00000080
-0.10544293 0.20219911 0.00000000
-0.54448792 0.13790760 0.00000060
-0.03563508 -0.40486713 0.33907576
-0.77059712 -0.72725115 -0.00000018
-0.02662268 0.10141810 0.25332078
-0.13763889 0.11813061 0.00000815
-0.05841637 0.02735865 0.55585530
-0.03067903 -0.34182084 0.29191780
-0.00273379 0.37588289 0.02601263
-0.05713056 0.08654915 0.54362104
-0.04377386 0.23199771 0.00000786
-0.03723306 -0.43810358 0.35428092
-0.00498721 -0.16490148 0.04745441
-0.00462597 0.72488540 0.04401291
-0.02303871 0.20302623 0.21921849
-0.00763802 -0.07657449 0.07267748
-0.63563999 0.00945692 -0.00000132
-0.01403169 -0.20078854 0.13351470
-0.03199655 0.13871745 0.30445570
-0.23004757 0.46190740 -0.00000038
-0.00293955 -0.16056340 0.02797049
-0.02972556 -0.00301719 0.28284534
-0.03501069 0.19196456 0.33309602
-0.02332023 -0.79138109 0.22189716
-0.77889387 -0.01735615 -0.00000188
-0.07788447 -0.58955430 0.74109407
-0.05460158 0.05543811 0.51952134
-0.07145607 0.07770961 0.67993145
-0.52497686 -0.28145571 -0.00000033
-0.08264695 -0.29928767 0.78641760
-0.02333135 0.25598193 0.22195348
-0.39531323 -0.57684088 0.00000000
-0.07117865 -0.57001721 0.67728574
-0.04697061 0.29041969 0.44693700
-0.06926898 0.10777144 0.65912179
-0.19340981 0.22960308 0.00000564
-0.02927404 0.21294296 0.27855062
-0.00477194 -0.68153492 0.04540606
-0.05080643 0.20902002 0.48342895
-0.57914469 0.04086818 -0.00000113
-0.03862270 0.11986561 0.36750750
-0.06481220 -0.41796281 0.61670762
-0.00010270 0.03206682 0.00086678
-0.01331865 -0.21420078 0.12672989
-0.06352233 -0.01596958 0.60444106
-0.63684417 -0.59697700 -0.00000025
-0.04022589 0.27908596 0.00000000
-0.01206296 0.28190950 0.11478174
-0.16317829 0.27833338 0.00000000
-0.03668219 0.25615969 0.34904476
-0.02828210 0.52603323 0.26911690
-0.04327262 -0.14177291 0.41174972
-0.29720912 0.29750447 -0.00000038
-0.02845293 -0.35507866 0.27073597
-0.01488662 0.24024176 0.14158730
-0.03127618 0.39722270 0.29758968
-0.07354979 0.06932288 0.69986027
-0.24957105 0.07352964 0.00000713
-0.15546464 -0.44308623 0.00000000
-0.05340508 -0.07656474 0.50816774
-0.01869237 0.33468732 0.17781820
-0.32224812 0.28468582 -0.00000046
-0.33562732 -0.32097877 0.00000000
-0.00803809 0.35996840 0.07648418
-0.19017455 0.41262800 -0.00000013
-0.01785126 0.10053258 0.16978009
-0.12299582 0.33693933 0.00000000
-0.39001898 -0.41374694 0.00000000
-0.00975990 -0.42463898 0.09286758
-0.41879366 -0.28210391 0.00000000
-0.04886196 -0.19173381 0.46493498
-0.00022281 -0.14728959 0.00212004
-0.10367984 0.12493902 0.00000856
-0.03321936 0.44265391 0.00000486
-0.05821586 0.55148968 0.00000000
-0.07224061 -0.75033810 0.68738705
-0.55980406 -0.06480086 -0.00000086
-0.05524717 0.06687204 0.00001016
-0.68183870 0.11219901 -0.00000161
-0.26159334 0.12304001 0.00000000
-0.04894805 -0.19890388 0.46575404
-0.57288951 -0.72349124 0.00000000
-0.02339313 0.33278508 0.00000666
-0.06397159 -0.20908162 0.00000000
-0.04982904 0.00716752 0.47409211
-0.21759667 0.02732140 0.00000831
-0.76008879 -0.35705916 -0.00000111
-0.14576307 0.07111833 0.00000000
-0.03914845 0.17267018 0.37247228
-0.00167983 0.30295129 0.01598394
-0.02097522 -0.65637698 0.19958390
-0.03415807 -0.13997964 0.32502165
-0.03462507 0.24840920 0.32946982
-0.57699823 -0.70909582 0.00000000
-0.05910725 0.01177525 0.56239477
-0.18629043 -0.69439100 0.00000000
-0.03481578 -0.32869054 0.33127995
-0.00770235 -0.54564883 0.07328962
-0.02807327 0.35898949 0.26710057
-0.02951616 -0.64243769 0.28085283
-0.72649496 -0.18491330 -0.00000136
-0.06194389 -0.61568177 0.58941022
-0.30755912 -0.40148013 0.00000000
-0.03671304 -0.07127200 0.34933279
-0.57371581 0.02945814 -0.00000109
-0.53556260 0.10577364 0.00000131
-0.06463255 0.09218289 0.61499366
-0.00616991 -0.61706986 0.05870807
-0.04062109 -0.25664440 0.38651869
-0.03938553 0.28046960 0.37474719
-0.03391464 0.41847178 0.32270392
-0.56900093 -0.13813098 -0.00000077
-0.07653608 -0.65753148 0.72826207
-0.05859445 -0.36907143 0.55754268
-0.72965880 -0.20056523 -0.00000135
-0.01827897 0.53114570 0.17393128
-0.76709489 -0.66310275 -0.00000034
-0.35938666 -0.24194730 0.00000000
-0.02926079 0.01761080 0.27842290
-0.00485076 0.07731296 0.04615610
-0.01714446 0.61872438 0.00000000
-0.08268217 0.39769887 0.00000000
-0.02568422 0.52775170 0.24439690
-0.41757705 0.01398944 0.00000511
-0.01410497 0.51753584 0.13421273
-0.00674857 0.38724176 0.06421418
-0.03201502 0.28730713 0.30460235
-0.01285830 0.58713454 0.12235110
-0.00421216 0.31630063 0.04001519
-0.51707197 -0.77203978 0.00000000
-0.07142419 0.00504555 0.67963266
-0.07201698 -0.52899684 0.68526369
-0.09747267 0.40922523 0.00000439
-0.60380037 -0.18847030 -0.00000083
-0.18756628 -0.44710135 0.00000000
-0.29658241 0.28935121 -0.00000036
-0.55328718 -0.09192067 -0.00000078
-0.04170212 0.16459363 0.39677444
-0.37584702 -0.07609814 -0.00000006
-0.05118670 -0.35411427 0.48705340
-0.02734861 0.55580975 0.00000000
-0.25731184 0.52058138 -0.00000027
-0.45000272 0.08486012 0.00000330
-0.00997808 -0.22831525 0.09494369
-0.07009924 -0.13840453 0.66702236
-0.07133345 -0.21105722 0.67876529
-0.11957809 0.34806967 0.00000000
-0.00093516 0.52161326 0.00000000
-0.00254562 0.71091542 0.02422214
-0.11902189 -0.42618038 0.00000000
-0.44983675 -0.16137987 -0.00000022
-0.03160924 -0.43199697 0.30076895
-0.02751095 0.24391112 0.26172901
-0.28953406 0.39042662 -0.00000051
-0.07058363 -0.30939944 0.67162848
-0.07306200 0.62442824 0.00000153
-0.04185596 -0.54903066 0.39826877
-0.15340656 -0.03017809 0.00000000
-0.10180866 0.68935825 -0.00000024
-0.03234554 -0.23637904 0.00000000
-0.02466876 0.39932851 0.23473184
-0.41221801 0.15940071 0.00000278
-0.72704988 -0.65262125 -0.00000037
-0.02948739 -0.16804190 0.28057907
-0.09184504 0.02733334 0.00001020
-0.03089773 0.23661719 0.29396022
-0.00907878 -0.26909064 0.08638665
-0.10940482 -0.30072803 0.00000000
-0.02792378 -0.52640962 0.26570097
-0.07746820 -0.00368745 0.73714516
-0.04615410 0.10586814 0.43917330
-0.45770422 -0.65561549 0.00000000
-0.00431014 0.33280061 0.04101195
-0.28877357 0.17627090 -0.00000013
-0.03400983 0.12565295 0.32361319
-0.23517691 -0.61925603 0.00000000
-0.06960931 0.00412122 0.66236293
-0.01162087 -0.72144141 0.00000000
-0.00376701 -0.58698146 0.03584398
-0.04263949 -0.64233884 0.40572430
-0.03007220 -0.78770694 0.28614370
-0.02248542 0.54937791 0.21395323
-0.03748885 -0.09224497 0.35671478
-0.30255381 -0.44284800 0.00000000
-0.05435220 0.18208357 0.51716980
-0.57225313 0.10598418 -0.00000122
-0.36267519 0.41363777 -0.00000086
-0.32499086 0.30434519 -0.00000051
-0.19777414 0.02590056 0.00000000
-0.63974357 -0.45522151 -0.00000051
-0.03045444 -0.08879472 0.28978076
-0.06911710 -0.36567914 0.65767253
-0.00014715 0.62330723 0.00140019
-0.23919455 0.16480936 0.00000000
-0.43790734 0.18757065 0.00000182
-0.74396876 -0.66238454 -0.00000034
-0.56208720 0.10689350 -0.00000117
-0.02662885 0.18501422 0.25332385
-0.23255129 -0.62065658 0.00000000
-0.24670371 0.48716801 -0.00000050
-0.44076956 0.34094534 -0.00000080
-0.49777080 0.22028512 -0.00000110
-0.21277170 0.38370250 0.00000287
-0.00519866 0.62666502 0.04944788
-0.01962856 -0.07507279 0.18677016
-0.04127915 0.01057303 0.39272241
-0.01977168 0.05277060 0.18804880
-0.04855493 -0.43258317 0.46201104
-0.62327079 -0.34943421 -0.00000063
-0.39582632 -0.45095748 0.00000000
-0.23976028 0.15500463 0.00000000
-0.05681930 -0.51267201 0.54064828
-0.06747192 0.06484758 0.64201155
-0.32427187 -0.09187343 0.00000000
-0.00567284 0.47164225 0.00000000
-0.22614209 0.37159207 -0.00000021
-0.48528595 0.12856773 0.00000190
-0.05090675 0.29964821 0.48439938
-0.04583604 -0.76673235 0.43614011
-0.47300354 0.31360404 -0.00000096
-0.27967384 0.17533172 0.00000506
-0.03956928 -0.13519137 0.37651056
-0.07945736 -0.25752304 0.75606852
-0.01959799 0.29047655 0.18643012
-0.06756671 -0.68155991 0.64291379
-0.02716111 0.28256456 0.25844605
-0.25433346 -0.04991686 0.00000000
-0.02242000 -0.64010516 0.00000000
-0.15021954 0.00747910 0.00000962
-0.04791199 -0.65558448 0.45589326
-0.13110558 0.05767271 0.00000000
-0.07756393 0.04521325 0.00001015
-0.39799810 -0.75445856 0.00000000
-0.38800270 -0.38059748 0.00000000
-0.13542261 0.51730681 0.00000212
-0.36240397 0.12528723 -0.00000035
-0.04135060 0.12174200 0.39342161
-0.07418633 -0.13389896 0.70591369
-0.01364653 0.17380609 0.12977649
-0.07707294 -0.44987369 0.73337545
-0.03751978 0.08651540 0.00000000
-0.21875682 0.41764326 -0.00000026
-0.42433817 -0.40402715 0.00000000
-0.21314716 0.56604908 -0.00000050
-0.08647842 0.56508589 0.00000222
-0.71964418 -0.44535926 -0.00000087
-0.01512944 -0.29676084 0.14396003
-0.02345703 -0.79813297 0.22319889
-0.42052643 0.02020896 0.00000495
-0.08129660 -0.11000400 0.77357295
-0.07729041 -0.42925285 0.73544523
-0.43694070 -0.79135944 0.00000000
-0.42287577 0.27137314 0.00000071
-0.01615852 0.30896397 0.15370121
-0.37343967 -0.30031054 0.00000000
-0.08163746 -0.67532006 0.77680302
-0.07582898 -0.15312963 0.72154420
-0.03290935 0.37299374 0.31312858
-0.05182758 0.02123871 0.49315861
-0.03923300 -0.27012073 0.37331074
-0.17490447 0.03882215 0.00000000
-0.27666183 -0.71639208 0.00000000
-0.26319330 -0.33977597 0.00000000
-0.02008192 0.01139972 0.19108391
-0.18390372 -0.35784409 0.00000000
-0.49658898 -0.57863742 0.00000000
-0.01544541 0.49377218 0.14694292
-0.49121096 0.00171108 -0.00000069
-0.03029182 0.32941420 0.28820967
-0.06154751 0.11874180 0.00000000
-0.05857683 0.44563098 0.00000000
-0.03977360 -0.17529113 0.37845466
-0.14173129 0.56213090 0.00000125
-0.16504704 0.00267132 0.00000000
-0.02087290 0.54805879 0.19860643
-0.05985915 -0.49542820 0.56957474
-0.75718479 -0.51050146 -0.00000072
-0.03463801 -0.73122653 0.32958835
-0.19025772 0.31189625 0.00000000
-0.01102454 -0.43966531 0.10490096
-0.06496907 -0.05595176 0.61820693
-0.01348344 -0.72314134 0.12829791
-0.04380849 0.20553823 0.41682813
-0.01387054 0.51916696 0.00000400
-0.00839400 0.11996788 0.07978327
-0.29696656 0.19176169 0.00000446
-0.04387504 0.00379588 0.41742666
-0.67343288 0.11492321 -0.00000149
-0.25284356 -0.01567222 0.00000000
-0.27378264 0.05819526 0.00000000
-0.20124457 0.08945731 0.00000762
-0.00409326 -0.00066750 0.03894830
-0.00404908 -0.34392885 0.00000000
-0.07802209 0.00604523 0.00000000
-0.52781012 0.17874514 0.00000024
-0.01655321 0.05483613 0.15750745
-0.48226253 -0.17585344 -0.00000033
-0.38124919 0.29810135 -0.00000074
-0.39622869 0.32764324 0.00000028
-0.02442108 -0.46912735 0.23237199
-0.04955322 0.26349265 0.47152102
-0.04021071 -0.15550821 0.38261387
-0.20586937 0.48361280 -0.00000032
-0.38041939 0.04016385 0.00000539
-0.14093063 0.65753335 -0.00000033
-0.01028415 0.44237215 0.09781724
-0.01187286 0.14450417 0.11289323
-0.03476804 0.13564293 0.00000944
-0.03310924 0.06939014 0.31504246
-0.15090559 -0.27838319 0.00000000
-0.05667517 -0.66696329 0.53927685
-0.01835951 0.16199210 0.17462569
-0.02070347 -0.01562784 0.19699817
-0.03319706 0.25788356 0.31584690
-0.04776642 -0.32714316 0.45450811
-0.48755159 0.05677300 -0.00000077
-0.02904645 -0.69790024 0.27638348
-0.19843615 -0.07693088 0.00000000
-0.02983310 0.47061656 0.28387515
-0.22766485 0.05899607 0.00000768
-0.01368589 -0.14298674 0.13022430
-0.78204996 -0.44564212 -0.00000089
-0.02755304 -0.13069842 0.26217330
-0.05348288 -0.56394815 0.50890158
-0.07164623 -0.77339718 0.68173080
-0.01115263 0.45215180 0.10608343
-0.78137594 -0.37986971 -0.00000105
-0.01954121 0.57948049 0.18593803
-0.03228777 0.36810190 0.30723103
-0.40538808 0.06875259 -0.00000044
-0.27114434 0.36190116 -0.00000038
-0.07744009 -0.34742841 0.73687140
-0.01315634 -0.77394990 0.12518548
-0.23315953 -0.56111381 0.00000000
-0.60197090 -0.19241652 -0.00000081
-0.58883533 -0.05073960 -0.00000101
-0.08230224 -0.53833800 0.78313184
-0.01188140 0.33748861 0.11300223
-0.03305499 0.11284593 0.31452703
-0.07572818 -0.39803547 0.72058063
-0.18722715 0.04207433 0.00000000
-0.23234913 -0.72518848 0.00000000
-0.02384586 0.55325729 0.22690139
-0.43661976 0.03021336 -0.00000050
-0.00138575 0.41104764 0.01313143
-0.02292158 0.01623058 0.21810392
-0.05448401 0.11018025 0.51843790
-0.69678556 -0.42364549 -0.00000081
-0.04137586 -0.75063470 0.39370056
-0.01158166 0.44096327 0.11016474
-0.02182311 0.35493641 0.20761636
-0.06387051 -0.41193415 0.60774693
-0.00637458 -0.50173587 0.06065556
-0.43270332 -0.77160941 0.00000000
-0.05696119 -0.71411825 0.54199844
-0.02393178 0.07353788 0.22771618
-0.23552251 0.01465911 0.00000823
-0.20770385 0.33799073 0.00000373
-0.06388095 -0.59588578 0.60784296
-0.04425352 0.35383034 0.42109265
-0.06821029 -0.31499108 0.64904451
-0.24788463 -0.57289376 0.00000000
-0.26816218 0.21980456 0.00000454
-0.02067926 0.23406462 0.00000818
-0.07857169 -0.33712368 0.74763918
-0.01679034 0.58004667 0.15975773
-0.62777037 -0.07393304 -0.00000113
-0.02011533 0.60372963 0.19140673
-0.04246542 0.72777851 0.00000039
-0.00879642 0.12238686 0.08369994
-0.08365807 0.37125758 0.00000517
-0.01275012 0.64238653 0.12131718
-0.24549947 0.37840039 -0.00000030
-0.01688341 0.22026884 0.16058682
-0.59830043 -0.39902248 -0.00000043
-0.01479387 0.49257115 0.14076760
-0.00506009 0.41561797 0.00000569
-0.02189492 -0.55646164 0.20833506
-0.61541877 -0.14423745 -0.00000096
-0.14401100 -0.76941294 0.00000000
-0.32438155 0.19207309 -0.00000031
-0.19624808 -0.45625963 0.00000000
-0.69752237 -0.46958774 -0.00000073
-0.06560771 0.01951477 0.62428543
-0.07691522 0.21318282 0.00000764
-0.07347440 0.14623239 0.00000870
-0.00742986 -0.55889737 0.07069681
-0.07494157 -0.11555271 0.71310066
-0.29912330 0.20946011 0.00000412
-0.05434767 0.18317735 0.51714187
-0.39564108 -0.00367459 -0.00000027
-0.21601382 0.39381069 -0.00000020
-0.04876904 -0.67467347 0.46404833
-0.14747427 0.50587068 0.00000208
-0.06024414 0.30387400 0.00000000
-0.11004975 -0.07085206 0.00000000
-0.24617863 0.13791476 0.00000622
-0.00182782 -0.77808275 0.01739208
-0.05140345 0.18707363 0.48910708
-0.09774715 -0.70130960 0.00000000
-0.31368261 0.45725963 -0.00000073
-0.36878140 -0.47625207 0.00000000
-0.49881508 -0.22003643 -0.00000033
-0.04617584 0.43214662 0.00000000
-0.08020880 -0.12301259 0.76322158
-0.01156593 0.06791369 0.00001081
-0.31679074 0.19077381 -0.00000028
-0.00348840 0.01981757 0.03319289
-0.65815172 -0.44113336 -0.00000061
-0.43857263 -0.68751986 0.00000000
-0.00343965 -0.55533774 0.03272902
-0.04903202 0.19773245 0.46653975
-0.74716113 -0.46900473 -0.00000083
-0.01226513 -0.19073442 0.11670540
-0.02052815 0.51535104 0.19531973
-0.06494511 -0.03362107 0.61797939
-0.02194900 0.20555961 0.20884961
-0.03843547 0.35382330 0.36573015
-0.57731513 -0.68983246 0.00000000
-0.30373754 0.35556460 0.00000159
-0.35034947 -0.23914767 0.00000000
-0.32554299 0.16948610 -0.00000027
-0.05384527 -0.33246134 0.51235177
-0.63557963 -0.17044268 -0.00000100
-0.01232513 0.61079041 0.11727809
-0.75155965 -0.42791137 -0.00000093
-0.07571419 -0.79039719 0.72043842
-0.22064697 -0.79811719 0.00000000
-0.48234662 0.21687008 -0.00000103
-0.03633525 0.42549380 0.34574237
-0.03128316 0.21053098 0.29766864
-0.03406615 -0.50876744 0.32414698
-0.60942785 0.15575978 -0.00000094
-0.48141788 -0.02140950 -0.00000060
-0.22448482 -0.04075070 0.00000000
-0.45039762 0.21639965 0.00000110
-0.36911778 -0.19137527 0.00000000
-0.36624583 -0.42160885 0.00000000
-0.05258472 -0.01577449 0.50036258
-0.02674594 0.24736618 0.25449477
-0.04516203 0.64971446 0.00000157
-0.41480319 0.21912817 0.00000174
-0.07412934 -0.77030019 0.70535843
-0.51452339 0.04545378 -0.00000086
-0.41815460 -0.04988551 -0.00000028
-0.49033410 -0.70277871 0.00000000
-0.07705845 -0.30232786 0.73324075
-0.40866306 0.05262686 -0.00000042
-0.00095483 0.77887261 0.00908541
-0.12771539 0.48435431 0.00000281
-0.08158133 -0.24000161 0.77627925
-0.13896087 0.11305664 0.00000821
-0.66327434 0.12358868 -0.00000144
-0.60985627 0.00120325 0.00000163
-0.00008709 -0.58218091 0.00082871
-0.38581822 -0.67758030 0.00000000
-0.48269430 -0.06795409 -0.00000053
-0.02116623 0.37782778 0.20136873
-0.04042236 -0.30343381 0.38462782
-0.22320149 0.26862849 -0.00000001
-0.07642850 -0.14175466 0.72724923
-0.76838994 -0.14319729 -0.00000161
-0.00216250 0.24694570 0.02049967
-0.04414915 0.35583251 0.42009952
-0.52826262 0.17501321 0.00000030
-0.03682790 -0.44916814 0.35042571
-0.00115489 0.23918711 0.01090970
-0.19512265 -0.24907040 0.00000000
-0.07206490 -0.64437030 0.68571758
-0.07834761 -0.68890040 0.74549867
-0.07695311 0.07264836 0.00000000
-0.00050828 0.45595651 0.00478744
-0.05148186 0.01741164 0.48986878
-0.03311585 0.26862783 0.31507583
-0.07555818 -0.10492059 0.00000000
-0.00480488 -0.33711005 0.04571953
-0.06744221 0.12320018 0.64173888
-0.41994306 0.25755471 -0.00000083
-0.01256969 -0.35624323 0.11960340
-0.00953643 0.51486428 0.09071196
-0.73782148 -0.60779145 -0.00000048
-0.05168760 -0.43914716 0.49181904
-0.12639264 -0.42916288 0.00000000
-0.06822263 0.06742434 0.64915662
-0.43283404 -0.77747945 0.00000000
-0.06154846 -0.31034940 0.58565298
-0.01399821 -0.04938175 0.13319612
-0.69309805 -0.00836923 -0.00000153
-0.28839902 0.40702132 -0.00000054
-0.00796456 0.31931920 0.07572519
-0.13467132 0.58944986 0.00000093
-0.22194375 0.23774778 0.00000000
-0.38802136 -0.51344589 0.00000000
-0.04016108 -0.48928803 0.00000000
-0.02694893 0.52736654 0.25642914
-0.42370022 0.22341582 -0.00000079
-0.11294116 0.01309090 0.00000000
-0.61895026 0.13139463 -0.00000146
-0.07636165 0.05924804 0.72661523
-0.01993055 -0.54231560 0.18964361
-0.01248119 -0.70907461 0.11876131
-0.00876115 -0.48885004 0.08336428
-0.13288141 0.63023679 -0.00000027
-0.38318950 0.09143694 0.00000448
-0.25260112 -0.61321377 0.00000000
-0.47253630 0.07208578 -0.00000073
-0.60144078 -0.65476639 0.00000000
-0.68939008 0.05173953 -0.00000162
-0.02705507 0.07822687 0.25743506
-0.14433008 -0.17356340 0.00000000
-0.23924583 -0.64965241 0.00000000
-0.65643489 -0.56821927 -0.00000038
-0.40265891 0.29652054 0.00000068
-0.22564265 -0.79431605 0.00000000
-0.03376715 0.00242463 0.32122890
-0.66197949 0.11235327 -0.00000123
-0.02332747 0.31479670 0.22192659
-0.02936933 -0.57947455 0.27945570
-0.47518393 -0.77407323 0.00000000
-0.03903919 -0.34144987 0.37146665
-0.05635293 0.08046267 0.53622136
-0.07137355 0.21264829 0.00000000
-0.36272458 -0.77139599 0.00000000
-0.01296349 0.38078761 0.12330616
-0.06004181 0.21774866 0.57132465
-0.52394220 -0.71457168 0.00000000
-0.05749172 0.07418591 0.54703039
-0.39631208 0.05024858 0.00000491
-0.03642643 -0.54608328 0.34660559
-0.03226559 0.02367954 0.30701431
-0.06138525 0.08441797 0.58408730
-0.04375057 -0.03478354 0.41629963
-0.04347293 0.16207127 0.00000000
-0.00590250 -0.58960784 0.05616359
-0.02358097 0.37563894 0.22438035
-0.66676991 -0.40136178 -0.00000072
-0.44568416 0.21083217 0.00000128
-0.05329473 -0.15267856 0.50711628
-0.72903733 -0.31023603 -0.00000115
-0.29005383 0.40696627 0.00000100
-0.02530796 -0.29929675 0.00000000
-0.12790231 0.18955992 0.00000723
-0.00993167 -0.35408846 0.09450210
-0.02801127 0.11872103 0.26647004
-0.16729868 0.29993368 0.00000000
-0.58017175 -0.27773263 -0.00000057
-0.03847545 -0.49009550 0.36610252
-0.11390132 0.14845793 0.00000805
-0.06260828 -0.23865840 0.59573918
-0.04913262 0.30010290 0.46751942
-0.00264268 -0.12174792 0.02514574
-0.04924447 -0.72971644 0.46857215
-0.73319605 -0.18794582 -0.00000138
-0.04483783 -0.16039037 0.42664333
-0.52492724 0.11900002 -0.00000104
-0.70871330 0.07011895 -0.00000173
-0.17079133 -0.71249953 0.00000000
-0.33117725 0.13931490 -0.00000025
-0.73502698 -0.64339140 -0.00000039
-0.02133674 0.47616499 0.20300839
-0.04162260 0.11067222 0.39605333
-0.01375572 -0.71318012 0.13088871
-0.30171611 -0.14945880 0.00000000
-0.27870933 0.29440839 0.00000309
-0.66599719 0.11326572 -0.00000163
-0.02274223 0.56171766 0.21640261
-0.02525270 0.08084809 0.24028505
-0.01860624 0.43044584 0.17704361
-0.08262368 -0.34535253 0.78619502
-0.01169310 -0.40613046 0.11126250
-0.31610833 -0.64813840 0.00000000
-0.00374441 0.59265129 0.03562887
-0.25055197 -0.34997469 0.00000000
-0.01462837 -0.14702389 0.13919219
-0.00870218 0.62662581 0.08280366
-0.04231140 -0.41899098 0.40260244
-0.07444040 -0.29664151 0.70832837
-0.02390761 -0.76458132 0.22748627
-0.05484242 -0.68907294 0.52183791
-0.03779017 0.03190115 0.35952100
-0.69483878 0.01167255 -0.00000157
-0.01686868 -0.77783835 0.16050926
-0.38498348 0.41139297 -0.00000096
-0.00101220 0.38593345 0.00963134
-0.06895271 0.00510016 0.65611495
-0.00571710 0.66488532 0.05439946
-0.09106207 -0.20688212 0.00000000
-0.05921980 0.09602606 0.56348045
-0.04985628 0.26268153 0.47440487
-0.36391629 0.37647565 0.00000009
-0.29993844 -0.26584666 0.00000000
-0.01040711 0.08776137 0.09902601
-0.01293672 0.49474034 0.00000438
-0.06035445 0.05151819 0.57429785
-0.07262552 -0.70590398 0.69105067
-0.71757953 -0.47428624 -0.00000081
-0.06934150 -0.63088212 0.65980299
-0.66561834 -0.47756574 -0.00000058
-0.00259368 0.12988366 0.02467943
-0.00446385 -0.49188321 0.04247451
-0.42623537 0.08939940 0.00000368
-0.03410837 -0.51813883 0.32454877
-0.13321337 0.34487704 0.00000482
-0.03702175 0.04821991 0.35227212
-0.35903589 0.08802448 -0.00000027
-0.15814511 -0.32686934 0.00000000
-0.05953159 -0.31124600 0.56646114
-0.00827417 0.32752613 0.07867274
-0.43319894 -0.30916625 0.00000000
-0.53483310 0.18525763 -0.00000000
-0.02470035 0.53323968 0.23503492
-0.32851380 -0.58504055 0.00000000
-0.31568100 -0.39664556 0.00000000
-0.02634719 0.26985857 0.25070081
-0.01076755 -0.32137394 0.00000000
-0.36281536 0.18238947 -0.00000046
-0.00576091 0.16194326 0.05473159
-0.34032925 0.11561797 0.00000490
-0.03189587 0.33324089 0.30350129
-0.20890251 0.58827546 -0.00000052
-0.01606443 -0.09341918 0.15285667
-0.05606184 -0.06310664 0.53344876
-0.60334225 0.11313145 -0.00000136
-0.43519439 0.09938864 -0.00000062
-0.28371355 -0.54362209 0.00000000
-0.06011683 0.10473663 0.57201914
-0.69329473 -0.66590047 -0.00000034
-0.00076481 -0.36049830 0.00727732
-0.04158376 0.33407676 0.39567724
-0.24613848 -0.27416346 0.00000000
-0.16782573 -0.20730609 0.00000000
-0.02851796 -0.25528451 0.00000000
-0.64951581 0.04518087 0.00000014
-0.74957325 -0.32221690 -0.00000119
-0.08195364 -0.56676735 0.77981418
-0.42851402 -0.05249769 -0.00000032
-0.02047787 -0.00979419 0.19485148
-0.24613993 -0.76943523 0.00000000
-0.03188152 0.00368261 0.30328451
-0.31287750 -0.00790493 0.00000000
-0.59608263 -0.32464506 -0.00000056
-0.32459073 0.40034378 -0.00000068
-0.03688284 0.06304968 0.35089118
-0.00263445 0.05611755 0.02496355
-0.18956255 -0.72899017 0.00000000
-0.31399394 -0.39230553 0.00000000
-0.01169971 -0.39888144 0.11132532
-0.08341587 -0.75550952 0.79372331
-0.08044305 -0.01604867 0.76545252
-0.04095387 0.24394560 0.38966692
-0.05518151 0.00276534 0.52503149
-0.02774322 -0.20326965 0.00000000
-0.27296215 0.21420867 0.00000454
-0.03707891 -0.22825614 0.35281408
-0.02496447 0.34324426 0.23751104
-0.04297426 0.24999469 0.00000000
-0.00964095 -0.42481877 0.09173576
-0.02772826 0.03836587 0.26384060
-0.05912312 -0.40317215 0.56257263
-0.23148724 -0.71155747 0.00000000
-0.05022372 0.22501314 0.47790053
-0.11758381 -0.65659490 0.00000000
-0.03650070 -0.28100076 0.34731227
-0.06926273 0.10396500 0.65906162
-0.04948669 -0.51441279 0.47087687
-0.31376211 0.43162899 -0.00000069
-0.00447342 -0.05068054 0.00000000
-0.02910942 -0.15846078 0.27698258
-0.52528755 -0.62463988 0.00000000
-0.47524486 0.19172835 0.00000103
-0.05528239 0.13254007 0.00000000
-0.46216047 -0.50943835 0.00000000
-0.01957960 0.13802991 0.18623312
-0.06630628 -0.13246020 0.63093001
-0.03000807 0.33713046 0.28553766
-0.02457877 0.05133443 0.23387250
-0.00008178 0.72974675 0.00076813
-0.32636690 -0.68691829 0.00000000
-0.47536590 -0.62605723 0.00000000
-0.03794553 0.21176618 0.36106543
-0.21144580 0.09866636 0.00000000
-0.06931275 -0.69026010 0.65952834
-0.06378647 -0.58766461 0.60694407
-0.00469743 0.69754322 0.04469724
-0.00931123 0.49122349 0.08859840
-0.05228923 -0.21358095 0.49754722
-0.00936006 0.08873035 0.08906302
-0.01297168 0.32536952 0.12337613
-0.15259213 0.42704014 0.00000329
-0.35096147 0.44691641 -0.00000087
-0.06980126 -0.34274101 0.00000000
-0.03529387 -0.22618140 0.33582907
-0.06535225 -0.78113576 0.62184123
-0.03706847 0.31761912 0.35270183
-0.00341972 -0.66133445 0.03253944
-0.04424719 -0.69698249 0.42102192
-0.01034433 0.37783476 0.00000000
-0.07849463 -0.14239848 0.74690979
-0.00053533 0.03135960 0.00498378
-0.73595340 -0.38107005 -0.00000105
-0.19277331 0.43001771 0.00000248
-0.38706906 0.19686463 0.00000264
-0.06519389 0.13992938 0.62034423
-0.02810635 0.12040113 0.26743817
-0.04466648 -0.04437995 0.42501497
-0.01803927 0.51367666 0.17163252
-0.32945626 -0.54693928 0.00000000
-0.47493006 -0.42091030 0.00000000
-0.13764902 0.62071379 0.00000035
-0.07631039 -0.72748691 0.72611291
-0.35322519 -0.65426624 0.00000000
-0.01021607 0.33182885 0.09720818
-0.02208102 0.44213789 0.21010858
-0.00623380 -0.78475887 0.00000000
-0.09309603 0.27362832 0.00000649
-0.23087472 0.30452503 -0.00000011
-0.51072319 -0.27066065 -0.00000029
-0.01889293 0.04989965 0.00001097
-0.05051287 -0.26003589 0.48064313
-0.00664051 0.22161329 0.06311083
-0.03939235 -0.64001394 0.37482700
-0.00372708 -0.00796884 0.03546396
-0.65478210 -0.22009377 -0.00000099
-0.28326413 0.04731378 0.00000702
-0.43549698 -0.26781115 0.00000000
-0.01689634 0.52122501 0.16077449
-0.04110807 -0.35061763 0.39115244
-0.41156426 -0.09695632 -0.00000017
-0.04383282 0.18929185 0.41708637
-0.56396468 0.15762481 -0.00000010
-0.02971216 -0.64391019 0.28271787
-0.52730678 -0.52525709 0.00000000
-0.48938741 -0.01405602 -0.00000065
-0.05479326 -0.15783512 0.52137570
-0.50349269 0.08478313 -0.00000088
-0.06760715 0.14004686 0.64331353
-0.00954921 0.16488585 0.09086290
-0.46947966 0.21950456 -0.00000098
-0.06060249 -0.69234436 0.57664624
-0.07251181 0.03608766 0.68998266
-0.02258146 0.34647755 0.00000646
-0.00303056 0.08398846 0.02873712
-0.24154365 0.29009856 -0.00000013
-0.68617648 0.03893980 -0.00000158
-0.69826756 -0.63616047 -0.00000041
-0.01355595 -0.68567291 0.12898793
-0.07949491 -0.08291521 0.75642920
-0.09698945 0.03518648 0.00000000
-0.00980906 -0.71471297 0.09333544
-0.06285000 0.09465675 0.59804541
-0.00183509 0.23354571 0.01746126
-0.56858556 -0.09529662 -0.00000084
-0.75474185 -0.79534807 -0.00000001
-0.05147589 -0.57478087 0.48980462
-0.56225320 0.11101532 -0.00000118
-0.05461149 0.09592468 0.51962259
-0.02706013 -0.10493199 0.25748320
-0.05414012 0.72016066 0.00000029
-0.51287392 -0.39671865 -0.00000007
-0.25091786 -0.45292515 0.00000000
-0.06941052 0.12414736 0.66047166
-0.19445169 0.45940406 -0.00000023
-0.02708965 0.40579952 0.25776825
-0.04001366 -0.68726816 0.38073895
-0.00222429 -0.78170844 0.00000000
-0.01243370 0.39527583 0.11830941
-0.33116134 0.32086066 -0.00000057
-0.43264287 0.06822834 -0.00000055
-0.02048280 0.75133984 0.00000042
-0.41787398 -0.64601135 0.00000000
-0.04037775 -0.41978477 0.38420332
-0.01421512 -0.12494574 0.13526003
-0.08258779 -0.28895430 0.78585494
-0.29018366 0.49656314 -0.00000050
-0.76037458 -0.79651739 -0.00000001
-0.05090670 -0.63995645 0.48438857
-0.05032841 -0.32716800 0.47888670
-0.08284686 -0.10322316 0.78832448
-0.05551893 0.07637159 0.52825545
-0.05386864 -0.15747039 0.51257739
-0.39870872 -0.64463361 0.00000000
-0.00812949 -0.66376373 0.07735391
-0.06419048 0.66484114 0.00000103
-0.04798491 0.02120026 0.45654376
-0.13598738 0.62363590 0.00000033
-0.02905722 0.13651569 0.27648609
-0.03770444 0.09525802 0.35871606
-0.21351468 0.30894740 0.00000410
-0.52448948 -0.69387880 0.00000000
-0.47726929 0.20322986 -0.00000098
-0.02622534 0.23462922 0.24949214
-0.00413681 -0.50759108 0.03936264
-0.02812451 0.59022986 0.00000272
-0.03297193 0.68269439 0.00000126
-0.06834194 0.12724566 0.00000000
-0.03202219 0.32913936 0.30470314
-0.05115101 -0.48920316 0.48671326
-0.62992220 0.14872304 -0.00000154
-0.04320605 0.20808807 0.41112264
-0.02434559 0.36120079 0.23165599
-0.01675175 -0.19784461 0.00000000
-0.25559193 0.22863136 0.00000464
-0.53204381 -0.41405543 -0.00000012
-0.05544298 0.15305235 0.52754587
-0.11572486 -0.55321198 0.00000000
-0.04571633 0.10285901 0.43496751
-0.05120022 -0.03567253 0.48718787
-0.25022870 0.16373727 0.00000577
-0.01682371 0.42429189 0.16004840
-0.12373620 -0.70677371 0.00000000
-0.70482289 -0.50185575 -0.00000071
-0.42654757 -0.02225514 -0.00000037
-0.02699572 0.31966852 0.25687288
-0.07823549 0.69034660 0.00000033
-0.01210212 -0.52949254 0.11515435
-0.46037475 0.08929147 -0.00000071
-0.06610897 -0.01636012 0.62905457
-0.00822964 0.52671265 0.07827765
-0.34174548 0.13755483 0.00000450
-0.00245342 0.74296188 0.02333968
-0.41264953 -0.58891521 0.00000000
-0.02315873 0.46535168 0.22034665
-0.03505410 -0.15424591 0.33354760
-0.00999162 -0.25844953 0.09507249
-0.03840613 0.24768081 0.36544901
-0.52228512 0.20695205 -0.00000012
-0.01803844 -0.23952157 0.17163982
-0.03409905 0.30309724 0.32443905
-0.06469797 0.37125371 0.00000000
-0.08993287 0.14590784 0.00000845
-0.03425131 0.08450197 0.32591023
-0.03359261 -0.56905743 0.31964117
-0.05076349 -0.54847444 0.48302597
-0.39484986 -0.51567675 0.00000000
-0.03603881 -0.66611579 0.34291732
-0.43645935 0.18277231 -0.00000077
-0.03730446 0.09836579 0.35496320
-0.06947726 -0.48758510 0.66109745
-0.34482155 -0.63950280 0.00000000
-0.11856774 0.09553170 0.00000878
-0.08213800 0.24310797 0.00000711
-0.03885667 -0.02401637 0.36973120
-0.27352827 -0.56056503 0.00000000
-0.39954105 -0.15910305 -0.00000001
-0.01458728 0.04833718 0.13880126
-0.02744166 -0.73721293 0.26111348
-0.28106277 0.47562845 -0.00000063
-0.29167972 0.17717356 -0.00000014
-0.06809393 -0.26092300 0.64793830
-0.46472691 -0.00678571 -0.00000056
-0.23169493 0.20421614 0.00000544
-0.02380287 0.53046783 0.22648826
-0.49263271 -0.49716712 0.00000000
-0.05048306 0.28575520 0.48036950
-0.29518983 -0.02833674 0.00000000
-0.01118617 -0.49010616 0.10643890
-0.03866282 -0.53057744 0.36788539
-0.62879905 -0.73816565 0.00000000
-0.02379189 0.11876923 0.22638519
-0.34857427 0.08887577 -0.00000023
-0.07154595 0.10684856 0.68079321
-0.05155756 0.29228057 0.49059411
-0.18382609 0.49907175 0.00000150
-0.03543583 -0.15179103 0.00000000
-0.02194244 -0.72246713 0.00000000
-0.04779908 -0.43776361 0.45481891
-0.01821902 0.61687838 0.17336100
-0.35877447 -0.13937640 0.00000000
-0.41472425 0.30455909 -0.00000089
-0.00830270 -0.52340676 0.07900201
-0.03955742 0.17227124 0.37640292
-0.17539018 0.03899137 0.00000877
-0.72335495 -0.61557567 -0.00000046
-0.61416438 -0.50431736 -0.00000032
-0.03012890 -0.75221672 0.28668319
-0.05181992 -0.66528017 0.49307815
-0.09780171 0.04354531 0.00000987
-0.03070659 0.20296709 0.29213530
-0.07111295 -0.37621777 0.00000000
-0.02856535 -0.56792055 0.27180566
-0.70382334 -0.04791780 -0.00000150
-0.36096062 0.25891552 -0.00000058
-0.09609810 -0.28124487 0.00000000
-0.00421025 0.45433740 0.04001688
-0.03818154 -0.00957967 0.36330717
-0.02453242 0.14860937 0.23343140
-0.00002929 -0.78129887 0.00027866
-0.00223126 0.49186061 0.02118933
-0.21160009 -0.50183673 0.00000000
-0.01361129 -0.21813838 0.12951445
-0.02217851 -0.76125447 0.21103352
-0.06356753 -0.45315991 0.60486319
-0.37213116 -0.17985906 0.00000000
-0.30430874 0.21821243 0.00000387
-0.01850870 -0.16077689 0.17611442
-0.11146238 0.44707764 0.00000000
-0.00278801 0.02934019 0.02652854
-0.03229905 -0.43967506 0.30733272
-0.03221354 -0.03266799 0.30651903
-0.59850621 -0.67715337 0.00000000
-0.24293122 0.10953913 0.00000669
-0.40935577 0.31820400 0.00000019
-0.03643472 -0.73182953 0.34668446
-0.21219737 0.48166180 -0.00000034
-0.00959915 0.17060510 0.09125928
-0.01679961 -0.48287861 0.15985203
-0.06997111 -0.74689443 0.66579195
-0.03304115 0.39535560 0.31440046
-0.10175005 -0.13496119 0.00000000
-0.78813291 -0.31847732 -0.00000120
-0.63341748 -0.40917806 -0.00000057
-0.33537563 0.01825077 0.00000662
-0.34668950 0.17066089 0.00000385
-0.54442126 0.08891143 0.00000142
-0.04317685 0.37936676 0.41084670
-0.00530597 0.28301012 0.05048745
-0.05187493 -0.04366597 0.49360797
-0.23206160 0.14531410 0.00000632
-0.11480216 0.15604844 0.00000793
-0.06204540 -0.42437595 0.59037962
-0.04899926 0.30874286 0.00000663
-0.31747154 0.06562815 0.00000617
-0.06863352 -0.68983913 0.00000000
-0.01313997 -0.27358315 0.12502975
-0.77555326 0.02117557 -0.00000188
-0.01895233 0.27078877 0.18028290
-0.29496804 0.39663388 -0.00000055
-0.04311589 0.10578262 0.00000000
-0.08242697 -0.73075682 0.78431413
-0.15220572 0.55179206 -0.00000021
-0.35342746 -0.78220272 0.00000000
-0.11077180 0.00801072 0.00001021
-0.07356510 0.05486787 0.70000576
-0.40095551 0.29861577 -0.00000082
-0.00895492 0.42531386 0.08516513
-0.05401109 -0.15496529 0.00000000
-0.01374527 -0.45023068 0.13078932
-0.15680566 -0.58539817 0.00000000
-0.24620726 0.32534612 -0.00000021
-0.40072348 0.23753658 0.00000170
-0.05968474 -0.54395908 0.56791425
-0.40172359 -0.08706954 -0.00000015
-0.54786322 0.07751260 -0.00000106
-0.07979075 -0.00456084 0.75924574
-0.20483205 -0.76267578 0.00000000
-0.00099543 0.29242545 0.00947175
-0.02206013 0.77311256 -0.00000005
-0.03713205 0.23796066 0.35329322
-0.01530751 0.10229970 0.14557283
-0.01220407 -0.37775276 0.11612444
-0.39105140 0.25689436 -0.00000071
-0.64843274 -0.10862892 -0.00000116
-0.67198340 -0.59653903 -0.00000040
-0.18277876 0.10914758 0.00000000
-0.41719672 -0.20776182 0.00000000
-0.05016945 -0.43459414 0.47737350
-0.01981624 -0.09679123 0.18855592
-0.76140514 -0.07487817 -0.00000170
-0.48847818 0.07749661 -0.00000081
-0.02778428 -0.55034474 0.26437359
-0.49624603 0.15726636 0.00000121
-0.51972606 -0.72937855 0.00000000
-0.17569515 -0.21686738 0.00000000
-0.56740609 0.13114592 -0.00000124
-0.12511346 0.30810650 0.00000000
-0.03018741 0.40146587 0.28722842
-0.27566384 0.38366946 -0.00000044
-0.01651451 0.05076692 0.15705177
-0.06724549 -0.64106503 0.63985792
-0.20620832 0.40033173 0.00000272
-0.01157098 0.07648754 0.11001055
-0.00906866 -0.40354204 0.08629032
-0.00899396 -0.44663285 0.08557951
-0.02730118 0.53242245 0.25978344
-0.59092262 -0.66838824 0.00000000
-0.02357262 -0.34553245 0.22429872
-0.66321334 0.04660956 -0.00000150
-0.05686184 -0.09063571 0.54106080
-0.20068578 -0.63496676 0.00000000
-0.02990761 0.40828769 0.28458299
-0.02443622 -0.41960179 0.23251608
-0.06101721 -0.77363266 0.58059240
-0.06419453 -0.10502016 0.61083585
-0.41725859 0.06993527 -0.00000049
-0.03765041 0.24280171 0.35825779
-0.04297580 0.35045669 0.40893419
-0.17417090 0.07220574 0.00000000
-0.06946715 0.05054435 0.66101099
-0.01670305 0.44191612 0.15890316
-0.45052980 -0.13539533 -0.00000027
-0.55919743 0.19088188 -0.00000056
-0.57977085 -0.15556636 -0.00000079
-0.23817674 0.39308071 -0.00000030
-0.51735835 -0.31178221 -0.00000024
-0.01213055 0.42741288 0.11538621
-0.27242437 0.32758529 0.00000266
-0.68991393 -0.44432446 -0.00000074
-0.45257910 -0.62271684 0.00000000
-0.60916334 0.08235287 -0.00000133
-0.19867742 0.34047570 0.00000386
-0.73570445 -0.00432225 -0.00000172
-0.06925228 -0.08641986 0.00000000
-0.06252315 -0.00155790 0.59493341
-0.09889349 0.55459289 0.00000000
-0.46254729 0.07579390 -0.00000069
-0.31172297 -0.36908059 0.00000000
-0.08024093 -0.70272732 0.76351386
-0.13835731 -0.39802201 0.00000000
-0.05140287 -0.29375092 0.48911153
-0.06246236 -0.02259959 0.59435458
-0.26864346 0.48522177 0.00000010
-0.25394825 0.11396257 0.00000000
-0.04529987 0.04800808 0.43099450
-0.52516280 -0.54159317 0.00000000
-0.03868525 -0.38472829 0.36809880
-0.00333028 0.47144344 0.03164519
-0.38104214 0.31037474 0.00000086
-0.31930684 -0.31028608 0.00000000
-0.00762473 0.45948065 0.07251142
-0.03261565 0.39276361 0.31035150
-0.00988544 -0.36090478 0.09406216
-0.03922975 0.25445023 0.00000000
-0.70392851 0.04826442 -0.00000096
-0.27760872 -0.54642655 0.00000000
-0.06694305 -0.31484604 0.63698589
-0.02060965 -0.32655422 0.19610544
-0.52020839 0.26886417 -0.00000128
-0.03531498 -0.77044816 0.33602989
-0.55673996 -0.14903020 -0.00000070
-0.03881738 0.02991457 0.36929673
-0.27035354 0.47701855 0.00000020
-0.05293029 0.12034270 0.50362669
-0.30729242 0.38775015 -0.00000058
-0.02139053 -0.07423889 0.20353565
-0.36231813 -0.26874514 0.00000000
-0.32567420 0.42743007 -0.00000073
-0.00680544 -0.11827191 0.06475531
-0.45001384 0.27989525 0.00000005
-0.21922504 0.40076521 -0.00000023
-0.45744027 -0.37714719 0.00000000
-0.12643329 -0.61242796 0.00000000
-0.25233919 0.53544402 -0.00000061
-0.02682658 0.47134063 0.25525509
-0.04476437 0.06677725 0.42590135
-0.06268252 -0.76938202 0.59643816
-0.08136185 0.13722350 0.00000871
-0.09069301 -0.27725078 0.00000000
-0.07903772 -0.17925487 0.75207696
-0.62012764 0.01834705 0.00000115
-0.00314599 0.34568133 0.02993483
-0.06593649 0.54171834 0.00000000
-0.05778403 -0.63624519 0.54982791
-0.02932848 0.15239568 0.27901085
-0.08954339 -0.17139252 0.00000000
-0.07459554 -0.38257806 0.70980307
-0.05080083 0.25778482 0.48339275
-0.03510916 -0.28034269 0.33407150
-0.00381196 0.20782094 0.03627167
-0.00219545 -0.14613025 0.02089022
-0.11559190 0.23716762 0.00000670
-0.65317082 -0.35707880 -0.00000074
-0.22644422 0.44644943 -0.00000034
-0.04992889 -0.67026002 0.47508450
-0.12276798 0.36385268 0.00000000
-0.04017945 -0.78602679 0.38231644
-0.43756778 0.27041903 0.00000044
-0.26599406 0.17347963 0.00000536
-0.05148642 0.08346200 0.00000000
-0.33247245 0.16106683 -0.00000029
-0.05306313 0.09868190 0.50491704
-0.77796238 -0.39654255 -0.00000101
-0.04022332 0.24877615 0.38274079
-0.40284349 0.26985678 -0.00000078
-0.03578872 0.26181557 0.34054295
-0.03553789 0.36510232 0.33815796
-0.04225116 -0.40111986 0.40202919
-0.76579626 -0.01972987 -0.00000182
-0.02298007 0.05464981 0.00000000
-0.15751981 0.25280598 0.00000000
-0.10267781 0.45071281 0.00000369
-0.65019625 -0.75869063 -0.00000002
-0.02877346 -0.63453338 0.27378590
-0.37870820 0.10005290 0.00000442
-0.39904855 0.32852606 0.00000021
-0.01718765 0.64480405 0.00000000
-0.00245310 0.44400134 0.02329352
-0.58780572 0.07511454 0.00000082
-0.05216245 0.14549310 0.49632340
-0.59115775 -0.45654319 -0.00000030
-0.16384944 0.59605167 0.00000026
-0.54339682 0.10591263 0.00000116
-0.04935532 0.22183925 0.46963713
-0.06037796 -0.26347263 0.57451577
-0.32276368 0.42108836 0.00000013
-0.03143847 0.07963709 0.00001033
-0.49521666 0.22669630 -0.00000110
-0.16916633 0.13307403 0.00000745
-0.04295702 0.00829285 0.00001123
-0.02130032 0.50160461 0.20266625
-0.02782979 0.22535977 0.26476032
-0.00389669 0.43227970 0.03702974
-0.54034842 -0.37932454 -0.00000022
-0.43336041 0.26883821 -0.00000091
-0.05376107 -0.67674831 0.51154860
-0.01738352 -0.53100618 0.16540807
-0.02589157 -0.79282422 0.00000000
-0.36661766 0.00928408 -0.00000017
-0.04132005 0.04185261 0.39317306
-0.10216505 0.41907284 0.00000000
-0.00409518 0.45875911 0.03896659
-0.03300466 -0.74384529 0.00000000
-0.00226209 -0.60300015 0.02152429
-0.71887986 -0.73162827 -0.00000017
-0.02737839 0.38276198 0.26051545
-0.01371871 0.36855748 0.13053660
-0.06229066 -0.32612609 0.59271524
-0.00593202 0.06542514 0.05634606
-0.00845930 0.29880613 0.08049216
-0.29430680 0.12853221 -0.00000007
-0.04801389 -0.30627380 0.45686297
-0.46355846 0.16677191 -0.00000086
-0.04029933 -0.33407877 0.38345714
-0.00785677 -0.28758558 0.07475895
-0.17953258 0.06298764 0.00000000
-0.05253151 -0.44752344 0.49984902
-0.03789745 0.34764042 0.36061038
-0.00233648 0.74745110 0.02222750
-0.02509572 -0.18450289 0.23879140
-0.01769463 0.59484168 0.16837203
-0.00235329 -0.27687777 0.02239211
-0.21418443 0.42040700 0.00000223
-0.05849428 0.03340820 0.55659679
-0.22561436 -0.19519851 0.00000000
-0.45005796 0.19657308 -0.00000085
-0.01270007 -0.67107859 0.12084397
-0.03446927 0.43983009 0.00000000
-0.10419401 0.35368025 0.00000512
-0.27056137 -0.41676401 0.00000000
-0.39444595 0.11494098 -0.00000047
-0.41209207 0.23652299 -0.00000076
-0.25112948 -0.12035527 0.00000000
-0.01020091 -0.44292870 0.09706395
-0.00410732 0.14926684 0.03908210
-0.11988190 0.26673585 0.00000000
-0.03598452 0.37213578 0.34239517
-0.35855853 -0.07936631 0.00000000
-0.35478830 -0.64389065 0.00000000
-0.49290162 0.30352311 -0.00000117
-0.54145209 0.03629438 -0.00000096
-0.00143000 -0.36926287 0.01360681
-0.02065390 -0.07540189 0.19652642
-0.77703176 -0.48512434 -0.00000079
-0.26604738 0.19984927 -0.00000007
-0.05243877 0.23056412 0.49897829
-0.21686637 -0.43053622 0.00000000
-0.03593418 0.35141424 0.34192874
-0.34292647 -0.42970325 0.00000000
-0.04026212 0.06946303 0.38305339
-0.46829191 -0.76001317 0.00000000
-0.01997940 -0.57177658 0.19010849
-0.42076530 0.32822199 -0.00000096
-0.14347117 -0.29884124 0.00000000
-0.42530074 0.34184891 -0.00000051
-0.01287571 -0.68014093 0.12251526
-0.70432494 -0.73740624 -0.00000016
-0.03781653 0.43565170 0.35984160
-0.30814623 0.20561150 -0.00000026
-0.15778344 0.21112462 0.00000000
-0.72026370 -0.33105302 -0.00000107
-0.38097770 0.19319350 0.00000282
-0.63666383 0.00301443 -0.00000131
-0.06234050 0.00314531 0.59319547
-0.00074406 -0.14530619 0.00707993
-0.05971023 0.12353516 0.56815275
-0.24064183 0.35663434 0.00000278
-0.04163754 0.36176421 0.39619390
-0.22357912 0.01960165 0.00000000
-0.00445789 -0.53416416 0.04241781
-0.33312098 -0.44738237 0.00000000
-0.05652570 0.14193729 0.53786643
-0.26773586 -0.22079005 0.00000000
-0.68037868 -0.08802230 -0.00000133
-0.64797693 -0.31719258 -0.00000079
-0.70176423 -0.44924352 -0.00000079
-0.17036910 -0.13279219 0.00000000
-0.05244281 -0.75742008 0.49900506
-0.54983116 0.10627296 0.00000103
-0.44985705 -0.67915642 0.00000000
-0.07419208 -0.64912438 0.70595829
-0.10857732 0.34217089 0.00000000
-0.01177476 -0.18303181 0.11203949
-0.00123633 0.72068307 0.01176392
-0.11344936 -0.37497708 0.00000000
-0.74372493 0.04446367 -0.00000166
-0.56302894 -0.76312102 0.00000000
-0.02045213 -0.61451407 0.19460662
-0.03374753 -0.54221409 0.32111529
-0.15610851 -0.72752703 0.00000000
-0.02755495 0.25536911 0.26214981
-0.00235652 0.74120310 0.02241725
-0.26293634 0.47707094 -0.00000055
-0.21554991 0.15447492 0.00000643
-0.31056511 0.41976608 -0.00000065
-0.44828083 0.25802843 -0.00000096
-0.12512088 -0.29589901 0.00000000
-0.51364359 0.14617945 -0.00000104
-0.07770749 0.46319594 0.00000000
-0.08099008 0.24909986 0.00000704
-0.23558115 -0.06320238 0.00000000
-0.01203842 -0.70664869 0.11454829
-0.17505897 0.47960373 0.00000199
-0.03062960 -0.46646012 0.29144745
-0.15867121 0.00385570 0.00000000
-0.18396719 0.31558991 0.00000000
-0.04756335 -0.19369288 0.45257782
-0.79810013 -0.17729662 -0.00000156
-0.74676540 -0.26757871 -0.00000130
-0.29083307 0.38630571 -0.00000051
-0.00956067 -0.22370049 0.09097191
-0.03521917 -0.15914060 0.33511827
-0.00439890 0.52414584 0.04182219
-0.33827358 -0.38814836 0.00000000
-0.12493444 0.12511415 0.00000000
-0.50509307 -0.50484365 0.00000000
-0.02458716 0.40867009 0.23393140
-0.06095335 -0.27590821 0.57999080
-0.02185131 0.17260081 0.20785681
-0.07864231 -0.04225121 0.74831689
-0.07667433 -0.32115851 0.72958521
-0.00392273 0.68239115 0.03732562
-0.04569650 -0.40953366 0.43481239
-0.01441986 0.01717211 0.13720821
-0.00148000 0.69816575 0.01408252
-0.00725004 0.65337401 0.06898617
-0.02599356 -0.03912633 0.24733455
-0.32852963 0.23442792 0.00000314
-0.01678803 0.15873475 0.15967025
-0.30060872 0.44617861 -0.00000066
-0.03255610 0.37920484 0.30976770
-0.42096693 0.04403105 -0.00000046
-0.06379126 -0.18749042 0.60699694
-0.02010376 -0.21380934 0.19129178
-0.50973797 0.18068179 0.00000056
-0.07003175 -0.45153672 0.66637442
-0.17942293 0.50814903 0.00000143
-0.65263256 -0.50818830 -0.00000047
-0.32540973 -0.05894517 0.00000000
-0.32388569 -0.75090210 0.00000000
-0.04661228 -0.66772998 0.44352628
-0.20588202 -0.16783733 0.00000000
-0.02027122 0.21756442 0.19282637
-0.02916042 -0.11205318 0.27746789
-0.05774766 -0.50044737 0.00000000
-0.50827723 0.01800219 -0.00000079
-0.42996901 -0.31671346 0.00000000
-0.02122504 0.39859144 0.20196261
-0.24557728 -0.38624139 0.00000000
-0.00764866 -0.36303946 0.07277874
-0.01249706 0.47605043 0.11888115
-0.09150392 -0.16783076 0.00000000
-0.02067338 -0.16861720 0.19671181
-0.10275170 0.24893724 0.00000672
-0.01228403 -0.06117667 0.11688529
-0.05496150 -0.77226974 0.00000000
-0.01615634 0.05500536 0.15373115
-0.77779096 -0.46075243 -0.00000085
-0.00049048 -0.01130774 0.00466700
-0.03709844 0.02291511 0.35293615
-0.41245579 -0.66874129 0.00000000
-0.03682203 0.05730630 0.35037180
-0.04372338 0.33617796 0.00000000
-0.02897099 0.25479062 0.27566771
-0.05091829 -0.23667663 0.48450140
-0.25045095 -0.30178276 0.00000000
-0.65842892 -0.66629101 -0.00000022
-0.54948485 -0.00076237 -0.00000093
-0.06252932 0.19603081 0.59499572
-0.02934023 -0.32064218 0.27917882
-0.10172341 -0.39052415 0.00000000
-0.07374761 -0.05248046 0.70174047
-0.53133451 -0.42012692 -0.00000011
-0.56361400 -0.04847130 -0.00000091
-0.16127007 -0.35121151 0.00000000
-0.06787028 -0.38638558 0.64580783
-0.23156886 0.07553193 0.00000000
-0.02658068 0.14321729 0.25292109
-0.05676521 -0.66354054 0.54013364
-0.06127412 -0.32885535 0.58304219
-0.02129036 0.23237100 0.20258252
-0.02347510 0.53520281 0.22336969
-0.05723431 -0.71631260 0.54459724
-0.27175622 0.15832418 0.00000550
-0.44207437 -0.60861225 0.00000000
-0.25064638 -0.67255766 0.00000000
-0.41897059 -0.60812171 0.00000000
-0.30064509 0.09201030 0.00000605
-0.62567944 -0.03423917 -0.00000120
-0.03530672 0.12381193 0.33595387
-0.64965615 -0.43504298 -0.00000059
-0.04867527 0.15457002 0.00000000
-0.01749197 -0.55167131 0.16643996
-0.48100793 0.17783871 -0.00000095
-0.07890018 -0.67468686 0.75075687
-0.01723565 0.38962377 0.16400102
-0.00544626 0.18639265 0.05182237
-0.14688887 -0.31930770 0.00000000
-0.06092629 0.20192273 0.57974201
-0.55147541 -0.67459994 0.00000000
-0.04973379 -0.07838227 0.47323308
-0.72403445 -0.46178423 -0.00000085
-0.02728400 0.42214449 0.25961792
-0.28742657 0.05131650 0.00000689
-0.40261902 0.01508633 -0.00000033
-0.69367316 -0.06297640 -0.00000143
-0.11550351 0.09278962 0.00000000
-0.57004406 0.01040301 -0.00000104
-0.01458618 0.47527842 0.13876236
-0.01481042 0.44518465 0.14092443
-0.01604623 0.54214322 0.15268553
-0.32426890 -0.70651780 0.00000000
-0.10057565 0.31923720 0.00000000
-0.03551092 -0.44113152 0.33789434
-0.14494637 -0.55957620 0.00000000
-0.05189518 0.05842130 0.49376469
-0.09888517 0.44418528 0.00000385
-0.69897958 -0.42814569 -0.00000081
-0.01957226 0.03755218 0.18623445
-0.30250631 0.31751458 -0.00000044
-0.30882926 0.36664370 0.00000131
