ply
format ascii 1.0
element vertex 1372
property float x
property float y
property float z
end_header
-0.17814641 0.36989906 0.19128371
-0.20440066 0.30652425 0.10906780
-0.24223357 0.55038692 -0.01347784
-0.44831603 -0.28235150 0.33331533
-0.43689959 -0.76932628 0.00000013
-0.60406133 -0.02364056 -0.02552801
-0.26678589 0.32418003 -0.00676212
-0.62632069 -0.71208215 0.04478148
-0.27817435 0.12841185 0.15729810
-0.15376261 0.33342531 0.00000056
-0.58094545 -0.60253561 0.00732440
-0.34762863 -0.46641515 0.00000146
-0.68787605 -0.02097474 -0.03377485
-0.01583191 -0.07477461 0.00000308
-0.17120058 0.43841296 -0.00207575
-0.26579438 0.51050276 -0.01416159
-0.30271896 -0.48090647 0.00000140
-0.00825916 0.11249187 0.00000394
-0.00455351 -0.36848963 0.00000189
-0.07350484 0.12121642 0.00000403
-0.16589446 -0.34856693 0.00000198
-0.13181911 0.27910203 0.00000472
-0.02227153 -0.47592357 0.00000128
-0.31449395 0.22142961 -0.00726200
-0.77682530 -0.58853751 -0.01958356
-0.00166739 -0.51259046 0.00000126
-0.60761697 -0.66692903 0.10402539
-0.49592067 -0.29013711 -0.00430697
-0.35560803 -0.11248705 0.00000301
-0.64484430 -0.42111779 -0.01350129
-0.52664726 -0.47145338 0.15354871
-0.26591155 -0.74900287 0.00000022
-0.79789377 -0.72523878 -0.01613063
-0.32956202 -0.09992675 0.00000306
-0.59504525 -0.00317108 -0.02547575
-0.39892595 0.30809824 -0.01894890
-0.59252344 -0.42297419 -0.00834551
-0.56945935 -0.68448183 0.00000051
-0.20703662 0.30016383 0.07156905
-0.48474247 -0.48174880 0.00000139
-0.41470847 0.23689587 -0.01761844
-0.25476390 -0.08779414 0.00000312
-0.47004547 -0.59764508 -0.00000195
-0.30862310 0.36514419 -0.01247344
-0.47402768 -0.48586918 -0.00000149
-0.05250464 0.44695809 0.00000514
-0.24012985 0.22026198 0.18625385
-0.26373347 0.16327205 0.24902796
-0.49937335 -0.40560490 0.04670698
-0.46158531 -0.31438188 0.20138713
-0.47372620 -0.47761002 0.00000141
-0.27171115 -0.62384864 0.00000077
-0.12207996 0.04675026 0.00000370
-0.29780686 -0.30681609 0.00000036
-0.10506857 -0.00333812 0.00000349
-0.00472907 0.56319932 0.00000152
-0.44335423 -0.27037271 0.33373091
-0.37770679 -0.77817796 0.00000010
-0.11828535 0.31045731 0.00000486
-0.30287712 0.06877239 0.21154138
-0.00545538 0.72842602 0.00000546
-0.56626416 0.13286531 -0.02815235
-0.55927796 -0.55023129 0.24854293
-0.18140543 0.36204305 0.05250975
-0.48644573 -0.37439536 0.05992958
-0.00507499 0.60557187 0.00000254
-0.05707759 0.24556222 -0.00000445
-0.41796874 -0.20908704 0.33935210
-0.48902497 -0.38062455 0.13036852
-0.52593478 -0.43078598 -0.00156459
-0.05002998 -0.37490348 0.00000156
-0.26003435 -0.70318199 -0.00000115
-0.42490915 -0.22583844 0.21436201
-0.22690907 0.25217416 0.23920597
-0.23648283 0.54834078 -0.01283712
-0.63341022 -0.60466479 -0.00500824
-0.72651920 -0.76821031 -0.00747157
-0.02237398 0.48201164 0.00000547
-0.05600512 0.65060258 0.00000601
-0.10282428 0.55175353 0.01037940
-0.13036251 0.38397294 0.00000763
-0.15163442 -0.38063357 0.00000092
-0.33002088 0.00324709 0.05068543
-0.34099738 0.08190367 -0.00422294
-0.38188146 -0.08057703 -0.00166106
-0.75048530 -0.30336252 -0.02849685
-0.23152662 -0.60821646 -0.00000056
-0.17242852 -0.36190732 0.00000192
-0.17086606 0.39969560 -0.00048598
-0.00038975 0.27727645 0.00000471
-0.10774651 0.10072089 -0.00000636
-0.29202123 -0.46342209 -0.00000029
-0.00660082 -0.55950177 0.00000101
-0.27519268 0.28508737 -0.00600591
-0.28423943 0.51109068 -0.01597666
-0.24008610 0.22038323 0.00164981
-0.27241481 -0.34414875 0.00000035
-0.40575003 -0.76500738 -0.00000230
-0.17527437 -0.57548953 0.00000098
-0.13833766 0.00445524 0.00000268
-0.43399285 -0.29305477 -0.00000040
-0.61094270 -0.67495573 0.02262149
-0.40443343 -0.05001764 -0.00508034
-0.28888101 -0.16854545 0.00000102
-0.62738166 0.14308884 -0.03449873
-0.53310784 -0.48704978 0.13048305
-0.14507383 -0.04015258 0.00000245
-0.19323566 0.04554255 0.00000253
-0.50163224 -0.41106567 0.27468281
-0.33218859 -0.00199558 0.32994050
-0.46563822 -0.54669727 -0.00000170
-0.13989636 -0.46842168 0.00000145
-0.09940311 0.18833626 0.00000432
-0.10203710 -0.18991964 0.00000267
-0.00796012 0.55536517 0.00000593
-0.41835868 -0.37476240 -0.00000066
-0.08664936 0.36676498 0.00000510
-0.34614407 -0.73329898 -0.00000180
-0.39750088 0.10227573 -0.01053026
-0.10455003 0.12035912 0.00000967
-0.21986861 -0.31431714 0.00000212
-0.28402337 -0.49801306 -0.00000039
-0.22947854 -0.78476538 -0.00000132
-0.32014985 -0.60680236 -0.00000109
-0.53275876 -0.48620377 0.03330838
-0.32906046 0.00556544 0.06003296
-0.10478042 0.47298143 0.00000494
-0.07425437 0.16888529 0.00000424
-0.69092169 -0.42566729 -0.01779307
-0.27411522 -0.74741662 0.00000023
-0.21740448 0.22540899 -0.00000009
-0.08193876 0.38943796 0.00000520
-0.01813980 0.36207408 0.00000946
-0.38644514 0.37723997 -0.02051859
-0.61855892 -0.69334459 0.15368736
-0.02172208 -0.12700260 0.00000294
-0.05677561 0.64012550 0.00000596
-0.00280683 -0.56034065 0.00000103
-0.32599201 0.01296548 0.29376372
-0.13467138 0.47486206 0.03327022
-0.59952136 0.12239255 -0.03096026
-0.79841908 -0.74472549 -0.01539780
-0.26946735 0.34824572 -0.00799072
-0.45216079 -0.45515460 0.00000151
-0.36377430 -0.07824382 0.14451093
-0.06378208 0.49635139 0.00000529
-0.01627405 0.46469021 -0.00000047
-0.40012550 -0.29081070 -0.00000019
-0.48284433 -0.36570880 0.33734155
-0.12601947 -0.55947022 0.00000029
-0.49817939 -0.63906667 -0.00000230
-0.02709219 0.35523994 0.00000489
-0.70539675 -0.57345618 -0.01325438
-0.40182366 -0.17010734 0.27681477
-0.18976572 -0.59056647 -0.00000023
-0.48540088 -0.37187744 0.19521013
-0.49872228 0.29252838 -0.02801498
-0.15290767 0.10428096 0.00000396
-0.27521103 0.45149129 -0.01270212
-0.01835867 -0.09648432 0.00000308
-0.00327202 0.58027999 0.00000832
-0.20758260 0.29883796 0.07040736
-0.65713080 -0.18810550 -0.02406671
-0.59285984 -0.32707704 -0.01223536
-0.26686125 0.15572571 0.21666974
-0.61561850 -0.68624598 0.17521385
-0.09571325 -0.17442942 0.00000274
-0.38984136 -0.14118013 0.29325084
-0.17891275 0.40552553 -0.00150021
-0.33478528 -0.00826389 0.31134020
-0.42356050 0.30909154 -0.02138195
-0.61734161 -0.77187022 -0.00000360
-0.32739830 -0.57284203 0.00000099
-0.50840906 -0.03463576 -0.01579656
-0.10489517 0.54674658 0.09882123
-0.07804524 0.61156995 0.01597689
-0.74179616 -0.00951964 -0.03947201
-0.56868003 -0.62885009 0.00000075
-0.44162924 -0.68672111 0.00000050
-0.25834739 0.17628345 0.00267670
-0.09339070 0.11126952 0.00000342
-0.46759342 -0.69843627 0.00000044
-0.29322094 0.09209305 0.17347852
-0.65117255 -0.77207889 0.08244034
-0.13874126 0.18121337 0.00000877
-0.16552222 0.40038282 0.00023612
-0.04076765 -0.19432286 0.00000240
-0.11408952 0.45467966 0.00000480
-0.62323020 -0.64999585 -0.00219631
-0.24852229 -0.54550915 0.00000111
-0.42807594 -0.67717019 -0.00000205
-0.39543487 -0.15467425 0.00182235
-0.22438147 0.22835517 0.00000314
-0.25698308 -0.70861540 -0.00000115
-0.05672666 -0.28635256 0.00000225
-0.12878064 -0.60466888 0.00000085
-0.19781464 0.27041570 0.00000733
-0.26607462 0.43874469 -0.01130198
-0.38786284 -0.70390534 0.00000042
-0.22676755 0.25253266 0.04419984
-0.12082613 0.50828840 0.00320011
-0.31504067 0.03941237 0.22699786
-0.20390709 -0.68151568 0.00000052
-0.24676738 0.02389307 0.00000813
-0.21775683 0.27427575 0.16407074
-0.05272277 0.47439382 0.00000526
-0.64814677 0.12518168 -0.03579527
-0.04032522 -0.09516366 0.00000284
-0.11776287 0.04634337 -0.00000735
-0.74576223 -0.63233374 -0.01480562
-0.31247706 0.04559960 0.10866023
-0.45247026 -0.15165144 -0.00565749
-0.07650045 0.55043424 0.00000545
-0.21409800 0.28310496 0.17330190
-0.27076740 0.14629536 0.10999182
-0.38319950 -0.79032289 0.00000004
-0.27383346 -0.54493306 -0.00000054
-0.26429638 -0.41764662 0.00000167
-0.10738647 0.22362401 0.00000898
-0.05707655 -0.35593767 0.00000160
-0.54495795 0.01802179 -0.02146210
-0.47024424 -0.08441572 -0.01008795
-0.41132431 0.28058542 -0.01904707
-0.30741540 0.45400051 -0.01593113
-0.22519582 0.25632467 0.07216018
-0.44998488 -0.28637631 0.20938108
-0.01372139 -0.42439314 0.00000164
-0.16690036 0.03394934 0.00000927
-0.30161303 -0.72134705 0.00000034
-0.26646041 -0.24605228 0.00000242
-0.37587165 0.04389048 -0.00608376
-0.78712703 -0.29114342 -0.03254631
-0.63647275 0.08424066 -0.03301422
-0.02052224 0.06828909 0.00000380
-0.28025892 -0.26920760 0.00000063
-0.20577248 0.30320680 0.10525518
-0.09301676 0.16773852 0.00000423
-0.36963140 -0.36402750 0.00000191
-0.77939195 0.00413667 -0.04367228
-0.10892239 -0.60108390 0.00000087
-0.10386322 0.47058961 0.00000231
-0.29496030 0.08788806 0.12794965
-0.35986463 -0.69567035 -0.00000172
-0.29866531 0.07894279 0.25285642
-0.65586526 -0.78340780 0.04318842
-0.20467218 0.24042908 0.00000741
-0.09636914 0.40235759 0.00000468
-0.76894596 -0.33481510 -0.02902425
-0.61263816 -0.74926338 0.00000022
-0.06988901 0.30220735 0.00000482
-0.18839299 0.13397114 0.00000409
-0.23208095 0.22312358 0.00000448
-0.38205348 -0.03725512 -0.00342026
-0.33949214 0.02687597 -0.00186643
-0.19790789 0.32219443 0.16061181
-0.25902562 0.17465692 0.04191461
-0.18643147 0.34990234 0.03545634
-0.15253626 0.17461407 0.00000334
-0.27616508 0.13326505 0.21451748
-0.21943703 -0.62195791 -0.00000055
-0.17771683 0.28731940 0.00000368
-0.61726875 -0.64062179 -0.00199441
-0.32369647 -0.35107065 0.00000196
-0.67717281 -0.83484752 0.09210561
-0.34466885 -0.03211229 0.19984294
-0.03323725 0.14995955 0.00000416
-0.32429917 0.01706146 0.02177734
-0.75435785 -0.16490555 -0.03444200
-0.35436791 0.26274086 -0.01279804
-0.16177204 -0.32263894 0.00000209
-0.16522959 0.26570211 0.00000466
-0.45071602 0.29551536 -0.02347267
-0.10131983 -0.11059260 0.00000240
-0.34487523 -0.51909957 0.00000123
-0.15227991 0.19434306 0.00000435
-0.24764151 0.20214054 0.03448999
-0.00697551 -0.33131913 0.00000205
-0.08312082 0.19805603 0.00000386
-0.18668323 0.02201517 0.00000247
-0.36730639 -0.08677667 0.36380784
-0.24189532 0.21600224 0.00040384
-0.53937984 -0.15142692 -0.01410669
-0.42434611 -0.73966684 -0.00000230
-0.41732774 -0.16247224 -0.00180941
-0.65677253 -0.78559809 0.08021619
-0.71233431 -0.51166469 -0.01641354
-0.25650157 0.01290745 0.00000201
-0.28836504 0.50204948 -0.01601363
-0.30090509 0.07353797 0.07164778
-0.25498180 0.18441480 0.09526307
-0.09231034 0.58310910 -0.00023336
-0.45536595 -0.29936486 0.13576889
-0.14611971 0.09360398 0.00000303
-0.14005325 0.34020196 0.00000414
-0.59021378 0.12992384 -0.03035989
-0.25137744 -0.55264197 0.00000108
-0.45372102 -0.29539665 0.22529938
-0.55138152 0.20253079 -0.02950912
-0.29352728 0.46157726 -0.01488715
-0.22247704 -0.62020503 0.00000079
-0.29177957 -0.71483789 -0.00000139
-0.05013916 -0.45032318 0.00000123
-0.21317837 -0.02761534 0.00000209
-0.45740545 0.21416000 -0.02084944
-0.26604050 0.36570784 -0.00836039
-0.38513292 -0.12980472 0.04685586
-0.32566445 0.01376085 0.15777734
-0.03856039 -0.78003041 0.00000009
-0.05983077 0.41353847 -0.00000037
-0.51782343 -0.45014725 0.04774615
-0.41665497 -0.53373302 -0.00000135
-0.32708481 0.01035369 0.01772333
-0.24574952 0.10612258 0.00000763
-0.54035312 -0.50453706 0.00101366
-0.00559419 -0.39232199 0.00000175
-0.41053907 -0.28803931 0.00000224
-0.29641381 -0.13276070 0.00000113
-0.45226195 -0.62741487 -0.00000197
-0.20536618 -0.37412876 0.00000062
-0.04662322 0.68745554 0.00000550
-0.20418126 0.06780694 -0.00000423
-0.17607445 0.03435990 0.00000259
-0.39119325 0.01182543 -0.00627884
-0.42144511 -0.08312659 -0.00540071
-0.09890082 0.24036345 0.00000901
-0.11906434 -0.39886897 0.00000175
-0.12929185 -0.27225018 0.00000231
-0.06383126 0.27890314 0.00000433
-0.06876075 0.60811616 0.00000616
-0.11898438 -0.65268497 -0.00000007
-0.29432578 -0.79322951 0.00000003
-0.09343373 -0.47970405 0.00000084
-0.22593484 0.30257948 -0.00192774
-0.13257494 0.50118469 -0.00084814
-0.15304953 -0.43658903 0.00000067
-0.19343002 0.09025073 0.00000389
-0.22881850 -0.55428264 -0.00000031
-0.17847410 0.19899096 0.00000437
-0.32145841 0.02391403 0.18977398
-0.11423201 0.26395829 0.00000465
-0.03553627 0.71419472 0.03769024
-0.13652266 -0.31813088 0.00000128
-0.08005494 -0.31743017 0.00000211
-0.01134408 -0.74995933 0.00000022
-0.36227111 0.43332394 -0.02042675
-0.09768963 -0.49446775 0.00000075
-0.13352880 -0.62178508 0.00000078
-0.52220014 -0.46071624 0.12811012
-0.45675527 -0.30272400 0.28560391
-0.50656597 -0.72016639 0.00000035
-0.62555569 0.05672563 -0.03084792
-0.78352461 -0.24236275 -0.03415868
-0.27152234 0.28113959 -0.00549062
-0.28770974 0.00140501 0.00000177
-0.48540739 -0.76285852 0.00000016
-0.01063637 -0.07496855 0.00000317
-0.22600105 -0.43860072 0.00000022
-0.13802784 -0.70972392 -0.00000044
-0.50743333 -0.42507024 0.25193968
-0.35095419 -0.71657292 -0.00000175
-0.31542250 -0.60077811 -0.00000103
-0.09476118 -0.13591405 0.00000291
-0.14462840 -0.34838312 0.00000198
-0.58354151 0.06706875 -0.02718259
-0.13908365 -0.33321984 0.00000120
-0.34625044 -0.03592736 0.16264008
-0.28821693 -0.43164119 0.00000161
-0.12596718 -0.54841093 0.00000110
-0.14544021 0.29134040 0.00000390
-0.12813664 0.06111830 0.00000299
-0.04308753 0.48999929 0.00000094
-0.16840648 0.39342643 0.02965211
-0.27414152 0.45439212 -0.01271495
-0.62374182 -0.67082099 -0.00140836
-0.33855696 -0.01736619 0.30526251
-0.40704336 -0.35706128 -0.00000052
-0.42420605 0.25984946 -0.01946312
-0.09613719 0.54295907 0.00000716
-0.28754381 -0.29268738 0.00000048
-0.49431885 -0.39340314 0.07250119
-0.67707466 -0.83461058 0.09824867
-0.65320951 -0.77699645 0.11801117
-0.20942399 -0.29657788 0.00000094
-0.66652334 -0.08759032 -0.02902178
-0.32520296 -0.74103064 0.00000026
-0.37950792 0.32510544 -0.01774793
-0.03842368 0.54409354 0.00000565
-0.01645375 0.43305926 0.00000530
-0.32498866 -0.54592842 -0.00000085
-0.38686800 0.03847914 -0.00693401
-0.03305853 0.47143034 0.00000556
-0.09589143 0.15752825 0.00000957
-0.22560349 0.25532864 0.16359562
-0.23685434 0.25283405 -0.00098485
-0.25499018 -0.36137537 0.00000038
-0.56356737 -0.25133467 -0.01243715
-0.29841623 0.04777295 -0.00000186
-0.60570656 0.10496010 -0.03086037
-0.38344869 0.39690787 -0.02101853
-0.03098312 0.26799544 -0.00000470
-0.11333992 0.52636172 0.00129906
-0.45552224 -0.44734087 0.00000154
-0.02736114 0.58867543 0.00000591
-0.19590419 0.32703263 0.05337977
-0.04283116 0.51225707 0.00000815
-0.20618440 -0.39089996 0.00000179
-0.23118787 0.24184599 0.22536749
-0.37181925 -0.09767284 0.38071936
-0.10421307 -0.74220191 -0.00000038
-0.49196185 -0.38771282 0.07155613
-0.53368894 -0.48845064 0.06967443
-0.73984783 -0.38729455 -0.02408783
-0.52488600 -0.46720298 0.20232600
-0.72635521 0.06494992 -0.04096779
-0.14447211 0.64609706 -0.00783351
-0.24253602 0.01677161 0.00000357
-0.02258590 -0.63265638 0.00000073
-0.30114152 -0.46760529 0.00000145
-0.28028751 0.12331194 0.10669684
-0.38400627 0.10367404 -0.00927589
-0.02832569 -0.62383220 0.00000060
-0.28976522 -0.21481019 0.00000081
-0.41801290 0.05965730 -0.01081045
-0.09295038 0.17301474 0.00000370
-0.36106774 -0.07171589 0.33153977
-0.18868915 -0.69073815 -0.00000066
-0.39332131 -0.14957308 0.04374669
-0.59372069 -0.69082999 0.00000048
-0.18828311 0.34542872 0.17696757
-0.02553678 0.15007755 0.00000416
-0.36484091 -0.67023385 -0.00000163
-0.33451926 -0.00760136 0.10201714
-0.14937446 -0.38488052 0.00000182
-0.47823114 0.11579767 -0.01891496
-0.06472756 0.36371620 0.00000470
-0.33617735 0.21199243 -0.00899027
-0.31551322 0.47862394 -0.01770791
-0.26379352 0.16313934 0.12635789
-0.33748880 -0.46754831 0.00000145
-0.53913975 0.09527532 -0.02400623
-0.21501170 0.28090223 0.08000679
-0.31655996 -0.30035420 0.00000219
-0.04268078 -0.17959242 0.00000246
-0.26241813 -0.28973932 0.00000223
-0.30186405 -0.26078812 0.00000236
-0.01728979 0.68833297 0.00000487
-0.32621885 0.01242088 0.20322632
-0.20222562 0.18910053 -0.00000141
-0.35286161 -0.05190360 0.30189520
-0.23399593 0.27355273 -0.00154307
-0.71263564 0.02848745 -0.03816838
-0.24534581 -0.24923938 0.00000093
-0.06859653 0.63437958 0.06920325
-0.45385332 -0.47040058 0.00000144
-0.18384100 0.04322798 0.00000258
-0.05103365 0.47399921 0.00000527
-0.12573336 0.49643928 0.06349623
-0.27543034 0.13504693 0.11850705
-0.32997046 0.28638351 -0.01137820
-0.25501246 0.18432992 0.22362116
-0.12757724 0.49198806 0.05525344
-0.05352513 -0.59997544 0.00000055
-0.38875857 -0.00251947 -0.00546856
-0.08376569 0.32412650 0.00000871
-0.11441060 -0.56498264 0.00000034
-0.41122713 -0.19281156 0.34462289
-0.21498799 0.25101951 0.00000330
-0.17096282 -0.16987162 0.00000172
-0.48252269 -0.36493163 0.27751370
-0.72086756 -0.29034375 -0.02614423
-0.30544593 0.06258272 0.14214965
-0.34651391 0.21387852 -0.01006996
-0.37262177 -0.09960732 0.34616727
-0.00812650 0.02257655 0.00000355
-0.17060598 0.14892756 0.00000312
-0.41184402 -0.11417132 -0.00321962
-0.09059376 0.58127378 0.08230252
-0.38167046 -0.12144836 0.12870434
-0.17684357 -0.51098638 0.00000020
-0.23733353 0.22700730 0.24012703
-0.06537049 0.51803212 0.00000778
-0.71526680 -0.03990448 -0.03567349
-0.14114624 0.63320912 -0.00699214
-0.72866191 -0.70325141 -0.01029255
-0.27759471 -0.29158855 0.00000055
-0.18833074 -0.36692588 0.00000189
-0.12896508 -0.66778629 0.00000058
-0.71204002 -0.66575197 -0.01018693
-0.09328146 0.05470747 0.00001025
-0.14902395 0.52250853 -0.00330356
-0.26773790 0.15361921 0.10018835
-0.38571677 0.03253516 -0.00658313
-0.20410570 -0.27646888 0.00000106
-0.03620727 0.57450144 0.00000579
-0.10768518 0.51217844 0.00000574
-0.30278190 -0.65678269 0.00000063
-0.20665729 -0.27290921 0.00000106
-0.52536813 0.26348496 -0.02943447
-0.40846718 -0.18613775 0.02549154
-0.20238722 0.05512941 0.00000374
-0.40463172 -0.59196789 0.00000091
-0.10746480 0.67695045 -0.00548044
-0.18667096 0.34931972 0.16793896
-0.11395374 0.19521941 0.00000367
-0.47777041 -0.69648233 0.00000045
-0.53186517 -0.48405221 0.20445697
-0.47971749 -0.37947173 0.00000184
-0.42989236 -0.17498483 -0.00252634
-0.20014032 -0.66768980 -0.00000063
-0.18958574 -0.15944733 0.00000280
-0.29362612 -0.28017744 0.00000227
-0.71492606 -0.36138426 -0.02270983
-0.47577319 -0.25731481 -0.00367054
-0.32975499 0.00389632 0.14926949
-0.32407295 -0.70908394 -0.00000156
-0.36416285 -0.07918106 0.12051651
-0.31751194 0.03346445 0.01317970
-0.18968417 0.34205017 0.02031889
-0.20340062 0.06907904 -0.00000422
-0.06193422 0.63781980 0.00000502
-0.41080145 -0.48962179 -0.00000112
-0.04180188 0.02266253 0.00001123
-0.37066293 -0.42361906 0.00000165
-0.44955063 -0.52009403 -0.00000149
-0.38736291 -0.33481196 -0.00000030
-0.25313414 -0.61157300 0.00000082
-0.27218748 0.14286150 0.27318741
-0.49116006 -0.38577552 0.02326468
-0.04935880 0.06525283 -0.00000896
-0.38313675 -0.12498713 0.09454484
-0.17073314 0.38779680 0.17210152
-0.21091771 -0.09099067 0.00000183
-0.35020108 -0.55763031 -0.00000105
-0.29099708 0.24929563 -0.00610303
-0.00498994 0.32782539 0.00000490
-0.09757786 0.16777396 0.00000365
-0.21826052 0.27306070 0.02651429
-0.79254836 -0.60500258 -0.02044799
-0.62773008 -0.39385579 -0.01293578
-0.21747113 0.05244167 -0.00000419
-0.29855562 -0.51513961 0.00000125
-0.64974905 -0.78458143 0.00000007
-0.48517146 -0.37132201 0.14938084
-0.45143283 0.19789721 -0.01961629
-0.49433919 -0.47754706 -0.00000157
-0.41647270 -0.46684707 0.00000146
-0.21110645 0.14058842 0.00000794
-0.44452952 -0.46031903 0.00000149
-0.49507193 -0.39522810 0.32968555
-0.19010187 0.11352086 0.00000400
-0.34007917 -0.14900962 0.00000285
-0.14804475 0.44257520 0.05611840
-0.07568565 0.47422707 0.00000512
-0.20317007 0.36753050 -0.00232941
-0.46378963 -0.19577443 -0.00498205
-0.37868393 -0.63953969 0.00000070
-0.37699337 -0.11016136 0.35029405
-0.30146432 -0.69577463 -0.00000136
-0.10327263 -0.22476784 0.00000189
-0.44402111 0.30053733 -0.02302448
-0.45582541 0.17770921 -0.01922956
-0.55817739 -0.73007543 0.00000031
-0.04334690 0.52234827 0.00000552
-0.35459541 -0.05609159 0.36843396
-0.00383072 -0.74145482 0.00000023
-0.11260149 -0.22896191 0.00000182
-0.42324121 -0.57181354 -0.00000156
-0.27778913 0.12934119 0.17682951
-0.22291710 -0.61647434 -0.00000054
-0.25664857 0.18038135 0.10408651
-0.11275425 -0.71510963 0.00000037
-0.29863373 -0.51048612 -0.00000054
-0.61365880 0.10717993 -0.03172193
-0.24639784 0.49066300 -0.01147960
-0.38300355 -0.73064185 -0.00000201
-0.06588893 0.27954407 -0.00000337
-0.38579083 -0.50208694 -0.00000103
-0.58207301 -0.60526202 0.19272382
-0.35614981 0.28808206 -0.01399036
-0.63639827 -0.31269330 -0.01704211
-0.35193886 -0.54698964 -0.00000102
-0.19156669 0.06761352 0.00000869
-0.40502109 -0.55975706 0.00000105
-0.47740343 0.01277456 -0.01468995
-0.29690249 0.01362647 0.00000743
-0.72140512 -0.41108631 -0.02133993
-0.09509189 -0.47329211 0.00000086
-0.53814561 0.17526879 -0.02712719
-0.02667417 -0.25077643 0.00000224
-0.44860584 -0.28304183 0.05482200
-0.48326626 -0.49735327 0.00000132
-0.28768515 -0.27350358 0.00000057
-0.37116018 -0.10969011 0.00000078
-0.18210966 -0.43965738 0.00000158
-0.07520564 0.61842580 0.04974325
-0.45059874 -0.28785408 0.08391972
-0.33829179 -0.01672448 0.28694311
-0.26958029 0.05379275 0.00000374
-0.52217790 -0.62461253 -0.00000238
-0.02352722 0.11569101 0.00001092
-0.57348824 -0.58453473 0.07818613
-0.54851805 -0.52424959 0.02120396
-0.65755446 -0.78748580 0.09026174
-0.08804903 -0.77003486 0.00000013
-0.00266434 -0.38678796 0.00000179
-0.47791302 -0.45075252 -0.00000136
-0.16775914 -0.16983331 0.00000276
-0.20140255 0.09535814 0.00000270
-0.06075794 -0.59468271 0.00000090
-0.53621847 -0.76916478 0.00000013
-0.03329082 -0.13884882 0.00000269
-0.27383864 -0.70400412 0.00000042
-0.42891318 -0.23550597 0.24377166
-0.16868249 0.39274765 0.16760608
-0.01919218 0.22721086 -0.00000602
-0.48083344 -0.36084668 0.07598683
-0.60924246 -0.59023361 -0.00324166
-0.24730886 0.09664990 0.00000392
-0.11262997 -0.53267507 0.00000117
-0.09808094 -0.28544150 0.00000166
-0.24427251 0.21025606 0.21341916
-0.28455598 0.11302515 0.01333141
-0.27585046 -0.27408197 0.00000230
-0.04310997 0.43224305 0.00000539
-0.36375343 0.28276017 -0.01451352
-0.00810535 0.16896192 0.00000419
-0.03025172 0.70658590 0.00000569
-0.20185055 -0.25495673 0.00000238
-0.09812572 -0.63475142 0.00000013
-0.30960468 -0.57710092 -0.00000089
-0.47034192 -0.61750654 0.00000080
-0.31403951 0.07642348 -0.00138751
-0.60750175 0.04982776 -0.02881717
-0.33280753 0.11726715 -0.00485020
-0.52193252 -0.46007313 0.21643834
-0.37602159 -0.10781118 0.13981465
-0.23183015 0.24029542 0.18657927
-0.36587722 -0.06492009 -0.00073657
-0.69061383 -0.49051695 -0.01515479
-0.17091256 0.43180101 -0.00178184
-0.20640533 -0.37667181 0.00000061
-0.30429743 0.06534006 0.32293575
-0.35434175 -0.05546787 0.03058485
-0.17439769 -0.48249159 0.00000139
-0.39802354 -0.14682134 -0.00056421
-0.18597859 0.22557670 0.00000449
-0.61528815 0.00240964 -0.02766466
-0.46027713 -0.31122269 0.17238477
-0.30386150 0.06640847 0.13391846
-0.17081894 0.56001700 -0.00692985
-0.28408065 0.11416985 0.04679182
-0.51979672 -0.45491676 0.21382938
-0.69362591 -0.30818893 -0.02278091
-0.16907205 0.01691009 -0.00000650
-0.62849076 -0.11276191 -0.02431582
-0.17675299 -0.01280233 0.00000344
-0.32103524 0.02493265 0.27923804
-0.10661495 0.60506631 -0.00250670
-0.10141797 -0.53071729 0.00000118
-0.59977040 -0.77167913 0.00000012
-0.43279524 -0.74658823 -0.00000238
-0.52963347 -0.46048504 -0.00072923
-0.49083371 -0.39518591 -0.00000119
-0.51139473 -0.70472606 0.00000042
-0.29915246 0.39922781 -0.01292481
-0.70688578 -0.34620319 -0.02253962
-0.38437857 -0.66436134 -0.00000173
-0.28132894 -0.72082552 0.00000035
-0.07611201 0.25048328 0.00000929
-0.15071056 0.35534466 0.00000505
-0.71405305 -0.07905881 -0.03398075
-0.37146979 -0.71894372 0.00000035
-0.05604088 -0.68252871 0.00000051
-0.21290081 -0.00937556 0.00000217
-0.14067890 0.42803312 0.00000720
-0.26682899 0.11595713 0.00000401
-0.44757414 -0.49158960 -0.00000135
-0.00602748 -0.13332278 0.00000288
-0.19185136 -0.26957255 0.00000232
-0.43350791 -0.24659497 0.13528290
-0.12914133 -0.67290340 0.00000056
-0.39733638 0.34351222 -0.02021923
-0.42823815 0.17450818 -0.01642300
-0.19948898 0.59647822 -0.01118067
-0.05640212 0.21560808 0.00000444
-0.71112988 -0.65434900 -0.01055723
-0.45427263 0.15597999 -0.01820608
-0.24752585 0.20240636 0.07849280
-0.59783148 -0.19619633 -0.01798246
-0.27721024 -0.23750968 0.00000079
-0.34471792 -0.03223709 0.27450444
-0.67923712 -0.36922687 -0.01892848
-0.23838761 0.21091642 0.00000442
-0.41788078 -0.20887217 0.26454530
-0.24133028 -0.07317280 0.00000318
-0.47392450 -0.34416659 0.06247438
-0.13012658 0.26582172 0.00000466
-0.20123779 0.35091134 -0.00147134
-0.25190225 0.00921409 -0.00000418
-0.00466160 0.17412490 0.00000426
-0.78539983 -0.58959845 -0.02037348
-0.36248715 -0.07513723 0.17024361
-0.08598210 0.27941238 0.00000472
-0.42036713 0.20166846 -0.01675106
-0.52748428 -0.47347112 0.06408215
-0.50859268 -0.42786192 0.03620459
-0.30928933 0.05330724 0.10568869
-0.19075389 0.53976164 -0.00805111
-0.01780656 0.61189885 0.00000618
-0.74703040 -0.42581199 -0.02323594
-0.51279389 -0.79905203 -0.00000309
-0.48225999 0.03262781 -0.01596258
-0.34673468 -0.23804051 0.00000246
-0.60649831 -0.44187589 -0.00894241
-0.31087859 -0.57604247 -0.00000090
-0.08534025 0.51900850 0.00000577
-0.44749893 -0.28037097 0.09803598
-0.14545361 0.53977097 -0.00365127
-0.04466722 0.40612203 0.00000501
-0.11160367 -0.79269096 -0.00000064
-0.59893117 -0.55336478 -0.00372322
-0.78178335 -0.77769428 -0.01245631
-0.06881291 0.33986881 0.00000884
-0.24949508 0.19765063 0.12618797
-0.37587447 -0.10746306 0.35031744
-0.11574921 -0.67558008 -0.00000015
-0.01744815 -0.56713036 0.00000102
-0.51816418 -0.38209797 -0.00276828
-0.05224088 -0.34539002 0.00000199
-0.41273505 0.06482098 -0.01050304
-0.32433742 0.01696659 0.25044628
-0.34723887 0.24969551 -0.01158100
-0.06493334 0.63224942 0.00000587
-0.34481171 0.07904436 -0.00448135
-0.01642475 -0.63801867 0.00000061
-0.05126148 0.69219047 -0.00063494
-0.01526446 -0.24903820 0.00000232
-0.10523303 -0.47460198 0.00000142
-0.20629673 0.30193844 0.18542533
-0.25789467 -0.04380725 0.00000175
-0.04517735 0.12755986 -0.00000761
-0.14022992 -0.16338460 0.00000279
-0.02976972 0.70933576 0.00000660
-0.09008261 -0.77935843 -0.00000045
-0.32202105 0.02255542 0.19760526
-0.32812328 0.00782774 0.24118913
-0.38100052 0.41338598 -0.02144370
-0.13849115 0.27127473 0.00000821
-0.08499786 0.02851641 0.00000362
-0.23848667 -0.61639527 0.00000080
-0.09600292 0.03886238 -0.00000818
-0.46163817 -0.61059176 0.00000083
-0.73471948 -0.59958923 -0.01505048
-0.77117012 0.02221607 -0.04360112
-0.51198760 -0.78308480 0.00000007
-0.38031541 -0.11817779 0.15287407
-0.54266900 -0.51013104 0.08949514
-0.33947697 -0.60419096 -0.00000119
-0.39617618 -0.43491830 0.00000160
-0.45985978 0.05772600 -0.01479447
-0.37807400 -0.11276835 0.20591189
-0.57833620 0.13839388 -0.02954644
-0.04867441 0.12014327 -0.00000768
-0.16362817 0.40495278 0.13870165
-0.37539477 0.42055922 -0.02118783
-0.20169471 0.29650668 0.00000480
-0.27943024 -0.46788166 -0.00000023
-0.00447775 -0.40357681 0.00000171
-0.36171253 0.28567314 -0.01443249
-0.17544768 -0.11883490 0.00000192
-0.64375547 -0.17674335 -0.02322478
-0.07834901 -0.77949279 -0.00000038
-0.11843236 -0.24098705 0.00000245
-0.23489006 -0.69288919 0.00000047
-0.77857759 0.01192152 -0.04390637
-0.18904734 0.23405080 0.00000452
-0.57518949 -0.16607969 -0.01699495
-0.56631656 -0.79883725 0.00000001
-0.08067191 0.17269367 0.00000970
-0.09669513 0.17070877 0.00000366
-0.50675761 -0.42343797 0.22379332
-0.16171852 0.41656880 -0.00027629
-0.22629524 0.25366292 0.03510343
-0.57624265 -0.75818678 -0.00000330
-0.12464767 0.00780135 0.00000278
-0.77907601 -0.77025134 -0.01249281
-0.51271881 -0.12726942 -0.01248918
-0.25569487 0.43243601 -0.01004007
-0.19375890 0.46747770 -0.00543553
-0.62602414 -0.16138094 -0.02212072
-0.29542313 0.39083133 -0.01222572
-0.64544620 -0.21029076 -0.02203963
-0.09051481 -0.41431816 0.00000114
-0.55918009 -0.54999317 0.11642283
-0.44912986 -0.28430842 0.09916549
-0.07408820 -0.06082214 0.00000279
-0.43061584 -0.23960982 0.04275217
-0.08316935 0.59920136 0.03611202
-0.69434829 0.02012603 -0.03605655
-0.13783934 0.08146954 0.00000941
-0.30416030 -0.69819237 0.00000045
-0.35314778 -0.05258375 0.22372224
-0.07037371 0.55039666 0.00000548
-0.09279976 0.51899923 0.00000736
-0.39432385 -0.53253783 0.00000117
-0.30129355 -0.22595612 0.00000069
-0.00180410 -0.69696241 0.00000045
-0.26970774 0.41403423 -0.01066165
-0.21850175 0.48125860 -0.00839192
-0.60108107 -0.20910021 -0.01777902
-0.23155766 0.18575824 -0.00000060
-0.12044015 0.04349458 0.00000296
-0.09777347 0.05843743 -0.00000766
-0.28807547 0.10450779 0.17757842
-0.33126322 -0.33384886 0.00000204
-0.40036679 -0.16658100 0.00360469
-0.68202911 0.06536066 -0.03667922
-0.20070504 0.15534008 0.00000800
-0.07669743 0.21443552 0.00000398
-0.45078937 -0.28831790 0.19096186
-0.19230249 -0.37973283 0.00000184
-0.32054909 0.02610484 0.32318995
-0.36040287 0.03048665 -0.00404239
-0.08645790 0.46772490 0.00000502
-0.15530992 -0.53748359 0.00000115
-0.77008366 -0.63815345 -0.01693317
-0.22261516 0.08979383 -0.00000315
-0.26903038 0.00607193 0.00000353
-0.12249901 0.26114591 0.00000390
-0.22633098 -0.32161322 0.00000209
-0.28388614 0.04054877 -0.00000247
-0.42659026 0.13855308 -0.01481493
-0.35076737 -0.55817080 -0.00000106
-0.32901338 0.00567177 0.27869540
-0.33458253 -0.00777498 0.32825831
-0.29665346 0.08380239 0.06895135
-0.22707797 0.25177487 0.14306349
-0.41116207 -0.01862045 -0.00699665
-0.27433299 0.30255002 -0.00662671
-0.29552379 -0.53184715 -0.00000061
-0.20827894 0.44770475 -0.00605033
-0.38080215 -0.11935247 0.14018901
-0.31066507 -0.21193881 0.00000070
-0.33271658 0.25582242 -0.01041711
-0.15816410 0.41814537 0.04448553
-0.03678036 -0.14503619 0.00000287
-0.14262095 0.13603685 -0.00000447
-0.54529835 0.10518843 -0.02500187
-0.46829102 0.10498468 -0.01751455
-0.07586259 0.39897751 0.00000525
-0.50021397 -0.70947722 -0.00000262
-0.13841209 0.35993034 0.00000507
-0.32864023 0.00659118 0.10612115
-0.02681413 -0.16562941 0.00000261
-0.16109429 -0.59395750 0.00000090
-0.03688898 0.50944500 0.00000121
-0.15159086 -0.71098606 -0.00000053
-0.18432045 0.35499824 0.05239324
-0.12678502 -0.07370270 0.00000241
-0.18111434 -0.57033224 0.00000100
-0.34390548 -0.03028177 0.30605200
-0.00165195 0.43864539 -0.00000153
-0.41279895 -0.32318476 -0.00000041
-0.13897031 0.46448822 0.04893689
-0.14574756 0.58276983 -0.00540966
-0.26990351 0.05392042 0.00000211
-0.53856190 -0.76850729 -0.00000311
-0.53051774 0.25196679 -0.02947136
-0.32791287 0.00834862 0.08869247
-0.56940792 0.16554612 -0.02977164
-0.20183342 0.15340927 -0.00000227
-0.21377683 0.28388561 0.14594243
-0.14524164 0.36057115 0.00000508
-0.52030127 -0.64465082 0.00000068
-0.00149963 0.70874181 0.00000660
-0.35587836 -0.61741201 -0.00000135
-0.01890800 0.74400262 0.00000676
-0.36325278 -0.08369837 0.00000094
-0.09030822 -0.05479230 0.00000272
-0.70679971 -0.72442644 -0.00731795
-0.35303216 -0.05231259 0.31775223
-0.18924483 0.04816010 -0.00000515
-0.52541128 -0.58421242 -0.00000223
-0.12416017 0.00627534 -0.00000810
-0.12270482 0.50375026 0.11208786
-0.63503683 -0.55291579 -0.00724766
-0.04759946 -0.52974552 0.00000118
-0.23820505 0.50595295 -0.01129944
-0.09913029 0.34759571 0.00000442
-0.60664050 -0.66457169 0.14465147
-0.28939210 0.21234593 -0.00446097
-0.33948484 -0.39579270 -0.00000028
-0.24694518 -0.53606498 0.00000115
-0.60456384 -0.65955780 0.08096104
-0.73291856 -0.51061980 -0.01845433
-0.24990438 -0.09821468 0.00000307
-0.16533047 0.40084434 0.04232951
-0.30652844 0.05995395 0.31281685
-0.30449842 -0.03165532 0.00000336
-0.44867452 -0.38413083 -0.00000089
-0.07528803 -0.28620477 0.00000179
-0.30360021 0.06702923 0.13624538
-0.28003672 0.12391915 0.05413011
-0.08919402 0.02685687 0.00000308
-0.43625363 -0.25322576 0.19642158
-0.01798137 -0.24356189 0.00000233
-0.20058988 -0.57155837 0.00000100
-0.56419625 0.12919468 -0.02780305
-0.04018853 -0.78970206 -0.00000020
-0.36123774 0.17476882 -0.00992470
-0.04683517 -0.09777924 0.00000279
-0.45549721 -0.41652648 0.00000168
-0.56076979 -0.55382852 0.04165294
-0.25312997 -0.70338992 -0.00000111
-0.18184718 0.36098075 0.00352913
-0.49530759 0.13266111 -0.02125188
-0.45506986 -0.50542318 0.00000129
-0.25209753 -0.60775099 0.00000084
-0.05648865 0.21359275 0.00000981
-0.42151249 0.33458776 -0.02220857
-0.10192293 0.26794585 0.00000879
-0.29592497 0.08555821 0.25500373
-0.19037702 0.57561262 -0.00945624
-0.60431631 -0.65895836 0.02578488
-0.45024527 -0.25481839 -0.00129183
-0.51311287 -0.43877587 0.07402426
-0.14953870 -0.70839637 -0.00000050
-0.09879839 -0.04157744 0.00000272
-0.38854286 -0.69242454 -0.00000187
-0.34492596 0.29270521 -0.01308504
-0.06668465 0.26807346 0.00000467
-0.13596407 0.33254210 0.00000413
-0.12908632 -0.25553250 0.00000238
-0.24826013 0.20063371 0.07680856
-0.66368896 -0.17624332 -0.02518072
-0.69490230 -0.34335405 -0.02149045
-0.47262661 0.11142644 -0.01819648
-0.09798277 0.22316552 0.00000388
-0.61538595 -0.68568456 0.13384455
-0.24255387 0.52422762 -0.01245656
-0.05939401 0.30103968 0.00000446
-0.61879334 -0.38588146 -0.01238864
-0.40165723 -0.66719028 -0.00000184
-0.35151198 -0.50639344 -0.00000084
-0.46215493 -0.21655945 -0.00398728
-0.27865192 0.07012706 0.00000736
-0.17275074 0.17712246 0.00000829
-0.46849725 -0.33106733 0.15875458
-0.22870847 0.54054439 -0.01176829
-0.17162420 0.17293885 0.00000322
-0.49299146 -0.45512023 0.00000151
-0.42964848 -0.23728130 0.24844162
-0.11667246 0.48989124 0.00000316
-0.50177601 -0.30391435 -0.00432146
-0.11767418 0.41800773 0.00000148
-0.67749280 0.04378903 -0.03537081
-0.19378887 0.32275752 0.00000491
-0.01334557 -0.10566901 0.00000304
-0.66137640 -0.51274006 -0.01142156
-0.53198705 -0.49745929 0.00000132
-0.39037857 -0.21999363 0.00000254
-0.71944062 0.04176066 -0.03936328
-0.26157933 -0.63825394 0.00000071
-0.35168318 0.28942735 -0.01361070
-0.26821672 0.15246322 0.10091669
-0.22444718 -0.66306068 -0.00000076
-0.65898276 0.11288177 -0.03635288
-0.62126532 -0.77687419 0.00000010
-0.06517854 -0.02993029 0.00000298
-0.35459128 -0.05607758 0.24778203
-0.04232390 -0.60202919 0.00000061
-0.45353860 0.13283787 -0.01720229
-0.42280205 -0.51261144 0.00000126
-0.10089772 0.24715545 -0.00000309
-0.44605481 -0.27689325 0.35967339
-0.43103296 -0.24061721 0.05405905
-0.20771393 0.01046707 0.00000355
-0.03965376 -0.47356318 0.00000119
-0.29207968 0.09484142 0.25393285
-0.08033980 -0.73811427 -0.00000021
-0.02322055 -0.58621334 0.00000080
-0.44387571 -0.27162128 0.02439976
-0.69900422 -0.44504989 -0.01779839
-0.39200276 -0.78656246 0.00000006
-0.56105768 -0.70480482 -0.00000297
-0.15609484 0.12631908 0.00000311
-0.50690661 -0.51596916 -0.00000182
-0.48145307 -0.36052421 -0.00007085
-0.09358078 -0.68211548 -0.00000005
-0.00073003 0.08182358 -0.00001003
-0.59192132 -0.64587209 -0.00000290
-0.46745534 -0.50715239 -0.00000154
-0.07819835 0.59186464 0.00000712
-0.17924051 -0.42186827 0.00000057
-0.26042399 0.15242480 0.00000260
-0.01712366 0.27229639 -0.00000502
-0.57425613 -0.75390271 -0.00000326
-0.42195195 -0.21869578 0.11450388
-0.23357837 0.23607600 0.21277391
-0.65812974 0.01234946 -0.03222642
-0.39301911 -0.79479159 -0.00000235
-0.70643352 0.07103145 -0.03927756
-0.14495443 0.10225699 0.00000917
-0.58402051 -0.60996359 0.17072430
-0.33196112 -0.33796094 0.00000002
-0.72648963 -0.25202816 -0.02823134
-0.42913230 0.28106525 -0.02079578
-0.13292315 0.56565871 -0.00347575
-0.58019321 -0.60072274 0.10274076
-0.01817121 0.05150272 -0.00001023
-0.77177985 -0.37480519 -0.02769085
-0.16408633 0.40384525 0.12224663
-0.43978156 -0.71525473 -0.00000228
-0.09128724 -0.15293125 0.00000283
-0.37636906 -0.65218470 -0.00000162
-0.25194235 -0.12474419 0.00000143
-0.34265393 -0.02725490 0.28183174
-0.22394543 0.44410494 -0.00742698
-0.13689088 -0.22550580 0.00000251
-0.27116501 0.14535336 0.00916046
-0.28803754 0.24953522 -0.00582525
-0.29103048 0.04937336 0.00000730
-0.22784674 0.24992918 0.02221732
-0.24844553 -0.05295264 0.00000177
-0.49776335 -0.40171651 0.00201011
-0.29482177 0.24666671 -0.00636667
-0.57823853 0.03195922 -0.02525509
-0.30213435 0.41735030 -0.01394349
-0.31880780 0.03031923 0.00871624
-0.79705073 -0.06772196 -0.04249687
-0.17749138 0.37148048 0.18749481
-0.24907276 0.47194964 -0.01098717
-0.52066416 -0.45700800 0.12599181
-0.53416370 -0.21664250 -0.01097702
-0.09357735 0.31991195 -0.00000158
-0.42930098 -0.23644375 0.28939251
-0.30966985 0.05236983 0.31548313
-0.38539628 -0.15149721 0.00000284
-0.05897967 0.38187134 0.00000517
-0.21969954 -0.46595543 0.00000014
-0.17444298 0.31970837 0.00000385
-0.55296886 0.17761513 -0.02866058
-0.50547017 0.20413425 -0.02511426
-0.58049520 -0.41013439 -0.00769384
-0.56516005 -0.71962622 -0.00000306
-0.22991436 0.24492142 0.16007580
-0.55804663 -0.54725746 0.13739924
-0.53582943 -0.49362295 0.25438024
-0.21340686 0.21775209 -0.00000039
-0.32972361 0.00395610 0.30917849
-0.28259932 0.11772626 0.24031622
-0.51572167 -0.44960883 0.00000153
-0.32098431 -0.46329608 0.00000147
-0.30790124 -0.00913299 0.00000160
-0.08717933 -0.53692063 0.00000115
-0.17946626 0.36672750 0.01682846
-0.52411474 -0.58712456 0.00000093
-0.25651923 -0.27246180 0.00000231
-0.29108050 -0.01468520 0.00000344
-0.54230473 0.01069454 -0.02091159
-0.27483981 0.13647050 0.14294492
-0.15258691 -0.11885043 0.00000298
-0.05495370 -0.77840499 0.00000009
-0.33916658 -0.01883470 0.11577397
-0.22497700 0.20890009 0.00000306
-0.28591359 0.48458217 -0.01507283
-0.53621896 0.19346448 -0.02767195
-0.24539792 0.20754264 0.10814541
-0.28732396 0.10631839 0.28787955
-0.01201808 0.13040905 -0.00000854
-0.39364879 -0.57632075 0.00000098
-0.24370991 -0.14981934 0.00000137
-0.25836326 0.17624489 0.01004598
-0.00903101 0.51749904 0.00000571
-0.55359352 -0.53650819 0.26538647
-0.20295040 0.31001773 0.16928358
-0.35489191 -0.63188627 0.00000074
-0.36557966 -0.13702535 0.00000069
-0.19511122 0.22002358 0.00000768
-0.46969781 0.11013139 -0.01785997
-0.60345356 -0.73573424 -0.00000336
-0.53649455 -0.49522293 0.03837032
-0.50046756 -0.48768173 0.00000137
-0.09075288 -0.11191415 0.00000301
-0.10539617 0.54553777 0.05559197
-0.37932707 -0.11579839 0.35098468
-0.14422616 0.44717904 0.00000459
-0.27548611 -0.02324704 0.00000340
-0.49557652 -0.35364169 -0.00171927
-0.04888614 0.51227383 0.00000806
-0.36068074 -0.07077585 0.15998014
-0.04766750 -0.22224954 0.00000253
-0.09984962 -0.28224683 0.00000227
-0.00811047 0.50673464 0.00000028
-0.17394669 0.52532276 -0.00583733
-0.12831846 -0.65950054 0.00000061
-0.16648025 0.10343206 0.00000395
-0.02084315 0.39228452 -0.00000205
-0.17217235 0.38432340 0.16707436
-0.43397672 -0.00941695 -0.00958246
-0.04464490 0.72087413 -0.00114654
-0.28879220 0.10278589 0.15965432
-0.17378118 -0.05528362 0.00000326
-0.61162892 -0.70329390 0.00000042
-0.61443181 -0.68865661 -0.00000322
-0.15824524 0.41794775 0.09592273
-0.05239798 0.01572315 -0.00001005
-0.57607597 -0.59078103 0.04787012
-0.36735208 -0.08688609 0.28600666
-0.65845182 -0.04506817 -0.02994825
-0.29673925 0.08359067 0.20603385
-0.10715656 0.56021738 -0.00075538
-0.10446659 0.23279438 0.00000897
-0.41200439 -0.19468455 0.24076805
-0.49386188 0.22037318 -0.02464013
-0.05961994 0.55607129 0.00000301
-0.32569594 0.01368139 0.25960671
-0.49090387 -0.38516472 0.25229831
-0.62335607 -0.70492562 0.07744671
-0.22381184 0.41762914 -0.00634909
-0.11681237 -0.08128667 0.00000244
-0.15000289 -0.68281372 -0.00000039
-0.24976686 0.19700256 0.11797418
-0.45000734 -0.28643527 0.36257816
-0.53770200 -0.67923328 -0.00000272
-0.62120923 -0.69974140 0.02655569
-0.26667543 0.15616934 0.27538292
-0.44427456 -0.27259009 0.19997243
-0.29491377 0.08800165 0.09023304
-0.07898291 -0.73143419 0.00000030
-0.10419393 0.65607394 -0.00432321
-0.17652966 0.37380682 0.13603127
-0.10005035 0.50039320 0.00000290
-0.17120518 0.44627798 -0.00239110
-0.38122833 -0.14554109 0.00000056
-0.09163884 -0.39367780 0.00000178
-0.45123965 -0.31417320 0.00000213
-0.46151769 -0.72057276 0.00000035
-0.55039198 -0.74269196 0.00000025
-0.01910431 -0.66350341 0.00000048
-0.58433073 0.07609492 -0.02762236
-0.10374687 0.54951890 0.09714259
-0.18783750 0.21437619 0.00000444
-0.44539644 0.00253791 -0.01116954
-0.57347198 -0.58449783 0.21418565
-0.48685278 -0.52096952 -0.00000172
-0.06859947 0.66756254 -0.00132807
-0.69429040 -0.16922347 -0.02843491
-0.21143694 0.28952928 0.17469061
-0.32700720 0.34296352 -0.01336764
-0.10786999 -0.45647513 0.00000150
-0.06450940 0.02324980 -0.00000950
-0.43931039 0.06170513 -0.01295875
-0.71002584 -0.75228475 -0.00651063
-0.48779712 -0.37766411 0.24460720
-0.02218801 0.46166668 0.00000539
-0.41913596 0.34511729 -0.02240102
-0.00264194 -0.75359855 0.00000019
-0.12137540 0.18751227 0.00000900
-0.30480692 -0.10310391 0.00000121
-0.25568409 -0.18562124 0.00000269
-0.52998002 0.04257977 -0.02099717
-0.41627744 -0.79380009 0.00000003
-0.13125724 0.08201499 0.00000307
-0.30871721 0.05467711 0.09513746
-0.10534272 -0.56490425 0.00000039
-0.10508742 0.21128652 0.00000909
-0.26166602 0.16828236 0.04472815
-0.08925851 -0.47240845 0.00000143
-0.01936253 0.17408604 0.00000426
-0.19149393 0.12748069 0.00000406
-0.04821090 -0.55459562 0.00000107
-0.24258623 0.21433198 0.06790143
-0.01967386 0.21434118 -0.00000632
-0.22141832 0.26543399 0.19209314
-0.22913574 -0.77295844 -0.00000126
-0.30665835 -0.68243800 0.00000051
-0.00451809 0.52952722 0.00000071
-0.03282705 -0.66773169 0.00000058
-0.53933255 -0.72222193 -0.00000291
-0.00877995 0.02547076 -0.00001113
-0.17282738 0.22086743 0.00000801
-0.32745457 0.19915892 -0.00762698
-0.10243222 0.40600246 0.00000466
-0.17685253 0.33888792 0.00000139
-0.24480692 -0.37677405 0.00000185
-0.22760100 0.25051077 0.02891080
-0.36058614 -0.31835508 -0.00000007
-0.57812539 -0.59572743 0.00853566
-0.30428706 0.06536855 0.28226619
-0.34300851 -0.02809944 0.14626626
-0.34033654 -0.02165774 0.07127128
-0.21636240 0.22987739 0.00000320
-0.35257271 -0.05119667 0.01945837
-0.04324211 0.26832350 0.00000441
-0.33211205 -0.69203147 -0.00000153
-0.20988137 0.13722027 0.00000798
-0.70824998 -0.09427041 -0.03280535
-0.38175630 -0.43141940 -0.00000069
-0.32640432 0.01197186 0.24063784
-0.24718010 0.39109954 -0.00755013
-0.02590559 -0.35724968 0.00000194
-0.28522278 0.11139905 0.05084376
-0.38168750 -0.12149281 0.33953876
-0.06846698 0.69034316 -0.00223199
-0.43996384 -0.70528742 -0.00000224
-0.28387008 0.47607349 -0.01453205
-0.27476321 0.13665195 0.01156813
-0.08274525 -0.13867754 0.00000289
-0.63991579 -0.74490336 0.10287994
-0.10679826 0.40889617 0.00000093
-0.13719478 0.48396279 -0.00060399
-0.35234294 -0.39036456 0.00000179
-0.11192988 0.50595808 0.00000571
-0.05981176 0.39454746 -0.00000082
-0.07382466 0.57897847 0.00000559
-0.22075793 0.26702820 0.12312945
-0.11602645 -0.66803883 -0.00000012
-0.64076477 -0.52264812 -0.00902135
-0.31716261 0.03428860 0.08185860
-0.62908848 -0.71876363 0.02846959
-0.35009162 0.28863909 -0.01342316
-0.31715592 -0.31412227 0.00000021
-0.10347244 -0.66854241 0.00000058
-0.50962512 0.25984586 -0.02775930
-0.01584692 -0.34074275 0.00000191
-0.52519622 -0.64835772 0.00000066
-0.11870828 -0.14267569 0.00000216
-0.39209460 -0.25497128 0.00000002
-0.18540207 0.35238873 0.00030414
-0.76641192 -0.10876850 -0.03787057
-0.41237327 -0.19557895 0.35550864
-0.55170935 -0.61140019 -0.00000250
-0.21015802 0.29262467 0.11410250
-0.42459455 -0.39940580 -0.00000081
-0.14786246 -0.73115213 -0.00000059
-0.15627348 0.34121164 0.00000751
-0.27659861 0.13222993 0.07853839
-0.49309231 -0.70774793 0.00000040
-0.13541647 -0.74942489 0.00000022
-0.42170203 -0.21809943 0.32358173
-0.76990648 -0.40133713 -0.02644172
-0.46937005 -0.33317524 0.18272977
-0.16227973 0.17519219 0.00000329
-0.21272947 -0.72870824 -0.00000097
-0.27947385 -0.34711277 0.00000198
-0.33086911 -0.63641755 -0.00000128
-0.31534641 -0.01121470 0.00000155
-0.14845975 0.44157172 0.10327791
-0.25680866 0.33372598 -0.00617715
-0.23564612 0.15885883 -0.00000112
-0.38677413 0.34403726 -0.01921506
-0.65859313 -0.78999329 0.04276795
-0.40354537 -0.16865189 -0.00022239
-0.08233499 0.51481541 0.00000754
-0.76944866 -0.35013388 -0.02845687
-0.69698800 -0.35510093 -0.02122052
-0.59781642 0.05474449 -0.02807435
-0.28424791 0.11376985 0.00194146
-0.56800145 -0.31744594 -0.01020863
-0.03538449 0.20514065 0.00000418
-0.23051862 0.24347945 0.01501173
-0.28551704 -0.52744207 0.00000119
-0.40603953 -0.18028623 0.30308016
-0.39601001 -0.15606322 0.01591467
-0.04379004 0.69426884 0.02452897
-0.33962235 -0.78614832 -0.00000199
-0.08553201 0.51798290 0.00000577
-0.01768389 0.21383229 0.00000433
-0.10203164 -0.41336090 0.00000169
-0.75190641 -0.14327184 -0.03507408
-0.46566319 -0.32422846 0.25266444
-0.16144839 -0.46760792 0.00000145
-0.45135444 -0.28968522 0.28455634
-0.15806491 0.21922493 0.00000824
-0.06146026 0.45555881 0.00000549
-0.11776385 0.09056128 -0.00000630
-0.23056309 -0.71596426 0.00000037
-0.09896122 -0.53643322 0.00000056
-0.18046425 -0.76074655 0.00000017
-0.41475479 -0.20131937 0.08536868
-0.32046619 0.02630999 0.17376964
-0.25004055 -0.46828038 -0.00000006
-0.33698514 -0.29518554 0.00000221
-0.20695566 0.30034690 0.20812424
-0.09353566 0.27742169 0.00000415
-0.19047737 0.34013849 0.09380420
-0.38511452 -0.51098047 0.00000126
-0.46211883 -0.29156479 -0.00096691
-0.21478191 0.12424317 0.00000798
-0.63287124 -0.72789671 0.07609185
-0.38313577 0.12720190 -0.01013787
-0.18314620 0.35783486 0.00047184
-0.21240516 0.01966740 0.00000867
-0.65509092 -0.46071648 -0.01290364
-0.42485568 0.11122866 -0.01354929
-0.02022303 0.71169681 0.00000551
-0.45977771 0.16612914 -0.01914755
-0.53501841 -0.54074576 -0.00000209
-0.53654628 -0.79005257 -0.00000319
-0.47780215 -0.20841941 -0.00583426
-0.47762532 -0.55031881 0.00000109
-0.19978891 0.11775132 0.00000402
-0.12862871 -0.33529855 0.00000203
-0.19218290 0.13984702 0.00000411
-0.00507656 0.20225254 0.00000435
-0.11423509 0.08686205 0.00000388
-0.32500063 0.01535758 0.34401486
-0.13830552 0.34768667 0.00000502
-0.42930399 -0.23644234 0.03133489
-0.46122413 0.27724131 -0.02375807
-0.05227368 0.52573281 0.00000206
-0.10843696 0.45387836 0.00000483
-0.04240533 0.57055094 0.00000283
-0.44142596 -0.07561259 -0.00764337
-0.67205518 -0.63334545 -0.00760762
-0.34123512 -0.02382864 0.11694590
-0.02296109 0.59350184 0.00000279
-0.02557137 -0.71164596 0.00000039
-0.29585243 0.49254553 -0.01635856
-0.28905940 0.50607472 -0.01624300
-0.14025736 -0.09568475 0.00000308
-0.42426716 -0.22428962 0.24690978
-0.50890917 -0.61867076 -0.00000228
-0.33901040 -0.38954984 -0.00000025
-0.46225853 -0.38195219 0.00000183
-0.49581932 -0.59899167 0.00000088
-0.56138861 -0.55532400 0.08675698
-0.07198610 -0.51052234 0.00000083
-0.33711440 -0.01388729 0.32390363
-0.34855067 0.41243953 -0.01825429
-0.27782938 -0.72273120 0.00000034
-0.06719976 -0.38273472 0.00000142
-0.21687391 -0.34842841 0.00000198
-0.12947526 0.48740458 0.12128942
-0.72896151 -0.23171890 -0.02928828
-0.15346569 -0.52590526 0.00000120
-0.46841765 -0.72662446 0.00000032
-0.41937347 -0.21247355 0.19643423
-0.74874732 -0.31685725 -0.02778527
-0.30578664 0.06175042 0.14539562
-0.10846735 -0.23895204 0.00000245
-0.22360578 0.02870987 0.00000363
-0.34663447 0.12906203 -0.00666761
-0.19305352 -0.12520682 0.00000295
-0.36432148 -0.36776121 -0.00000031
-0.73951999 -0.71993767 -0.01067569
-0.29314027 0.09229247 0.11827398
-0.17089296 -0.17697002 0.00000273
-0.16581280 -0.00213866 0.00000349
-0.01163643 0.76846479 0.00000679
-0.46036514 -0.31142961 0.00656111
-0.05312573 -0.66010628 0.00000029
-0.27351169 0.13968134 0.08921941
-0.20958862 -0.52636818 -0.00000007
-0.65122189 -0.77219798 0.05919197
-0.66880897 -0.69952077 -0.00463067
-0.52938304 0.07982377 -0.02243572
-0.04711395 -0.10568627 0.00000275
-0.30221900 -0.12200866 0.00000297
-0.15867017 -0.68529786 0.00000050
-0.45585149 0.13573118 -0.01754497
-0.08529451 -0.42379362 0.00000113
-0.21914528 0.37626329 -0.00423047
-0.58368176 -0.60914287 0.04373576
-0.08067856 0.64664199 -0.00166016
-0.13904171 -0.09069735 0.00000226
-0.45474273 -0.29785916 0.10265949
-0.29284667 0.09299172 0.10006079
-0.04931194 0.60128914 0.00000613
-0.39635242 -0.15689163 0.06848175
-0.37966442 -0.11660768 0.19822498
