ply
format ascii 1.0
element vertex 1373
property float x
property float y
property float z
end_header
-0.49203897 -0.24940582 -0.02877050
-0.30782573 0.05683901 0.13207025
-0.20093175 -0.00084244 0.00000391
-0.04811997 -0.14058237 0.00000269
-0.04504546 0.72853385 -0.00774217
-0.38967745 -0.59487927 0.00000253
-0.22387577 0.07021647 0.00000428
-0.18400110 0.01803196 0.00000196
-0.17322519 0.29612190 0.00000717
-0.65723091 -0.09147479 -0.14445161
-0.18172646 -0.19200857 0.00000310
-0.24794665 0.25473692 -0.01107769
-0.74345600 -0.51594924 -0.09950594
-0.54622661 -0.51872334 0.26330562
-0.02278444 0.55413635 0.00000750
-0.48869682 -0.11051961 -0.05595209
-0.24198237 0.08055413 -0.00000289
-0.32568576 0.01372466 0.09872580
-0.01278402 0.50266306 0.00000804
-0.40052455 0.09357915 -0.05413010
-0.36485988 -0.18794228 0.00000395
-0.36501114 0.08920265 -0.03540293
-0.20454709 0.30617188 0.12063815
-0.24469631 0.20367513 0.00000678
-0.23041564 -0.15023773 0.00000105
-0.37807465 -0.11276399 0.08073962
-0.41557337 0.15276065 -0.07397597
-0.00336215 0.41571017 0.00000883
-0.08420132 0.59671203 0.01582576
-0.32720050 0.15426530 -0.02995497
-0.33893546 -0.01826768 0.16352787
-0.51729913 0.16636925 -0.12783264
-0.27538765 0.39259060 -0.05348554
-0.12607135 0.35312713 -0.00000025
-0.26662091 0.30836317 -0.03158792
-0.73504939 -0.71694066 -0.05352620
-0.55670046 -0.54400313 0.02637074
-0.27576517 0.13423307 0.08278396
-0.17779328 -0.32361834 0.00000071
-0.14628998 0.09977690 0.00000404
-0.22231656 0.26326427 0.22151161
-0.01244775 -0.20701791 0.00000228
-0.28354717 0.11544562 0.08341311
-0.36622396 -0.79263917 -0.00000218
-0.27643310 -0.56684195 0.00000213
-0.32877987 0.00624300 0.11322881
-0.34296250 -0.02799611 0.09151133
-0.09430237 -0.22997885 0.00000256
-0.54068207 -0.50533644 0.16179049
-0.37984156 -0.11703908 0.32768949
-0.22470089 -0.33696748 0.00000275
-0.06661318 -0.69778876 -0.00000002
-0.42102808 0.28338567 -0.10385383
-0.25466415 0.21432974 -0.00605150
-0.39423501 0.35974805 -0.10628020
-0.08799356 -0.22057504 0.00000164
-0.67345202 -0.43327334 -0.08156890
-0.42445373 0.00103766 -0.04690526
-0.14713685 0.44476928 0.12736653
-0.72911619 -0.73771312 -0.04623380
-0.27259613 -0.15388396 0.00000366
-0.21077872 0.30951174 -0.00381169
-0.21444533 0.28227284 0.07055898
-0.10379737 -0.51260842 0.00000155
-0.21970602 -0.68077897 0.00000144
-0.21893347 -0.14966053 0.00000112
-0.17064699 -0.41027497 0.00000043
-0.14605857 0.61668434 -0.03517334
-0.46748777 0.21059905 -0.11203578
-0.27405317 0.42371644 -0.05928382
-0.10556574 -0.66921746 -0.00000015
-0.37557490 0.17523271 -0.05858070
-0.51466218 -0.44251587 0.08412760
-0.26420163 0.16215268 0.01088446
-0.52155765 -0.44539378 -0.00285518
-0.05684422 0.64250392 0.00000567
-0.17079732 0.58002204 -0.03996557
-0.33660166 -0.01264097 0.25439735
-0.02737706 0.06695384 0.00000338
-0.21477720 -0.62584025 0.00000163
-0.33115921 0.33001984 -0.06846129
-0.30967859 0.05235067 0.29562795
-0.33668569 -0.01284723 0.29553347
-0.11762850 0.51601075 0.03840579
-0.13817450 -0.59330819 0.00000140
-0.29057179 0.16970892 -0.01479255
-0.07368408 -0.76520408 -0.00000031
-0.28898285 0.10231633 0.25140526
-0.10106647 0.21248461 0.00000319
-0.28760234 0.10565240 0.16657866
-0.09194460 0.55873350 0.00000551
-0.31185535 0.39131957 -0.07151592
-0.10385415 -0.50007022 0.00000050
-0.44659983 -0.27820328 0.20503293
-0.25563704 0.18284130 0.01024992
-0.10581060 0.54454575 0.03041981
-0.31297186 0.08839280 -0.00912945
-0.06117423 -0.22786855 0.00000178
-0.46981594 -0.68351775 -0.00000240
-0.01086864 -0.47538518 0.00000127
-0.23824772 0.12891053 0.00000205
-0.09136200 0.57942259 0.08514005
-0.29758493 0.08155176 0.17979431
-0.62742040 -0.67119525 -0.00904188
-0.24587212 0.20641585 0.00527347
-0.35352779 -0.05350827 0.23016909
-0.16044715 0.38352017 0.00000147
-0.00815053 0.02678478 0.00001168
-0.51450164 0.06494513 -0.10535345
-0.06085875 0.41929986 0.00000421
-0.09225717 0.38202150 0.00000485
-0.34644817 -0.60340238 -0.00000135
-0.09186372 0.57821330 0.01688490
-0.00072624 -0.59855506 0.00000075
-0.35339348 -0.05317929 0.25487606
-0.68434991 -0.08039971 -0.16035662
-0.57528124 -0.58886080 0.01701202
-0.11756874 0.21578271 0.00000861
-0.52115088 -0.45818668 0.27889731
-0.14366599 0.45315082 0.03393302
-0.34345700 -0.02918625 0.19765029
-0.02407691 0.31887728 0.00000405
-0.44205304 -0.26722507 0.17129940
-0.69859647 -0.33170919 -0.11528545
-0.16848139 0.39324603 0.05379061
-0.02903555 0.08027162 0.00001096
-0.52026785 -0.45605488 0.24657510
-0.50616233 -0.42307277 0.00000370
-0.05793418 0.33801823 -0.00000265
-0.35239408 -0.05076539 0.07614335
-0.23789150 -0.62790915 -0.00000079
-0.05866450 -0.37023790 0.00000126
-0.01799858 0.01342216 0.00000294
-0.28166611 -0.55181759 -0.00000077
-0.02194313 -0.30098869 0.00000197
-0.75834994 -0.28149505 -0.15569290
-0.22568366 -0.05744716 0.00000142
-0.22095877 -0.51542551 0.00000207
-0.41774260 -0.50194894 -0.00000140
-0.17926887 0.11828980 0.00000236
-0.17785015 0.02740597 0.00000391
-0.01731309 0.21824510 -0.00000657
-0.22833637 0.24873487 0.12303765
-0.50810601 -0.42668704 0.06243646
-0.18256337 0.35924426 0.12096451
-0.03868791 0.51509286 0.00000511
-0.38446381 -0.52575279 -0.00000129
-0.22204049 0.09391215 0.00000201
-0.54678835 -0.56242802 0.00000337
-0.13106870 0.47623651 0.00000645
-0.66642223 0.03265976 -0.17485488
-0.32184188 -0.20081487 0.00000370
-0.03741042 0.41943484 -0.00000143
-0.40350184 -0.38237511 -0.00000087
-0.19274938 0.33464944 0.17058700
-0.22037969 0.12506184 0.00000774
-0.10808390 0.53905200 0.07767520
-0.33753992 -0.28992027 -0.00000012
-0.11358632 0.27959687 0.00000336
-0.34626931 -0.03597726 0.03369720
-0.09926093 -0.22980098 0.00000154
-0.00602661 0.00745645 0.00000306
-0.45624708 -0.41739802 0.00000350
-0.01109533 -0.05999114 0.00000283
-0.33526360 -0.36881300 0.00000313
-0.48062453 -0.36034621 0.20481840
-0.61427154 -0.70562732 0.00000313
-0.10664062 0.01414064 0.00000241
-0.12457822 -0.67698136 0.00000103
-0.57671783 -0.59233105 0.07040757
-0.62384467 -0.70610523 0.16915888
-0.69712341 -0.13791145 -0.15481430
-0.07193360 -0.23959102 0.00000243
-0.41560302 -0.20336766 0.13596809
-0.00231902 0.45565135 0.00000855
-0.47637227 0.04263130 -0.08158943
-0.22065082 0.26729381 0.00837651
-0.54383031 -0.51293305 0.05865605
-0.18965777 -0.12424607 0.00000339
-0.40631732 -0.69903132 -0.00000207
-0.01583580 0.72589195 0.00000579
-0.00381414 0.39230909 0.00000445
-0.26526052 0.15959410 0.06866490
-0.43534801 -0.55722627 -0.00000172
-0.30119825 0.07283406 0.03163765
-0.43562098 -0.71200753 0.00000230
-0.23459239 0.10090685 0.00000444
-0.14436779 0.45145582 0.10847279
-0.04358347 -0.61022679 0.00000091
-0.15271877 -0.30787952 0.00000092
-0.35900195 -0.25671380 -0.00000013
-0.00119339 0.28514104 0.00000984
-0.17213355 0.38442335 0.05048146
-0.77613766 -0.76228292 -0.06471546
-0.12907359 0.48837719 0.10813762
-0.27477423 0.13661917 0.24701283
-0.13520738 -0.03124081 0.00000207
-0.44712119 -0.27946301 0.23305052
-0.28736349 0.10622974 0.14793693
-0.11561031 0.23315774 -0.00000327
-0.38816311 0.19593051 -0.06919423
-0.19286742 0.33436566 0.09461412
-0.33195292 -0.75621708 -0.00000184
-0.09409902 -0.49110356 0.00000059
-0.05064159 0.03661634 0.00000283
-0.20370774 0.05227156 0.00000412
-0.35754204 -0.23640688 -0.00000004
-0.30629273 0.06053662 0.17221136
-0.57927705 -0.58764884 -0.00225105
-0.32467559 0.01615507 0.19956977
-0.59177686 -0.62868835 0.11135923
-0.21308975 0.28553977 0.22122888
-0.48522532 -0.37145252 0.17829213
-0.21032621 0.24277025 0.00000701
-0.37564805 -0.35374400 0.00000337
-0.71267979 -0.78927726 -0.02727477
-0.69848121 -0.37584520 -0.10605694
-0.42921318 -0.08009977 -0.03243383
-0.34849563 -0.04136279 0.34891332
-0.08490767 0.59500970 0.02104391
-0.11128274 0.41542331 0.00000506
-0.14438675 0.23957359 0.00000802
-0.43373517 -0.01224126 -0.04880202
-0.11594014 -0.60270442 0.00000126
-0.09101917 0.56554105 0.00000639
-0.62224009 -0.54330573 -0.03301647
-0.31885151 0.19267393 -0.03374777
-0.44414756 -0.27227934 0.10982129
-0.05811944 -0.29464951 0.00000216
-0.24383637 0.21132645 0.05438046
-0.00049540 0.21228943 -0.00000721
-0.24671649 0.20435678 0.24234830
-0.08136869 0.60355038 0.02205125
-0.30971073 0.04961348 0.00000132
-0.18433925 0.02869664 0.00000394
-0.68111191 -0.33484362 -0.10586333
-0.59895787 0.02617687 -0.13966468
-0.24460399 0.34362627 -0.02787055
-0.50205204 -0.52430725 -0.00000200
-0.42542662 -0.22709339 0.38438000
-0.16940210 -0.75147327 0.00000095
-0.27974498 -0.61124401 0.00000197
-0.14560648 -0.47506112 0.00000188
-0.02068796 -0.42858275 0.00000149
-0.30429578 0.06137531 0.00000139
-0.13241831 -0.63321105 0.00000122
-0.03352980 0.31298464 -0.00000395
-0.36004790 -0.06924141 0.02506902
-0.12113595 0.17078690 0.00000889
-0.27440418 -0.29950546 0.00000022
-0.07937751 0.33561827 0.00000829
-0.14794601 0.44281807 0.03016567
-0.01282440 0.10190635 0.00000344
-0.53675596 0.21353332 -0.14739270
-0.45656532 0.11069866 -0.08579916
-0.06127213 0.45846940 0.00000435
-0.17428378 0.37923006 0.15151161
-0.47922930 -0.65689826 0.00000271
-0.08912314 0.19769758 -0.00000486
-0.41708702 -0.20696009 0.39215109
-0.27289058 0.34004315 -0.04131394
-0.50839275 -0.59464547 -0.00000230
-0.55317852 -0.76711569 0.00000263
-0.43088306 0.02775697 -0.05568224
-0.38404312 -0.12718372 0.35826573
-0.16358552 -0.74597425 0.00000094
-0.00805892 -0.44431357 0.00000129
-0.46364108 0.27594474 -0.12368384
-0.75858691 -0.41278959 -0.12853084
-0.76442128 -0.70314266 -0.07112671
-0.45145172 -0.46076126 0.00000332
-0.25843199 0.22508324 -0.01017307
-0.27501423 0.13604258 0.17300213
-0.07910189 0.68256447 -0.01527429
-0.57190536 -0.58390268 -0.00000264
-0.58970651 -0.06191609 -0.11672090
-0.15903679 -0.32733813 0.00000081
-0.50564079 0.02070588 -0.09171588
-0.45299744 -0.29364670 0.15789775
-0.30169192 0.07163939 0.22520005
-0.21786871 -0.72252675 0.00000128
-0.17640094 0.37411811 0.12543898
-0.10659780 0.43485016 0.00000713
-0.21439503 0.28239496 0.05275009
-0.10305938 0.22183417 0.00000321
-0.20807076 0.29765907 0.15894229
-0.39675384 -0.15787122 0.38673844
-0.37626951 -0.10840500 0.05419696
-0.03164433 -0.46748006 0.00000139
-0.22271875 0.26230358 0.10702340
-0.09488335 0.08694288 0.00000992
-0.00338213 0.00932637 0.00000305
-0.59030212 -0.62512523 0.03788234
-0.24595304 0.23895967 -0.00679939
-0.74725760 -0.49696242 -0.10535806
-0.67446699 -0.82831525 0.08284572
-0.21731047 -0.44341474 0.00000232
-0.49692983 -0.01034568 -0.08089644
-0.73979118 -0.17076484 -0.16939144
-0.03163795 0.34232693 -0.00000334
-0.10373624 0.52726611 0.00000435
-0.08295814 -0.41072758 0.00000184
-0.16211579 0.36890785 0.00000679
-0.56607475 -0.17430891 -0.08151315
-0.70091641 -0.00860548 -0.18358452
-0.24313319 0.21301419 0.17400921
-0.07390921 -0.74090699 -0.00000022
-0.64508902 -0.75739234 0.14869580
-0.53231207 -0.48512909 0.15199601
-0.72040935 -0.00400312 -0.19431912
-0.07186549 0.52388773 0.00000196
-0.43707094 -0.25519867 0.21005546
-0.10098567 0.09382491 0.00000977
-0.06366036 -0.58359255 0.00000043
-0.34381916 -0.69744468 -0.00000169
-0.15761993 0.41945847 0.16238974
-0.53316637 0.14490398 -0.13133207
-0.25391420 -0.67104099 -0.00000105
-0.55459359 -0.25961480 -0.05802874
-0.38661648 0.04801984 -0.03768365
-0.01136329 -0.28612495 0.00000186
-0.49272581 -0.38955830 0.12526850
-0.39111325 -0.13253870 -0.00242573
-0.60503883 0.05167565 -0.14801361
-0.52948195 -0.73921522 -0.00000297
-0.09543178 -0.74856024 0.00000062
-0.52403159 -0.62707814 -0.00000251
-0.12748526 -0.45334209 0.00000188
-0.21929199 -0.37168918 0.00000260
-0.00241128 0.05727454 0.00000320
-0.07196380 0.40225907 0.00000407
-0.19358855 0.02480742 0.00000889
-0.16425831 -0.71569821 -0.00000068
-0.34123129 -0.20620556 0.00000377
-0.45660113 -0.30235266 0.31314321
-0.17360174 0.38087428 0.17057886
-0.00777422 0.38834118 0.00000441
-0.21774293 0.39221373 -0.02449009
-0.21659777 0.46127175 -0.03826637
-0.29184175 0.09542798 0.12052638
-0.42041534 -0.14779738 -0.01395415
-0.45299721 -0.46028625 -0.00000146
-0.13027412 0.39382076 0.00000079
-0.55960558 -0.38204294 -0.03510449
-0.20468597 -0.16016237 0.00000116
-0.51192835 -0.43592209 0.30298349
-0.01653678 0.41423144 0.00000463
-0.36460349 -0.13154574 0.00000416
-0.12357579 0.37672468 0.00000367
-0.00004942 0.67922748 0.00000328
-0.22932257 0.24635038 0.21774952
-0.13546641 0.16873539 0.00000425
-0.00328080 -0.36646207 0.00000161
-0.54090800 -0.51281823 -0.00000219
-0.23141198 0.24132530 0.00231402
-0.44867158 -0.28320310 0.15709525
-0.37792626 0.33569287 -0.09310104
-0.41352974 -0.01572845 -0.03794172
-0.70325883 -0.67697273 -0.04588413
-0.00795135 0.25440607 0.00000997
-0.54109231 -0.73398839 -0.00000302
-0.27331095 -0.76461105 -0.00000152
-0.38977318 -0.55741617 -0.00000144
-0.32975747 -0.61936010 -0.00000131
-0.30679650 -0.09118802 0.00000405
-0.21117247 0.29016908 0.20620705
-0.39241388 -0.55510807 0.00000269
-0.45672095 -0.30263380 0.09872197
-0.52946057 -0.29152958 -0.03878985
-0.08921277 0.61769983 -0.00686798
-0.06417524 -0.05345446 0.00000241
-0.36339412 -0.07732397 0.13214676
-0.22151444 0.44378903 -0.03709901
-0.02664441 -0.21454444 0.00000232
-0.28728577 -0.69612052 0.00000169
-0.02955077 -0.30906560 0.00000166
-0.31388503 -0.57379733 0.00000227
-0.61765577 -0.16836194 -0.10862360
-0.20018437 0.26828213 0.00000697
-0.53579722 0.11777223 -0.12701333
-0.17459111 -0.59784329 -0.00000030
-0.53898000 0.01916900 -0.10812094
-0.33785100 0.34949972 -0.07586596
-0.24784035 0.20164703 0.15041207
-0.17395599 -0.38047857 0.00000236
-0.05527966 -0.38312836 0.00000181
-0.39978429 -0.50192149 -0.00000130
-0.25389931 0.34198339 -0.03219025
-0.25454554 -0.23059639 0.00000329
-0.16173961 0.34375185 0.00000502
-0.19677030 0.05276576 -0.00000487
-0.65755443 0.06931703 -0.17802363
-0.03279272 0.46948977 -0.00000045
-0.22624722 -0.06642972 0.00000378
-0.38183773 -0.12184761 0.04737189
-0.24152968 0.21689457 0.06184034
-0.00866933 -0.15278681 0.00000237
-0.00203445 0.28159988 -0.00000560
-0.68567063 -0.40474973 -0.09362486
-0.13554915 0.38562771 0.00000506
-0.17227886 0.00424010 0.00000198
-0.38506588 -0.12964330 0.10585578
-0.75544770 -0.61719092 -0.08448480
-0.27102187 0.27622347 -0.02711527
-0.04099701 0.41213280 0.00000473
-0.29779144 0.08105369 0.16748272
-0.53833062 -0.49965354 0.00424190
-0.03826010 -0.78479008 0.00000023
-0.33870106 -0.23510303 0.00000007
-0.52505055 -0.46759395 0.04017972
-0.02414678 0.14821436 0.00001052
-0.07629925 0.24913768 0.00000428
-0.11833394 0.24353490 0.00000320
-0.18654320 -0.57620731 0.00000168
-0.43132259 -0.24131462 0.04406417
-0.17711867 0.37238532 0.12663033
-0.25914912 0.17434638 0.11992831
-0.25134771 0.52192248 -0.06830023
-0.17794933 0.37037909 0.14838972
-0.18981409 -0.29865109 0.00000073
-0.58648346 -0.36577970 -0.05196656
-0.75216995 -0.11599476 -0.18698123
-0.02374677 -0.18087578 0.00000243
-0.48483059 0.18033877 -0.11444796
-0.33651040 -0.30381441 0.00000338
-0.57643186 -0.59164341 0.16886111
-0.02922217 0.66295133 0.00000380
-0.18871272 -0.13200401 0.00000336
-0.15797018 -0.69829142 -0.00000057
-0.12839681 -0.45181852 0.00000189
-0.38802898 -0.13679832 0.14440433
-0.43157289 -0.24192845 0.29585456
-0.32118959 0.27034258 -0.05105961
-0.06066355 0.62035999 0.00000643
-0.33632918 0.00235942 -0.00296943
-0.51250432 0.12525834 -0.11688414
-0.27576464 0.13423780 0.15700109
-0.02727926 0.19444105 0.00001013
-0.47561918 -0.18771758 -0.03335153
-0.04429016 0.07505631 0.00001077
-0.05722425 0.27531319 0.00000907
-0.24234464 0.31578576 -0.02095024
-0.15519013 0.21487314 0.00000451
-0.34202927 -0.64261581 0.00000214
-0.35855763 -0.06564653 0.25656832
-0.64127536 0.03980035 -0.16372386
-0.44552270 -0.27560322 0.21489012
-0.15353081 0.43917720 -0.00203901
-0.26146923 0.30474771 -0.02825036
-0.39746445 -0.26062913 -0.00000038
-0.29616883 0.08498391 0.09336514
-0.07611048 0.17999455 0.00000402
-0.10851852 -0.13441311 0.00000299
-0.27918890 0.32184426 -0.04069187
-0.59023583 -0.73597619 -0.00000332
-0.31778977 0.03276800 0.32813292
-0.38423370 -0.12763561 0.14249994
-0.38580146 -0.13141674 0.04304089
-0.29845296 0.39737673 -0.06605140
-0.08603635 0.32400847 0.00000827
-0.08465526 0.06498135 0.00000363
-0.48713199 0.09452942 -0.09777274
-0.03507128 -0.23661980 0.00000227
-0.64610054 -0.75983429 0.12148162
-0.48966403 -0.29992824 -0.01708147
-0.11990719 0.66242169 -0.03155859
-0.01495445 0.74539542 0.00000522
-0.22332190 -0.62493007 0.00000167
-0.11959248 0.39561009 0.00000723
-0.04493374 0.39265394 0.00000838
-0.30451183 0.06482353 0.31712411
-0.07734194 0.40860266 -0.00000047
-0.39002447 -0.15380754 0.00000007
-0.27822801 0.12828037 0.26373905
-0.42086408 0.06280458 -0.05793592
-0.40564194 -0.05215958 -0.02641518
-0.08490299 0.39627278 0.00000397
-0.40157850 -0.45428187 0.00000311
-0.63314903 -0.36180017 -0.07620244
-0.37617868 -0.10379052 -0.00090742
-0.25480889 0.18482766 0.16707149
-0.11574324 0.17618320 0.00000296
-0.43757895 -0.79880571 -0.00000264
-0.10919079 0.10145626 -0.00000642
-0.21135098 -0.10146721 0.00000358
-0.01337982 0.26149798 0.00000390
-0.12456443 -0.58648204 0.00000005
-0.40250290 -0.17174568 0.25509357
-0.64992370 -0.75082530 -0.00378455
-0.12553315 0.44919053 0.00000393
-0.09546377 -0.41771415 0.00000187
-0.66627304 -0.60460739 -0.04236745
-0.17793330 0.37041881 0.12201230
-0.27369157 -0.21128593 0.00000056
-0.13457142 0.61888264 -0.02986800
-0.06486940 0.58271825 0.00000548
-0.21954031 -0.39978713 0.00000018
-0.49979297 0.11836621 -0.10907677
-0.36194180 -0.07381555 0.07384119
-0.49290644 0.22126013 -0.12700182
-0.63300232 -0.13779394 -0.12267343
-0.26942257 -0.09319387 0.00000387
-0.19048973 0.16292711 -0.00000259
-0.19838368 -0.69437432 -0.00000080
-0.02611703 0.60773440 0.00000540
-0.55823178 -0.73789354 -0.00000314
-0.45339124 -0.20851618 -0.01787966
-0.15060149 0.22037036 0.00000292
-0.48230794 -0.69728962 -0.00000253
-0.27800422 -0.23117278 0.00000046
-0.68979935 0.01050615 -0.18197853
-0.04976380 0.67985200 0.00596599
-0.00078253 0.77020786 0.00000589
-0.34381392 -0.35527649 -0.00000041
-0.45483790 -0.29808882 0.12799990
-0.25579101 0.18245441 0.09778001
-0.31206217 0.04660567 0.20319206
-0.34217806 -0.49920715 0.00000268
-0.39121046 -0.50821878 -0.00000127
-0.05507643 0.21565663 0.00000348
-0.01126472 -0.13599069 0.00000242
-0.25464452 -0.47914678 0.00000236
-0.43162780 -0.70690015 0.00000230
-0.26180397 0.14891115 0.00000474
-0.10915127 -0.61736781 0.00000118
-0.55750903 -0.28004560 -0.05524606
-0.47878006 -0.35589108 0.14722123
-0.48386947 -0.36818363 0.30196225
-0.76772374 -0.51668505 -0.11152622
-0.38178650 -0.12173230 0.26776471
-0.27853094 -0.60586063 -0.00000095
-0.37286896 -0.48977295 -0.00000109
-0.04992388 0.10524710 0.00000309
-0.44135385 -0.26554046 0.26046027
-0.20790054 -0.67451795 0.00000141
-0.29599170 -0.06690364 0.00000409
-0.36621051 -0.08412757 0.24301048
-0.04670420 0.60436933 0.00000498
-0.05565222 -0.66901740 0.00000074
-0.43802747 0.26550786 -0.10866660
-0.21494399 0.28106738 0.17718157
-0.13126857 -0.12660289 0.00000173
-0.54904730 -0.52553292 0.26630260
-0.73531201 -0.44066238 -0.11106417
-0.42875634 0.27366259 -0.10570972
-0.22449030 0.25802799 0.09229177
-0.25170816 0.45238392 -0.05403218
-0.30782468 0.08020570 -0.00484997
-0.15466809 0.42658535 0.15471552
-0.08619034 -0.29692214 0.00000137
-0.53883855 -0.29794720 -0.04216069
-0.12375871 0.20608567 0.00000859
-0.32451336 0.01653998 0.28132562
-0.07693518 0.70847215 -0.01957087
-0.22291531 0.26182001 0.21675257
-0.05473258 0.46497010 0.00000499
-0.13138817 -0.11027488 0.00000318
-0.44228164 -0.35904286 -0.00000102
-0.45046683 -0.17527933 -0.02331871
-0.29912314 0.07783583 0.24199746
-0.28224811 -0.26302194 0.00000329
-0.00942913 0.13032902 0.00000353
-0.28763526 0.10558259 0.12726440
-0.42441227 -0.22463118 0.03263225
-0.36955745 -0.09220826 0.33309577
-0.50330361 0.19341273 -0.12643062
-0.34616177 0.38601439 -0.08762248
-0.05730229 -0.54354911 0.00000062
-0.54695435 -0.51124597 -0.00191208
-0.60192488 -0.65318746 0.14748595
-0.58585740 -0.61439810 0.14535842
-0.54213745 -0.64971612 0.00000302
-0.10234633 0.18936944 0.00000417
-0.69111537 0.02976069 -0.18663965
-0.09384401 -0.45985663 0.00000071
-0.00724728 0.69896511 0.00000395
-0.26037442 -0.43462399 -0.00000020
-0.09447999 -0.43950812 0.00000178
-0.10306619 0.55116669 0.05452157
-0.57672111 0.05222518 -0.13392355
-0.00055059 0.50492418 0.00000489
-0.68647479 -0.05340045 -0.16703250
-0.16600254 0.43863641 -0.00818110
-0.44902914 0.13349177 -0.08675302
-0.02512504 0.21183281 0.00001003
-0.73265616 -0.57903784 -0.08097972
-0.23812522 0.21775656 0.00000677
-0.25765144 0.19914409 -0.00439472
-0.74030513 -0.78331645 -0.04237074
-0.23950345 -0.73026909 -0.00000118
-0.48201155 -0.75327749 0.00000236
-0.07567215 0.59730986 0.00000638
-0.17221638 0.42348930 -0.00815079
-0.03783640 0.64470452 0.00000559
-0.01278161 -0.20215800 0.00000230
-0.74588443 -0.31735545 -0.14198873
-0.08939468 -0.52771958 0.00000048
-0.07832549 0.64465280 -0.00700775
-0.68629178 -0.04845554 -0.16796817
-0.10496744 -0.20423958 0.00000271
-0.21805661 0.27355026 0.18013059
-0.01981189 0.53533320 0.00000769
-0.19576554 0.53901912 -0.04397031
-0.43087722 -0.47707328 0.00000316
-0.46437549 -0.32111070 0.02457464
-0.38658574 -0.13331671 0.21508907
-0.77082609 -0.57043981 -0.10191304
-0.41172321 -0.19401143 0.41126162
-0.36575830 0.14542849 -0.04746104
-0.31536761 0.29426107 -0.05311072
-0.00690484 0.70448147 0.00000560
-0.31381356 0.00117135 -0.00000250
-0.49078624 -0.66930117 -0.00000247
-0.51420396 -0.42663673 -0.00306372
-0.59704136 -0.64139596 0.05756152
-0.07323719 -0.73837637 -0.00000021
-0.21630125 -0.29698469 0.00000287
-0.12607015 -0.56081894 0.00000014
-0.14240718 -0.55512178 0.00000156
-0.70665818 -0.28177362 -0.12970521
-0.65512783 -0.21603872 -0.11751443
-0.33472726 0.32618078 -0.06945346
-0.31091315 0.23962547 -0.03952389
-0.38834936 -0.39451602 -0.00000082
-0.12190468 -0.71305191 0.00000088
-0.26558320 -0.02494122 0.00000130
-0.29100272 0.09745950 0.04793029
-0.59762808 -0.09788033 -0.11322188
-0.03612659 -0.74304668 -0.00000000
-0.11734286 0.41857277 0.00000386
-0.27757486 0.03057590 0.00000758
-0.00934911 0.46534551 0.00000469
-0.43553269 -0.25149125 0.37844169
-0.03295490 0.70665857 0.00000620
-0.44784711 -0.69805129 0.00000241
-0.74400170 -0.73825137 -0.05358882
-0.16492699 0.41300219 -0.00231701
-0.06831725 0.35350048 0.00000391
-0.27807564 0.30143502 -0.03589252
-0.10192380 0.28322599 0.00000345
-0.41355574 0.02857470 -0.04716019
-0.16982763 0.17008690 0.00000816
-0.20325493 -0.47530351 0.00000214
-0.02164505 0.58011741 0.00000171
-0.57568172 0.03736733 -0.13031363
-0.41254717 -0.74130607 0.00000209
-0.18968446 0.21017653 0.00000756
-0.22689265 -0.52059072 0.00000207
-0.39485258 -0.00706879 -0.03037196
-0.27677013 0.03096768 0.00000759
-0.10442199 -0.00357255 0.00000236
-0.00023717 0.42999154 0.00000461
-0.38350927 -0.12589685 0.40981398
-0.12642542 0.40120603 0.00000084
-0.33573544 0.13616116 -0.03047751
-0.44203852 0.17340234 -0.09153933
-0.58712720 -0.67239561 0.00000314
-0.56626277 -0.56597162 -0.00022680
-0.01327855 0.50841557 0.00000497
-0.21936018 0.27040247 0.19870292
-0.45741886 -0.71040791 -0.00000242
-0.47396035 0.09582344 -0.09143243
-0.60751833 0.12662851 -0.16483218
-0.29305885 0.09248014 0.14209706
-0.55321452 -0.53559286 0.17202173
-0.38894179 -0.13899838 0.04819486
-0.37449627 0.31985358 -0.08808931
-0.02502653 0.07535869 0.00000340
-0.41222152 -0.52293292 -0.00000145
-0.45564413 -0.30004270 0.32447799
-0.37098294 -0.09564134 0.03479583
-0.05938281 0.01750453 0.00000271
-0.68586632 -0.18183727 -0.14004035
-0.57732677 0.15223668 -0.15500801
-0.50112415 -0.40983358 0.12243677
-0.57683080 0.10769597 -0.14550382
-0.44849340 -0.28276949 0.06655805
-0.31683283 0.03510454 0.00860530
-0.42301816 -0.62474202 -0.00000190
-0.48210497 -0.46709782 0.00000343
-0.00068504 0.56125789 0.00000510
-0.11820328 0.51462199 0.06813654
-0.17509898 0.10868006 -0.00000427
-0.38651253 0.12521902 -0.05367291
-0.26877664 0.40768376 -0.05330639
-0.53913859 -0.50161080 0.17908822
-0.24225303 0.21515162 0.02125720
-0.33376717 0.17782292 -0.03814674
-0.01400744 0.53525457 0.00000047
-0.19647238 0.42846451 -0.02135248
-0.00353841 0.07850725 0.00000331
-0.18657009 0.34150055 0.00000662
-0.21860093 -0.32586894 0.00000277
-0.72087605 -0.70937002 -0.04798963
-0.46726998 0.07698513 -0.08416389
-0.17899440 0.44841228 -0.01673129
-0.06509457 -0.51746302 0.00000135
-0.70753632 -0.43536022 -0.09823305
-0.04478055 0.07767390 0.00001074
-0.13550270 0.51825366 -0.00942622
-0.32600445 0.01294387 0.23720206
-0.33322926 -0.78208311 -0.00000194
-0.70190426 -0.34944088 -0.11326041
-0.21807552 0.27350451 0.18290743
-0.32984543 -0.00174594 0.00000100
-0.44066705 -0.26387686 0.11507757
-0.39054124 -0.14286106 0.08173035
-0.27787124 0.21698469 -0.01824461
-0.68610469 -0.75085214 -0.02192832
-0.00500465 -0.68843372 0.00000039
-0.22868055 -0.60876790 -0.00000066
-0.33609556 -0.48072642 0.00000272
-0.67128185 -0.04202897 -0.16177401
-0.43520679 -0.69214734 -0.00000222
-0.03525100 -0.33602131 0.00000153
-0.03102530 -0.19269086 0.00000209
-0.03599797 0.49735666 0.00000465
-0.29388896 -0.71869530 0.00000164
-0.41097337 -0.19219654 0.28965570
-0.03672173 0.53288603 0.00000745
-0.59266837 -0.63084086 0.21653825
-0.35166984 0.41334014 -0.09606366
-0.14480740 0.28948107 -0.00000112
-0.04521251 -0.02440727 0.00000264
-0.01584173 0.43049776 0.00000469
-0.70933027 -0.10412264 -0.16795839
-0.09503142 0.35732911 0.00000789
-0.73394432 -0.07109852 -0.18716746
-0.42933725 0.11867058 -0.07379497
-0.28017212 -0.34957754 0.00000296
-0.11549652 -0.67737789 0.00000098
-0.10078149 0.35849237 0.00000779
-0.06869061 0.44630631 0.00000498
-0.48810834 -0.37840725 0.03379254
-0.43802687 -0.03253376 -0.04673845
-0.35681423 -0.22273421 0.00000001
-0.41805313 -0.10253828 -0.02217324
-0.03615222 -0.34743136 0.00000186
-0.17090839 0.59666610 -0.04347947
-0.49498895 -0.47508928 -0.00000177
-0.36892001 0.26622356 -0.07414740
-0.35750130 0.20163137 -0.05499956
-0.06109547 0.71058237 -0.01206361
-0.37512487 -0.54093973 -0.00000129
-0.24772124 0.19847803 0.00000487
-0.26839646 0.15203369 0.06166855
-0.78269483 -0.77141437 -0.06610730
-0.09672367 0.29008834 0.00000350
-0.09909247 0.56076184 0.00894004
-0.35085515 -0.65498460 -0.00000157
-0.60776159 0.13095914 -0.16585398
-0.16889114 -0.29743784 0.00000265
-0.14854656 0.44136923 0.00290130
-0.07080603 -0.66909968 0.00000081
-0.01609754 0.18850394 -0.00000727
-0.28761447 -0.17475327 0.00000365
-0.41996457 -0.64473630 -0.00000195
-0.27658217 0.01540678 -0.00000331
-0.43552639 -0.25147604 0.37594285
-0.32270573 0.02091420 0.15626302
-0.01485323 -0.63326048 0.00000069
-0.33941116 -0.01942545 0.17137552
-0.35772796 -0.28327048 0.00000356
-0.19215853 0.33607856 0.13743598
-0.68532268 -0.45862797 -0.08225537
-0.07354503 0.50986053 0.00000169
-0.66153791 -0.11953398 -0.14078194
-0.42312601 -0.22152972 0.13436352
-0.22418576 0.25875469 0.14045496
-0.12432957 0.28347928 0.00000331
-0.60742755 -0.66647174 0.10098632
-0.41287812 -0.34399505 -0.00000078
-0.15414153 0.42785703 0.12775045
-0.29868730 0.07891035 0.01499102
-0.57297397 -0.58329303 0.08244278
-0.04575079 0.64812781 0.00000396
-0.71372605 -0.61647228 -0.06370573
-0.51790926 0.16280435 -0.12739798
-0.16338949 0.60005925 -0.04041294
-0.07854219 0.42705755 0.00000413
-0.31852469 0.03101602 0.05812708
-0.08380932 0.06168758 -0.00000808
-0.75191000 -0.57100614 -0.09230668
-0.24160207 -0.71547947 0.00000141
-0.00324469 -0.36512621 0.00000161
-0.44148076 0.07538873 -0.07089545
-0.25424673 0.18617851 0.20674313
-0.19542380 0.41345757 -0.01770985
-0.01815198 0.25939491 0.00000386
-0.28544926 0.09146021 0.00000464
-0.25851251 0.02661903 0.00000154
-0.75581754 -0.61382287 -0.08537014
-0.29753731 0.08167989 0.09660104
-0.30852509 -0.79088335 0.00000143
-0.10154764 0.06706232 -0.00000743
-0.06293136 0.64806058 0.06498274
-0.02767624 -0.78197220 0.00000019
-0.22682717 -0.75860476 0.00000118
-0.21921408 -0.20906680 0.00000089
-0.68388703 -0.51215004 -0.07041424
-0.63100772 -0.72339592 0.00108428
-0.53061879 -0.73430704 -0.00000296
-0.24924535 0.19826606 0.08113755
-0.34826591 -0.19932445 0.00000015
-0.20011918 -0.67963448 -0.00000076
-0.12583308 0.06972903 0.00000958
-0.06401170 0.11655466 0.00000373
-0.25556925 0.30342523 -0.02501587
-0.41631486 -0.32548112 -0.00000073
-0.36191087 -0.66574185 0.00000214
-0.72218948 -0.73441806 -0.04344389
-0.14390808 0.10179037 0.00000403
-0.24291046 0.08720823 0.00000768
-0.08628007 0.40335328 0.00000767
-0.18473399 0.17397073 0.00000254
-0.13863231 -0.05403102 0.00000196
-0.00751366 -0.32561555 0.00000173
-0.36342203 0.02501248 -0.02126753
-0.16246219 0.40777395 0.09549797
-0.31659532 -0.26203109 0.00000011
-0.36482353 -0.55837929 0.00000256
-0.07719956 -0.08662981 0.00000221
-0.71096693 -0.80178333 -0.02381701
-0.50689172 -0.55677038 -0.00000215
-0.22820757 0.05898012 0.00000184
-0.21945863 0.51741101 -0.05136581
-0.57003031 -0.62377610 -0.00000278
-0.02234979 0.75607418 -0.00207989
-0.13802700 -0.14423251 0.00000163
-0.15921776 0.27766575 -0.00000095
-0.63535929 0.07761097 -0.16861315
-0.29347283 -0.54976362 -0.00000083
-0.29778891 0.08107541 0.06125324
-0.03202203 -0.44155803 0.00000149
-0.18921193 0.09743518 0.00000422
-0.32789832 0.00838877 0.03073330
-0.23338009 0.12553480 -0.00000213
-0.51659810 -0.44718640 0.00003782
-0.52387439 -0.38894890 -0.01574560
-0.12418907 -0.37919512 0.00000083
-0.15293143 -0.77008093 -0.00000081
-0.20234873 0.50876577 -0.04098701
-0.64481435 0.09483045 -0.17693403
-0.58927118 -0.62263949 0.14679951
-0.66513330 -0.80578227 0.06582192
-0.22068383 0.26720811 0.16651817
-0.07877759 0.60980869 0.02166639
-0.02748820 -0.32442575 0.00000162
-0.34747410 0.34771133 -0.08032172
-0.48186904 0.08023095 -0.09215977
-0.26755058 0.15406314 0.12790085
-0.09654443 0.30965488 0.00000358
-0.29390157 0.40531777 -0.06541828
-0.34032987 0.40356219 -0.08834349
-0.43421559 -0.35299714 -0.00000094
-0.04286403 0.34545416 0.00000449
-0.48170343 -0.36294766 0.11875187
-0.57329151 0.02137413 -0.12579284
-0.24884010 -0.44729468 0.00000245
-0.40412883 0.32287885 -0.10358224
-0.09388676 0.57332814 0.04626946
-0.21353763 0.25210523 0.00000689
-0.00626332 0.57597609 0.00000759
-0.34074202 -0.09825881 0.00000057
-0.26955469 -0.16476101 0.00000360
-0.02857810 -0.60968372 0.00000084
-0.15787596 0.18633764 -0.00000304
-0.26886474 0.15088889 0.16984265
-0.48070924 -0.76300497 0.00000231
-0.01038320 0.42994566 0.00000862
-0.00068323 0.10920717 0.00001117
-0.34760014 -0.03920199 0.36190202
-0.46210156 -0.31562832 0.21924143
-0.12610492 0.15982773 0.00000417
-0.43580879 -0.69567020 -0.00000224
-0.60564601 -0.66216983 0.06781924
-0.50725155 -0.66206510 0.00000281
-0.57970329 -0.59953752 0.04206867
-0.43781429 -0.24737479 -0.00199160
-0.15481691 0.61686686 -0.03960498
-0.77609318 -0.67987701 -0.08181580
-0.02864790 0.45822297 0.00000455
-0.45949474 -0.30932813 0.04106349
-0.15094173 -0.36415892 0.00000072
-0.21291481 -0.47417387 -0.00000006
-0.38599062 0.29490855 -0.08867212
-0.41630714 -0.33326491 0.00000363
-0.08639179 0.56060589 0.00000649
-0.23486956 0.23296459 0.16640605
-0.20891656 -0.75006603 0.00000113
-0.17866864 -0.60105296 -0.00000033
-0.44250226 -0.26831685 0.36448899
-0.06346282 0.07988376 0.00000359
-0.41162328 -0.45939030 0.00000314
-0.39499668 0.15268718 -0.06363875
-0.28094801 0.06512270 -0.00000206
-0.25763706 0.21985292 -0.00869044
-0.73549392 -0.80084067 -0.03631609
-0.28480003 -0.79704057 0.00000130
-0.20859353 -0.10282040 0.00000136
-0.13373649 0.20541229 -0.00000334
-0.23443897 0.01084960 0.00000163
-0.55132534 -0.66130144 0.00000302
-0.15173624 0.43367475 0.01607805
-0.00908098 -0.09931857 0.00000267
-0.01174096 0.29550663 -0.00000500
-0.36751860 -0.24365137 -0.00000013
-0.30655875 -0.36346137 -0.00000021
-0.25796266 0.17721126 0.10626368
-0.50155450 -0.41086866 0.02013234
-0.50008598 -0.40733186 0.24407820
-0.61945644 -0.52161922 -0.03612617
-0.36567432 0.35827255 -0.09164672
-0.43761380 -0.35340642 -0.00000097
-0.33623324 -0.63054181 -0.00000139
-0.67354111 -0.82608006 0.12877738
-0.58471688 -0.36245691 -0.05177080
-0.02426876 0.46562973 0.00000814
-0.34589007 -0.03506049 0.00225961
-0.37437776 -0.10383707 0.03214791
-0.35182843 -0.04940731 0.27415602
-0.46088903 -0.31269455 0.04892266
-0.50050035 -0.40832400 0.02763215
-0.28496088 -0.17311303 0.00000063
-0.38559595 0.14382991 -0.05708032
-0.42670354 -0.32286019 -0.00000079
-0.17482392 0.23147905 0.00000763
-0.19022956 0.01633211 0.00000392
-0.71251894 -0.25143029 -0.13894998
-0.18427959 0.06749280 0.00000409
-0.54380934 0.18991604 -0.14602366
-0.60630236 -0.66375540 0.20010933
-0.40606386 0.22121318 -0.08342758
-0.50865871 -0.34385294 -0.01748306
-0.31922059 0.02931743 0.21128322
-0.26902498 0.15050249 0.15773534
-0.48816706 0.25984654 -0.13264190
-0.03996017 -0.10689545 0.00000236
-0.11216742 -0.22176213 0.00000149
-0.45965583 -0.30971702 0.04023702
-0.36262795 -0.07548052 0.29623429
-0.59613071 -0.63919948 0.19540606
-0.42848725 -0.25784888 -0.00000055
-0.12639744 0.24199980 0.00000448
-0.56401530 0.13464897 -0.14467611
-0.45900442 0.15231892 -0.09567065
-0.35507126 -0.05722170 0.15749304
-0.06760090 0.11914021 -0.00000728
-0.71320854 -0.16373385 -0.15751769
-0.23865803 0.34841550 -0.02588298
-0.45655303 0.12202416 -0.08814623
-0.27653307 0.13239179 0.04655523
-0.05624523 0.66420243 0.05999795
-0.46155502 -0.31430892 0.22092518
-0.39560787 -0.16143976 0.00000001
-0.20053912 0.31584774 0.12144990
-0.20875295 0.00060061 -0.00000569
-0.18149461 0.10388376 0.00000848
-0.52153265 -0.45910481 0.14081212
-0.02720937 0.72179970 0.00000618
-0.47699854 0.17989897 -0.11042677
-0.46293682 -0.31764669 0.26838145
-0.29551188 0.21850081 -0.02740621
-0.46478004 0.26690570 -0.12237703
-0.10664677 -0.64425203 -0.00000006
-0.34005120 -0.65764588 -0.00000152
-0.31176102 0.04732938 0.13366225
-0.41000282 -0.48030966 -0.00000128
-0.35009681 -0.04522468 0.21836118
-0.29696495 -0.06435679 0.00000410
-0.18942703 0.34267112 0.10430277
-0.11195610 -0.00189567 0.00000232
-0.73024714 -0.04110351 -0.19154527
-0.24742085 0.20266037 0.20678383
-0.55821112 -0.28574188 -0.05441466
-0.13659693 -0.62016562 0.00000129
-0.03526902 -0.21999242 0.00000196
-0.13756233 0.45844168 0.00000649
-0.21861401 0.27221977 0.02625357
-0.18632771 0.05927641 -0.00000504
-0.63862100 -0.57946317 -0.03372080
-0.12095491 0.50798136 0.07273762
-0.45492768 0.00138592 -0.06226438
-0.02162422 0.74778798 0.00373934
-0.41510223 0.29584363 -0.10346927
-0.67676692 -0.75474938 -0.01643453
-0.31260765 0.04529526 0.12490253
-0.44989338 -0.43979474 -0.00000136
-0.20953934 0.29411696 0.07053281
-0.50945465 -0.42994270 0.05631335
-0.60974583 -0.75562450 0.00000293
-0.08003392 -0.21611574 0.00000255
-0.32956321 -0.70118376 -0.00000162
-0.19031033 -0.55087304 -0.00000021
-0.07948081 0.60810801 0.02499622
-0.10109854 0.47797919 0.00000181
-0.03342016 0.41780206 0.00000836
-0.00745962 0.31879302 -0.00000460
-0.26015960 0.17190104 0.27775366
-0.71471472 -0.00381890 -0.19150054
-0.44469381 0.13263084 -0.08440113
-0.30920845 -0.68076807 -0.00000142
-0.15655294 -0.70097579 0.00000108
-0.21639529 0.36417502 -0.01798782
-0.07289445 0.61018590 0.00000562
-0.65644005 -0.78479543 0.08252866
-0.15244690 0.42081777 0.00000527
-0.36644995 -0.08469712 0.22233320
-0.26577920 -0.50067489 -0.00000048
-0.47710645 0.03901734 -0.08120915
-0.52720394 -0.47279307 0.04976062
-0.37633409 -0.58724627 0.00000250
-0.04353793 -0.71658090 0.00000051
-0.40777126 -0.63428870 -0.00000184
-0.23892215 0.22317421 0.23680282
-0.32917294 -0.65756706 0.00000202
-0.66464218 -0.80459662 0.02713959
-0.23068444 -0.43465226 0.00000241
-0.26242135 0.28196315 -0.02399582
-0.58097969 -0.79618592 -0.00000349
-0.52833592 -0.42948935 -0.00956005
-0.03245443 0.30596664 0.00000922
-0.11337162 0.06419741 0.00000256
-0.51295684 -0.65615577 0.00000286
-0.42933397 -0.02798989 -0.04332194
-0.20106724 -0.50685324 -0.00000011
-0.10359911 -0.60174716 0.00000121
-0.39287547 -0.14850560 0.32388461
-0.32983500 0.00369388 0.16032988
-0.43633695 -0.25342424 0.14636835
-0.00379907 -0.25148627 0.00000207
-0.42438400 -0.71814586 0.00000223
-0.28902189 0.10222393 0.26186895
-0.55053669 -0.52912160 0.00312522
-0.10506982 -0.68432199 -0.00000020
-0.71480155 -0.26939567 -0.13636212
-0.31736813 0.03379216 0.14593772
-0.32096201 -0.03017232 0.00000095
-0.35795253 -0.56705220 0.00000249
-0.30147308 -0.64941029 0.00000193
-0.12366499 0.40268037 0.00000376
-0.25185054 0.19196766 0.09531010
-0.06471629 -0.42066101 0.00000103
-0.23167037 0.24068525 0.19957694
-0.02748036 -0.31926236 0.00000164
-0.32416194 -0.24731657 0.00000012
-0.35494075 -0.05691927 0.31109525
-0.76028729 -0.31937288 -0.14879430
-0.14816342 0.15948458 0.00000270
-0.03482508 0.48598464 -0.00000001
-0.13958575 -0.73152108 0.00000089
-0.35569400 0.01032388 -0.01434260
-0.14428301 0.43991362 0.00000530
-0.64818560 -0.76486792 0.07364137
-0.48857873 0.01246404 -0.08144420
-0.12795122 0.49108864 0.10242893
-0.31294686 -0.60078030 0.00000216
-0.47070771 0.05485288 -0.08128967
-0.07488254 -0.79089018 -0.00000042
-0.55366761 0.05976060 -0.12392353
-0.16433901 0.40324056 0.06369360
-0.24319508 0.21286025 0.18928080
-0.43374060 0.16784686 -0.08622391
-0.62772640 -0.71547497 0.02383438
-0.04098931 -0.34069054 0.00000148
-0.41384930 -0.19913697 0.21917966
-0.32968819 -0.75298187 -0.00000181
-0.48253645 0.02503010 -0.08102425
-0.06303707 0.64780745 0.00658987
-0.25791705 0.40433541 -0.04716313
-0.20625314 -0.09257387 0.00000359
-0.19788727 0.32224502 0.17879059
-0.11984797 -0.26493048 0.00000255
-0.70548499 -0.31976947 -0.12122182
-0.15963412 0.62349939 -0.04339955
-0.49249189 -0.38899748 0.22813401
-0.11310360 0.04056264 0.00000247
-0.11142992 -0.04998828 0.00000332
-0.61146312 0.00517547 -0.14157393
-0.60182754 -0.79351655 -0.00000361
-0.28290645 -0.25400167 0.00000034
-0.10710993 0.10836504 0.00000389
-0.42340306 -0.24271351 -0.00000047
-0.21427510 0.35561916 -0.01514640
-0.57689751 -0.72861729 -0.00000321
-0.00006829 0.45847575 0.00000856
-0.13724690 0.18129923 0.00000285
-0.18768922 0.00709439 0.00000189
-0.14944176 0.43920629 0.10963319
-0.33013913 -0.13753714 0.00000398
-0.05434284 -0.75769623 -0.00000017
-0.39923930 -0.72360298 0.00000209
-0.22679171 -0.27740026 0.00000299
-0.27203152 0.37296844 -0.04772591
-0.37379058 -0.25002772 0.00000375
-0.15861691 -0.47722509 0.00000025
-0.04958527 -0.07970910 0.00000293
-0.27109418 0.14550478 0.21604897
-0.67906761 -0.62132739 -0.04531152
-0.26577466 0.06909130 -0.00000243
-0.42234685 0.03154480 -0.05218420
-0.23962348 0.28840701 -0.01389609
-0.20784188 0.01404514 0.00000399
-0.01957342 0.37318907 0.00000449
-0.09462216 0.57155423 0.00649500
-0.21924355 0.44925633 -0.03709589
-0.12389775 0.11412650 0.00000268
-0.18393650 0.25151083 0.00000478
-0.13331799 0.47813414 0.00692074
-0.21280995 0.46294878 -0.03671473
-0.26580386 -0.65551139 -0.00000106
-0.58541071 -0.64645390 -0.00000296
-0.34588800 -0.43220501 0.00000294
-0.03020743 -0.77532949 0.00000023
-0.21371409 0.28403640 0.11831957
-0.02966598 0.63179395 0.00000681
-0.03698207 0.56039977 0.00000173
-0.29460238 0.34227422 -0.05267049
-0.40207542 -0.17070409 0.00302529
-0.63761789 -0.73935587 0.11336738
-0.71331016 -0.48739282 -0.09031778
-0.06013087 0.22602350 -0.00000510
-0.28421735 -0.55205730 -0.00000079
-0.33330467 0.01437536 -0.00394902
-0.57764496 -0.34654749 -0.05152899
-0.06333513 -0.09530324 0.00000226
-0.57341776 0.11076784 -0.14443000
-0.24368774 0.10489645 0.00000754
-0.58893624 -0.21841815 -0.08381611
-0.44784353 -0.28120704 0.23676393
-0.10045653 -0.24056168 0.00000149
-0.40555823 -0.68197123 -0.00000201
-0.24774977 0.20186923 0.05771091
-0.38211195 -0.12251903 0.29466034
-0.02188565 0.48354375 -0.00000046
-0.26692678 -0.38970720 -0.00000007
-0.21278910 0.28467480 0.00000503
-0.14006117 0.61136666 -0.03106015
-0.01057811 0.29711500 0.00000961
-0.28746024 0.10600655 0.10973765
-0.17046062 0.10793080 0.00000418
-0.40528540 -0.07689214 -0.02109734
-0.20013753 0.20743430 -0.00000129
-0.16300950 0.40644785 0.15384784
-0.51909221 -0.45321560 0.20779035
-0.04579278 -0.56069218 0.00000062
-0.02915271 0.64438427 0.00000673
-0.36701874 -0.63087902 0.00000230
-0.27412455 -0.37106513 -0.00000005
-0.72645015 -0.58506969 -0.07661334
-0.16349360 -0.41618287 0.00000045
-0.17055674 0.42256236 -0.00712562
-0.00405577 0.10666619 0.00001114
-0.37581786 -0.40884260 -0.00000080
-0.34750708 -0.03896499 0.21182808
-0.23887775 0.10079390 0.00000764
-0.57917640 -0.61344661 0.00000332
-0.37738520 -0.15691961 0.00000412
-0.34650196 -0.25172687 0.00000362
-0.09441888 -0.00905296 0.00000339
-0.35676357 -0.06132207 0.28106433
-0.22482629 0.07411800 -0.00000355
-0.07087520 0.28073766 0.00000883
-0.14200507 -0.08810287 0.00000181
-0.17842074 -0.60465597 -0.00000034
-0.08707185 0.57067510 0.00000461
-0.23850766 -0.53503226 0.00000207
-0.06390321 0.64571570 0.02476033
-0.35178108 0.07978010 -0.02681154
-0.03087025 0.20499693 0.00001000
-0.40643415 -0.18123156 0.12319275
-0.05614488 0.48742432 0.00000449
-0.28015448 0.01418855 0.00000767
-0.19103695 -0.33132454 0.00000262
-0.29101541 0.09742156 0.13658473
-0.26408491 0.07595536 0.00000448
-0.11331123 -0.27596831 0.00000128
-0.05471671 -0.27351038 0.00000164
-0.40939861 0.12609696 -0.06533601
-0.19402815 0.33156133 0.18184268
-0.49463684 0.06725882 -0.09587106
-0.35067545 -0.04662711 0.36212481
-0.33110930 0.00062008 0.09116884
-0.43634099 -0.47857437 -0.00000143
-0.18496848 -0.36038912 0.00000249
-0.18371398 0.34616738 0.00000513
-0.63629468 -0.29667316 -0.09131266
-0.50589287 -0.73817395 -0.00000282
-0.42276737 0.07032804 -0.06045666
-0.32920193 0.00522202 0.16662839
-0.06005166 0.23945162 0.00000417
-0.26958767 0.03850171 -0.00000300
-0.08185376 -0.60925034 0.00000022
-0.35741306 -0.06288783 0.22203424
-0.06761768 0.60015864 0.00000556
-0.18488177 -0.11534978 0.00000340
-0.42333971 -0.22205084 0.27107224
-0.09632088 0.56745226 0.03007545
-0.02572945 0.76534305 -0.00570108
-0.17850937 0.03852590 0.00000902
-0.21469230 0.28167433 0.18537208
-0.08300060 0.42601944 0.00000410
-0.58917962 -0.62241847 0.18768385
-0.30592832 0.06141090 0.23867822
-0.70421894 -0.47372783 -0.08859681
-0.32386430 0.15199554 -0.02781265
-0.44961057 -0.28546630 0.05898134
-0.23693567 -0.46475270 0.00000233
-0.33639078 -0.03378631 0.00000084
-0.36652162 -0.08487514 0.15073473
-0.69241082 -0.35037453 -0.10830419
-0.19022586 0.46575696 -0.02596803
-0.27142125 0.16392775 -0.00398477
-0.44467940 0.26736236 -0.11238876
-0.10178915 0.55425477 0.02366363
-0.17482851 -0.40675721 0.00000042
-0.25825154 0.44199027 -0.05515494
-0.23135406 -0.38153198 0.00000017
-0.12590924 -0.31721930 0.00000238
-0.05130922 0.07135507 0.00001069
-0.09320587 0.17486321 0.00000928
-0.47454913 -0.66764769 0.00000264
-0.16264574 0.13227999 0.00000423
-0.09431256 0.62174173 -0.01026614
-0.50307107 0.21662192 -0.13113666
-0.05136393 0.42704077 0.00000483
-0.50554201 -0.43288920 0.00000367
-0.57615818 -0.30865199 -0.05865719
-0.16163931 0.22914684 0.00000459
-0.37781249 0.11818667 -0.04784731
-0.13637988 0.10133915 0.00000918
-0.22296838 0.26170190 0.09518954
-0.29171856 0.46477727 -0.07667786
-0.65810483 -0.78881448 0.08519983
-0.14752349 0.44383808 0.03134696
-0.60641026 -0.43718034 -0.04712670
-0.34954385 0.01591467 -0.01241915
-0.50656397 -0.68147259 -0.00000261
-0.06337017 -0.31472280 0.00000211
-0.24687380 -0.09605334 0.00000376
-0.47819367 -0.79126467 0.00000220
-0.07592204 0.44084085 0.00000500
-0.40160852 -0.16959070 0.36704326
-0.25179273 -0.72884333 -0.00000125
-0.27938626 0.12549009 0.10599731
-0.27751320 -0.74872307 -0.00000148
-0.31802872 -0.53681962 -0.00000093
-0.40250418 -0.17174257 0.09183649
-0.14949316 0.07528337 -0.00000579
-0.22379530 -0.01193555 0.00000397
-0.31246810 0.04564161 0.01006542
-0.09587284 0.56853216 0.07658621
-0.24500727 -0.42873647 -0.00000009
-0.03413426 0.70903632 0.00000545
-0.29960362 -0.13891670 0.00000067
-0.26296125 -0.43099678 0.00000257
-0.22362142 0.49981503 -0.04979829
-0.27677902 -0.57269724 -0.00000082
-0.00046586 0.43971844 -0.00000209
-0.34266789 0.00780084 -0.00727989
-0.52114218 -0.32130725 -0.02842978
-0.48971484 -0.38228826 0.10120620
-0.42863568 -0.68646819 -0.00000216
-0.22194142 0.43774379 -0.03605704
-0.31850528 -0.23892671 0.00000018
-0.55523443 -0.24593308 -0.06119303
-0.24723542 0.09607957 0.00000187
-0.59955841 -0.64747445 0.15211424
-0.46202241 0.06554498 -0.07915219
-0.24139448 -0.77221445 0.00000120
-0.15774264 0.28534002 0.00000478
-0.43521834 -0.21680454 -0.00704135
-0.21599500 0.23542288 0.00000486
-0.12581018 -0.26719510 0.00000257
-0.09076162 0.58087621 0.03404599
-0.16568371 0.52127693 -0.02519421
-0.32716338 -0.60876882 0.00000220
-0.11558781 0.43333047 0.00000701
-0.42127447 -0.18438846 -0.00678214
-0.16573352 0.39987018 0.17127669
-0.10363074 0.65321328 -0.02148010
-0.72841091 -0.74519095 -0.04432624
-0.51082183 -0.40979858 -0.00486580
-0.47989700 -0.35859350 0.32708187
-0.28195289 0.14636437 -0.00561843
-0.53092357 -0.64551520 -0.00000263
-0.24740349 -0.26711318 0.00000312
-0.70778995 -0.29520653 -0.12748182
-0.03729989 0.12566120 -0.00000805
-0.03473485 -0.51099700 0.00000087
-0.27948975 -0.46407705 0.00000252
-0.11516626 -0.17706985 0.00000164
-0.17089707 -0.09804967 0.00000341
-0.18805652 0.34599106 0.02165087
-0.11671646 0.51821912 0.00667194
-0.34093842 -0.66793476 0.00000204
-0.18601381 0.39755845 -0.00968395
-0.26043527 -0.21279918 0.00000338
-0.49047540 -0.38412899 0.22155049
-0.27418621 -0.10081272 0.00000097
-0.01417654 0.48769977 0.00000474
-0.23797196 0.43239823 -0.04298790
-0.02595914 0.73732155 0.01820287
-0.36928246 0.31853048 -0.08519898
-0.06700496 -0.58805991 0.00000110
-0.58394359 -0.64788535 -0.00000295
-0.24525074 0.46369852 -0.05314390
-0.50356564 -0.41572591 0.07042068
-0.21522009 -0.38787813 0.00000025
-0.45731511 -0.09388778 -0.04366578
-0.45560876 -0.29995469 0.25562254
-0.19478952 -0.50637740 0.00000198
-0.25746479 -0.17406629 0.00000079
-0.33539496 -0.00973643 0.35442015
-0.60333319 -0.57461659 -0.01702629
-0.24560383 -0.65676689 0.00000165
-0.32064970 -0.14332663 0.00000053
-0.16973942 0.17743195 0.00000264
-0.20605633 0.30252347 0.17955822
-0.02453962 -0.77232133 -0.00000004
-0.37598399 -0.10772707 0.38267426
-0.24657174 0.20471078 0.12233610
-0.34898760 -0.38491188 0.00000314
-0.30424437 0.06547875 0.06624198
-0.05053293 0.05647796 0.00000344
-0.19780842 0.40698888 -0.01756022
-0.29510868 0.21290318 -0.02604080
-0.14951215 -0.69870998 -0.00000052
-0.42434215 -0.22446304 0.06272945
-0.24211064 -0.29372958 0.00000044
-0.04813939 -0.25434970 0.00000176
-0.55381201 -0.54814816 -0.00000240
-0.17324279 -0.26409485 0.00000096
-0.45968296 -0.30978785 0.18093269
-0.55762865 -0.36940384 -0.03673898
-0.15634256 0.62799407 -0.04268232
-0.42977529 0.25480150 -0.10230168
-0.08564408 0.03984432 0.00000354
-0.26726819 -0.74051622 0.00000143
-0.39377918 -0.15068335 0.21831051
-0.44730612 -0.68180808 -0.00000226
-0.06523470 0.32990093 0.00000854
-0.07272233 0.63018918 -0.00119084
-0.20639202 0.14977740 0.00000776
-0.22137377 0.02308795 0.00000849
-0.26091111 -0.17795613 0.00000076
-0.46689886 -0.58874968 0.00000291
-0.19148237 0.07204793 -0.00000460
-0.02828789 0.57415340 0.00000498
-0.62891168 -0.71833774 0.12759809
-0.06943276 -0.44790733 0.00000090
-0.00130357 0.59355774 0.00000523
-0.25403250 0.18669398 0.25193778
-0.03127430 0.42716516 -0.00000144
-0.18650958 -0.42693948 0.00000027
-0.14683626 0.49441063 -0.01015734
-0.14890694 -0.42557607 0.00000051
-0.13191365 0.48152209 0.07096086
-0.06181924 -0.17238844 0.00000198
-0.04362074 -0.23986860 0.00000230
-0.24212622 0.21544238 0.20798877
-0.00172592 0.32811658 0.00000422
-0.34078841 0.17935792 -0.04198778
-0.32601801 -0.02778001 0.00000093
-0.50359437 -0.63275415 0.00000291
-0.46747051 -0.47292405 0.00000334
-0.30804903 0.11408304 -0.01199817
-0.42737178 0.09686975 -0.06828129
-0.47172722 -0.63021967 0.00000277
-0.11009373 0.01109207 0.00000354
-0.02194718 0.27066039 0.00000388
-0.65391181 -0.16869654 -0.12674131
-0.25049555 0.19524457 0.12114863
