ply
format ascii 1.0
element vertex 1408
property float x
property float y
property float z
end_header
0.55576867 -0.26774830 0.00000000
0.64278309 0.32615936 0.05194241
-0.13743291 0.58481798 0.00000000
-0.68412870 0.31987137 0.00000000
-0.59505311 0.06824313 0.00000000
-0.70652733 -0.29384630 0.00000000
-0.69632420 0.62733433 0.00000000
0.48544731 0.63633532 0.09893420
0.19647830 0.71577754 0.03451377
-0.35832808 -0.15192802 0.00000000
-0.35270109 -0.44228336 0.00000000
0.29726197 0.28344060 0.00000000
-0.08792891 0.66132432 0.00000000
-0.05008950 0.72356008 0.00000000
-0.00718616 -0.63175147 0.00000000
-0.12558363 -0.20787838 0.00000000
-0.51369553 0.49704876 0.00000000
-0.35266204 -0.07487383 0.00000000
0.18236901 -0.69727818 0.00000000
-0.72489334 -0.48769455 0.00000000
0.76615134 0.37420223 0.10464383
0.64988318 -0.72477881 0.00000000
0.03667574 0.05574889 0.00000000
-0.78034207 0.43866594 0.00000000
-0.39428012 0.39964554 0.00000000
-0.47396625 -0.49548739 0.00000000
-0.37488535 0.09090073 0.00000000
-0.33951534 0.55902780 0.00000000
0.23601779 0.76079090 0.06051021
-0.26721439 -0.53846855 0.00000000
0.40681709 0.21886323 0.00000000
-0.22481866 -0.19080768 0.00000000
-0.38361259 0.39107677 0.00000000
0.51116056 0.26795729 0.00000000
0.74324317 0.02525752 0.00000000
-0.55823159 -0.14057987 0.00000000
0.40295736 0.71152052 0.09668840
-0.73428829 0.63453309 0.00000000
0.49936799 0.07755322 0.00000000
0.48570172 -0.30694668 0.00000000
-0.63594355 -0.60898415 0.00000000
-0.79325201 -0.66866113 0.00000000
-0.46101431 0.06910840 0.00000000
0.07944770 0.51429700 0.00000000
-0.72617848 -0.63803599 0.00000000
0.36862117 0.22808702 0.00000000
0.55579294 0.54259110 0.09174004
-0.08439431 -0.11253286 0.00000000
0.52059773 0.62503431 0.10626686
-0.73092802 -0.40114582 0.00000000
-0.63808491 -0.29931973 0.00000000
0.73218564 -0.52532656 0.00000000
-0.63475869 -0.39046862 0.00000000
0.18090001 -0.36274903 0.00000000
-0.56827368 -0.73481210 0.00000000
-0.69899890 -0.62484399 0.00000000
0.06908863 0.06779252 0.00000000
-0.32916728 -0.70370333 0.00000000
-0.33444698 -0.07855938 0.00000000
-0.29080051 0.56008461 0.00000000
0.70697309 -0.39491042 0.00000000
-0.69511282 0.49006877 0.00000000
0.70835253 -0.73783353 0.00000000
0.57306199 0.19897122 0.00000000
0.15881416 0.35139809 0.00000000
-0.22322682 0.35960871 0.00000000
-0.29006330 0.19336479 0.00000000
-0.48271474 -0.53732182 0.00000000
0.26852583 0.16197860 0.00000000
0.55773196 -0.63708461 0.00000000
-0.64981812 -0.22355825 0.00000000
0.24703287 0.63144474 0.02412843
-0.24141655 -0.29974783 0.00000000
0.76405943 0.35904429 0.09934026
-0.53410561 -0.26695803 0.00000000
-0.59412592 -0.62591871 0.00000000
0.28730034 -0.26925015 0.00000000
0.70875084 -0.73356804 0.00000000
0.23206906 -0.39358174 0.00000000
0.33308326 -0.35849380 0.00000000
0.27246256 -0.32222585 0.00000000
0.64284826 -0.48001000 0.00000000
-0.76358373 -0.38667935 0.00000000
-0.78771054 -0.31776213 0.00000000
0.11003634 -0.26045747 0.00000000
0.02910626 -0.67981926 0.00000000
-0.54350982 0.72221090 0.00000000
-0.13679153 -0.20169962 0.00000000
0.09078566 0.34154522 0.00000000
0.18425709 0.63395610 0.00559976
0.67568948 -0.47886032 0.00000000
-0.75469733 -0.62004080 0.00000000
0.09856355 0.22864535 0.00000000
0.42374535 -0.39585220 0.00000000
-0.50163848 0.11494209 0.00000000
0.13645678 0.61809263 0.00000000
0.16856729 -0.15847696 0.00000000
-0.29666731 0.13727407 0.00000000
0.18062563 0.11143703 0.00000000
0.25455804 -0.31009624 0.00000000
0.04986033 0.05348073 0.00000000
-0.76323196 -0.25931312 0.00000000
0.41204603 -0.10071817 0.00000000
-0.58697462 0.30347107 0.00000000
-0.00546426 -0.77290475 0.00000000
0.66403691 -0.75846561 0.00000000
-0.38049058 0.15119123 0.00000000
-0.31347486 -0.43357177 0.00000000
0.72255197 0.40661216 0.10120357
-0.79306464 -0.63218348 0.00000000
0.00532498 -0.35808444 0.00000000
0.33456387 0.64135747 0.05408811
-0.67229777 -0.18284270 0.00000000
0.16010680 0.74491274 0.03228895
-0.60533008 -0.39472322 0.00000000
-0.26141531 -0.70104776 0.00000000
0.45337346 -0.34670863 0.00000000
-0.28553340 -0.02701032 0.00000000
0.69830897 -0.42463359 0.00000000
-0.03481527 0.14155661 0.00000000
-0.15290750 0.22479946 0.00000000
-0.62898563 -0.22513052 0.00000000
-0.11129373 0.52052003 0.00000000
-0.57556941 -0.02423018 0.00000000
-0.37953737 -0.54021982 0.00000000
-0.29538789 -0.62490445 0.00000000
0.33959464 0.61905009 0.04877631
-0.72890017 -0.18087288 0.00000000
-0.35249948 0.25340732 0.00000000
0.64721750 -0.32625212 0.00000000
-0.66945430 0.61124390 0.00000000
-0.44615895 -0.20518437 0.00000000
-0.22685262 -0.65551250 0.00000000
0.58813255 -0.25504628 0.00000000
0.14635031 0.47549581 0.00000000
0.07678331 -0.51705462 0.00000000
-0.07470389 -0.10748096 0.00000000
0.03923056 0.09009873 0.00000000
-0.74739493 0.29615034 0.00000000
0.75288840 0.21970023 0.05306345
0.16696504 0.01342687 0.00000000
-0.77758330 -0.65903888 0.00000000
-0.47757017 0.32865841 0.00000000
-0.28692926 0.29568729 0.00000000
0.56388785 0.19993423 0.00000000
0.29605579 -0.35205498 0.00000000
-0.51358558 -0.11037176 0.00000000
0.79501909 -0.57666412 0.00000000
-0.13015986 -0.18458645 0.00000000
0.06287870 -0.38714652 0.00000000
0.30602494 -0.09040491 0.00000000
0.62521723 -0.23616386 0.00000000
-0.33787240 -0.29136151 0.00000000
0.20825023 0.26608615 0.00000000
0.32941163 -0.26500255 0.00000000
0.12484766 0.52838379 0.00000000
0.60770629 -0.44030290 0.00000000
0.37373049 0.33470758 0.00000000
-0.66024818 -0.68070648 0.00000000
-0.01508836 0.27330357 0.00000000
0.73583502 0.54811301 0.14879303
-0.23642612 0.22300276 0.00000000
-0.04449729 0.20537850 0.00000000
0.64516706 -0.14622676 0.00000000
-0.57216734 -0.00838241 0.00000000
-0.39853075 0.53156087 0.00000000
-0.23048430 -0.61478264 0.00000000
-0.71599340 0.27978838 0.00000000
-0.35040602 0.20426391 0.00000000
0.14660567 0.08156513 0.00000000
0.20807335 -0.31095135 0.00000000
-0.13736401 -0.55083049 0.00000000
0.71708432 -0.35268427 0.00000000
-0.63245028 -0.66323518 0.00000000
0.51674471 0.45150904 0.05173066
0.36871379 0.54230389 0.03413307
-0.73996098 -0.08609873 0.00000000
-0.40415244 0.14217916 0.00000000
0.36794321 -0.14974272 0.00000000
0.56212818 -0.69429458 0.00000000
-0.26863577 0.18906406 0.00000000
0.71073673 0.56306120 0.14567232
0.77812647 -0.27425791 0.00000000
-0.09084494 -0.43657430 0.00000000
0.73209252 -0.79685493 0.00000000
-0.69366086 0.19358517 0.00000000
-0.28540818 -0.73037251 0.00000000
0.09792002 0.17043578 0.00000000
0.40799347 0.47126934 0.02436984
0.64616860 0.08971797 0.00000000
-0.58001285 0.51802422 0.00000000
0.34697791 0.66425660 0.06494541
0.15202427 -0.78579460 0.00000000
-0.17915973 0.37430319 0.00000000
-0.01900775 -0.15772584 0.00000000
0.12966076 -0.68046756 0.00000000
-0.55766928 0.16165488 0.00000000
-0.11711824 -0.05149912 0.00000000
0.26828462 0.30006492 0.00000000
0.68614147 0.57988932 0.14328428
0.02769550 0.62650278 0.00000000
-0.43782844 -0.36837637 0.00000000
-0.79422822 -0.69380228 0.00000000
0.49610675 0.31492281 0.00339110
0.16689695 -0.22075484 0.00000000
-0.53398597 -0.46717039 0.00000000
-0.60206931 -0.14219368 0.00000000
0.56051415 0.62472604 0.11844468
0.16917322 0.33830726 0.00000000
0.76528456 -0.72290448 0.00000000
0.39281924 -0.29187534 0.00000000
-0.40482822 0.33144800 0.00000000
-0.68488171 -0.37624455 0.00000000
0.21000250 -0.28362458 0.00000000
0.37662060 0.30761576 0.00000000
0.18912501 0.77646888 0.05091301
0.69368853 0.38824129 0.08668108
-0.56476033 -0.31231448 0.00000000
-0.08948761 0.00673784 0.00000000
-0.54768303 -0.03249625 0.00000000
0.65199156 -0.31454065 0.00000000
0.22385287 0.28121097 0.00000000
-0.28200542 -0.64521422 0.00000000
-0.35032430 -0.22126663 0.00000000
-0.17978465 0.38152475 0.00000000
-0.55914845 -0.41047318 0.00000000
0.48743727 -0.29542964 0.00000000
-0.50862888 -0.33898141 0.00000000
0.62397157 -0.63853915 0.00000000
-0.11791834 -0.52145262 0.00000000
-0.20150426 -0.51930665 0.00000000
-0.62208646 0.16735956 0.00000000
0.49062564 0.22253006 0.00000000
-0.70207019 0.46085282 0.00000000
0.59298581 -0.45000191 0.00000000
0.44069283 -0.66083256 0.00000000
-0.47651244 -0.16105535 0.00000000
-0.23882612 -0.74607417 0.00000000
0.66876436 -0.68452284 0.00000000
0.31607475 0.75091762 0.08208868
-0.77199758 -0.11954767 0.00000000
-0.48211574 -0.63846085 0.00000000
-0.46929087 0.12888543 0.00000000
0.24168682 -0.45702369 0.00000000
-0.69254033 -0.50710195 0.00000000
0.58380553 -0.03352272 0.00000000
0.54803407 -0.23218511 0.00000000
0.07841303 0.52975695 0.00000000
-0.46463508 0.14573475 0.00000000
0.15532680 0.55192319 0.00000000
-0.36691873 0.11019989 0.00000000
-0.46506212 0.22585219 0.00000000
-0.40279530 0.03264310 0.00000000
-0.45015528 -0.74200340 0.00000000
-0.38325309 0.30385240 0.00000000
-0.63634433 0.21676749 0.00000000
-0.11899440 -0.09432025 0.00000000
-0.50991911 0.15032621 0.00000000
-0.14674599 -0.12980869 0.00000000
-0.48013204 0.62196215 0.00000000
0.70180858 0.56121757 0.14236046
-0.75599255 0.00519795 0.00000000
-0.63833525 0.17707620 0.00000000
-0.26029746 0.41229560 0.00000000
-0.35648359 -0.63336590 0.00000000
-0.39139985 -0.69728195 0.00000000
0.74129310 -0.54511676 0.00000000
-0.55824201 -0.53862615 0.00000000
0.25065075 -0.55900778 0.00000000
0.56189237 0.75879150 0.16008799
-0.13365344 -0.27592503 0.00000000
-0.08996264 0.10594785 0.00000000
-0.64621097 -0.49088205 0.00000000
-0.79224445 -0.07209765 0.00000000
0.35606416 -0.13183707 0.00000000
0.59002087 0.31368729 0.03188572
0.76762313 0.54558677 0.15778980
0.04020986 0.15717363 0.00000000
-0.64567169 -0.04240420 0.00000000
-0.04094967 0.35868635 0.00000000
0.27768995 0.58409832 0.01899718
0.73072100 -0.17763285 0.00000000
-0.41657316 0.02532702 0.00000000
-0.37892733 0.04141352 0.00000000
-0.07838728 -0.69827211 0.00000000
0.70602955 -0.73302675 0.00000000
0.26520437 -0.06488633 0.00000000
0.36088451 0.00224937 0.00000000
-0.25404027 -0.37700985 0.00000000
-0.26075000 -0.69953496 0.00000000
-0.19958660 -0.12841440 0.00000000
-0.02335553 -0.45947859 0.00000000
-0.13529417 -0.49346419 0.00000000
-0.74986766 0.53702949 0.00000000
-0.06035291 0.76745887 0.00000000
0.37635636 0.59197354 0.05175408
0.27596851 -0.36440239 0.00000000
-0.51260627 0.61676527 0.00000000
0.02688595 0.36074682 0.00000000
-0.79756280 -0.72315257 0.00000000
0.09151168 -0.23551588 0.00000000
0.65619484 0.31936874 0.05397812
-0.20678725 -0.24791746 0.00000000
0.49542492 -0.10211825 0.00000000
0.59970813 0.65556704 0.13997748
-0.11317763 0.24154002 0.00000000
-0.62725756 -0.58607607 0.00000000
0.60656925 -0.00918624 0.00000000
-0.61328115 -0.63489230 0.00000000
-0.45196040 0.74532176 0.00000000
-0.46891603 0.43973575 0.00000000
0.66951416 0.69815804 0.17453482
-0.48515029 0.50925756 0.00000000
-0.53674897 -0.32022700 0.00000000
0.74406217 -0.55767540 0.00000000
-0.19804577 -0.51158139 0.00000000
0.48196031 -0.26423919 0.00000000
0.69534827 -0.47872901 0.00000000
0.22137789 0.43372807 0.00000000
0.07733115 -0.68455647 0.00000000
0.03062691 0.02464552 0.00000000
0.51301134 -0.66186086 0.00000000
-0.24741130 0.47727615 0.00000000
-0.60866949 0.16153682 0.00000000
0.20697205 0.64241878 0.01518551
0.55170780 0.32481214 0.02352653
-0.68017770 -0.07107674 0.00000000
0.35948055 -0.55736277 0.00000000
0.49023493 -0.00792923 0.00000000
-0.46605478 -0.69943109 0.00000000
-0.51753026 0.11707043 0.00000000
0.29620090 -0.79077640 0.00000000
-0.49690238 -0.36412469 0.00000000
-0.06000478 0.70375333 0.00000000
0.49686432 0.71779926 0.12749123
0.70138190 0.45954311 0.11096865
0.18995589 0.07816434 0.00000000
-0.33890223 0.79572326 0.00000000
-0.20617672 0.75241366 0.00000000
0.62245703 0.13191191 0.00000000
0.65441422 0.17140223 0.00793742
-0.67707490 -0.52779767 0.00000000
-0.11484656 -0.50783563 0.00000000
-0.38765487 0.08180638 0.00000000
-0.58762093 0.05747743 0.00000000
0.31723036 -0.37301816 0.00000000
0.04890894 0.14517411 0.00000000
0.65405252 -0.54895262 0.00000000
0.26129346 -0.60245916 0.00000000
0.55582155 -0.24927459 0.00000000
-0.54646532 0.24151507 0.00000000
-0.06673050 -0.68681637 0.00000000
-0.51821893 0.24066408 0.00000000
0.25942369 -0.02157394 0.00000000
0.51459567 0.49345388 0.06396613
0.58958439 -0.62845068 0.00000000
0.22015357 -0.30066755 0.00000000
-0.44070703 -0.42533478 0.00000000
0.40568956 0.51694265 0.03770404
0.68905986 -0.25063437 0.00000000
-0.27999668 0.39587129 0.00000000
0.61856756 -0.55347242 0.00000000
-0.18652058 0.20866695 0.00000000
0.74837060 -0.76055359 0.00000000
0.23098541 0.73541274 0.05116024
0.68999042 0.32586985 0.06636759
0.63794651 0.59869728 0.13424906
0.14534160 0.61303956 0.00000000
0.52655436 0.47871890 0.06311254
0.71251344 -0.43855471 0.00000000
-0.66742722 -0.58200739 0.00000000
-0.74793067 -0.32096510 0.00000000
-0.77826999 0.47823662 0.00000000
-0.62366271 -0.47314351 0.00000000
-0.07106511 -0.48519534 0.00000000
0.23485984 0.41365320 0.00000000
-0.14457726 0.20828798 0.00000000
-0.60555177 0.22896594 0.00000000
0.43487371 0.38006828 0.00459401
-0.44337662 -0.41779599 0.00000000
-0.26423795 0.09962713 0.00000000
-0.42891530 0.44194085 0.00000000
0.73502914 -0.17088037 0.00000000
-0.00287017 -0.15877645 0.00000000
0.24651928 0.48025671 0.00000000
-0.55794619 -0.68175070 0.00000000
-0.32285702 0.09194999 0.00000000
-0.38066307 0.26286162 0.00000000
0.29925994 -0.78145732 0.00000000
0.02308345 -0.52672606 0.00000000
-0.75781653 -0.54841612 0.00000000
-0.22136322 -0.00784878 0.00000000
-0.58445089 0.63060018 0.00000000
0.73986175 -0.71572704 0.00000000
-0.40744929 0.49119316 0.00000000
0.18432822 -0.47224224 0.00000000
0.62509910 -0.00187021 0.00000000
-0.04005130 0.12287457 0.00000000
-0.51723994 0.25690295 0.00000000
0.37073539 -0.11751765 0.00000000
0.72736536 0.64315345 0.17540996
0.09860367 -0.30012450 0.00000000
-0.36986672 0.23500018 0.00000000
0.27621433 -0.11708179 0.00000000
0.00427622 0.28439228 0.00000000
0.46309759 0.16471001 0.00000000
-0.33016329 0.05612641 0.00000000
-0.62996192 0.16625239 0.00000000
0.20804009 -0.57344127 0.00000000
-0.44010322 0.70438377 0.00000000
0.03906034 -0.01815273 0.00000000
0.13480511 -0.09925857 0.00000000
0.52039120 0.76901535 0.15047156
-0.25658527 -0.49600312 0.00000000
0.01091680 -0.01587592 0.00000000
-0.45239790 0.74814884 0.00000000
0.40586994 -0.79156665 0.00000000
-0.77393626 -0.09496885 0.00000000
0.15596523 -0.42387195 0.00000000
0.67326646 -0.72731350 0.00000000
-0.42351978 -0.49158919 0.00000000
0.09168320 -0.73878040 0.00000000
-0.31183575 0.42324281 0.00000000
0.55313835 -0.21484997 0.00000000
0.17885165 0.36338185 0.00000000
0.77909194 -0.24224043 0.00000000
-0.68535560 -0.29552991 0.00000000
0.73715217 -0.78176263 0.00000000
0.29774029 0.66944195 0.05140123
0.39194639 0.67996348 0.08360052
0.43887122 -0.54164619 0.00000000
-0.02758585 0.28281172 0.00000000
-0.20416838 0.63660966 0.00000000
-0.43579118 -0.25205995 0.00000000
-0.23887268 -0.32572701 0.00000000
-0.09532665 0.71650258 0.00000000
0.74276423 0.27822545 0.06794466
0.69732889 0.02777404 0.00000000
-0.45054761 -0.01312141 0.00000000
-0.41955434 -0.06632846 0.00000000
-0.20828734 0.04678520 0.00000000
-0.33753001 -0.77358871 0.00000000
-0.19990623 -0.47614626 0.00000000
-0.50262927 0.79075562 0.00000000
-0.35922513 0.13955973 0.00000000
0.18094649 0.43279457 0.00000000
-0.35650036 0.19625536 0.00000000
0.71475248 0.76001907 0.20746337
-0.14234408 -0.25151824 0.00000000
-0.56817651 0.25033749 0.00000000
-0.09145750 0.24657291 0.00000000
-0.22171658 0.27890904 0.00000000
0.79707633 -0.49693418 0.00000000
0.49017904 -0.34691851 0.00000000
0.01997206 -0.52008343 0.00000000
0.17504627 0.24265076 0.00000000
-0.13611309 -0.75282239 0.00000000
-0.67437686 -0.78127746 0.00000000
-0.17105266 0.76488659 0.00000000
-0.43870015 0.39337560 0.00000000
0.52556518 -0.20574692 0.00000000
0.39676219 0.61664824 0.06561437
-0.51011352 -0.55749305 0.00000000
-0.15009419 0.17972602 0.00000000
-0.15614195 -0.65086273 0.00000000
0.01008106 0.51558444 0.00000000
0.50841707 -0.55469066 0.00000000
-0.20669203 0.55302975 0.00000000
0.26367428 -0.20046204 0.00000000
-0.16932722 0.35014337 0.00000000
0.60025416 -0.11366858 0.00000000
-0.34644446 0.57734931 0.00000000
-0.72314676 0.43633134 0.00000000
-0.13224281 -0.28824783 0.00000000
-0.71559692 0.04980540 0.00000000
-0.05187168 0.66277752 0.00000000
-0.79756189 0.08851984 0.00000000
-0.01939978 -0.37127845 0.00000000
0.30937375 0.15547230 0.00000000
0.23878621 -0.33810669 0.00000000
-0.12612855 0.30970420 0.00000000
0.16694689 -0.64744562 0.00000000
-0.38936144 0.41389063 0.00000000
0.21023786 -0.14190834 0.00000000
0.08624094 0.03438115 0.00000000
0.61853966 -0.66478030 0.00000000
-0.79931122 0.37404533 0.00000000
0.23343501 0.12546583 0.00000000
0.58710551 0.14241885 0.00000000
0.72656990 -0.18788914 0.00000000
0.05410858 0.59387001 0.00000000
-0.50799400 0.01512106 0.00000000
0.79478416 -0.60255044 0.00000000
-0.34694447 0.43146116 0.00000000
0.46250695 -0.57014150 0.00000000
0.60720949 0.30576434 0.03473451
-0.27766858 0.54147480 0.00000000
-0.67143372 -0.53840764 0.00000000
0.40596777 -0.54215950 0.00000000
-0.62084880 0.09347396 0.00000000
-0.74129277 0.12059612 0.00000000
-0.27026276 -0.53550694 0.00000000
0.48037407 -0.39006441 0.00000000
0.03128703 -0.70569486 0.00000000
0.20754200 -0.31358883 0.00000000
-0.42756374 -0.61869512 0.00000000
0.27079388 0.69551197 0.05113181
0.38696402 -0.27190919 0.00000000
0.29319696 -0.33009492 0.00000000
-0.37168186 0.00497681 0.00000000
0.03062056 0.24073058 0.00000000
-0.64032554 0.05777188 0.00000000
-0.62965841 -0.12820959 0.00000000
0.65378680 -0.22025389 0.00000000
0.10376441 0.62712254 0.00000000
-0.48210470 0.45377183 0.00000000
0.28530739 -0.11533602 0.00000000
-0.72689642 -0.32885477 0.00000000
0.39991050 0.20697634 0.00000000
0.09332843 -0.45746311 0.00000000
0.25746105 -0.47510272 0.00000000
-0.68366877 0.20839483 0.00000000
-0.19644549 0.40992910 0.00000000
0.38772313 -0.12516312 0.00000000
-0.57900843 0.05692459 0.00000000
-0.66608974 -0.50319044 0.00000000
-0.34192523 -0.66260917 0.00000000
-0.30505373 0.44323842 0.00000000
-0.40712294 -0.10965785 0.00000000
0.40132940 0.59329789 0.05983938
0.74773451 0.70306583 0.20009318
-0.78861100 -0.50222676 0.00000000
0.39845244 0.27995795 0.00000000
0.00642159 -0.22622538 0.00000000
0.09681029 0.78666391 0.02566473
0.09509447 0.09822951 0.00000000
-0.19202958 -0.23708378 0.00000000
-0.51287242 -0.07846173 0.00000000
-0.21237139 -0.69328708 0.00000000
-0.15041644 0.61687659 0.00000000
0.56546812 -0.53419405 0.00000000
0.56575859 -0.39191426 0.00000000
-0.79854596 0.15453028 0.00000000
0.55582786 0.74979375 0.15545698
0.51737300 -0.67769186 0.00000000
0.29217715 0.15784253 0.00000000
-0.59522395 0.60048794 0.00000000
-0.50148319 0.72305041 0.00000000
0.09300504 -0.14865418 0.00000000
-0.63539591 -0.32832668 0.00000000
-0.31281398 -0.20493397 0.00000000
0.72710450 0.41739298 0.10591790
0.35074735 -0.03886642 0.00000000
-0.30481872 -0.78115941 0.00000000
0.38860920 -0.61074156 0.00000000
-0.59638162 -0.33494429 0.00000000
0.10927259 0.02184713 0.00000000
-0.74209209 0.61676928 0.00000000
-0.11529314 -0.74530862 0.00000000
0.71975193 0.49301183 0.12690683
-0.65554332 -0.71829516 0.00000000
-0.65787371 -0.22203617 0.00000000
0.46325339 0.52094232 0.05663212
-0.77161854 -0.02619627 0.00000000
0.75582541 -0.42347681 0.00000000
-0.38635997 0.25726234 0.00000000
0.54829602 0.77191866 0.15994375
0.36455056 0.30264158 0.00000000
0.64341502 0.10977354 0.00000000
-0.04787676 0.52412682 0.00000000
0.39841059 -0.26734868 0.00000000
0.13009605 0.45614197 0.00000000
-0.65329965 -0.58903171 0.00000000
0.12671219 0.29224916 0.00000000
0.40986050 -0.36375729 0.00000000
-0.10089576 0.50181978 0.00000000
0.52020369 -0.49202151 0.00000000
0.06810084 0.26915514 0.00000000
-0.15579579 0.70348935 0.00000000
-0.42797285 0.03729666 0.00000000
0.38535092 -0.66940213 0.00000000
0.34027185 -0.03275416 0.00000000
-0.16933173 0.10262049 0.00000000
0.08623397 0.37578503 0.00000000
-0.33149212 -0.71849716 0.00000000
-0.46582850 0.56287275 0.00000000
0.18409238 -0.04717014 0.00000000
-0.57363169 0.65211676 0.00000000
-0.46459762 0.04977406 0.00000000
-0.17807813 0.72389724 0.00000000
0.76032183 0.75617491 0.22029208
0.40768273 -0.63077939 0.00000000
-0.10647763 -0.29628582 0.00000000
0.67532942 -0.05500977 0.00000000
-0.02139713 0.41094198 0.00000000
-0.65853188 0.69393240 0.00000000
-0.03774886 0.36705924 0.00000000
-0.06444230 0.40304933 0.00000000
-0.61707807 -0.76700997 0.00000000
0.75543298 0.02277465 0.00000000
0.75740849 0.76216834 0.22123908
-0.05565776 -0.44795488 0.00000000
0.57393787 0.21979710 0.00000000
0.54667659 0.15710021 0.00000000
0.20254423 0.24130249 0.00000000
0.27670368 0.21072776 0.00000000
0.25935283 0.48208991 0.00000000
-0.54206499 0.47313307 0.00000000
-0.03539869 -0.67357854 0.00000000
0.25074591 0.09222758 0.00000000
-0.02438692 -0.03636192 0.00000000
-0.77369320 -0.72050667 0.00000000
0.08951729 0.10798126 0.00000000
0.16962414 0.57837519 0.00000000
0.34584528 0.56527227 0.03416378
0.32891912 -0.05076795 0.00000000
-0.04032824 0.15887451 0.00000000
-0.03079701 -0.64794903 0.00000000
0.39970425 0.44784448 0.01461915
0.69434041 -0.59332006 0.00000000
-0.47291927 0.50463660 0.00000000
0.12128612 0.46272981 0.00000000
0.65415329 0.09098445 0.00000000
0.61342708 0.22398472 0.01150249
-0.03550085 0.23153518 0.00000000
0.10887238 -0.30596827 0.00000000
-0.37655583 0.08968135 0.00000000
-0.59480547 -0.51160058 0.00000000
-0.40495948 0.64724609 0.00000000
-0.52777581 -0.46415012 0.00000000
0.21601010 -0.27395590 0.00000000
-0.42083912 0.74084913 0.00000000
0.18018874 0.35860918 0.00000000
-0.47481530 0.49949334 0.00000000
0.64474157 0.51888381 0.11179891
0.79694725 -0.76010607 0.00000000
0.06503317 0.55836728 0.00000000
0.45478307 -0.24821725 0.00000000
0.62084673 -0.55903687 0.00000000
0.68412215 0.23388995 0.03628356
-0.22910407 -0.68719496 0.00000000
0.62911718 -0.59832123 0.00000000
0.79075829 -0.46113961 0.00000000
0.52548207 -0.65087333 0.00000000
-0.43333937 0.39353962 0.00000000
-0.23525335 0.39930658 0.00000000
-0.24067491 -0.27147828 0.00000000
-0.37032177 -0.22972186 0.00000000
-0.06073379 -0.02446757 0.00000000
-0.65060814 0.67183352 0.00000000
-0.41371536 -0.17389640 0.00000000
0.60131098 -0.26482085 0.00000000
0.43339493 -0.36366823 0.00000000
-0.74831524 0.14010530 0.00000000
0.70091435 -0.24086766 0.00000000
0.51197808 -0.75414743 0.00000000
0.34106889 -0.25434778 0.00000000
-0.07264973 0.08915141 0.00000000
0.27807557 0.06612963 0.00000000
0.62618587 -0.49363120 0.00000000
0.41517806 -0.20083218 0.00000000
0.59178068 -0.55488053 0.00000000
-0.68569604 0.30297133 0.00000000
0.61062878 0.47146764 0.08673230
-0.59759998 -0.04810276 0.00000000
-0.67942443 0.26712590 0.00000000
0.03246294 -0.30410872 0.00000000
-0.11165892 -0.33018614 0.00000000
-0.05719481 -0.51728486 0.00000000
-0.04165411 0.12650952 0.00000000
0.45267759 -0.79405434 0.00000000
-0.39026884 -0.72985175 0.00000000
-0.02918314 -0.13313306 0.00000000
-0.30157757 0.31375352 0.00000000
-0.35531912 -0.52475431 0.00000000
-0.69736425 0.20901612 0.00000000
0.06868474 0.77024640 0.01196962
0.66314762 0.49133766 0.10898871
0.68681446 0.26643826 0.04711851
-0.28770319 -0.30525356 0.00000000
-0.62764580 0.46836740 0.00000000
-0.02983971 -0.53400292 0.00000000
0.50803091 -0.70556655 0.00000000
-0.07636522 0.74544363 0.00000000
0.27769771 -0.01643074 0.00000000
0.22302473 0.02823539 0.00000000
-0.36586051 -0.01154061 0.00000000
-0.69761663 -0.15378855 0.00000000
-0.06705757 -0.79482414 0.00000000
0.57028007 0.30830897 0.02416269
-0.08885521 -0.17350836 0.00000000
-0.73682941 -0.03340902 0.00000000
-0.72819207 0.48743215 0.00000000
0.68887906 -0.78608277 0.00000000
-0.48507067 -0.39228802 0.00000000
-0.60726195 -0.45569833 0.00000000
0.56684449 -0.74949806 0.00000000
0.26396579 -0.04903153 0.00000000
0.14755247 0.51657696 0.00000000
0.38677919 0.49255006 0.02439027
-0.24347256 0.48868168 0.00000000
0.15370624 0.13118213 0.00000000
-0.32129369 0.10944602 0.00000000
-0.50893108 -0.53566566 0.00000000
0.30666971 0.24669088 0.00000000
-0.24720290 0.47215031 0.00000000
-0.52190124 0.45377143 0.00000000
-0.33237122 -0.18540718 0.00000000
-0.04722544 0.50875490 0.00000000
-0.22551647 -0.56571519 0.00000000
-0.17742472 0.23098954 0.00000000
-0.50825173 -0.65175478 0.00000000
-0.69180125 -0.64736761 0.00000000
-0.30700398 0.18169961 0.00000000
-0.66355670 -0.56388568 0.00000000
-0.03167511 0.30600269 0.00000000
0.71547607 -0.27087580 0.00000000
-0.19119264 -0.76056374 0.00000000
0.55418948 -0.72427748 0.00000000
0.10049888 0.16391606 0.00000000
0.75007477 -0.36578537 0.00000000
-0.16011881 0.57972992 0.00000000
-0.40474719 0.59227359 0.00000000
0.04420437 -0.71190122 0.00000000
0.48037817 0.24809463 0.00000000
-0.23871192 0.00490508 0.00000000
0.68090547 -0.11364682 0.00000000
-0.11175728 0.13127264 0.00000000
0.42474641 0.48715175 0.03440379
-0.38456051 0.76622150 0.00000000
0.12978142 0.01884109 0.00000000
0.69186867 -0.04312833 0.00000000
-0.13657136 0.07961215 0.00000000
0.67913200 -0.75614113 0.00000000
0.53805874 0.01110864 0.00000000
-0.13881317 0.11017476 0.00000000
0.23802966 0.30764074 0.00000000
-0.21004232 -0.37574293 0.00000000
-0.67222319 0.56722554 0.00000000
0.10370589 0.44967790 0.00000000
-0.18137317 -0.16660742 0.00000000
0.24472048 0.21860157 0.00000000
-0.79217422 -0.13724298 0.00000000
0.24993712 0.14783696 0.00000000
-0.15840736 0.65846092 0.00000000
0.51398428 -0.03156690 0.00000000
0.57391813 0.02562278 0.00000000
0.37024366 -0.52959695 0.00000000
0.49046106 -0.33553549 0.00000000
0.68105035 0.22344101 0.03212652
0.02131707 0.06031559 0.00000000
-0.52146454 -0.72810296 0.00000000
-0.63002105 0.06705700 0.00000000
0.72149071 0.63644963 0.17154261
-0.61988045 -0.12724017 0.00000000
0.52897233 -0.00636223 0.00000000
0.06016598 0.32275253 0.00000000
-0.27566442 0.41652121 0.00000000
0.27884091 -0.11682681 0.00000000
0.13716113 -0.63640839 0.00000000
0.55645814 0.52061143 0.08518677
-0.34299440 -0.70475202 0.00000000
0.63514707 -0.77362810 0.00000000
0.30563564 0.35331684 0.00000000
0.45892769 0.14892698 0.00000000
-0.29522339 0.01206363 0.00000000
-0.43644767 0.55467080 0.00000000
0.54192546 0.11118598 0.00000000
0.37499099 0.63629070 0.06495988
-0.11803469 -0.36779649 0.00000000
0.36631800 -0.10423594 0.00000000
0.46174612 0.77302181 0.13367253
0.28138714 -0.63061841 0.00000000
-0.78261233 -0.49832540 0.00000000
-0.45995291 0.44891733 0.00000000
0.47286527 0.67950293 0.10833801
-0.26225943 0.61847038 0.00000000
0.76591910 0.39129399 0.10982740
0.71698336 0.50385611 0.12938978
0.02454838 -0.04033413 0.00000000
0.49308054 0.25417204 0.00000000
0.63322743 -0.75879589 0.00000000
-0.39363527 -0.55153297 0.00000000
0.11266373 -0.54853971 0.00000000
-0.66156827 0.28237128 0.00000000
0.48548860 -0.05179024 0.00000000
0.70219807 -0.55208015 0.00000000
0.77803369 -0.09299629 0.00000000
0.10024635 -0.41218499 0.00000000
-0.05624016 0.16652831 0.00000000
0.55446103 0.49132708 0.07556909
-0.06506953 -0.14308969 0.00000000
0.71423977 0.00670595 0.00000000
-0.00669668 -0.55231888 0.00000000
0.73992388 0.63396421 0.17644586
-0.01232097 -0.50140097 0.00000000
-0.06295711 0.52611484 0.00000000
-0.35366126 -0.28889063 0.00000000
-0.58455263 -0.49041366 0.00000000
-0.50634242 0.72321051 0.00000000
0.19426176 -0.55753419 0.00000000
-0.75115717 0.61270831 0.00000000
0.49028666 -0.50257863 0.00000000
0.28884219 -0.11932159 0.00000000
-0.41097093 -0.72740299 0.00000000
0.03118447 0.35320820 0.00000000
-0.67116576 -0.20550919 0.00000000
-0.76693461 0.52451390 0.00000000
-0.76758670 -0.17681693 0.00000000
-0.59373187 0.55735827 0.00000000
-0.51780805 -0.04358214 0.00000000
0.61343103 0.37243722 0.05714635
0.48006943 -0.04757017 0.00000000
0.24184236 -0.41139301 0.00000000
0.10553729 -0.14745599 0.00000000
0.39202815 -0.48354411 0.00000000
-0.01684257 0.63414043 0.00000000
0.43119956 0.28507740 0.00000000
-0.77228022 0.72802598 0.00000000
-0.73856870 0.00637868 0.00000000
0.58316398 0.53690252 0.09840644
0.74284828 -0.21670933 0.00000000
0.65139059 0.76036451 0.18808851
0.76838861 -0.36699394 0.00000000
-0.42463728 0.70453951 0.00000000
0.73851405 -0.00087570 0.00000000
0.11695794 -0.42773005 0.00000000
-0.33980826 -0.35652631 0.00000000
-0.15622459 -0.20303238 0.00000000
0.65250468 -0.16339456 0.00000000
0.01556549 0.57398685 0.00000000
-0.68067244 0.12886244 0.00000000
0.56325433 0.48209590 0.07543446
-0.72592380 0.37568278 0.00000000
0.05569728 0.66846026 0.00000000
-0.38040002 -0.13962987 0.00000000
0.33946930 0.78267445 0.09904542
-0.76428220 0.72164063 0.00000000
0.20116961 0.47965983 0.00000000
0.64082646 -0.33316535 0.00000000
-0.18461465 -0.51702465 0.00000000
0.76098063 -0.47362623 0.00000000
0.14339818 -0.70101198 0.00000000
-0.52818796 0.73996082 0.00000000
0.75217350 0.69283021 0.19831095
0.19234960 0.00536823 0.00000000
0.56601515 -0.18468135 0.00000000
0.44323632 -0.39322405 0.00000000
-0.67917585 -0.37135476 0.00000000
-0.12392833 -0.20554035 0.00000000
0.49581807 0.35553618 0.01578918
0.03066490 -0.53294488 0.00000000
-0.66097906 0.22173988 0.00000000
0.67835897 0.45723700 0.10318108
-0.14091846 -0.09641934 0.00000000
0.70326755 -0.42799811 0.00000000
-0.15800370 -0.49086591 0.00000000
0.04264723 0.77872708 0.00657166
0.66186582 -0.75340143 0.00000000
-0.71554051 0.21362630 0.00000000
0.13529180 0.08978647 0.00000000
-0.59060404 -0.16385282 0.00000000
-0.62514261 0.29462556 0.00000000
0.49845168 -0.06111320 0.00000000
0.07705563 0.79543990 0.02228927
0.42719225 -0.02574914 0.00000000
0.51816492 -0.19949065 0.00000000
0.43006107 0.72474867 0.10908874
-0.13817760 -0.08427881 0.00000000
0.53594871 -0.35323169 0.00000000
0.76208923 -0.13842824 0.00000000
-0.74223776 0.49885760 0.00000000
-0.52714508 0.41773900 0.00000000
-0.31248520 -0.28199898 0.00000000
0.43644994 0.63794763 0.08436533
-0.64397885 -0.59323599 0.00000000
0.75222271 0.17361915 0.03869086
0.33011691 0.07768842 0.00000000
-0.46022995 -0.70284822 0.00000000
0.30778913 -0.54334712 0.00000000
-0.04719959 -0.64237270 0.00000000
-0.16860309 -0.27813165 0.00000000
-0.12755792 0.16855730 0.00000000
0.54328590 0.29134484 0.01064743
-0.21647244 0.40850798 0.00000000
-0.13997688 -0.45545957 0.00000000
0.28674094 -0.47155814 0.00000000
-0.13748725 -0.20548926 0.00000000
-0.02983308 0.21136569 0.00000000
-0.48441393 0.63961638 0.00000000
-0.79008290 -0.21933314 0.00000000
0.47454100 0.39397490 0.02106564
-0.62860972 0.00268163 0.00000000
-0.33388447 0.29466192 0.00000000
0.70615414 -0.10656824 0.00000000
-0.77261505 -0.13144471 0.00000000
0.21717576 -0.00753984 0.00000000
0.42570276 0.30736554 0.00000000
0.23435484 -0.59873353 0.00000000
-0.35535648 0.33308967 0.00000000
-0.54461507 0.19870987 0.00000000
0.21190669 0.20626687 0.00000000
-0.53578557 -0.09365100 0.00000000
0.06718324 -0.29298970 0.00000000
0.18727856 -0.10691365 0.00000000
-0.10471114 0.18954197 0.00000000
0.71460955 -0.66111804 0.00000000
-0.48496471 0.23361604 0.00000000
0.57806480 0.31481924 0.02855778
-0.67675421 0.29401532 0.00000000
0.75910910 0.61867522 0.17764376
0.08364756 -0.03216240 0.00000000
-0.63106926 -0.13357313 0.00000000
-0.79000451 0.39361556 0.00000000
0.39595351 0.23727652 0.00000000
0.62362388 -0.22958606 0.00000000
-0.40440137 0.40245842 0.00000000
0.01934847 -0.52527310 0.00000000
0.77251161 0.45948805 0.13282101
-0.45317990 0.63116796 0.00000000
0.39840153 -0.38283848 0.00000000
0.19485377 0.78983201 0.05678297
0.65617758 -0.75007475 0.00000000
-0.58531643 0.57938233 0.00000000
-0.58145120 -0.04821162 0.00000000
0.72732276 0.45820540 0.11853304
0.08975097 -0.29254440 0.00000000
0.66283409 0.43169050 0.09055342
-0.56925112 0.23293554 0.00000000
-0.33272824 0.70286248 0.00000000
0.69655966 -0.26305146 0.00000000
-0.49509592 -0.25697065 0.00000000
0.54139582 0.73515891 0.14652014
-0.35940042 -0.28668766 0.00000000
-0.45292429 -0.50324230 0.00000000
0.68525908 -0.16820344 0.00000000
0.58000513 0.49073928 0.08324206
-0.17335943 0.31372205 0.00000000
0.61752159 -0.59037601 0.00000000
-0.24202200 0.09735780 0.00000000
-0.39622254 0.74582386 0.00000000
0.56945298 0.74468292 0.15807475
-0.39594273 -0.59468606 0.00000000
-0.47315942 0.42819694 0.00000000
-0.40983030 -0.52623783 0.00000000
0.71360111 0.75614256 0.20591751
-0.66234426 0.50896272 0.00000000
-0.08125296 0.69509230 0.00000000
-0.53843817 -0.39191453 0.00000000
-0.28872742 0.27569575 0.00000000
-0.15430398 0.74377261 0.00000000
0.13353106 0.59777499 0.00000000
0.32011244 -0.41816055 0.00000000
0.37370682 0.64231057 0.06641592
0.38860955 0.62425712 0.06544718
-0.28650113 0.09950554 0.00000000
-0.33351654 -0.21814144 0.00000000
0.71240654 -0.30723657 0.00000000
0.28264756 0.35178669 0.00000000
-0.02008203 0.67596187 0.00000000
-0.79291661 0.33814266 0.00000000
-0.64692867 -0.42167234 0.00000000
0.78200472 -0.46572199 0.00000000
-0.35383403 0.20651541 0.00000000
0.40260634 0.13409951 0.00000000
0.66217673 -0.76103831 0.00000000
0.49339343 0.17602376 0.00000000
-0.51707479 0.75242218 0.00000000
0.25631913 0.57079175 0.00833541
0.07306608 -0.21471803 0.00000000
0.00269910 -0.11581890 0.00000000
0.44782714 0.72834752 0.11565754
0.42684380 -0.04762387 0.00000000
0.44514243 -0.20505856 0.00000000
0.72888928 0.01982503 0.00000000
-0.19585485 -0.15454423 0.00000000
0.49517386 0.04131643 0.00000000
-0.59887936 0.47334784 0.00000000
-0.24457738 -0.57817089 0.00000000
-0.48111870 -0.77128131 0.00000000
0.14486550 0.26434740 0.00000000
0.44039747 0.76350634 0.12418312
-0.55356246 0.41162711 0.00000000
0.35429898 0.34720851 0.00000000
-0.22893359 0.25825313 0.00000000
-0.35630115 0.12542667 0.00000000
-0.34719680 -0.08611974 0.00000000
0.79504201 -0.03445495 0.00000000
0.35055872 -0.39703082 0.00000000
0.64644313 0.20607609 0.01614736
0.44971836 -0.68669912 0.00000000
0.65588607 -0.05914041 0.00000000
0.59915672 -0.13968897 0.00000000
0.53167836 0.06937462 0.00000000
-0.30255501 0.37342911 0.00000000
-0.77534444 0.73481096 0.00000000
0.21912878 -0.54357936 0.00000000
-0.39236265 -0.16785453 0.00000000
0.67429355 -0.19807213 0.00000000
0.36206212 0.43500276 0.00000000
-0.50890003 -0.38372236 0.00000000
0.14523222 -0.33050969 0.00000000
0.20889654 -0.66283627 0.00000000
-0.15122107 0.39434101 0.00000000
-0.65087190 0.36981194 0.00000000
-0.67806738 0.32885441 0.00000000
0.66380979 0.39445256 0.07940437
0.20472971 -0.63503078 0.00000000
-0.24042650 0.38881959 0.00000000
0.07267270 0.53165131 0.00000000
-0.14959758 0.17279497 0.00000000
0.47820907 0.16019358 0.00000000
0.05989180 -0.70960097 0.00000000
-0.23322845 0.47397554 0.00000000
0.20811672 0.70430634 0.03456517
0.57962357 -0.24421635 0.00000000
0.33553752 -0.52311484 0.00000000
-0.05376841 -0.60045739 0.00000000
-0.23655487 -0.25285869 0.00000000
0.08711954 0.77443386 0.01892500
-0.08886904 -0.63943806 0.00000000
-0.33507328 -0.40723408 0.00000000
-0.73475565 -0.65374627 0.00000000
-0.77631747 0.64424842 0.00000000
0.64943281 0.02734781 0.00000000
0.22037384 -0.17653292 0.00000000
-0.35708078 -0.11416845 0.00000000
0.45807374 -0.45829147 0.00000000
0.30059850 -0.53477351 0.00000000
-0.07500580 0.22141555 0.00000000
-0.09017121 0.77870107 0.00000000
0.39612607 -0.25489939 0.00000000
-0.42687676 0.54498543 0.00000000
0.74392944 -0.28072068 0.00000000
0.28508976 0.11196422 0.00000000
0.25529786 -0.26524553 0.00000000
-0.19389101 0.52176586 0.00000000
-0.31815998 -0.04941598 0.00000000
0.28293100 0.54455560 0.00845092
0.34397372 0.63524215 0.05510104
-0.08746909 -0.27987226 0.00000000
0.68102566 0.28923072 0.05234639
0.45075729 -0.23131846 0.00000000
0.45380661 0.31305044 0.00000000
0.46251946 0.67255026 0.10301946
0.26632273 -0.28696470 0.00000000
-0.16438984 0.41356512 0.00000000
0.61888241 -0.47482637 0.00000000
0.33412411 -0.08611882 0.00000000
-0.00198315 0.10106875 0.00000000
-0.39371336 -0.41550535 0.00000000
0.42907658 0.75892454 0.11929371
0.52952552 -0.42118370 0.00000000
-0.64842947 0.07709324 0.00000000
0.35206404 -0.77930426 0.00000000
-0.36055062 0.12308040 0.00000000
-0.16838123 0.02250173 0.00000000
0.22795671 -0.12425705 0.00000000
-0.75847288 0.09949274 0.00000000
0.39957577 0.15839849 0.00000000
-0.25101991 0.29916525 0.00000000
-0.10131448 -0.05387980 0.00000000
0.73463857 0.27594886 0.06474642
-0.02508126 -0.29258346 0.00000000
-0.43362310 -0.45930709 0.00000000
-0.56592770 -0.43442666 0.00000000
0.29149613 0.43984878 0.00000000
0.40520388 0.71411811 0.09817776
0.60684696 0.58233574 0.11965677
0.69623342 -0.60975989 0.00000000
-0.13644348 0.15741765 0.00000000
-0.34363203 0.38858846 0.00000000
-0.15605504 -0.40040872 0.00000000
0.75832428 -0.09762521 0.00000000
0.24935869 -0.12220159 0.00000000
0.35543456 -0.38130402 0.00000000
0.12367333 -0.66179639 0.00000000
-0.17436210 0.64948234 0.00000000
-0.58683506 0.10962070 0.00000000
0.74536768 -0.27312462 0.00000000
0.44525242 0.17198057 0.00000000
0.04843972 -0.58365779 0.00000000
0.57960765 0.68253678 0.14208952
0.01787548 -0.60167359 0.00000000
0.49465530 0.74830844 0.13619236
0.10961599 0.50082778 0.00000000
-0.34820195 -0.74192452 0.00000000
0.13435824 0.13364553 0.00000000
-0.56948634 0.64931510 0.00000000
-0.43731350 -0.24471512 0.00000000
0.45593241 -0.55908023 0.00000000
-0.42007459 -0.60088939 0.00000000
0.08817078 -0.29704828 0.00000000
0.45788887 0.21585006 0.00000000
-0.65043480 -0.33651220 0.00000000
-0.30068502 0.14707551 0.00000000
-0.63809639 -0.44166624 0.00000000
0.25656916 0.11648689 0.00000000
0.38259903 0.66230288 0.07529670
0.43201464 0.02096372 0.00000000
-0.40372034 0.54906210 0.00000000
-0.29346305 0.06708560 0.00000000
-0.03702034 0.11238452 0.00000000
0.29917412 0.14164342 0.00000000
0.25962349 0.27289083 0.00000000
0.63597528 0.24546677 0.02503987
-0.72219267 -0.48299395 0.00000000
0.07026521 -0.08995991 0.00000000
0.34591593 0.15155310 0.00000000
-0.75836458 0.72355692 0.00000000
0.71625443 0.11782216 0.01047706
0.20407853 -0.68815648 0.00000000
-0.54283503 -0.75184800 0.00000000
0.03482538 0.61167090 0.00000000
-0.49268040 -0.60998100 0.00000000
-0.57243838 0.46640838 0.00000000
-0.11451394 -0.74978944 0.00000000
-0.55832872 0.77782025 0.00000000
-0.65794924 -0.18661626 0.00000000
0.15262188 -0.56578873 0.00000000
-0.37834459 0.79785772 0.00000000
-0.20292098 0.24235042 0.00000000
0.61233231 -0.08604775 0.00000000
0.71811343 0.44421632 0.11140055
-0.27002384 -0.12375102 0.00000000
-0.66073310 -0.09201519 0.00000000
-0.38681560 -0.45877839 0.00000000
0.04840890 -0.45768146 0.00000000
0.64233694 0.36331621 0.06322934
0.60498382 -0.01196528 0.00000000
0.44621819 0.20503651 0.00000000
0.20916599 0.27675988 0.00000000
0.63656587 -0.75195136 0.00000000
-0.73876979 -0.22903415 0.00000000
-0.09562162 -0.18703930 0.00000000
-0.74339697 -0.19561224 0.00000000
-0.20801431 0.05061207 0.00000000
-0.31362583 -0.23109531 0.00000000
-0.09443461 0.12932768 0.00000000
-0.07069340 0.34814567 0.00000000
0.11788013 0.10680864 0.00000000
0.44067899 -0.32400634 0.00000000
-0.05750544 0.24546124 0.00000000
0.64250190 -0.51308157 0.00000000
0.40067551 0.16095600 0.00000000
-0.11575887 -0.21290186 0.00000000
0.16905816 0.18480382 0.00000000
-0.55007727 0.77980605 0.00000000
0.09769153 -0.42889640 0.00000000
0.36107022 0.47333277 0.01057741
-0.17195629 -0.42130550 0.00000000
-0.24190246 0.48087206 0.00000000
-0.47616767 0.28720557 0.00000000
-0.33431572 0.39072283 0.00000000
0.75945803 0.22580954 0.05696167
0.49999803 -0.56592164 0.00000000
-0.16326214 0.45828698 0.00000000
-0.08285949 0.01291292 0.00000000
-0.27514481 0.53907541 0.00000000
-0.68717968 -0.63625072 0.00000000
-0.16623167 0.21437203 0.00000000
0.12717687 -0.44074179 0.00000000
0.49152251 -0.77454185 0.00000000
0.33608120 -0.39780475 0.00000000
-0.02283278 -0.53353499 0.00000000
-0.06962153 -0.10534252 0.00000000
0.49990397 0.42644814 0.03884774
-0.56684296 0.13062774 0.00000000
0.22112903 -0.30920039 0.00000000
-0.66085456 -0.39453430 0.00000000
0.59953337 0.04559694 0.00000000
-0.74395674 0.57135624 0.00000000
0.75922355 -0.54389043 0.00000000
-0.36074040 -0.45807054 0.00000000
0.11505674 0.23645074 0.00000000
-0.09481598 -0.06042118 0.00000000
-0.57010743 0.32468053 0.00000000
0.73909605 -0.36282320 0.00000000
0.60426252 0.50386395 0.09473540
0.41988806 0.62596693 0.07558968
-0.40608548 0.17903195 0.00000000
0.35308588 -0.23263766 0.00000000
-0.32748383 -0.16956030 0.00000000
-0.58662955 -0.38205335 0.00000000
-0.57657716 -0.01762836 0.00000000
0.24313307 0.26265174 0.00000000
-0.02831012 -0.76377523 0.00000000
0.61402979 -0.36732093 0.00000000
-0.49169546 -0.67211658 0.00000000
-0.41171575 -0.18437178 0.00000000
-0.58736799 0.32831867 0.00000000
0.47799900 -0.02236741 0.00000000
0.70993839 0.55870247 0.14408674
-0.30911865 0.41945880 0.00000000
0.20184026 -0.49073870 0.00000000
0.11018609 0.50790238 0.00000000
-0.40721149 -0.49381714 0.00000000
0.24728187 -0.43536703 0.00000000
-0.11336809 0.28043859 0.00000000
-0.50527199 -0.16357675 0.00000000
0.46728364 -0.16971472 0.00000000
0.52181055 0.01527461 0.00000000
-0.57094225 0.45243891 0.00000000
0.51113407 -0.39001755 0.00000000
0.47743138 -0.24439203 0.00000000
0.68556994 0.01659559 0.00000000
-0.12945663 0.37374933 0.00000000
0.04291505 0.78424923 0.00835183
-0.12976588 -0.36435040 0.00000000
0.00907540 -0.28851846 0.00000000
0.00330947 0.01750648 0.00000000
0.34028254 -0.53098297 0.00000000
0.03026449 0.73231930 0.00000000
-0.45804723 -0.31246017 0.00000000
0.31801396 0.56834731 0.02655231
-0.69352394 -0.14372942 0.00000000
-0.71548644 0.40298010 0.00000000
0.35273944 -0.57600290 0.00000000
0.54558252 0.69246401 0.13468045
0.36800680 0.50762095 0.02325222
-0.42750914 -0.77203204 0.00000000
-0.52359768 0.66410840 0.00000000
-0.51004123 -0.53767062 0.00000000
0.43266382 -0.60237016 0.00000000
0.67875803 -0.00744921 0.00000000
0.67392254 -0.09458281 0.00000000
-0.10564677 0.06546874 0.00000000
0.46134102 -0.20608342 0.00000000
0.63201858 0.72866768 0.17238698
-0.22370114 0.30029922 0.00000000
0.03174555 0.19126854 0.00000000
-0.23335199 0.41400474 0.00000000
-0.07405410 0.09190510 0.00000000
-0.43523591 -0.54085680 0.00000000
-0.47151207 -0.37844114 0.00000000
-0.58449996 0.70397932 0.00000000
0.66765089 0.71622104 0.17951556
0.73219433 0.14404362 0.02343983
-0.03160584 0.10943945 0.00000000
0.19770682 -0.12285809 0.00000000
0.64920164 -0.36083471 0.00000000
0.57600548 -0.18539239 0.00000000
0.30193917 -0.10672617 0.00000000
-0.72723855 -0.08092866 0.00000000
-0.64618132 0.63403037 0.00000000
-0.53182522 -0.72002497 0.00000000
0.56418991 -0.26579618 0.00000000
-0.32551034 0.29557782 0.00000000
0.79203882 -0.61419776 0.00000000
-0.44853363 -0.62236698 0.00000000
-0.70295857 0.11610315 0.00000000
0.65663449 -0.74820584 0.00000000
-0.56674285 -0.20113748 0.00000000
-0.46055283 -0.34158936 0.00000000
-0.13220565 -0.77433591 0.00000000
0.27266243 -0.38625358 0.00000000
0.61530633 0.71785354 0.16392378
0.70826859 0.28898303 0.06064624
0.33716329 0.20641788 0.00000000
0.43058020 0.24341162 0.00000000
-0.46799624 0.78638826 0.00000000
-0.40091472 -0.56318555 0.00000000
-0.20522062 -0.06276730 0.00000000
-0.70679130 -0.27165495 0.00000000
-0.50897388 -0.07708796 0.00000000
0.27166886 -0.71695792 0.00000000
0.71861635 0.08488677 0.00107705
-0.52240681 0.29415250 0.00000000
0.18718208 -0.60583063 0.00000000
-0.38010601 -0.55543401 0.00000000
-0.62927089 0.32696520 0.00000000
0.78432188 0.15026231 0.04137875
0.35762610 0.38245907 0.00000000
-0.20616080 0.72409312 0.00000000
0.75821424 0.00762902 0.00000000
-0.08973331 0.32780289 0.00000000
-0.01303377 -0.00152618 0.00000000
-0.16151449 -0.46866743 0.00000000
-0.28639758 -0.78665715 0.00000000
-0.43201694 -0.29547399 0.00000000
0.37249512 0.28481338 0.00000000
0.77233197 0.35551658 0.10079908
0.72852123 0.26985583 0.06099227
0.01418074 -0.43377766 0.00000000
-0.32424659 0.68299607 0.00000000
-0.77829514 0.11873787 0.00000000
-0.05803146 -0.60883538 0.00000000
-0.20721120 0.66903679 0.00000000
-0.64141556 0.35630306 0.00000000
0.57238179 0.63280470 0.12457732
-0.12991727 0.41610892 0.00000000
0.49576994 -0.35240969 0.00000000
-0.71081540 -0.05581604 0.00000000
-0.18248135 -0.64489968 0.00000000
-0.17239869 0.65209249 0.00000000
-0.41135834 -0.26275462 0.00000000
-0.78994740 0.67086609 0.00000000
0.69867089 0.55852390 0.14056756
0.46978147 0.51370040 0.05641265
0.17948953 -0.43403195 0.00000000
0.51500208 -0.05386023 0.00000000
-0.68857106 0.03750936 0.00000000
-0.26193427 0.56501443 0.00000000
0.02462922 -0.70175716 0.00000000
-0.11009144 -0.53077768 0.00000000
-0.13677765 -0.27111948 0.00000000
0.58989917 0.32841854 0.03637751
0.28930377 0.59051346 0.02454030
0.63846191 0.49087742 0.10125743
0.70514171 -0.51000700 0.00000000
0.16657573 -0.50221332 0.00000000
0.19902683 -0.51320033 0.00000000
-0.06718764 -0.52366262 0.00000000
0.53827472 0.43361807 0.05284951
0.20471984 0.73213306 0.04207633
0.05901341 -0.19980178 0.00000000
-0.13782142 0.13478622 0.00000000
-0.47418362 0.38906211 0.00000000
0.61600160 -0.04314142 0.00000000
-0.16487832 -0.45991738 0.00000000
0.70537426 0.30105293 0.06346733
0.06579391 0.33200762 0.00000000
-0.08556450 0.78548945 0.00000000
0.60468561 -0.45006699 0.00000000
-0.32110164 -0.01111322 0.00000000
0.08254444 0.50328261 0.00000000
-0.62414286 -0.24622528 0.00000000
-0.78110994 0.44951745 0.00000000
-0.35522456 0.18973626 0.00000000
-0.58717415 0.12405563 0.00000000
-0.05519604 0.21912356 0.00000000
-0.63674157 -0.57949869 0.00000000
-0.10463091 0.43762420 0.00000000
0.00413852 -0.41625042 0.00000000
0.32941924 -0.48289889 0.00000000
-0.55003946 0.62512118 0.00000000
0.08875987 -0.04121603 0.00000000
-0.35464586 0.55857804 0.00000000
-0.14237371 -0.72232717 0.00000000
0.39889551 0.28586817 0.00000000
0.59748066 0.13004376 0.00000000
-0.38409116 -0.12348570 0.00000000
0.41555622 -0.25529737 0.00000000
-0.11281775 0.69777750 0.00000000
-0.05585993 -0.57746361 0.00000000
-0.40159224 0.27859199 0.00000000
-0.51892447 -0.26976703 0.00000000
0.75951327 -0.44204835 0.00000000
-0.29345105 -0.71092209 0.00000000
0.10119655 0.25422114 0.00000000
-0.70640645 -0.20391101 0.00000000
0.73424330 -0.29282082 0.00000000
-0.43957574 0.23810095 0.00000000
-0.08614128 0.10416716 0.00000000
0.74428627 -0.41650279 0.00000000
0.04144329 -0.67005442 0.00000000
0.52442869 -0.32174594 0.00000000
0.34569386 -0.71486355 0.00000000
-0.68804505 -0.54663558 0.00000000
0.63320992 -0.47526996 0.00000000
0.26723564 -0.42994822 0.00000000
0.68868476 0.26148672 0.04617116
0.57059528 -0.59546047 0.00000000
-0.38694076 0.04559941 0.00000000
0.45292426 0.07261523 0.00000000
-0.57566320 0.27015234 0.00000000
-0.57526305 -0.31475100 0.00000000
0.77539342 0.28220156 0.07919918
0.00125848 -0.36929156 0.00000000
0.65759340 -0.70278273 0.00000000
0.27121348 0.66689595 0.04246260
-0.47828897 -0.28812483 0.00000000
-0.52491167 -0.48612141 0.00000000
-0.33983517 -0.45571725 0.00000000
-0.65367520 0.63435406 0.00000000
-0.38981404 -0.73475057 0.00000000
0.74020639 -0.40725628 0.00000000
0.28800423 -0.26122184 0.00000000
0.10637601 0.42648180 0.00000000
0.21395842 -0.67397099 0.00000000
-0.19492378 -0.02699968 0.00000000
0.36872463 0.64807953 0.06665782
-0.17107733 -0.41509878 0.00000000
0.61793243 -0.25394944 0.00000000
0.34915029 0.42015584 0.00000000
0.12187707 -0.07328960 0.00000000
-0.30917580 -0.08293891 0.00000000
0.72526911 0.39229392 0.09763674
0.42001163 -0.66944939 0.00000000
0.54280858 0.60794729 0.10784220
-0.29774302 0.53345276 0.00000000
-0.19970943 -0.39401027 0.00000000
-0.17173266 -0.41173301 0.00000000
-0.56859683 -0.61417626 0.00000000
0.21298282 -0.56126366 0.00000000
0.60595197 -0.63612831 0.00000000
0.24126084 0.06322524 0.00000000
0.18656703 -0.06758718 0.00000000
-0.44882653 0.52237044 0.00000000
0.29454783 -0.30855585 0.00000000
-0.06313132 0.12260393 0.00000000
-0.47261237 -0.65033904 0.00000000
-0.43130261 0.49196352 0.00000000
-0.59864043 -0.13972960 0.00000000
-0.15992284 -0.59947275 0.00000000
-0.55857421 0.26020444 0.00000000
-0.47286003 0.02126535 0.00000000
-0.59276012 0.07983706 0.00000000
