ply
format ascii 1.0
element vertex 1400
property float x
property float y
property float z
end_header
0.35274772 -0.51538286 0.21195065
-0.61678036 -0.08479466 -0.00000107
0.42313501 0.09554408 0.25424642
-0.18977379 0.52423354 0.00000096
-0.78882792 -0.59996262 -0.00000050
0.17247448 -0.34260395 0.10363236
-0.24774614 0.55117078 -0.00000062
0.36332592 -0.76441692 0.21830663
0.26106359 -0.32633479 0.15686167
0.28501209 0.11839922 0.17125751
-0.19342168 0.43003193 -0.00000017
-0.46082444 -0.05442492 -0.00000046
-0.39345662 -0.14479311 -0.00000001
0.64598980 -0.56814866 0.38814644
0.64577256 -0.71247380 0.38801620
0.37559252 0.00108607 0.22567670
-0.14211054 -0.32031643 0.00000000
-0.51537159 0.27973501 -0.00000121
-0.42152160 -0.22333692 0.00000000
0.18335543 -0.18046272 0.11017025
0.42364448 -0.04926512 0.25454889
0.04266882 0.53985639 0.02563782
0.60445109 -0.73577076 0.36318802
0.31382351 0.35843384 0.18856351
-0.23656360 -0.64206870 0.00000000
-0.14537415 0.03069563 0.00000935
-0.17670228 -0.22311349 0.00000000
0.11628332 -0.18575601 0.06986955
0.03449655 0.18583683 0.02073730
-0.27081541 -0.05432082 0.00000000
-0.31685612 0.29473841 0.00000236
0.02165825 0.02263603 0.01301349
-0.12538649 0.02579142 0.00000972
-0.49959776 -0.39179694 -0.00000003
0.43419531 0.16359199 0.26089044
-0.28646852 0.11718402 -0.00000002
-0.29152507 -0.02241982 0.00000000
0.49774136 -0.22778766 0.29907041
-0.26973692 -0.42030647 0.00000000
-0.53771391 -0.36251277 -0.00000024
-0.42492513 0.15192290 0.00000267
-0.57953538 0.16605210 -0.00000054
0.57305201 -0.57843933 0.34432149
0.48388403 -0.03266055 0.29074391
-0.23996944 -0.00835900 0.00000000
-0.20885004 -0.01307083 0.00000000
-0.22399209 0.46649687 0.00000127
-0.62591111 -0.05305298 -0.00000116
-0.29375252 0.15004177 0.00000522
-0.21000438 0.11554071 0.00000710
0.03731038 0.37251557 0.02241817
-0.19596460 -0.24104267 0.00000000
0.46733521 0.00383593 0.28080507
0.05660500 -0.70273418 0.03401147
0.04596996 0.67766483 0.02762259
-0.67317808 -0.42865489 -0.00000070
-0.22263923 0.29108011 0.00000423
0.62450098 -0.37714616 0.37523440
0.46020916 -0.76666135 0.27651953
0.39347203 -0.09076519 0.23641978
-0.10854688 -0.41015306 0.00000000
0.19914854 -0.55168716 0.11965963
0.14017956 -0.17411962 0.08422776
0.22374853 -0.62537277 0.13444069
0.04835549 0.23934036 0.02905469
0.45073700 0.16764736 0.27082910
-0.10947438 0.47288352 0.00000000
-0.06376265 0.09587279 0.00000960
-0.50307603 -0.45121216 0.00000000
0.33169593 0.38969131 0.19930118
-0.54486742 0.17072839 -0.00000121
-0.54551263 -0.07171190 -0.00000079
-0.08520219 0.53837465 0.00000000
0.48792194 0.07752373 0.29316993
0.03765307 0.41684219 0.02262993
0.13092176 -0.66244806 0.07866515
0.01058265 0.39998970 0.00636527
0.08425677 -0.35359406 0.05062620
0.55494150 0.11068643 0.33343948
-0.34687260 0.41939748 -0.00000081
-0.03025659 0.03852898 0.00000000
-0.08662587 0.68935559 0.00000018
-0.69983263 -0.55852333 -0.00000059
0.14066893 -0.09363857 0.08452180
-0.30050384 -0.74727205 0.00000000
0.61907032 -0.76221722 0.37197212
-0.15800408 0.19546502 0.00000000
0.67101815 -0.01959246 0.40318378
0.38005523 -0.24665148 0.22835850
0.66308816 -0.22571422 0.39841938
0.06571875 -0.05165817 0.03948752
-0.39321975 -0.29372781 0.00000000
0.18798047 0.11043555 0.11295765
0.09229257 0.19758595 0.05545456
0.07767021 -0.36493999 0.04666862
0.20152135 -0.36226908 0.12108535
-0.37891195 0.40058701 -0.00000091
-0.11695104 -0.69962889 0.00000000
0.30329671 0.29580960 0.18223718
-0.30011426 0.45029306 0.00000008
-0.03990911 -0.31303127 0.00000000
-0.18415141 0.42074406 0.00000280
0.21227907 0.13133474 0.12754919
-0.04702857 0.53890594 0.00000321
0.25651662 -0.06328545 0.15412960
-0.45045020 -0.46080933 0.00000000
-0.17822544 0.44632767 0.00000249
0.25391765 0.45513064 0.15256743
0.23979731 -0.45101742 0.14408370
-0.56584543 -0.78515103 0.00000000
0.01173810 0.70970711 0.00705291
0.03270027 0.52181699 0.01964816
-0.62013128 -0.08552817 -0.00000108
0.23295011 0.48458347 0.13996980
0.14698452 0.58432866 0.08831626
-0.60060669 0.14127832 -0.00000140
0.00388206 -0.48546440 0.00233256
0.13460898 0.62946205 0.08088057
0.43157616 0.19041241 0.25931428
-0.38474828 0.06251383 -0.00000034
-0.10670417 0.02485955 0.00000000
-0.52325761 -0.32945115 -0.00000024
-0.10937972 -0.33492068 0.00000000
0.08431820 0.22046052 0.05067148
-0.06404117 -0.32595465 0.00000000
0.67499632 -0.36882865 0.40557475
0.19208727 0.56380822 0.11541659
0.38494099 0.28045634 0.23129461
-0.15235784 -0.11719279 0.00000000
-0.01326750 -0.37822917 0.00000000
-0.72751430 -0.30496003 -0.00000115
-0.49365281 -0.65237816 0.00000000
-0.10865622 0.49674606 0.00000000
0.62268297 0.04327369 0.37414196
0.16903361 0.32503337 0.10156489
-0.22943949 0.12403611 0.00000000
0.36873034 -0.22873297 0.22155389
-0.11170001 0.26334082 0.00000636
0.52580728 -0.31309273 0.31593400
0.36237760 -0.61274564 0.21773682
0.05064874 0.65438762 0.03043420
0.41119381 -0.12820537 0.24706800
-0.55946751 -0.00653600 -0.00000096
0.21174177 -0.33786263 0.12722636
-0.64886868 0.07918525 -0.00000149
0.32883159 0.21684927 0.19757997
-0.39203490 -0.02936890 -0.00000021
-0.12611164 0.58710516 0.00000113
-0.08065808 0.01183636 0.00001061
0.10216662 -0.35934627 0.06138745
0.21428339 -0.57175769 0.12875350
-0.10442256 0.56382511 -0.00000003
0.42713769 -0.25891406 0.25664811
-0.71351444 -0.41415099 -0.00000090
-0.18949113 -0.52114129 0.00000000
0.65591051 -0.14969867 0.39410653
0.55063745 -0.53769651 0.33085360
-0.30580178 -0.04334819 0.00000000
0.15252158 0.23464440 0.09165047
0.43159915 0.04742774 0.25932832
0.32002571 0.13886337 0.19229435
-0.45139665 0.05634686 0.00000375
-0.03611318 0.75295501 0.00000009
-0.15444546 -0.62386555 0.00000000
-0.05618028 -0.62127442 0.00000000
-0.36945719 -0.28678150 0.00000000
0.51453074 -0.27470833 0.30915841
-0.04174544 -0.51664744 0.00000000
-0.57808945 -0.75073096 0.00000000
0.00110737 -0.08952624 0.00066537
-0.57653906 -0.03514380 -0.00000098
0.36355396 0.21379918 0.21844596
0.44545513 -0.17060678 0.26765404
-0.14050057 0.37324469 0.00000000
0.28372443 -0.18872263 0.17047758
0.52515675 0.13374781 0.31554343
-0.32331799 0.14167497 -0.00000022
-0.78287915 -0.25966728 -0.00000135
0.00180022 0.04063714 0.00108168
-0.31541100 -0.33100252 0.00000000
0.35338372 0.22294034 0.21233216
-0.79520290 -0.01957966 -0.00000194
-0.49779288 -0.09267589 -0.00000055
0.67190371 -0.04132348 0.40371590
0.36647383 0.24239728 0.22019974
0.59485589 -0.46009013 0.35742222
-0.50728428 -0.20837286 -0.00000038
0.27645232 0.21547118 0.16610779
-0.04390059 0.72099302 0.00000048
-0.60240203 -0.36839006 -0.00000051
-0.34523308 -0.15935015 0.00000000
-0.47010198 -0.20485970 -0.00000023
0.62028597 -0.49286481 0.37270200
-0.59234868 -0.16673458 -0.00000082
-0.34866531 -0.57632745 0.00000000
-0.30062953 0.41026571 -0.00000059
0.00095417 0.20272817 0.00057332
0.06119342 -0.76205986 0.03676844
-0.45875130 -0.71509280 0.00000000
-0.39887219 -0.66926004 0.00000000
-0.56265743 0.20828615 -0.00000092
-0.02365218 0.42031077 0.00000534
0.07438743 -0.40875750 0.04469615
-0.31542803 0.28511690 -0.00000044
0.53862614 -0.78194020 0.32363685
-0.26362391 -0.77554252 0.00000000
0.25286230 0.14984341 0.15194031
-0.47077012 0.18309773 0.00000126
0.10751903 0.42491718 0.06460796
0.46960578 0.07989083 0.28216462
-0.46979593 0.14813973 0.00000187
-0.25016038 0.11073361 0.00000656
0.62243502 -0.46594806 0.37399321
0.47351573 -0.41572353 0.28451468
-0.34177133 0.43231048 -0.00000081
0.19751583 0.42322335 0.11867833
0.07233721 0.40910860 0.04346964
0.27441420 -0.53825495 0.16488347
0.45256959 0.26338825 0.27192812
-0.18803952 -0.13310117 0.00000000
-0.46054013 -0.36119422 0.00000000
0.12162412 -0.56281224 0.07307860
0.29901273 0.36699322 0.17966457
-0.28197678 -0.53256960 0.00000000
-0.75217480 -0.41587222 -0.00000096
-0.01901479 0.01186102 0.00001154
0.20485367 -0.02164299 0.12308759
0.05829400 0.19273113 0.03503561
-0.04518924 -0.36350764 0.00000000
-0.60366287 0.00328496 0.00000172
0.47880440 -0.33872860 0.28769227
0.63850869 -0.15186436 0.38365061
-0.04745151 0.74402344 -0.00000010
0.26817864 -0.50232930 0.16113679
0.20526524 -0.61785951 0.12333489
0.52690364 -0.30632205 0.31659274
-0.09323076 -0.65069720 0.00000000
-0.57671834 -0.05279324 -0.00000095
0.07399171 -0.36506916 0.04445838
0.01566913 0.50543190 0.00941489
-0.07797966 0.42378743 0.00000000
0.05902040 0.36974657 0.03546905
-0.70609457 -0.33299926 -0.00000101
0.00745648 -0.65445855 0.00448027
-0.10413694 0.51300103 0.00000000
-0.23889711 0.22944819 -0.00000001
-0.35697806 -0.45796489 0.00000000
0.56567252 -0.44806833 0.33988731
-0.28263776 0.35949878 -0.00000043
-0.31452985 -0.70243096 0.00000000
0.13326892 0.41475316 0.08007966
-0.21224970 0.36591711 -0.00000014
-0.14006745 0.07680344 0.00000000
-0.67355030 -0.02912531 -0.00000141
0.49984351 -0.64374678 0.30033407
0.27602307 0.41849720 0.16585066
-0.63254816 -0.40074751 -0.00000058
-0.45983792 -0.05571411 -0.00000045
0.37525415 -0.08839584 0.22547352
0.11884069 -0.28146856 0.07140616
0.31584771 0.01709220 0.18978650
-0.39504576 0.06980161 0.00000461
0.10897995 -0.65461469 0.06548128
-0.17094450 -0.06598020 0.00000000
0.67049871 -0.14049256 0.40287188
0.35060528 -0.10095754 0.21066322
0.15702922 -0.60971219 0.09435198
0.54887851 -0.35739372 0.32979646
-0.66598882 -0.30923339 -0.00000088
-0.14330035 -0.43680718 0.00000000
0.12726613 -0.28295714 0.07646864
-0.42394013 0.18951441 -0.00000073
-0.20751523 0.49738254 -0.00000035
-0.40425233 -0.75532998 0.00000000
-0.47618578 0.18569333 0.00000112
0.14920603 -0.65606979 0.08965137
-0.39410904 0.32935475 -0.00000085
-0.79468645 -0.79874971 -0.00000000
0.40921031 -0.26305521 0.24587641
-0.47289452 0.08444028 0.00000287
0.36756707 -0.58272041 0.22085495
0.33203292 0.33032851 0.19950484
0.47525611 -0.04635723 0.28555983
0.49444357 0.01557699 0.29709237
0.01538481 -0.09991651 0.00924406
0.18489734 -0.41722084 0.11109671
-0.66671334 0.09516489 -0.00000103
0.49307812 -0.14793272 0.29626837
0.22032025 -0.31737702 0.13238078
0.52751176 0.02108898 0.31695763
0.04834955 0.07602100 0.02905112
-0.61498252 -0.51845049 -0.00000029
-0.44285998 0.18369489 0.00000179
-0.29898558 -0.25868293 0.00000000
0.14447714 0.58103189 0.08680970
0.08500507 -0.08807672 0.05107582
0.13316590 0.52826020 0.08001340
-0.58297226 -0.03062307 -0.00000102
0.35470526 0.18976896 0.21312626
0.35925410 -0.12388212 0.21585992
0.39117048 0.09123626 0.23504125
0.10946463 0.06748941 0.06577250
-0.28444948 -0.37910155 0.00000000
-0.38039915 0.20111192 -0.00000056
-0.03770874 0.16262149 0.00000899
0.64921042 -0.23734523 0.39008090
-0.23707270 0.15559749 0.00000000
0.51141970 -0.73093609 0.30728970
0.12094712 -0.25258018 0.07267183
-0.10263739 -0.01840603 0.00000000
-0.23693509 0.31233574 -0.00000015
0.04050018 -0.72291214 0.02433478
0.20256128 0.19787495 0.12171688
-0.20004748 -0.28536114 0.00000000
0.42328618 -0.13760011 0.25433374
0.62928213 -0.49227341 0.37810739
0.64977174 -0.03026363 0.39041785
-0.38084763 -0.05168874 -0.00000012
0.24199869 -0.26344868 0.14540641
-0.16864793 0.29187396 0.00000000
0.03870789 -0.69322709 0.02325788
0.01256265 0.39160291 0.00755507
0.03824869 0.12908354 0.02299270
-0.65352078 0.02600385 -0.00000142
-0.77477976 -0.00150699 -0.00000189
0.26223200 0.48471273 0.15756308
-0.39454737 0.35152021 -0.00000009
0.62565744 -0.22670701 0.37592903
-0.18719764 -0.21889602 0.00000000
-0.42578380 0.17807554 0.00000221
0.41992319 -0.13902658 0.25231308
-0.04772158 0.45166603 0.00000450
0.04652393 -0.01677398 0.02795419
0.20823902 0.11522940 0.12512170
-0.03692990 0.12233933 0.00000000
-0.44946425 -0.72514723 0.00000000
-0.29334982 0.46376214 -0.00000066
0.51520114 -0.16681714 0.30956106
-0.09465831 -0.06758458 0.00000000
-0.25770155 -0.53470591 0.00000000
0.17071463 0.59310192 0.10257452
-0.55328875 -0.31191662 -0.00000040
-0.68405499 -0.40681650 -0.00000079
-0.42750448 0.15203141 0.00000261
0.40208385 0.03315786 0.24159949
-0.64720601 -0.02095569 -0.00000131
0.68554627 -0.46191673 0.41191394
0.43838246 -0.55460037 0.26340482
0.56675925 -0.61124406 0.34054052
-0.16593515 0.09904878 0.00000000
0.48498118 0.11693504 0.29140506
0.34528486 0.23902120 0.20746592
0.02222890 -0.23732192 0.01335637
0.23446624 0.43503772 0.14088172
-0.66957653 -0.50779655 -0.00000055
0.58273224 -0.13558392 0.35013720
-0.54425771 -0.25234433 -0.00000046
0.31342208 -0.60401616 0.18832160
0.39898641 -0.39789871 0.23973346
-0.08853125 -0.62893724 0.00000000
0.54673958 0.08920639 0.32851194
-0.11997324 0.48052102 0.00000298
-0.36469283 0.01799313 -0.00000017
-0.24876055 -0.22696058 0.00000000
0.54121983 0.09321801 0.32519404
0.30598575 0.25638966 0.18385295
-0.16448658 -0.19786122 0.00000000
0.43591583 -0.09974753 0.26192223
0.42462865 0.17360853 0.25514229
-0.39183763 0.00434565 -0.00000027
0.06855914 0.32029110 0.04120113
-0.11335987 0.11991280 0.00000849
0.36802888 0.07936888 0.22113195
0.59981978 -0.11036817 0.36040424
-0.09858763 0.13866606 0.00000843
-0.41224754 -0.09278859 -0.00000018
0.37774943 -0.19290692 0.22697297
0.21635787 0.48602494 0.13000065
-0.43681562 -0.33496665 0.00000000
0.23382317 0.12304315 0.14050150
-0.27990347 0.46005749 0.00000030
-0.00049039 0.58136155 0.00000000
0.35236997 -0.53503402 0.21172368
-0.19056040 0.37679205 -0.00000007
-0.49989111 -0.51664831 0.00000000
-0.35056957 0.03656859 -0.00000015
-0.54133073 0.05082540 -0.00000099
-0.33296062 -0.07867190 0.00000000
-0.31545812 0.06763512 -0.00000005
-0.23243220 -0.77845394 0.00000000
-0.31852850 0.25556417 0.00000298
0.10304356 0.49841937 0.06191436
-0.11219970 0.47937668 0.00000312
0.42633927 0.21768468 0.25616765
-0.19173496 0.33352926 0.00000000
0.60184302 -0.03067923 0.36161979
-0.13332771 0.49233233 0.00000258
0.41624760 -0.00652109 0.25010439
-0.35336678 -0.78367184 0.00000000
-0.10654585 0.14638623 0.00000820
-0.00084753 0.42842868 0.00000000
-0.37875145 0.27890724 0.00000143
0.19987175 -0.14422871 0.12009418
-0.43726911 -0.78080610 0.00000000
-0.78422824 -0.38231167 -0.00000104
0.67903064 -0.67458499 0.40799942
0.25007728 -0.78771275 0.15026048
0.16082920 0.34914173 0.09664006
0.33022014 0.39316103 0.19841442
0.10070418 0.66645512 0.06050850
-0.12692196 0.17897696 0.00000000
-0.28802964 0.02785046 0.00000000
-0.52775583 0.12779774 -0.00000106
0.57593772 -0.61821771 0.34605543
0.20351746 -0.11905016 0.12228473
0.45579896 -0.62122345 0.27386963
0.45746603 -0.58706137 0.27487130
0.07193831 0.45681824 0.04322915
0.50401939 -0.47597944 0.30284295
-0.18448636 -0.47188253 0.00000000
-0.52397987 -0.51001345 0.00000000
0.28243377 0.43356162 0.16970210
-0.38756781 0.26562396 -0.00000071
0.20843953 -0.36478796 0.12524218
0.31379039 0.36826918 0.18854221
-0.00167544 0.14945275 0.00000973
-0.45521633 -0.77314281 0.00000000
0.20052462 0.45344240 0.12048613
-0.48526179 -0.30224974 -0.00000012
-0.59492086 -0.71414842 0.00000000
0.18059986 -0.44705886 0.10851455
0.53244258 0.03644185 0.31992030
0.53771793 0.03581194 0.32309252
0.23265777 0.17201211 0.13979382
0.03889072 0.42848256 0.02336773
0.32343712 -0.11117147 0.19433920
0.50154927 0.01711984 0.30135802
-0.05079696 0.70833042 0.00000056
-0.24827727 0.55095900 -0.00000061
0.62229643 -0.14915134 0.37390944
0.39655808 0.21505510 0.23827357
0.36796936 0.08425301 0.22109618
-0.12414669 0.62912454 0.00000047
-0.03601351 -0.66690879 0.00000000
0.02092536 0.67424055 0.01257490
0.04613411 0.68480891 0.02771994
-0.24017184 0.35177768 -0.00000023
0.42071532 0.25525277 0.25278843
0.19577925 0.55388391 0.11763471
0.42569725 0.23683872 0.25578308
0.54292173 -0.50165422 0.32621753
-0.15592694 -0.36485111 0.00000000
-0.26397230 0.38986129 -0.00000040
0.04367195 -0.37110643 0.02624056
-0.48792540 0.04506331 0.00000324
-0.29714049 -0.53317847 0.00000000
-0.40787687 0.17658919 -0.00000064
-0.31817087 0.43259634 0.00000003
0.14510162 0.40155582 0.08718940
0.32352801 0.05021318 0.19440040
0.66398492 -0.76897613 0.39895931
0.17334451 0.15660826 0.10415512
-0.11422974 0.21556105 0.00000000
0.26176682 -0.27815057 0.15728421
-0.41872135 0.09094255 0.00000380
-0.72344540 -0.29366270 -0.00000115
-0.39930272 0.37694902 -0.00000096
-0.02535908 0.74956998 0.00000036
-0.09051951 0.36321919 0.00000000
-0.78124459 -0.07682935 -0.00000178
-0.35692994 0.19108339 0.00000332
-0.55321119 0.06794480 -0.00000107
-0.30730304 0.34172744 -0.00000050
0.21241417 0.49561152 0.12763096
-0.04582260 0.18033172 0.00000860
0.01213151 0.56114759 0.00729314
0.30899998 -0.44272287 0.18566455
-0.54846487 -0.72033135 0.00000000
0.15937678 0.20668461 0.09576982
0.23840229 0.03139260 0.14324549
-0.51588437 0.08206850 -0.00000093
-0.08720455 -0.70261965 0.00000000
-0.59514113 -0.20036634 -0.00000077
-0.14101693 0.50681631 -0.00000008
0.20437727 -0.50029673 0.12280135
-0.53822232 0.25403715 -0.00000122
0.40677432 -0.27985938 0.24441277
-0.26161848 0.52587297 -0.00000045
-0.77670394 -0.24179945 -0.00000140
0.31067531 0.17290237 0.18667567
-0.39086635 -0.48010949 0.00000000
0.37183195 -0.24735567 0.22341753
-0.24688000 -0.17807723 0.00000000
0.64897911 -0.76648427 0.38994298
-0.27359762 0.44584250 -0.00000054
0.22480580 -0.47655122 0.13507596
-0.09688714 -0.75688595 0.00000000
-0.35208677 -0.71612354 0.00000000
-0.36693882 -0.16353261 0.00000000
0.25087394 -0.21110385 0.15073916
-0.11127397 0.35212183 0.00000504
0.13954902 0.45426292 0.08384882
0.06592920 -0.36400555 0.03961397
-0.41446148 -0.62714673 0.00000000
0.11257985 -0.22685467 0.06764430
0.57865994 0.10016638 0.34769045
-0.06500826 0.49851771 0.00000354
0.07091831 0.55700125 0.04261459
-0.30503441 0.17529444 -0.00000020
0.06075315 -0.51311260 0.03650391
-0.74221467 0.00607927 -0.00000176
-0.15329473 0.00354733 0.00000000
-0.25038333 -0.13902814 0.00000000
-0.07573249 0.56376385 0.00000240
0.01796548 -0.27836528 0.01079467
-0.44820769 0.27697527 -0.00000099
0.02497517 0.73859936 0.01500647
0.65236347 0.03172838 0.39197514
0.09358101 0.09796016 0.05623902
-0.19085816 -0.72428924 0.00000000
-0.37487705 0.39306831 -0.00000040
0.09379966 -0.16790515 0.05636010
-0.04931413 0.54024045 0.00000315
-0.78537953 -0.09026556 -0.00000177
0.07430421 0.20503695 0.04465496
0.13713335 0.60571267 0.08239713
-0.40046725 -0.53404978 0.00000000
-0.08330875 -0.37486114 0.00000000
0.05543653 0.05464758 0.03330938
0.46165234 -0.68134389 0.27738666
0.27881834 -0.15736657 0.16752973
0.16604605 0.58315949 0.09976984
-0.33805214 -0.67598555 0.00000000
-0.70311449 -0.69066885 -0.00000027
-0.68123155 0.05894547 -0.00000160
-0.66146840 -0.47294348 -0.00000057
0.28869729 -0.40806268 0.17346555
-0.02980428 -0.58137871 0.00000000
-0.40675242 0.27210076 0.00000101
-0.03211650 0.61526943 0.00000000
0.25179476 0.16899303 0.15129232
0.38925315 -0.35818593 0.23388516
0.15000498 0.26848631 0.09013142
-0.10256455 0.50137390 0.00000293
0.14970572 0.31572475 0.08995161
-0.01592928 0.32983510 0.00000681
0.25627698 -0.01737300 0.15398561
0.32047277 -0.26264338 0.19255805
-0.63352381 0.05370267 -0.00000138
0.02546432 -0.45603082 0.01530039
0.21551647 0.43957557 0.12949603
-0.30776179 0.05581617 0.00000652
0.18791413 -0.28680306 0.11290937
-0.21310532 0.40519125 -0.00000021
0.22626238 -0.40860215 0.13595115
-0.10570617 0.20960548 0.00000726
0.02653324 -0.71202096 0.01594266
-0.06490586 0.44445782 0.00000435
-0.66152633 0.10492100 -0.00000109
-0.35403198 -0.65604658 0.00000000
-0.38688038 0.39458292 -0.00000093
-0.58975564 -0.31562550 -0.00000054
0.18217948 0.45396055 0.10946341
0.21628863 0.18785598 0.12996497
-0.21646956 0.27730547 0.00000000
-0.62554556 -0.56755261 -0.00000025
-0.30187319 -0.44565546 0.00000000
-0.17494246 0.19623411 0.00000000
-0.54476453 -0.54724494 0.00000000
0.50816976 0.07030257 0.30533588
0.63090913 -0.11938731 0.37908435
-0.15795465 -0.62956712 0.00000000
0.21386196 -0.59266990 0.12850028
0.56774056 -0.65810795 0.34113021
-0.47056120 0.21630098 -0.00000098
-0.25633135 -0.67129199 0.00000000
-0.69232520 -0.17696442 -0.00000123
0.16248727 -0.58681005 0.09763148
0.21273166 0.48844311 0.12782070
-0.03485047 0.66689091 0.00000000
-0.61993039 0.15461951 -0.00000150
0.43231231 0.26274843 0.25975710
-0.11563580 0.61030638 0.00000095
0.03140968 -0.04887824 0.01887270
-0.21003537 0.10295506 0.00000000
0.02496496 -0.54027040 0.01500035
-0.51766560 0.20321095 -0.00000115
-0.43437962 0.10517086 0.00000326
-0.00707335 0.69976255 0.00000000
-0.71553841 0.03669836 -0.00000099
0.46694327 -0.27416849 0.28056539
0.02805378 -0.19279768 0.01685629
-0.62917658 -0.67747947 -0.00000007
-0.45297764 -0.19164779 -0.00000018
-0.59963300 -0.42042467 -0.00000040
-0.17846256 -0.71423401 0.00000000
-0.11934391 -0.74246787 0.00000000
0.22707945 0.33142490 0.13644183
0.11640137 0.55810236 0.06994230
-0.10300649 0.41118899 0.00000428
-0.35767091 -0.62799955 0.00000000
0.37646840 0.29372589 0.22620376
0.25741899 0.02626006 0.15468042
0.52334616 -0.27626248 0.31445517
0.11587095 -0.67424941 0.06962178
0.40926968 -0.23926009 0.24591205
-0.54422812 0.16438152 0.00000017
0.01382432 0.59946919 0.00830959
0.38486339 0.01857670 0.23125320
0.54163833 -0.23232981 0.32544599
0.54464202 -0.64153791 0.32725139
-0.61813769 -0.51885137 -0.00000031
0.20310573 -0.37269578 0.12203733
-0.70445561 -0.41727867 -0.00000085
-0.34849940 -0.17202265 0.00000000
-0.44332679 -0.75417276 0.00000000
0.25549965 -0.02897578 0.15351855
0.52769450 0.01352141 0.31707058
-0.14410792 -0.23423366 0.00000000
-0.02310046 -0.38397400 0.00000000
0.27169328 -0.72698182 0.16324859
0.21894790 -0.64446007 0.13155620
-0.26575353 -0.58913342 0.00000000
0.19444594 0.14494288 0.11684177
-0.16493026 0.45688904 -0.00000010
0.20991973 0.01317154 0.12614126
-0.70098031 -0.40778512 -0.00000086
-0.11476917 -0.38137718 0.00000000
0.12446435 -0.12001078 0.07478517
0.25974346 -0.58307065 0.15606847
0.59082887 -0.44735362 0.35500255
0.36184701 0.08945894 0.21742285
-0.22846970 0.31748484 -0.00000012
-0.10390579 -0.08390311 0.00000000
-0.01431384 -0.67864468 0.00000000
0.51582487 -0.27461929 0.30993599
0.21662480 -0.18152305 0.13016035
-0.54791597 -0.57678875 0.00000000
-0.34165505 -0.53100662 0.00000000
0.34017729 0.12557609 0.20439720
-0.14592113 0.59174432 -0.00000025
-0.30744722 -0.05125652 0.00000000
0.10214889 0.03124092 0.06138807
-0.37850908 -0.55429345 0.00000000
-0.08949017 0.34372043 0.00000549
0.28383629 -0.11995237 0.17054479
-0.23834368 -0.15145272 0.00000000
-0.01078877 -0.39890034 0.00000000
0.44563616 0.26407866 0.26776245
0.06353782 0.38240203 0.03818307
-0.23133892 0.51251767 -0.00000048
0.05832281 -0.10145999 0.03504362
-0.09993600 0.62944242 0.00000093
0.37824327 -0.15805011 0.22726964
0.00861921 0.72973136 0.00517995
-0.23313108 -0.65728220 0.00000000
-0.05809668 -0.48187014 0.00000000
0.39587448 0.27875990 0.23786273
0.22007516 -0.64771903 0.13223352
-0.20868875 -0.62708387 0.00000000
0.07009563 0.57403535 0.04212000
0.51126649 -0.16463324 0.30719691
0.44804840 0.01543459 0.26921674
-0.44386458 0.15644410 -0.00000076
-0.59100213 -0.22904169 -0.00000070
-0.33919670 -0.09041026 0.00000000
0.47670951 -0.13082981 0.28643323
-0.46203855 0.33757343 -0.00000115
-0.33803303 -0.17612848 0.00000000
-0.46222030 -0.47304265 0.00000000
0.40894966 -0.58487829 0.24571993
0.12702576 -0.60168323 0.07632422
-0.45191991 0.09749791 -0.00000069
0.08996558 -0.04635303 0.05405638
0.26682093 -0.24191716 0.16032101
-0.07833288 -0.16691480 0.00000000
-0.42113787 -0.31299058 0.00000000
0.38267768 -0.38735471 0.22993425
-0.35284653 0.07966815 -0.00000023
0.68309162 -0.57504506 0.41043928
0.03480464 0.55692582 0.02091259
0.50911010 0.17184285 0.30590136
-0.40593064 0.03154385 -0.00000037
-0.10455835 -0.48161870 0.00000000
-0.38430558 0.39095181 -0.00000055
-0.02468756 -0.43946771 0.00000000
0.55262958 0.14561997 0.33204971
-0.01595302 -0.78423528 0.00000000
-0.15876305 -0.37611141 0.00000000
0.00869161 0.71758069 0.00522241
-0.16653596 -0.23569528 0.00000000
0.51679505 0.19491176 0.31051821
0.10524186 0.53390857 0.06323781
-0.68840583 0.01216583 -0.00000155
0.56128056 -0.48865786 0.33724846
-0.01411493 0.11164174 0.00001011
-0.07924313 -0.17444593 0.00000000
0.14339511 -0.21297458 0.08615984
0.24543119 -0.63533754 0.14746885
-0.26109817 0.01542675 0.00000000
0.67571048 -0.54153000 0.40600421
-0.26506869 -0.75186153 0.00000000
0.23709727 -0.27706141 0.14246137
-0.55071605 -0.03262033 -0.00000088
-0.31821457 0.26125055 -0.00000041
-0.22090883 0.35774503 0.00000315
-0.08532734 -0.09999972 0.00000000
-0.05809338 0.02129844 0.00001080
-0.16112574 -0.78269928 0.00000000
-0.04566182 0.72562222 0.00000037
-0.24442024 -0.71372761 0.00000000
-0.07309910 -0.26227360 0.00000000
-0.45825296 0.28242124 -0.00000104
0.21914030 0.12069744 0.13167951
0.06831944 0.01204900 0.04106236
-0.42349187 -0.58328729 0.00000000
-0.16620110 -0.59929685 0.00000000
0.07337595 -0.50714217 0.04408839
-0.34359874 -0.62833266 0.00000000
-0.03050365 0.22987202 0.00000000
0.65401749 -0.52507881 0.39296983
-0.48355019 -0.38109316 0.00000000
-0.25241639 0.05028142 0.00000744
-0.51378424 0.06534155 -0.00000089
-0.15043180 -0.01829459 0.00000000
-0.49191184 -0.32559580 -0.00000011
-0.28275810 0.03176352 0.00000000
-0.46960167 -0.05283214 -0.00000050
0.45662780 0.16974264 0.27436664
-0.26985875 -0.77443842 0.00000000
-0.41223712 0.02805924 0.00000498
0.32332224 -0.48015698 0.19427017
-0.35994012 -0.05387789 -0.00000003
0.58014531 -0.60445270 0.34858355
0.39855798 0.16657973 0.23947838
-0.36133614 -0.76608980 0.00000000
-0.22043542 0.16732708 0.00000616
0.16610503 0.26560202 0.09980524
-0.03610115 0.10932503 0.00000982
-0.61037670 -0.17647484 -0.00000088
0.09273556 -0.18915071 0.05572074
0.31333604 -0.64965547 0.18826990
0.07707513 0.68714540 0.04631091
-0.35407722 0.18315720 -0.00000042
-0.19827651 -0.64721632 0.00000000
-0.68009925 -0.54136183 -0.00000053
-0.39773432 0.28132437 -0.00000078
-0.36372811 -0.72527558 0.00000000
0.16481070 0.49130764 0.09902729
-0.53490474 0.18007821 0.00000008
0.34163503 0.26419631 0.20527287
-0.48303827 0.21880003 0.00000043
0.04790133 -0.66274012 0.02878181
0.13809780 -0.40963286 0.08297692
0.12393787 -0.46029143 0.07446884
-0.05574378 0.45197667 0.00000000
0.65132557 -0.20216465 0.39135173
0.00956401 -0.73592521 0.00574659
-0.20781910 0.29807367 0.00000439
-0.34432701 -0.73085851 0.00000000
-0.63289767 0.04469978 0.00000046
0.20672110 0.11025241 0.12421775
0.28075005 -0.65589868 0.16869040
0.39319988 0.01611518 0.23625609
0.13984302 0.58250429 0.08402628
-0.07982514 0.66809362 0.00000067
-0.39816775 -0.37416514 0.00000000
-0.79536414 -0.09233959 -0.00000177
0.44739224 -0.74546309 0.26881839
-0.73947782 -0.40045226 -0.00000100
-0.11539841 -0.70744951 0.00000000
0.17034820 -0.72108463 0.10235477
-0.41812203 -0.18342855 -0.00000005
-0.61931896 -0.18221930 -0.00000091
-0.10178326 0.25442465 0.00000665
-0.74121485 -0.13070197 -0.00000152
0.21505760 0.31280794 0.12921851
-0.57981677 -0.43798290 -0.00000029
-0.32599883 -0.10675367 0.00000000
-0.49735346 0.10622839 0.00000204
0.36663382 0.23814446 0.22029595
-0.48045908 0.30069240 -0.00000117
0.45101442 -0.16135265 0.27099433
-0.31487280 0.33552962 -0.00000052
0.38915723 0.25563285 0.23382669
0.41254893 -0.72119155 0.24788258
0.11193626 0.08891188 0.06726772
-0.00629159 0.27224098 0.00000000
0.14175994 0.08421640 0.08518702
-0.30849141 -0.41352883 0.00000000
0.25031696 0.35442047 0.15040692
-0.20765085 0.12391684 0.00000000
0.31373921 0.27524500 0.18851160
-0.42504552 -0.53649166 0.00000000
-0.60624578 0.02697805 0.00000127
0.55613756 -0.65299508 0.33415852
0.44081492 -0.11312902 0.26486587
-0.21519054 -0.01669797 0.00000000
-0.43717830 0.20598072 -0.00000082
0.40823173 0.10948128 0.24528787
0.27642556 -0.60878610 0.16609201
0.10045175 0.07390333 0.06035705
0.14880276 0.27919256 0.08941530
0.33536085 0.09847108 0.20150327
0.22785866 -0.27233734 0.13691029
0.24223469 -0.11719528 0.14554821
-0.01140158 -0.27222249 0.00000000
0.53867367 0.14681444 0.32366455
-0.39083744 0.02882510 0.00000538
-0.66826886 -0.73651002 -0.00000014
0.53411970 -0.67767275 0.32092909
-0.39376382 -0.45319180 0.00000000
0.36666318 0.26724080 0.22031108
0.51235068 -0.52259338 0.30784890
0.39499601 0.05392923 0.23733524
0.36183545 0.06591416 0.21741637
-0.26404130 0.06997197 0.00000697
-0.38832980 -0.30077614 0.00000000
-0.16599776 0.43691270 0.00000288
0.04067611 0.09472726 0.02445177
-0.33329869 -0.12456242 0.00000000
0.10737038 0.46741620 0.06451416
0.26603472 0.27041973 0.15984827
0.14179317 0.27058950 0.08519730
-0.03749792 0.39436071 0.00000552
0.32715490 0.01099988 0.19657284
-0.27479292 0.14671497 -0.00000002
-0.08572667 -0.33486063 0.00000000
-0.13148837 0.58680128 -0.00000018
-0.32129375 -0.31014837 0.00000000
-0.64654618 -0.42504927 -0.00000059
-0.15589045 0.54649321 -0.00000022
-0.49015077 0.05990498 0.00000295
-0.15245168 0.30986574 0.00000505
0.36877622 -0.54891345 0.22158147
-0.02062181 -0.34557465 0.00000000
-0.05311968 0.04932513 0.00000000
-0.32880164 -0.49069620 0.00000000
-0.24725465 0.09773598 0.00000680
0.04527727 -0.00844854 0.02720513
0.45312932 0.26645675 0.27226443
0.23404358 -0.50423882 0.14062654
0.44206848 -0.09104360 0.26561905
0.62235472 -0.21218230 0.37394456
-0.45528882 0.12565267 -0.00000075
-0.78697977 -0.58784549 -0.00000053
0.42086772 0.13841773 0.25288331
0.42500836 -0.20078723 0.25536861
-0.09015554 -0.78684096 0.00000000
0.62242078 0.06442539 0.37398383
-0.06052482 -0.65191756 0.00000000
0.59305825 0.03450178 0.35634270
-0.38404883 0.22301225 0.00000226
0.28166235 0.47060269 0.16923788
-0.35254036 -0.52667493 0.00000000
0.31771666 0.11050276 0.19090757
-0.02227900 0.11768733 0.00000000
-0.01508733 0.41991263 0.00000547
0.62277148 -0.24781648 0.37419503
0.09999492 0.56338764 0.06008250
-0.11494905 -0.16837636 0.00000000
-0.16299258 -0.35212058 0.00000000
-0.03054542 0.24397057 0.00000788
0.07330372 0.24715155 0.04404499
0.30795491 0.18411398 0.18503623
0.49031868 -0.44360284 0.29461080
0.44015828 -0.53617965 0.26447183
-0.41898405 -0.31425105 0.00000000
0.20983574 0.27173336 0.12608622
-0.64717922 0.09721356 -0.00000069
0.19756046 0.05836903 0.11870543
-0.09542477 -0.25639708 0.00000000
0.37046522 0.02420681 0.22259592
0.32406427 -0.28538535 0.19471602
0.02336873 0.48871624 0.01404613
-0.07294574 -0.10491895 0.00000000
-0.33888510 0.19070295 0.00000367
0.03781949 -0.68907789 0.02272408
-0.27285517 0.47267820 0.00000023
0.07776228 0.26196857 0.04673173
-0.33989970 0.24429792 0.00000276
0.63413607 -0.44332663 0.38102380
-0.45580335 -0.51748484 0.00000000
0.63971915 -0.48957750 0.38437852
0.10190872 0.04003769 0.06124362
0.31231427 -0.40225267 0.18765596
-0.07932229 0.01276097 0.00000000
-0.14777873 0.25741394 0.00000591
0.32300255 -0.02701857 0.19407795
-0.60594999 -0.51657108 -0.00000026
0.45707323 0.14215787 0.27463661
-0.01036257 0.75894567 0.00000046
0.05256711 0.66605583 0.03158525
-0.12144369 0.59465553 0.00000110
0.20522946 -0.33949365 0.12331339
0.12310616 0.24489880 0.07397637
-0.44767089 -0.78933244 0.00000000
0.15988929 0.60405260 0.09607008
-0.74360417 -0.05117719 -0.00000167
-0.37336535 0.39648966 -0.00000043
0.47196219 -0.62590063 0.28358140
-0.14649906 0.42483539 0.00000000
-0.69633457 -0.58927728 -0.00000052
-0.71061107 -0.22691489 -0.00000122
-0.12927305 0.26690182 0.00000605
0.05853168 0.04487019 0.03516912
-0.51116015 -0.68169314 0.00000000
0.33513109 0.31428305 0.20136663
-0.20104177 -0.48202374 0.00000000
-0.32109422 0.12786420 -0.00000018
-0.42831587 -0.42798083 0.00000000
0.37639022 0.31248624 0.22615641
0.06528255 0.05535466 0.03923694
-0.28762233 0.00064447 0.00000000
-0.24300795 0.06852427 0.00000000
0.13460889 -0.11658465 0.08088059
0.25893439 0.01094293 0.15559120
-0.41919204 0.03412735 -0.00000044
-0.16605410 -0.54138599 0.00000000
-0.26198949 0.46530966 0.00000056
0.34970108 -0.34255776 0.21012006
-0.22694968 0.07147943 0.00000000
0.13406564 -0.44982389 0.08055417
-0.04025809 0.02983803 0.00001094
0.28910567 0.03304909 0.17371086
-0.35538575 -0.10987296 0.00000000
-0.20944746 -0.53694946 0.00000000
-0.20634703 -0.76844213 0.00000000
-0.42417750 -0.29719870 0.00000000
0.67129973 -0.61769375 0.40335414
-0.10850657 0.66063187 -0.00000022
-0.30572575 0.13661817 -0.00000013
0.48771074 -0.75789930 0.29304402
-0.76635273 -0.75959849 -0.00000010
0.68220709 -0.58801813 0.40990783
-0.19477032 0.59006783 -0.00000046
0.35587177 0.04718870 0.21382738
-0.37619245 -0.06234073 -0.00000008
-0.76621386 -0.23449755 -0.00000141
-0.06128828 -0.09691050 0.00000000
-0.73781249 -0.20674549 -0.00000137
0.36323546 -0.27467843 0.21825227
-0.02274291 0.56720556 0.00000000
0.01596705 -0.05182055 0.00959390
-0.29987126 -0.68809656 0.00000000
-0.04232851 -0.37373812 0.00000000
0.17886718 -0.66333339 0.10747345
-0.37505774 -0.30278828 0.00000000
0.58369330 0.06600951 0.35071435
-0.08534609 -0.59817260 0.00000000
-0.45236625 -0.30005679 0.00000000
0.04603593 -0.56754707 0.02766097
-0.32842176 0.06505289 0.00000597
-0.19596174 0.37909468 -0.00000009
-0.29109637 0.25483202 0.00000352
-0.56685070 -0.53285108 -0.00000006
-0.08621783 0.46741268 0.00000000
0.07612447 0.09282471 0.04573986
0.28109284 -0.75379827 0.16889638
0.09416442 0.57744080 0.05658128
-0.01359783 0.37408387 0.00000000
-0.00424637 -0.62816471 0.00000000
0.09634687 -0.64651684 0.05789061
0.28869932 -0.66075630 0.17346677
0.54169101 -0.15497471 0.32547753
-0.10533819 0.42726297 0.00000000
-0.70611598 -0.16350164 -0.00000131
0.05395701 0.47171491 0.03242041
0.03742139 -0.59283915 0.02248487
0.12592371 0.41880052 0.07566631
0.10980901 0.09778013 0.06597942
0.36456598 -0.03339016 0.21905143
-0.63250676 -0.63053984 -0.00000017
0.34533432 -0.63451583 0.20749626
-0.08813944 0.15838444 0.00000829
-0.10802034 0.67579818 0.00000000
-0.22872235 -0.29756780 0.00000000
0.11316593 -0.09329365 0.06799645
-0.26700717 -0.68462264 0.00000000
0.19007565 0.09932950 0.11420813
-0.10191274 0.08706805 0.00000916
0.58284854 0.10639050 0.35020697
0.04052871 -0.25677906 0.02435193
0.06711972 0.23764211 0.04033768
-0.37444380 0.35177868 -0.00000081
0.59340383 -0.78003126 0.35655031
0.22534769 0.28855707 0.13540593
0.39246482 -0.24175366 0.23581482
-0.67948985 -0.53135423 -0.00000055
-0.49528340 -0.04107435 -0.00000063
0.03585833 0.27802732 0.02155394
0.04090185 -0.43019965 0.02457613
-0.17580349 -0.03676586 0.00000000
-0.55017349 -0.56219340 0.00000000
0.28831912 -0.74969720 0.17323833
0.41307272 0.16026205 0.24819941
-0.43400868 0.04638193 0.00000425
-0.24635921 -0.59198056 0.00000000
0.51630865 -0.03279867 0.31022630
0.02453317 0.73318515 0.01474161
-0.15431841 0.20241442 0.00000000
0.10049853 -0.41785533 0.06038516
-0.09323850 -0.46310115 0.00000000
-0.45979775 -0.32070123 0.00000000
0.67214167 -0.59946045 0.40385999
-0.44915097 0.14624560 0.00000229
0.41878301 0.02145900 0.25162775
-0.49502088 -0.79144945 0.00000000
0.02054470 0.12913353 0.01234441
-0.12137839 0.16014590 0.00000777
-0.45147691 0.17343829 -0.00000082
-0.50693620 -0.09448166 -0.00000058
-0.13339323 0.05132976 0.00000922
0.11144386 0.64662229 0.06696149
0.34088844 0.08625036 0.20483036
-0.65306557 -0.53817427 -0.00000042
-0.12014846 0.29583106 0.00000000
0.30132805 0.19882512 0.18105904
-0.49873143 0.19557629 0.00000052
-0.44225915 0.17078060 -0.00000078
-0.62114541 -0.36739212 -0.00000059
-0.07540152 0.31186589 0.00000618
0.16440817 0.13119177 0.09878567
0.64665683 -0.47591823 0.38854703
-0.22142676 0.49852472 0.00000078
-0.45116611 0.11858222 -0.00000072
-0.05097637 0.63465750 0.00000171
-0.04284356 -0.00003270 0.00000000
-0.73630952 -0.48041893 -0.00000080
-0.66586710 -0.60708308 -0.00000035
-0.00045134 0.37288151 0.00000000
0.25457504 0.27623876 0.15296270
0.18663671 0.57603736 0.11214136
0.17417633 0.27307395 0.10465492
0.34503753 0.31439712 0.20731720
0.17359441 -0.79133614 0.10430528
-0.63545956 -0.43602468 -0.00000053
0.30837974 -0.40014538 0.18529187
-0.69081850 -0.75882957 -0.00000010
0.43850053 -0.40624623 0.26347571
-0.52255972 -0.03307872 -0.00000076
0.08830690 0.41090855 0.05305975
-0.47890490 -0.15528451 -0.00000036
-0.03239490 0.75186964 0.00000018
0.01858122 0.18649421 0.01116464
-0.57940447 -0.54991408 -0.00000009
-0.16224584 -0.24781418 0.00000000
0.11674329 0.04282277 0.07014593
0.22087441 -0.52213877 0.13271376
0.30087478 0.21652859 0.18078207
0.00175702 0.52288655 0.00105572
0.31425223 -0.46676481 0.18882040
0.16772949 0.03941195 0.10078130
-0.25636908 0.45550247 0.00000083
-0.54801636 0.23434326 -0.00000134
-0.13338100 -0.76558258 0.00000000
0.06933501 0.28488703 0.04166037
0.03325610 -0.27299643 0.01998213
-0.08376946 0.65564046 -0.00000010
0.24531950 0.45229678 0.14740122
0.05456134 0.54497729 0.03278690
-0.52041963 -0.24202270 -0.00000038
-0.37846894 0.13460753 -0.00000044
-0.41968901 0.07689181 0.00000402
-0.34459431 0.43183701 -0.00000047
0.48561402 -0.01552365 0.29178335
-0.12629641 0.37600524 0.00000445
-0.48548254 0.12730957 -0.00000088
0.60528703 -0.40903507 0.36368971
-0.10898591 -0.72454377 0.00000000
0.51576122 0.08900670 0.30989719
0.20590226 -0.17263549 0.12371765
0.07359876 0.26710392 0.04423004
0.60558923 -0.79085472 0.36387199
0.41788907 -0.44034204 0.25109124
-0.22311421 0.19924413 0.00000000
0.27985558 0.05931169 0.16816050
0.48252866 -0.59454239 0.28993033
-0.31170436 0.14238969 -0.00000017
-0.40490644 0.33555737 -0.00000091
0.21029531 0.44235444 0.12635895
0.05267781 0.02747241 0.03166400
0.24362971 -0.02068901 0.14638642
-0.29712885 0.29067369 -0.00000037
-0.08552722 -0.72050859 0.00000000
0.46376946 -0.03345010 0.27865803
-0.22641623 0.30306875 0.00000395
0.60719846 -0.75732551 0.36483884
0.64633960 -0.73884167 0.38835696
-0.02849149 -0.45262786 0.00000000
-0.04812632 0.40261801 0.00000000
-0.20446836 0.51185638 0.00000089
-0.43020879 -0.20475166 -0.00000006
0.01128785 -0.39155159 0.00678238
0.49998478 -0.65391683 0.30041895
-0.22167508 -0.58931868 0.00000000
-0.35759352 -0.16192326 0.00000000
0.08777081 0.46138127 0.05273764
0.15159743 0.31273592 0.09108825
-0.11752858 -0.48584709 0.00000000
-0.07290038 0.21835135 0.00000000
0.22485512 0.36462853 0.13510529
0.02828926 -0.54981503 0.01699778
0.56858597 0.11019805 0.34163702
-0.18194328 -0.61828437 0.00000000
-0.00982118 -0.50502786 0.00000000
-0.16413761 -0.31017358 0.00000000
0.50158022 -0.32842986 0.30137715
-0.26598478 -0.08341725 0.00000000
0.45617393 0.08236637 0.27409748
0.07827494 0.08141254 0.04704282
-0.07623979 0.45581236 0.00000000
0.18594555 0.21643324 0.11172654
-0.10679276 0.48380237 0.00000313
0.03993795 0.03880668 0.02400920
0.49825507 -0.44745248 0.29937941
0.14591917 0.52323030 0.08767623
0.23046107 -0.31857479 0.13847396
0.40841420 0.29865976 0.24539721
0.31293524 -0.21697247 0.18802908
-0.15403141 0.36808845 0.00000000
-0.71031935 -0.79855489 -0.00000000
-0.00833656 0.60573137 0.00000000
0.05386626 -0.56129078 0.03236587
0.17422781 -0.05759318 0.10468586
-0.74057522 -0.57224869 -0.00000057
0.60168882 -0.75490583 0.36152834
0.41840243 0.18345684 0.25139884
-0.32904121 0.35251010 0.00000116
0.03608157 0.67261010 0.02167984
0.27261159 0.20701865 0.16380010
0.29588429 0.12817411 0.17778966
-0.58279633 -0.16203979 -0.00000079
-0.36781315 0.41844649 -0.00000090
-0.19074106 0.08057108 0.00000791
-0.00547115 0.52691555 0.00000401
-0.35108305 -0.49659950 0.00000000
-0.14778867 0.47122384 0.00000265
-0.33828145 -0.52430560 0.00000000
0.66677382 -0.36221620 0.40063421
0.53985678 0.14252179 0.32437549
0.19606574 0.49609604 0.11780832
0.28430567 -0.51252057 0.17082682
0.28341772 0.07080064 0.17029319
-0.25690733 0.39338097 -0.00000038
0.53795813 0.14475565 0.32323467
0.31230537 0.41663714 0.18765021
-0.58012195 0.06231714 -0.00000117
0.25770517 0.39992419 0.15484508
0.67096088 -0.49415174 0.40315029
-0.25589780 -0.42178356 0.00000000
0.11607940 -0.23016709 0.06974703
-0.61815552 -0.45633453 -0.00000042
0.45488390 -0.44726524 0.27331975
0.47936714 -0.60606263 0.28803071
0.10186749 0.29546767 0.06121450
-0.14753546 0.27815183 0.00000560
0.29407579 -0.74402705 0.17669726
0.03015098 0.39805143 0.01812271
-0.26435197 -0.41195144 0.00000000
-0.69046300 0.07322099 -0.00000166
-0.64895689 -0.29215863 -0.00000084
0.35013769 -0.75032773 0.21038240
0.39267256 0.17978135 0.23593900
0.58850789 -0.20090577 0.35360761
-0.33390965 0.07572218 0.00000569
-0.14909899 -0.17579311 0.00000000
0.48593338 0.09583867 0.29197507
0.49074168 0.06853026 0.29486711
-0.06889424 -0.23945640 0.00000000
0.22369237 0.49898834 0.13440645
0.31618473 0.09104899 0.18998753
-0.14028968 -0.59912966 0.00000000
0.00950560 0.61528877 0.00571150
0.27666260 -0.09486476 0.16623444
-0.54215880 -0.22968037 -0.00000049
-0.31538380 0.05513226 -0.00000003
0.32229467 0.26190848 0.19365219
0.45550519 -0.13988069 0.27369259
-0.64948317 0.11269771 -0.00000099
-0.02411825 -0.36239591 0.00000000
-0.07283858 -0.45294535 0.00000000
0.25610073 -0.03244546 0.15387971
0.49762652 -0.11324228 0.29900123
0.19006754 0.26627236 0.11420899
0.36629746 0.14595821 0.22009569
-0.59474388 0.16044611 -0.00000074
0.50177201 -0.25713375 0.30149228
-0.19663285 0.01567067 0.00000000
0.45837931 -0.10103011 0.27541946
0.04335607 0.61390241 0.02605316
0.40044445 0.02712170 0.24061460
0.02347309 -0.52236171 0.01410395
0.66777436 -0.02060458 0.40123475
-0.25778826 0.40513824 0.00000165
-0.66865706 -0.59175117 -0.00000039
-0.13469799 0.14668231 0.00000000
-0.42363979 -0.13053444 -0.00000016
0.15517414 -0.29935415 0.09323734
0.09551758 -0.16324495 0.05739233
0.38155117 0.33801365 0.22925676
-0.20604128 -0.17100018 0.00000000
-0.02168535 0.17316611 0.00000908
0.26082655 0.10067299 0.15672645
-0.70858046 0.03170176 -0.00000077
0.05267371 0.02888279 0.03166151
-0.27930538 -0.60261056 0.00000000
0.21054546 0.23650801 0.12650750
-0.51174613 -0.31050126 -0.00000022
-0.08212415 -0.72715103 0.00000000
0.44355708 0.05961327 0.26651734
0.67516735 -0.79473178 0.40567838
0.52207506 -0.21470403 0.31369134
0.00109582 0.17272097 0.00066908
0.12955363 -0.05923709 0.07784310
-0.74733055 -0.33041389 -0.00000117
-0.01967630 0.14385547 0.00000955
0.40848068 -0.02629791 0.24543765
-0.47206690 -0.11062238 -0.00000040
0.17780668 -0.51558203 0.10683625
0.38492382 0.21131683 0.23128567
-0.65266029 -0.31115243 -0.00000082
-0.51529250 0.12064467 -0.00000100
-0.22456021 0.53357066 -0.00000049
-0.00412861 -0.44930418 0.00000000
-0.09344573 -0.70123821 0.00000000
0.28880900 -0.44328225 0.17353267
-0.53460505 -0.38590176 -0.00000019
-0.41570463 0.32675166 -0.00000094
-0.55843386 0.21169171 -0.00000134
0.58986465 -0.69874896 0.35442360
0.20420368 0.32706635 0.12270120
-0.29509343 0.44664777 0.00000024
0.49372628 -0.01150513 0.29665761
0.09736110 0.06955923 0.05850002
0.60854200 -0.40667600 0.36564546
-0.64723165 0.04617994 -0.00000143
-0.57662772 0.00614431 -0.00000106
-0.08797527 0.04704524 0.00000000
0.33134566 0.06394411 0.19909079
-0.38593273 0.32020102 0.00000060
-0.11028223 0.26340420 0.00000638
-0.39117506 -0.46778176 0.00000000
0.20026212 -0.58089089 0.12032873
-0.57540068 0.16695071 -0.00000048
0.48818308 0.04363002 0.29333032
-0.64488927 0.04609188 0.00000021
-0.46818465 0.13109713 0.00000218
0.01767589 0.30654738 0.01062875
-0.30553082 0.44373353 -0.00000067
-0.65076714 0.00405642 -0.00000137
-0.35723309 0.06904893 -0.00000023
0.26109084 0.23370250 0.15687779
0.28270075 0.40338454 0.16986311
0.60185570 -0.60870538 0.36162831
-0.20655390 -0.78050049 0.00000000
-0.14732523 0.08562787 0.00000000
-0.16926747 0.36613929 0.00000395
-0.10449252 0.07111973 0.00000936
0.07983541 -0.34283457 0.04796960
-0.28242834 -0.06139233 0.00000000
0.54104764 -0.46790670 0.32509143
0.46103026 -0.45166285 0.27701281
-0.79561695 -0.76317866 -0.00000009
0.50737103 -0.09430933 0.30485621
0.23146835 -0.37894301 0.13907919
0.03795743 -0.41492773 0.02280695
-0.11126139 -0.75018335 0.00000000
0.20816395 -0.42260524 0.12507660
-0.11504407 0.61624660 0.00000086
0.09090617 0.56983559 0.05462149
0.57729344 -0.33043514 0.34686958
0.16531563 0.57614735 0.09933055
0.44103208 0.00629206 0.26499617
-0.34900631 -0.04453136 0.00000000
0.34616345 -0.65611036 0.20799445
0.01468477 -0.37904627 0.00882343
-0.04255894 0.39866253 0.00000538
-0.18957707 0.07283469 0.00000805
0.49529655 0.21275374 0.29760094
-0.76080162 -0.05369444 -0.00000174
-0.39157050 0.05667817 -0.00000036
0.31015292 -0.76105040 0.18635730
-0.28659895 -0.24560558 0.00000000
0.67466092 -0.40458627 0.40537330
-0.02412083 0.03857378 0.00000000
0.33734571 -0.20826044 0.20269626
-0.12932911 0.26995832 0.00000600
0.02241982 0.14076431 0.01348190
0.02541077 -0.73568119 0.01526822
0.00301946 0.18104943 0.00182473
0.05720471 0.60237279 0.03437181
-0.55900720 -0.60276052 0.00000000
0.32649698 -0.27213666 0.19617773
0.05978455 -0.62771994 0.03592192
0.22823666 -0.12160426 0.13713741
0.10118706 -0.48429604 0.06079887
0.16387078 0.53064988 0.09846248
0.29290325 0.33111986 0.17599453
0.60790474 -0.09756557 0.36526209
0.11133494 -0.25209945 0.06689629
-0.28630149 -0.79377520 0.00000000
0.49166326 0.09755241 0.29542024
-0.47434953 -0.08825556 -0.00000045
-0.05566929 -0.11375419 0.00000000
0.31525542 -0.22094872 0.18942317
-0.27494675 0.34389466 -0.00000037
0.42240250 0.04168955 0.25380250
0.14818962 0.60858424 0.08904031
0.36794567 0.04390646 0.22108201
-0.07525626 -0.32930025 0.00000000
0.36577213 -0.77943708 0.21977645
0.44847346 -0.39172089 0.26946795
0.51446882 -0.14986286 0.30912102
0.61546793 -0.07231326 0.36980640
-0.42743620 -0.51256741 0.00000000
0.25904154 0.35065287 0.15564629
-0.25569310 0.22752617 -0.00000008
-0.03835452 0.66320054 0.00000000
-0.54567720 -0.21350747 -0.00000054
-0.52332916 -0.36149814 -0.00000018
0.64381756 -0.69259763 0.38684149
-0.48582934 -0.40644497 0.00000000
0.04439371 0.28331684 0.02667423
0.22648967 0.48147531 0.13608723
-0.20283143 -0.53368821 0.00000000
0.00221109 0.20047907 0.00133870
0.17547880 0.27391867 0.10544339
0.46338698 0.12179236 0.27842798
-0.15901852 0.21388879 0.00000639
0.62328603 -0.26457646 0.37450422
0.11134587 0.24737239 0.06691030
0.21278951 0.06913943 0.12786458
-0.21547567 -0.10609082 0.00000000
-0.01162759 -0.77317309 0.00000000
0.47692511 -0.05428786 0.28656266
-0.45178048 -0.20310026 -0.00000015
0.68265992 -0.09475268 0.41017892
-0.04556179 0.20261681 0.00000000
-0.22886313 -0.55557465 0.00000000
-0.38423582 -0.39469278 0.00000000
0.32512403 0.02526576 0.19535984
-0.09227424 0.54997633 0.00000000
-0.04467232 -0.47732407 0.00000000
0.14826059 0.42239100 0.08908699
-0.45116176 0.07710571 -0.00000065
-0.03506911 -0.49203522 0.00000000
0.16166504 0.23602445 0.09714419
0.07007286 0.58563062 0.04210371
0.19894124 -0.60535757 0.11953507
-0.37818280 -0.67845598 0.00000000
0.23185361 0.17256823 0.13931064
-0.02340769 -0.11916071 0.00000000
-0.08108332 0.34297497 0.00000000
0.09467337 -0.71258238 0.05688508
0.15306938 0.31395475 0.09197268
0.11108360 -0.23774192 0.06674527
-0.00480043 0.56918116 0.00000339
-0.07703331 -0.51778274 0.00000000
0.46672177 -0.35347734 0.28043242
-0.20213925 -0.31659874 0.00000000
-0.28190019 0.43791665 0.00000063
-0.79522312 -0.46117227 -0.00000085
0.40544092 -0.63397758 0.24361169
-0.74240888 -0.57139962 -0.00000057
-0.78301914 -0.63090959 -0.00000042
0.60373730 -0.23740688 0.36275829
-0.16818983 0.26379916 0.00000551
-0.32572930 0.16818848 0.00000430
-0.10973205 -0.29414818 0.00000000
-0.63471087 0.09403586 -0.00000040
0.00174315 -0.35793051 0.00104738
0.08766153 0.60094937 0.05267368
0.45242584 -0.56183407 0.27184287
0.22735804 0.20282928 0.13661552
-0.18644463 -0.15489803 0.00000000
0.63285646 -0.10858222 0.38025439
0.19710737 -0.21320018 0.11843318
-0.67704369 0.10861821 -0.00000167
0.34962263 -0.47513027 0.21007292
-0.04314210 -0.18696197 0.00000000
-0.39778093 0.36216156 -0.00000033
0.46603479 -0.40367117 0.28001972
-0.16389933 -0.09618288 0.00000000
0.28882362 -0.60128393 0.17354146
-0.22232184 -0.44823801 0.00000000
0.48898851 -0.44650905 0.29381158
0.58726662 -0.00839950 0.35286150
-0.30413407 -0.16914536 0.00000000
-0.03501932 0.18336599 0.00000000
0.12275814 0.34866262 0.07375999
-0.59620503 -0.28057734 -0.00000063
-0.72527270 -0.42795871 -0.00000092
-0.17129405 -0.44935483 0.00000000
-0.22931806 -0.53009400 0.00000000
0.18103848 -0.67826580 0.10877809
-0.07994684 0.46516229 0.00000000
0.07187381 0.10480017 0.04319638
-0.10102125 0.01342000 0.00000000
-0.62138973 -0.14296600 -0.00000099
