ply
format ascii 1.0
element vertex 1394
property float x
property float y
property float z
end_header
-0.25424053 0.30165031 0.37018043
-0.71564402 -0.61331464 -0.00000023
-0.08740684 0.25330133 0.00000000
-0.33593562 0.01998855 -0.00000003
0.38845235 -0.53474980 0.00000000
-0.06536503 0.61479772 0.00000000
0.72099266 -0.65830220 -0.00000035
-0.02807771 0.23220855 0.00000000
-0.18908572 -0.46149323 0.00000000
0.30444672 0.05612621 0.00000656
-0.33719154 0.43385686 0.04390392
-0.13544924 -0.39264298 0.00000000
0.35027753 -0.46274239 0.00000000
-0.04133609 -0.75578856 0.00000000
0.49206219 -0.74061287 0.00000000
0.28785597 -0.66302567 0.00000000
-0.55901514 -0.16972692 -0.00000034
-0.32314468 -0.25547589 0.00000000
0.61039844 -0.13321905 -0.00000096
-0.36210210 0.41343937 -0.00000043
0.47120494 -0.56329152 0.00000000
0.12294226 0.54722344 0.00000186
-0.01901914 -0.59011359 0.00000000
0.16354799 0.26529632 0.00000555
0.03900609 0.38880856 0.00000000
-0.67502096 -0.59973707 -0.00000020
-0.31412411 0.43122638 0.08287401
0.49050113 0.22328512 -0.00000107
0.60371835 -0.00510117 -0.00000115
-0.06755989 0.25594684 0.00000000
0.15254828 0.59277999 -0.00000028
-0.36383926 -0.41786299 0.00000000
-0.34525241 -0.51549701 0.00000000
-0.17943525 -0.18135290 0.00000000
0.73508574 -0.69075551 -0.00000027
0.39456088 -0.05073347 -0.00000018
0.34873178 -0.30708643 0.00000000
0.08192149 0.30741002 0.00000000
-0.30561830 0.32517480 0.25659551
0.24011721 -0.50343768 0.00000000
-0.68145182 -0.00332122 -0.00000074
0.70495722 -0.07705878 -0.00000146
-0.16801908 0.00183881 0.00000000
0.20576371 0.43277479 0.00000218
-0.41514273 -0.26577918 0.00000000
-0.44511076 0.10147805 -0.00000033
-0.65247382 -0.52307104 -0.00000022
0.35854158 0.11761309 0.00000451
-0.42258851 -0.76039116 0.00000000
-0.07247542 0.13592398 0.00000000
-0.35622230 0.23563719 -0.00000026
0.70650375 0.03116059 -0.00000072
0.59456205 -0.46471248 -0.00000030
-0.27525228 0.19831313 -0.00000006
-0.33793768 0.21175906 -0.00000020
0.00955397 0.57707746 0.00000320
0.05265506 -0.60453983 0.00000000
-0.74937047 -0.48781163 -0.00000039
-0.39185695 0.23118198 -0.00000033
0.40398262 -0.34867305 0.00000000
0.19915869 0.35494515 0.00000361
0.29656465 0.08279909 0.00000628
-0.45879908 0.09870581 -0.00000036
0.39887232 0.08718938 -0.00000044
-0.46716974 -0.30322528 -0.00000002
-0.33034867 0.31396350 0.23609468
0.26795328 0.02776974 0.00000000
0.04667072 0.42463932 0.00000493
0.15463638 0.50011829 0.00000204
0.07486635 0.65259143 -0.00000006
0.50641582 0.16303671 -0.00000104
-0.22858397 0.43238912 0.21082895
-0.19615040 0.54450281 0.08999788
0.65168107 -0.30103460 -0.00000083
-0.36328401 -0.30984063 0.00000000
0.11005201 -0.14013994 0.00000000
-0.53380845 -0.28085198 -0.00000018
0.28120246 -0.27915047 0.00000000
0.26579519 0.50354999 -0.00000061
0.31579842 0.40853701 -0.00000066
-0.57164325 0.11064905 0.17849823
-0.40185237 0.30151037 0.14654651
-0.05048109 -0.30484597 0.00000000
-0.31259076 0.40168791 0.12999335
0.31079276 0.29678535 -0.00000044
0.06928767 0.37226811 0.00000537
0.30190982 -0.75189396 0.00000000
0.08148177 0.39250023 0.00000000
-0.58479105 -0.27354942 -0.00000030
0.10188183 0.08556927 0.00000000
-0.50107820 -0.37983004 -0.00000003
0.07772789 0.49016866 0.00000347
0.67525735 -0.23103701 -0.00000106
-0.72495023 0.03649123 0.05847056
-0.45386843 0.32692853 0.02911997
0.26242846 0.07105434 0.00000697
-0.28019883 0.18745270 -0.00000006
-0.75280970 -0.53633325 -0.00000033
-0.40720149 0.21906733 0.26345669
-0.23513048 -0.55402162 0.00000000
0.24403987 -0.21009432 0.00000000
-0.52718475 -0.27067142 -0.00000018
0.21253686 -0.18285813 0.00000000
-0.09046603 0.44902301 0.00000000
-0.44050635 -0.69701260 0.00000000
-0.29152098 -0.34665751 0.00000000
0.37780113 0.26285024 0.00000172
0.07857067 0.35177433 0.00000000
0.15357929 0.11010642 0.00000000
0.02588685 0.37696781 0.00000000
-0.38173203 -0.41811140 0.00000000
0.33121832 -0.01569300 0.00000000
-0.36145613 -0.21569723 0.00000000
-0.07879370 -0.72129380 0.00000000
0.11553082 0.40141961 0.00000000
-0.12721944 -0.31476497 0.00000000
-0.07939593 -0.38453204 0.00000000
-0.06842963 -0.21772725 0.00000000
-0.38158117 -0.50015725 0.00000000
-0.65638048 0.05614244 -0.00000074
0.37209063 -0.26281325 0.00000000
-0.62849969 -0.61926169 -0.00000009
-0.22449775 0.34641369 0.34740242
-0.03535748 -0.05349023 0.00000000
-0.15628294 0.53343295 0.16724182
0.74085397 -0.52769736 -0.00000068
0.48838721 -0.33183778 -0.00000008
-0.10865851 -0.29510913 0.00000000
-0.38868901 0.13332678 -0.00000024
0.40110781 -0.05564987 -0.00000020
0.26655149 0.29026639 -0.00000024
-0.50712415 -0.24475071 -0.00000016
-0.00936853 0.69405560 0.00000000
-0.09393798 0.50085439 0.00000000
-0.30484748 -0.51581474 0.00000000
-0.22124900 0.29732825 0.42676430
-0.08381059 -0.31179384 0.00000000
-0.03326201 0.53784552 0.00000000
0.05035725 0.45395065 0.00000443
-0.57039544 -0.46774766 -0.00000010
0.11362838 -0.22493152 0.00000000
-0.26686596 0.38503802 0.22458188
-0.01171988 -0.19968029 0.00000000
0.32530508 0.37092806 -0.00000063
0.50676765 -0.17225255 -0.00000044
-0.46080965 -0.38280187 0.00000000
-0.44851009 0.29407610 0.08706529
0.50495053 -0.06872058 -0.00000062
-0.00769312 0.53606154 0.00000000
0.31910725 -0.53619251 0.00000000
0.33907919 0.24716579 0.00000272
-0.74679832 -0.42256078 -0.00000047
-0.49479684 0.27384206 0.04755704
0.78518077 -0.44989037 -0.00000088
-0.20466406 0.48909629 0.16110880
0.41542734 -0.26855858 0.00000000
-0.40215280 -0.77954065 0.00000000
-0.52750449 -0.78147658 0.00000000
0.24258286 -0.52896679 0.00000000
0.52316769 -0.02382027 -0.00000078
0.45273574 -0.66288975 0.00000000
-0.61658547 -0.01786006 -0.00000059
0.14644794 0.46688397 0.00000275
0.63620095 -0.23999377 -0.00000088
-0.53939866 -0.69540208 0.00000000
0.40392839 0.28960837 -0.00000082
-0.33054026 0.20257430 0.40471967
-0.10223395 0.49960748 0.00000000
-0.74935879 -0.37887715 -0.00000053
-0.16038636 -0.20822491 0.00000000
-0.18598123 0.43330662 0.27404214
0.61238639 0.01795534 -0.00000123
-0.62471819 -0.22695793 -0.00000043
0.44284397 0.20827385 -0.00000084
0.26137061 -0.52802523 0.00000000
0.46914644 -0.41253012 0.00000000
-0.20038901 -0.03121977 0.00000000
0.21416812 -0.57180443 0.00000000
-0.17615590 0.42961663 -0.00000005
-0.57899805 -0.15707353 -0.00000039
-0.21536175 0.19392752 0.00000000
-0.39343301 0.29719147 0.16586369
0.10568491 -0.44274973 0.00000000
0.62273662 -0.24806146 -0.00000080
0.46047852 -0.41571741 0.00000000
-0.75129590 -0.19349730 -0.00000073
-0.34512077 0.25041098 0.31006753
0.15967647 0.58113396 0.00000059
0.29895232 -0.60797640 0.00000000
0.30890333 0.36273416 0.00000137
0.11935238 0.30188444 0.00000000
0.06006059 0.32246790 0.00000000
0.09306414 -0.19202052 0.00000000
-0.56750586 -0.68376363 0.00000000
-0.41578543 0.15297067 -0.00000032
0.19757714 0.41954705 0.00000256
0.60955052 0.05390606 -0.00000128
0.59435540 -0.64075567 0.00000000
0.53615445 -0.15815137 -0.00000059
-0.75947932 -0.02696863 -0.00000089
-0.67022986 0.07539532 0.08245566
-0.26140452 0.29130925 0.37499832
-0.33181627 0.26424481 0.30926478
0.18557032 -0.39673486 0.00000000
0.00767826 -0.35874600 0.00000000
-0.48053428 -0.68294897 0.00000000
0.53530243 -0.45430257 -0.00000007
0.29232035 0.50024989 -0.00000061
-0.31465923 -0.47374509 0.00000000
-0.54647096 -0.49077041 -0.00000003
0.41918318 0.28790309 0.00000050
-0.76949307 -0.77557577 -0.00000003
-0.34186518 0.27182564 0.28253029
0.36252757 0.11179325 0.00000453
-0.09963500 -0.30992181 0.00000000
-0.00015438 -0.63021992 0.00000000
-0.78627536 -0.67402827 -0.00000016
-0.38610389 -0.53625478 0.00000000
0.14088305 0.37251517 0.00000429
0.28129139 0.31986862 0.00000262
-0.04071775 -0.75484129 0.00000000
-0.09067452 -0.64389601 0.00000000
-0.30700210 0.33209489 0.24400313
-0.22124215 0.06349491 0.00000000
-0.12097977 -0.69094386 0.00000000
-0.75558340 -0.38245996 -0.00000052
0.55147595 0.05425277 -0.00000104
0.11883663 0.32737882 0.00000530
-0.41995722 -0.27560876 0.00000000
0.05362235 0.55971191 0.00000280
-0.34131547 0.31265081 -0.00000030
0.03484029 0.21764930 0.00000000
0.24069869 0.49524645 -0.00000049
0.08019784 -0.71839425 0.00000000
-0.22310698 -0.30599772 0.00000000
0.40323574 -0.10890578 -0.00000011
-0.74879095 -0.71185962 -0.00000011
-0.07545193 0.08261351 0.00000000
-0.03732889 0.41276894 0.00000000
-0.04073380 -0.02497312 0.00000000
-0.26225757 0.47712800 0.09191986
-0.77621307 -0.30513617 -0.00000062
0.66814809 0.02465696 0.00000012
-0.24006220 -0.45647009 0.00000000
-0.45389599 0.16421525 0.27582714
0.00420534 -0.30290926 0.00000000
0.73080279 0.04971629 -0.00000150
-0.44818041 -0.39359238 0.00000000
-0.00438515 -0.69823542 0.00000000
-0.45649950 -0.74709470 0.00000000
0.19698851 0.33536581 -0.00000002
0.43385909 -0.74084745 0.00000000
-0.73649399 -0.09028205 -0.00000078
0.11720638 -0.37945613 0.00000000
0.23986895 0.41764408 -0.00000035
0.57361215 -0.19420670 -0.00000069
-0.73643282 -0.35261981 -0.00000055
-0.45522051 0.21571947 0.19571422
0.65325311 -0.48734234 -0.00000051
-0.32481660 0.26417161 0.31999036
0.00066113 0.04114777 0.00000000
-0.29847530 0.37030118 -0.00000026
0.04852567 0.42092748 0.00000000
0.13842167 -0.77032502 0.00000000
0.13395585 0.00338037 0.00000000
0.27965918 0.50202337 -0.00000067
-0.58360763 0.13093264 -0.00000065
0.13562506 0.51845077 0.00000210
0.15242374 0.15849352 0.00000000
-0.04478996 0.64646745 0.00000000
0.74795465 -0.72406037 -0.00000019
-0.06210961 0.50408715 0.00000000
0.30669766 -0.25918019 0.00000000
0.65282671 -0.22862171 -0.00000097
-0.36324176 0.07961654 -0.00000014
-0.59871299 0.19145936 0.01490181
-0.59190781 0.16499397 0.06535548
-0.41429329 -0.02865288 -0.00000015
0.33999614 -0.02423511 0.00000000
-0.64893059 -0.28439098 -0.00000043
0.07024707 -0.62573078 0.00000000
-0.07121005 -0.14251118 0.00000000
-0.47158976 -0.67649397 0.00000000
0.67113700 0.01746179 0.00000018
0.38784409 -0.30955929 0.00000000
-0.39748973 -0.55909798 0.00000000
-0.34395934 0.14710639 -0.00000016
-0.07536808 0.62808419 0.14641108
0.76428897 -0.33034302 -0.00000117
0.09790890 0.70005190 -0.00000021
0.31341503 0.21220437 -0.00000030
0.40421699 -0.05151775 -0.00000022
0.37532456 0.21765772 0.00000252
-0.15138177 0.04823546 0.00000000
0.13708204 0.39705529 0.00000000
-0.16188493 -0.73695293 0.00000000
0.08417800 0.17182527 0.00000000
-0.31214192 0.31902100 -0.00000024
-0.26544535 -0.16844690 0.00000000
-0.01706049 0.30751087 0.00000000
-0.52474665 0.13026780 -0.00000053
0.47035509 0.11849518 0.00000235
0.12357926 0.62128133 -0.00000021
0.18480616 0.34095414 0.00000410
0.23111703 0.16239602 0.00000608
-0.61725803 -0.30130653 -0.00000034
-0.66355201 -0.48316471 -0.00000028
-0.39233770 0.27875328 0.19548555
-0.62351640 -0.16122713 -0.00000048
-0.61371958 -0.78785645 0.00000000
0.00553144 -0.23826882 0.00000000
-0.16341400 0.42425645 0.32198810
0.55107244 -0.69185543 0.00000000
-0.36437803 -0.60503216 0.00000000
-0.76825506 -0.10394209 -0.00000084
-0.16226357 0.34818003 0.00000000
0.36316567 -0.07272835 -0.00000001
0.13280830 -0.41076056 0.00000000
-0.43805508 0.00431052 -0.00000023
0.09478492 0.42343984 0.00000422
-0.46644559 -0.04776320 -0.00000025
0.37359639 0.39074896 -0.00000087
0.24233509 -0.79551337 0.00000000
0.09450016 -0.47434872 0.00000000
0.64824007 -0.15587123 -0.00000108
0.01924609 0.70044282 0.00000000
0.23502953 -0.76578214 0.00000000
0.28829885 0.19982188 0.00000449
0.15975212 0.24652961 0.00000589
-0.08659136 0.48626658 0.00000000
0.07221717 0.35245298 0.00000562
-0.38847888 -0.50635577 0.00000000
-0.53423284 0.12768306 0.20939853
0.24996511 -0.71621718 0.00000000
0.72476438 -0.29015502 -0.00000117
-0.07281528 -0.01386022 0.00000000
0.10257785 -0.26175741 0.00000000
0.07394563 0.29888181 0.00000000
-0.02413054 -0.09233916 0.00000000
0.52577378 -0.72772587 0.00000000
-0.03640367 -0.13419720 0.00000000
0.02772181 -0.76076705 0.00000000
0.28212937 0.33630463 0.00000233
-0.40459492 0.23084959 0.24954210
0.07470326 0.26689928 0.00000687
-0.34625341 0.26405272 0.28766300
0.69378602 -0.12605007 -0.00000132
0.05445880 0.43611516 0.00000000
-0.11190879 -0.62578539 0.00000000
0.64841864 0.12956643 -0.00000125
0.46990063 -0.79369537 0.00000000
-0.29030979 -0.77189587 0.00000000
-0.03399696 -0.16340815 0.00000000
-0.13365361 0.61598397 -0.00000012
-0.09026746 -0.05429956 0.00000000
0.59032075 -0.47271513 -0.00000027
-0.01088654 0.62738817 0.00000000
0.00459799 0.66821076 0.00000191
0.42817812 0.33093832 -0.00000100
-0.38796601 -0.06130442 -0.00000007
-0.15019679 0.49841065 0.22958048
0.24783838 0.25974891 -0.00000010
0.45455667 -0.76834837 0.00000000
0.56542619 -0.36962400 -0.00000035
0.11337230 0.10308679 0.00000000
-0.79896042 -0.33495025 -0.00000058
0.75105802 -0.65801496 -0.00000035
0.33283773 0.45420594 -0.00000081
-0.55294854 0.18283130 0.09738637
-0.71550177 -0.66298014 -0.00000017
-0.39701720 0.23190865 0.25942741
-0.60140316 -0.19975226 -0.00000040
-0.52391905 0.14995312 -0.00000054
-0.04351971 -0.72758213 0.00000000
0.56878882 -0.70761504 0.00000000
0.04429681 0.06353396 0.00000000
-0.38199042 0.25930447 0.24067032
-0.07790199 -0.24322207 0.00000000
0.59878813 -0.76528661 0.00000000
0.30662201 0.01205012 0.00000719
-0.37328199 -0.34701936 0.00000000
-0.11246471 0.62783706 -0.00000009
-0.32239423 -0.43273078 0.00000000
0.08522243 0.11504023 0.00000000
-0.54199416 -0.37787898 -0.00000012
-0.77157134 -0.38787908 -0.00000052
0.44594759 0.12722191 -0.00000071
-0.07645682 0.53735865 0.00000000
0.36808510 -0.00614351 -0.00000015
-0.15803773 0.60089095 0.06228395
0.58535624 0.05354846 0.00000123
-0.69570348 -0.65115507 -0.00000019
0.35295497 0.11180711 -0.00000029
0.10705485 0.07627510 0.00000000
-0.27895900 0.35162867 0.25690694
0.55612111 0.22763958 -0.00000136
0.25064077 -0.64963192 0.00000000
0.36678861 0.37716974 -0.00000082
0.69173202 -0.26817535 -0.00000106
0.13397751 0.31483276 0.00000000
0.41516795 -0.06826901 -0.00000024
-0.59894305 0.18005816 -0.00000073
-0.45851340 -0.45731295 0.00000000
-0.12026526 -0.50311882 0.00000000
0.24927671 0.04849116 0.00000751
0.25797054 0.04228679 0.00000000
0.36825496 0.38775878 -0.00000084
-0.28420210 0.34156910 -0.00000020
0.50340523 -0.32266866 -0.00000016
0.75638282 -0.33904826 -0.00000115
-0.41024329 -0.13052303 -0.00000005
0.58642615 -0.73731402 0.00000000
0.11625356 0.59597121 -0.00000014
0.61885591 -0.71393778 0.00000000
0.09727617 0.22382637 0.00000717
0.23766098 0.50544422 0.00000036
-0.32263313 0.13901429 -0.00000010
0.16566494 0.23108795 0.00000603
0.39079565 0.09355958 -0.00000042
-0.26916036 0.40612381 -0.00000023
0.09423702 0.64053887 -0.00000012
-0.36218587 0.42644352 0.01724283
-0.06454645 0.69982711 -0.00000005
-0.14409250 0.54762018 0.16421377
0.17692554 -0.21842546 0.00000000
0.23292332 0.44708219 0.00000142
-0.61636546 -0.74173903 0.00000000
-0.46282191 -0.44401817 0.00000000
-0.68746983 -0.48005805 -0.00000034
-0.32161965 -0.50802197 0.00000000
-0.39565837 -0.11944380 -0.00000003
0.73973007 -0.14953425 -0.00000148
-0.25116856 -0.46964310 0.00000000
-0.20930544 -0.03021885 0.00000000
-0.16935513 -0.06209442 0.00000000
-0.68690582 -0.42934068 -0.00000038
0.25255150 0.47791381 0.00000053
0.52416411 -0.69918962 0.00000000
0.38398382 -0.39764836 0.00000000
-0.09120141 0.60267271 0.16093588
0.12378461 0.52632013 -0.00000004
0.28907670 -0.73214844 0.00000000
0.14216886 -0.41463579 0.00000000
-0.43633230 0.27278575 0.13781861
0.28110358 0.15903421 -0.00000007
-0.37421823 0.18347382 0.36744943
0.09684402 -0.67711044 0.00000000
-0.24155852 0.26363709 0.44705690
-0.69227018 -0.58568201 -0.00000025
0.03604657 0.11779403 0.00000000
-0.46586107 -0.18249976 -0.00000013
0.00569291 -0.31515542 0.00000000
-0.23437734 -0.25854751 0.00000000
-0.37444079 0.27505436 0.22823496
-0.42627588 0.24567041 0.19418832
0.51361517 -0.25037180 -0.00000034
0.51488356 -0.69654505 0.00000000
0.41131127 -0.48349313 0.00000000
0.24656403 0.40707186 0.00000183
-0.33766815 -0.46481863 0.00000000
-0.05604802 0.66442328 0.00000000
0.00728851 -0.34255584 0.00000000
0.49724716 -0.25523819 -0.00000026
0.08959005 0.23053228 0.00000000
0.25469453 0.09705397 0.00000670
-0.45399614 -0.67055453 0.00000000
0.57450409 -0.06179542 -0.00000093
-0.18018570 -0.73523500 0.00000000
-0.25274411 0.29393662 0.38414705
0.07932125 0.70592883 0.00000005
0.47459984 -0.32869570 -0.00000003
-0.64653216 -0.14426852 -0.00000055
-0.03846078 0.75208209 0.01434274
-0.45575146 0.19760093 0.22238517
0.78437487 -0.06503606 -0.00000182
-0.45923975 -0.69737153 0.00000000
-0.78018742 -0.08612787 -0.00000088
0.67870923 -0.61143762 -0.00000040
-0.41723225 0.20560024 0.26866772
0.02319266 0.53741388 0.00000359
0.70336797 -0.45632511 -0.00000078
0.49756444 -0.50513452 0.00000000
-0.67879324 -0.04213768 -0.00000070
-0.56614849 -0.45225148 -0.00000010
0.08677169 0.11644200 0.00000000
0.24792965 0.25055422 -0.00000009
-0.39335423 0.19421602 -0.00000030
0.23790315 0.12817404 0.00000000
-0.65941364 -0.06401398 -0.00000064
-0.05064931 0.64442164 0.00000000
-0.65293242 -0.11979023 -0.00000058
0.49556331 -0.56755719 0.00000000
-0.22468265 -0.45427853 0.00000000
0.53455077 0.04119157 0.00000241
-0.50221541 0.25681184 0.06213273
-0.28456612 0.23520156 0.42495932
-0.48164415 -0.72891033 0.00000000
-0.35026598 -0.79205040 0.00000000
0.21193588 -0.22502460 0.00000000
-0.58091970 -0.46858997 -0.00000012
0.57633987 -0.67643618 0.00000000
-0.39382171 -0.09406593 -0.00000005
-0.64556313 -0.63765368 -0.00000011
0.01814339 0.73318624 0.00000073
-0.69200551 -0.04631089 -0.00000073
0.09948529 0.21046341 0.00000000
-0.08833609 0.19019328 0.00000000
0.31905780 0.29882691 -0.00000048
0.40423945 0.37259003 -0.00000097
-0.01553441 -0.36519917 0.00000000
0.38753065 -0.67647644 0.00000000
0.66513467 -0.77494971 -0.00000005
-0.63925781 -0.08383999 -0.00000058
-0.21212663 -0.52791495 0.00000000
-0.27422872 0.44146388 0.12784936
0.51633183 0.26429748 -0.00000126
0.58307289 -0.44586855 -0.00000029
-0.13832387 0.52778535 0.20303997
-0.46917279 -0.68472722 0.00000000
-0.43162983 -0.75100608 0.00000000
0.02326596 0.18780362 0.00000883
0.40013884 -0.06137038 -0.00000018
0.01177059 0.26870298 0.00000000
0.49288692 0.17825164 0.00000092
-0.38195166 -0.57982216 0.00000000
-0.49342760 -0.29443894 -0.00000009
-0.16650707 0.53639261 0.14724938
0.01994776 -0.07136268 0.00000000
-0.78089510 -0.24531231 -0.00000069
-0.32910269 0.39854148 0.10972495
0.19714031 0.26820443 0.00000000
-0.72625460 -0.22237457 -0.00000065
-0.55238237 0.12844823 0.18071495
0.09157045 0.70613468 -0.00000019
0.37773412 -0.67827492 0.00000000
0.34843598 0.10219094 -0.00000025
0.32365824 0.45116173 -0.00000039
-0.05205159 0.43605193 0.00000000
0.36374874 0.32535293 0.00000094
-0.48320771 0.22444850 0.14003521
0.16239271 0.24857048 0.00000582
-0.21982562 0.07089494 0.00000000
0.19636859 -0.36849980 0.00000000
0.19146348 -0.29929200 0.00000000
0.47879725 0.28658392 -0.00000114
0.40821852 0.19603228 0.00000225
0.39830073 -0.13693564 -0.00000004
0.00311775 0.38806340 0.00000000
0.27775818 0.02414324 0.00000745
0.55422224 0.02169599 -0.00000099
-0.32338236 0.17396368 -0.00000014
0.10846009 0.44941325 0.00000362
-0.29626280 0.06347029 0.00000000
0.55979607 0.20490016 -0.00000081
-0.62374442 -0.29384342 -0.00000036
0.33740330 -0.22390633 0.00000000
0.67263559 -0.22024903 -0.00000107
0.47730411 -0.64517165 0.00000000
-0.06087948 -0.66515543 0.00000000
0.74082926 -0.48853900 -0.00000078
0.08878416 0.16210674 0.00000823
0.08011849 0.35831722 0.00000542
0.71149222 0.08230734 -0.00000177
-0.52013315 0.22174309 0.08814154
0.03312480 -0.18811011 0.00000000
0.04674339 -0.14195325 0.00000000
0.10375151 -0.37468208 0.00000000
-0.57760579 -0.39599250 -0.00000018
-0.52269472 0.01557023 -0.00000042
-0.34874515 0.28322788 0.25480636
0.05638945 0.11864369 0.00000000
-0.24882037 0.35032853 0.30458196
0.27241123 -0.13514241 0.00000000
0.43863961 0.27807426 0.00000029
-0.55386899 0.17403310 -0.00000063
0.13677639 -0.18461044 0.00000000
0.35932721 -0.77862672 0.00000000
-0.15279855 -0.53401033 0.00000000
-0.33520555 -0.66487487 0.00000000
-0.75418155 0.04428916 0.00231685
0.46915293 0.31766902 -0.00000095
-0.55626814 -0.06317662 -0.00000042
0.31981432 0.04804510 0.00000642
0.09576127 0.44823224 0.00000383
0.13044916 -0.16040404 0.00000000
0.02609500 -0.00557522 0.00000000
0.79993843 -0.77613565 -0.00000006
0.06231002 0.25923926 0.00000000
0.07278294 0.45686709 0.00000000
-0.76003516 -0.54340093 -0.00000032
0.73572949 -0.07512112 -0.00000159
-0.72959129 -0.71009321 -0.00000011
-0.34276645 -0.16596848 0.00000000
-0.71450221 -0.35223680 -0.00000051
-0.67417843 0.04601318 -0.00000077
0.68438254 -0.30406264 -0.00000097
0.72706899 -0.45302934 -0.00000087
-0.30036175 -0.70617842 0.00000000
-0.73044133 -0.25313347 -0.00000063
0.64247340 -0.17453128 -0.00000102
0.79660876 -0.08870083 -0.00000178
0.68262296 -0.75235633 -0.00000012
-0.30997085 -0.65278616 0.00000000
0.22353292 0.24958754 0.00000000
0.09363812 0.33109628 0.00000000
0.17849246 -0.54585191 0.00000000
-0.46228357 -0.39830253 0.00000000
0.37673758 -0.67645451 0.00000000
-0.17640487 0.33224348 0.00000000
0.03159878 -0.74387607 0.00000000
-0.55765074 -0.34455888 -0.00000018
0.57789457 -0.57472809 -0.00000004
0.04036212 0.49716503 0.00000000
0.16054084 0.41892998 0.00000328
0.07745456 -0.51530549 0.00000000
-0.54328587 -0.34620578 -0.00000015
0.52586093 -0.49346416 0.00000000
-0.42294210 0.07854844 -0.00000026
0.27049173 -0.76071851 0.00000000
0.39566460 -0.68397775 0.00000000
0.12044943 0.46232444 0.00000000
-0.48551608 -0.78920036 0.00000000
-0.20199812 -0.52820502 0.00000000
0.22305578 0.10718706 0.00000703
-0.72942927 -0.35021140 -0.00000054
-0.33374872 -0.45312723 0.00000000
-0.48903953 0.15745660 0.23278229
-0.52620948 -0.11488605 -0.00000031
0.71236330 -0.06108112 -0.00000152
-0.31040791 0.42856590 0.09254404
0.15314074 -0.72028111 0.00000000
0.18123299 -0.40687195 0.00000000
0.23255989 -0.22067527 0.00000000
-0.37442196 0.29409000 -0.00000035
-0.27069508 -0.02740632 0.00000000
0.45342599 0.07396612 0.00000342
-0.11031917 0.22089136 0.00000000
0.33496781 0.32722631 -0.00000059
0.67953188 0.04556479 -0.00000045
0.77095615 -0.47280237 -0.00000082
-0.11148307 0.21263731 0.00000000
0.13018718 -0.07418176 0.00000000
-0.42146431 0.23680351 -0.00000040
0.28521132 0.33402874 0.00000231
0.65999471 -0.01149605 -0.00000138
-0.62179899 -0.61722699 -0.00000007
0.00128234 0.30673222 0.00000738
-0.49823523 -0.18702687 -0.00000019
0.12730136 -0.07256813 0.00000000
-0.63593335 0.09702210 0.10166903
0.03608489 -0.27906077 0.00000000
0.46759530 -0.70170810 0.00000000
0.38135745 -0.01414489 -0.00000019
0.39029162 -0.45648953 0.00000000
-0.43463837 0.32927868 -0.00000051
-0.78657767 -0.27441383 -0.00000066
-0.56904598 0.10596590 0.18953874
0.66925736 -0.61217287 -0.00000036
0.64525394 -0.42581301 -0.00000059
0.55672832 0.21747564 -0.00000096
-0.11375447 -0.40167945 0.00000000
-0.04958864 0.57511300 0.00000000
0.21569742 0.26380330 0.00000479
-0.42788087 -0.65620634 0.00000000
-0.72687371 -0.79548444 -0.00000001
0.23593387 -0.32371304 0.00000000
0.55193087 -0.58653511 0.00000000
-0.36504003 -0.48822846 0.00000000
0.00724828 0.65659273 0.00000204
0.52433651 -0.78431187 0.00000000
-0.55022576 0.09971819 -0.00000056
-0.60421612 -0.59437770 -0.00000006
0.50937313 -0.43718797 0.00000000
-0.28377844 -0.13498518 0.00000000
0.33701720 -0.08232688 0.00000000
0.36036474 0.36972317 0.00000027
0.34938561 -0.31377829 0.00000000
-0.08725839 -0.61291824 0.00000000
-0.53080776 0.13669083 0.20093259
0.47593126 0.30246113 -0.00000115
0.05309102 0.12153966 0.00000000
0.72009090 -0.25883168 -0.00000120
0.11389239 -0.39344250 0.00000000
0.58770843 0.14638589 -0.00000037
0.40430762 0.38936814 -0.00000091
-0.03509513 -0.32204706 0.00000000
0.56158148 -0.13420245 -0.00000075
0.26034259 0.02593243 0.00000768
-0.28078736 0.46493496 -0.00000030
0.42127741 -0.26386086 0.00000000
-0.56465090 0.20046571 -0.00000067
0.35449076 -0.07739705 0.00000000
0.45805814 0.01212954 -0.00000056
0.51280500 -0.14401863 -0.00000052
-0.33241062 0.22067968 0.37442758
-0.50282493 -0.70599711 0.00000000
-0.45996293 -0.75657920 0.00000000
0.34325200 -0.59025527 0.00000000
-0.33696590 0.40187607 0.09274383
-0.14919156 0.52884069 0.18495938
0.28811525 0.39955252 -0.00000052
-0.39109881 -0.31059549 0.00000000
0.30716246 0.05705263 0.00000651
0.28355720 -0.66786305 0.00000000
0.10505583 0.57247209 -0.00000005
-0.25720435 -0.29803365 0.00000000
0.23309540 0.03742868 0.00000000
-0.43159554 0.18772818 0.27398858
-0.22743588 0.30631811 0.40374965
-0.57963434 0.14861070 0.10881248
0.72688974 -0.28864417 -0.00000118
-0.32322907 0.23805229 0.36200627
-0.58661394 -0.55400409 -0.00000005
0.23077031 -0.41355454 0.00000000
-0.13896895 0.65082335 0.01548045
0.30623338 -0.28252238 0.00000000
0.23281114 0.14309636 0.00000000
0.73265412 -0.57223440 -0.00000057
0.49764600 0.08677143 -0.00000086
0.09802407 0.09817264 0.00000905
0.14837644 0.49269160 -0.00000009
0.57999033 -0.77068911 0.00000000
-0.13057919 -0.13925817 0.00000000
0.71627213 -0.67820174 -0.00000030
0.51909605 -0.75156973 0.00000000
-0.43706510 0.18587643 0.26850227
-0.07161688 -0.17527460 0.00000000
0.27499345 0.05251472 0.00000000
0.40187465 0.30845555 -0.00000085
0.34795514 0.22529841 0.00000292
-0.27059645 0.43595104 0.14171761
-0.21531115 -0.00239418 0.00000000
0.12249957 -0.05436842 0.00000000
0.28759452 0.30120379 0.00000281
0.48651684 -0.37204817 -0.00000000
0.22877499 0.24368754 0.00000000
-0.28094442 0.36838642 0.22848396
-0.11968444 -0.01273140 0.00000000
0.49295882 0.21103461 -0.00000106
0.24555434 -0.40866654 0.00000000
0.01245621 0.09997381 0.00001031
-0.35697256 -0.56922125 0.00000000
-0.31292741 0.32596428 0.24431447
0.69112349 -0.36551491 -0.00000089
-0.46700118 -0.38830509 0.00000000
0.23217084 0.16566194 0.00000000
-0.53522587 -0.64228840 0.00000000
-0.05258897 0.45111080 0.00000000
0.08626501 0.23099366 0.00000000
-0.61973021 -0.25893477 -0.00000039
-0.29317875 0.43229959 -0.00000030
0.47423304 0.18748286 0.00000112
0.66242557 -0.65227024 -0.00000026
-0.31561925 0.33948515 0.21972880
-0.27365848 0.22072076 0.46345944
-0.12732758 -0.58206907 0.00000000
0.36711811 -0.26314604 0.00000000
-0.53199081 0.20928686 0.08904921
-0.33433150 0.15124379 -0.00000014
-0.55513679 -0.66080032 0.00000000
-0.69158658 0.06122194 0.07156226
0.23236813 -0.08752573 0.00000000
-0.41058424 0.15750514 -0.00000031
-0.63631454 -0.64750957 -0.00000008
0.11191435 0.50610974 0.00000000
0.19610382 -0.44146079 0.00000000
0.01219328 0.68736664 0.00000151
0.07892628 0.15356522 0.00000000
-0.39849690 -0.49542618 0.00000000
0.49920625 0.27025994 -0.00000074
0.08261094 -0.75590530 0.00000000
0.12902187 0.65551560 -0.00000030
0.18408617 0.04676557 0.00000000
-0.45591021 0.01847229 -0.00000028
-0.00584934 -0.53287990 0.00000000
-0.60353582 -0.18770327 -0.00000041
-0.40774780 -0.27497806 0.00000000
0.56962755 0.10834206 -0.00000121
0.43655221 0.14407781 0.00000257
-0.47727717 0.00867618 -0.00000032
-0.00339433 0.54481653 0.00000000
0.24292870 0.28540507 -0.00000013
0.49075689 -0.23531647 -0.00000026
-0.55548522 -0.01995887 -0.00000046
0.42081760 0.04171306 0.00000459
0.08555403 0.18419723 0.00000000
-0.76098200 -0.29906183 -0.00000063
-0.00269852 0.48391438 0.00000000
-0.17073642 0.41458282 0.32555360
-0.59679572 0.17489010 0.04293598
-0.45980150 -0.21862523 -0.00000008
-0.02153133 -0.03856335 0.00000000
-0.28788634 0.21232459 0.45461606
0.75735282 -0.35598798 -0.00000111
0.50607235 0.17631635 0.00000070
0.32848531 -0.03133366 0.00000000
-0.56529607 0.20942763 0.03832931
-0.55681910 -0.74795896 0.00000000
0.08951470 0.16546119 0.00000000
0.20642794 0.33174832 -0.00000005
-0.76655897 -0.32534268 -0.00000059
0.17871178 0.06374433 0.00000000
-0.60248232 0.13059219 -0.00000069
0.70444021 -0.01773130 -0.00000156
0.03529027 -0.42377400 0.00000000
-0.08972554 -0.48165337 0.00000000
0.01250637 0.00721818 0.00001170
0.35965901 -0.34015776 0.00000000
-0.60314410 -0.56829193 -0.00000008
0.37646461 0.09282897 -0.00000036
-0.61272968 -0.19378432 -0.00000043
-0.52055994 -0.38211237 -0.00000007
0.25051915 0.47806070 0.00000057
0.01117101 -0.24481799 0.00000000
-0.47302281 -0.10435481 -0.00000021
-0.20487186 0.20983233 0.00000000
0.02660295 -0.72256261 0.00000000
0.09739285 -0.49742347 0.00000000
-0.07522092 -0.50369750 0.00000000
0.56413479 -0.08189851 -0.00000085
-0.58314504 0.10883890 0.16380115
-0.44333264 0.30080383 -0.00000050
-0.31393363 0.31810456 0.25470741
-0.38624130 -0.75827113 0.00000000
-0.40490142 -0.28133979 0.00000000
0.39146575 0.17117700 -0.00000056
0.07807738 -0.42314797 0.00000000
0.36654714 -0.75174340 0.00000000
-0.51256559 0.12214331 -0.00000049
-0.18694489 0.54210923 0.10758752
0.43541125 -0.47687875 0.00000000
0.28467492 0.07783164 0.00000654
0.51948265 0.23713567 -0.00000057
-0.18857527 0.57775541 0.05105893
-0.40558671 0.24345230 0.22892652
0.25183836 -0.78425007 0.00000000
-0.16009654 -0.52590907 0.00000000
0.12349579 0.03861701 0.00000956
0.08580363 0.62553822 0.00000127
-0.45803831 0.22880002 -0.00000047
0.42964231 -0.42662940 0.00000000
0.12724596 0.44300674 0.00000000
-0.10383718 0.38509542 0.00000000
-0.19591327 0.20374053 0.00000000
-0.30211170 0.28658349 0.32043463
-0.24407127 0.47435736 0.12370041
0.08190784 -0.18440325 0.00000000
-0.29997051 0.29189683 0.31562425
0.61865414 -0.08580293 -0.00000107
0.15433966 0.48051923 -0.00000009
-0.06909712 0.40961090 0.00000000
-0.35283452 0.30471193 0.21602556
-0.41452018 0.03292899 -0.00000021
-0.15159903 -0.32684579 0.00000000
-0.07411541 0.65094981 -0.00000003
0.01137810 0.73097235 0.00000000
0.22563926 0.35079528 0.00000317
-0.56792182 -0.44974183 -0.00000011
-0.11159544 -0.74798172 0.00000000
-0.65175261 0.12835404 0.03016582
-0.72686931 -0.59815477 -0.00000025
-0.43393720 -0.74273967 0.00000000
-0.65147123 -0.03277184 -0.00000065
0.32835591 -0.65934650 0.00000000
0.32305964 -0.18532633 0.00000000
0.37503650 0.15706827 0.00000354
-0.50395682 -0.07716448 -0.00000030
-0.47058990 -0.52685470 0.00000000
0.03496016 0.42094336 0.00000516
0.22700760 0.16586226 0.00000609
0.14617824 0.38642507 0.00000000
-0.21910523 0.35595391 0.34111264
-0.27476732 -0.38844872 0.00000000
-0.10727418 -0.11013472 0.00000000
-0.11860812 -0.34992582 0.00000000
-0.04285223 0.65872134 0.00000000
0.32861039 0.30570463 -0.00000053
-0.58685830 0.00143365 -0.00000055
-0.14003973 0.48627234 0.26339015
0.53817708 -0.02423402 -0.00000084
-0.22277363 0.36000139 0.32941196
-0.38525356 0.37392563 0.06190290
-0.10859407 0.07905206 0.00000000
0.12958842 -0.63953494 0.00000000
-0.18751697 -0.02245883 0.00000000
-0.61534782 0.15199886 0.04951605
0.20898382 0.19612272 0.00000000
0.20581277 -0.21301413 0.00000000
-0.33905201 0.08364332 -0.00000009
-0.39831123 0.24240749 -0.00000036
-0.33183863 0.30895754 0.24142649
0.03427290 0.01444715 0.00001127
0.19344590 0.52807839 0.00000083
-0.78179685 -0.11603848 -0.00000085
-0.51159175 -0.74138794 0.00000000
0.15269419 -0.19710569 0.00000000
0.31469863 -0.58687578 0.00000000
0.62173356 0.14261292 -0.00000096
-0.47415517 -0.06328770 -0.00000025
-0.53507531 -0.52043841 0.00000000
-0.16076538 -0.08907601 0.00000000
-0.05295416 -0.46862870 0.00000000
0.21298971 0.22171856 0.00000546
-0.62424534 0.01528265 -0.00000064
0.35118648 0.34176709 0.00000091
-0.29990576 0.49865439 0.00218351
0.17915623 -0.11416497 0.00000000
0.19754627 0.31355478 0.00000000
0.63908475 -0.77032784 0.00000000
-0.10243722 -0.49456745 0.00000000
0.53115300 0.21956529 -0.00000124
0.39808510 0.12834421 0.00000357
-0.67650232 -0.42987848 -0.00000036
0.31782495 0.17982308 -0.00000026
0.40015240 -0.31531229 0.00000000
0.10178064 0.32261033 0.00000563
0.01506003 0.36397017 0.00000631
-0.45316689 0.28428936 -0.00000051
0.43833592 0.06976024 -0.00000058
-0.04130311 0.02563969 0.00000000
-0.05673105 -0.63248750 0.00000000
-0.21982211 0.47380674 0.16130827
-0.74833818 -0.51328334 -0.00000036
-0.28135571 0.39491151 0.18763644
-0.00722764 -0.68543975 0.00000000
-0.40930250 -0.24081398 0.00000000
0.07782501 0.01172997 0.00001065
-0.47536522 0.02023083 -0.00000033
0.20855592 -0.60079556 0.00000000
0.20423454 0.04500990 0.00000824
0.48056484 0.19045615 0.00000095
-0.29275971 0.22643864 -0.00000012
0.14838670 0.17162421 0.00000719
-0.72262859 -0.55431619 -0.00000031
0.41915833 -0.02641942 -0.00000033
0.52840070 -0.51833907 0.00000000
-0.03028328 -0.06852115 0.00000000
-0.64406681 -0.50012778 -0.00000023
0.50174146 -0.42067051 0.00000000
-0.23815913 0.13682776 0.00000000
-0.42833019 0.35521865 0.02494699
-0.14609525 -0.37868402 0.00000000
0.07679482 0.48995009 0.00000000
-0.23969767 0.29976455 0.39509347
-0.52050709 -0.28636690 -0.00000015
0.03515798 -0.77307278 0.00000000
0.51696243 0.01312876 0.00000322
-0.64155809 -0.42375811 -0.00000029
-0.49332576 0.14344742 0.24752678
0.12279332 -0.33473281 0.00000000
0.27679861 0.33680138 -0.00000036
-0.24017557 -0.48882075 0.00000000
-0.50535047 -0.02424847 -0.00000035
0.06126410 0.33600129 0.00000000
0.27765828 -0.47346937 0.00000000
-0.06294538 -0.73874038 0.00000000
-0.25176769 -0.39045038 0.00000000
0.65965718 -0.40079308 -0.00000069
0.07886324 -0.35013031 0.00000000
0.08091902 0.68465845 0.00000037
-0.32219687 0.37426977 0.15700462
-0.23227259 0.49864118 0.10476720
-0.04709831 -0.64730313 0.00000000
0.50760424 0.22700086 -0.00000018
-0.36029249 0.17866960 0.39585232
0.03113297 0.04036051 0.00000000
0.42756876 -0.72069277 0.00000000
0.13937994 0.25205787 0.00000000
-0.46226830 0.24191122 0.14530759
0.49374828 -0.78548238 0.00000000
-0.35314969 -0.00882863 -0.00000004
0.34603315 -0.72381544 0.00000000
0.30306269 0.15336739 0.00000498
-0.09940042 0.64122821 0.09003527
-0.58743944 0.12861300 0.12730210
-0.64320377 0.04306439 -0.00000070
0.25550947 0.26108541 -0.00000014
0.03335074 0.53577554 0.00000346
-0.05229822 0.54064739 0.00000000
-0.08656443 0.65902451 0.08251319
0.08548386 0.11956046 0.00000892
-0.54973847 0.15026757 0.15163609
-0.68902658 -0.63720532 -0.00000020
-0.21937758 -0.25054982 0.00000000
0.20232183 -0.00332265 0.00000000
0.31711507 -0.40363687 0.00000000
0.34629631 0.18580260 0.00000361
-0.50249228 0.12257237 0.26528231
0.06684686 -0.40907165 0.00000000
0.20078618 -0.23884309 0.00000000
0.35642526 -0.73976286 0.00000000
0.31724306 -0.08829242 0.00000000
-0.42339692 0.23224165 -0.00000040
-0.64253692 0.06414945 0.14150513
0.02830054 -0.66685107 0.00000000
0.49898266 0.26149433 -0.00000059
-0.51581649 0.00144489 -0.00000039
0.20086168 -0.72290571 0.00000000
-0.53017529 0.18477033 0.12898085
-0.70753993 -0.74483432 -0.00000007
0.05548803 -0.14516880 0.00000000
0.24237191 0.28904906 -0.00000013
0.43032863 0.23717805 -0.00000084
0.04935741 0.43387180 0.00000000
0.29365907 0.29918554 0.00000273
0.21216710 0.32980934 0.00000378
-0.75479862 -0.56468693 -0.00000029
-0.23690064 -0.39822503 0.00000000
0.22082520 0.26456035 0.00000000
0.08935595 -0.20818922 0.00000000
-0.51220528 0.25227278 0.05386672
0.71476933 0.02297226 -0.00000168
-0.25005186 0.47568100 -0.00000025
0.19363783 0.17792221 0.00000641
0.24924700 0.12969140 0.00000000
0.14259966 0.64890119 -0.00000034
0.01979542 0.17701235 0.00000905
-0.07641646 0.07585502 0.00000000
-0.21109642 -0.28002157 0.00000000
0.43357114 -0.63028765 0.00000000
-0.70624021 -0.57491971 -0.00000028
0.31666391 -0.65128823 0.00000000
-0.08493458 -0.38812095 0.00000000
0.63737473 -0.26820857 -0.00000083
-0.33203556 -0.51821055 0.00000000
-0.58888796 -0.34785852 -0.00000024
0.56317564 -0.70879094 0.00000000
0.64042418 0.08404647 -0.00000034
-0.41460132 -0.39969440 0.00000000
0.05971209 0.70880353 0.00000038
-0.32815971 -0.59359067 0.00000000
0.15799642 -0.37738858 0.00000000
0.54807926 0.07152459 -0.00000105
-0.40579096 0.19448035 0.30288048
-0.72635671 -0.44773311 -0.00000044
-0.14259692 -0.33154718 0.00000000
-0.58969025 -0.78196895 0.00000000
0.08069179 0.40204633 0.00000475
0.50468054 -0.20212445 -0.00000038
0.40964079 -0.45941009 0.00000000
-0.20613157 0.50372387 0.13670150
-0.43227776 -0.65303569 0.00000000
-0.78610016 -0.35583829 -0.00000056
-0.10150262 0.03187891 0.00000000
-0.71117394 -0.18012445 -0.00000065
0.18520743 0.33161703 0.00000000
-0.69797498 -0.23244034 -0.00000058
-0.34078014 0.31320579 0.22142498
-0.46986044 -0.70584731 0.00000000
-0.05573231 0.08943409 0.00000000
-0.27239226 -0.43058790 0.00000000
0.32856804 0.21105024 -0.00000036
-0.10197884 -0.19528660 0.00000000
0.62100068 0.06929522 0.00000028
-0.06349360 -0.08961560 0.00000000
-0.05324461 -0.22971444 0.00000000
0.65828281 -0.38782326 -0.00000071
-0.01000116 0.74748609 0.00000000
0.00275278 0.27238612 0.00000000
-0.12445327 -0.67812407 0.00000000
0.72536151 -0.41651882 -0.00000095
-0.53218889 0.07973282 -0.00000050
-0.13451479 -0.13900048 0.00000000
-0.03589322 0.56451088 0.00000000
0.11808577 0.40653491 0.00000412
-0.30146971 0.45732145 0.06249178
-0.32464566 0.30871888 -0.00000026
0.08315365 -0.27040778 0.00000000
0.67309260 -0.70537758 -0.00000021
0.70881586 -0.74724652 -0.00000013
-0.46142420 -0.60487348 0.00000000
-0.23927295 0.40630545 -0.00000016
0.09039199 0.02631085 0.00000000
0.01691892 -0.11472562 0.00000000
-0.21340350 0.52633787 0.09138054
-0.32611407 -0.30763352 0.00000000
-0.33858908 -0.25529714 0.00000000
-0.49281605 -0.54371976 0.00000000
-0.59689886 0.14489013 -0.00000069
0.14096651 0.45316163 0.00000000
0.03558120 0.23716365 0.00000791
0.72493254 -0.25573863 -0.00000123
0.54653558 0.01963538 -0.00000095
-0.47474640 -0.21594073 -0.00000012
-0.74710590 -0.39254260 -0.00000051
-0.14964465 0.57572287 0.11317808
-0.78748074 -0.39014836 -0.00000051
-0.33633390 0.33362550 -0.00000031
-0.26045609 -0.49175634 0.00000000
-0.40420478 0.10456532 -0.00000025
0.28822014 -0.23613603 0.00000000
-0.33424771 -0.37220880 0.00000000
0.07626760 0.44423166 0.00000419
0.57339225 0.14592174 -0.00000009
0.08993367 -0.78426641 0.00000000
-0.04564527 0.61384928 0.00000000
-0.38586411 -0.10257834 -0.00000003
0.13772922 0.21087542 0.00000000
-0.61579854 -0.60696427 -0.00000007
-0.19949606 -0.29104865 0.00000000
-0.52229818 -0.73735569 0.00000000
-0.48016136 -0.50100864 0.00000000
0.38412621 0.04011726 0.00000532
0.64316458 -0.44828351 -0.00000054
0.62716464 -0.41935771 -0.00000052
0.44460497 0.20635719 -0.00000085
0.56589003 0.05780887 0.00000153
-0.78036782 -0.15372857 -0.00000081
-0.48696299 -0.25907458 -0.00000010
0.23420320 0.52936388 0.00000002
-0.41864520 0.34479440 0.05544198
-0.48204940 -0.17658127 -0.00000017
0.25399189 0.36109594 0.00000245
-0.57778919 -0.31435308 -0.00000025
0.19145389 -0.55605028 0.00000000
0.20420295 0.33143170 0.00000391
-0.58899593 0.14718250 0.09678173
-0.67747044 -0.07112883 -0.00000068
-0.42599794 -0.47132513 0.00000000
-0.59848503 0.19657573 0.00748870
-0.12750254 -0.75212925 0.00000000
0.36520171 -0.29824458 0.00000000
0.24557441 -0.20559507 0.00000000
-0.01806654 0.49265654 0.00000000
0.37061252 -0.64727102 0.00000000
0.26821947 0.15167923 0.00000000
-0.71379120 -0.58033814 -0.00000027
-0.46694182 0.08399542 -0.00000036
-0.06778101 -0.00961715 0.00000000
-0.54440595 0.22229727 0.05049219
-0.25895347 0.43432808 0.16183500
-0.27412232 -0.14795318 0.00000000
-0.08885986 0.69470868 0.02491882
-0.02550844 0.75085903 -0.00000001
-0.33484416 -0.13737542 0.00000000
-0.46052005 0.18472254 0.23468338
-0.43153480 0.25605489 -0.00000044
0.45628989 0.16987719 0.00000176
0.03598966 -0.77680152 0.00000000
0.24234990 0.30603740 -0.00000016
-0.70331632 -0.65587037 -0.00000018
-0.33623306 0.06921829 -0.00000007
0.33350147 -0.71880141 0.00000000
0.02725899 0.66622062 0.00000160
-0.05604543 0.32682886 0.00000000
0.36719553 0.24321213 0.00000225
0.78653113 -0.79736187 -0.00000001
-0.54908841 0.18565445 -0.00000063
0.21415205 0.51843815 -0.00000042
-0.28912371 0.16313670 -0.00000005
-0.00613900 -0.11064252 0.00000000
0.25989235 -0.49407049 0.00000000
-0.32857524 0.40332194 -0.00000035
0.02887712 0.60892155 0.00000243
-0.19156020 0.55781090 0.07677751
0.16924425 0.35173943 0.00000417
-0.30648908 -0.38552260 0.00000000
-0.07314926 -0.73703120 0.00000000
-0.78642594 -0.39293740 -0.00000051
-0.13050954 -0.65635932 0.00000000
-0.40413011 0.22820663 0.25425494
0.64231738 0.06281670 -0.00000144
-0.10794988 -0.34730237 0.00000000
-0.18177857 0.56745666 0.07698361
-0.47081821 -0.64447733 0.00000000
0.15425074 0.61568206 -0.00000033
-0.01311608 -0.43280340 0.00000000
0.46093401 -0.44158143 0.00000000
-0.45861050 0.05467040 -0.00000032
0.23957901 0.46458763 -0.00000043
0.40373521 0.04115201 -0.00000038
-0.08506926 0.59244989 0.18573725
0.52065586 -0.14933898 -0.00000054
-0.60778378 0.17373557 0.02802374
0.18620040 0.24584584 0.00000000
-0.57969339 -0.60295983 0.00000000
0.09059584 -0.02472970 0.00000000
-0.13267599 0.08057213 0.00000000
-0.49801370 0.05444493 -0.00000040
-0.51443401 0.23645306 -0.00000060
0.18114659 0.00783533 0.00000915
-0.04926243 0.28933604 0.00000000
-0.13207830 0.23632489 0.00000000
0.48164683 -0.44814265 0.00000000
0.39571238 0.08475103 0.00000435
-0.72801445 -0.33396154 -0.00000055
-0.62533899 0.04917096 -0.00000067
0.61440883 0.00675506 0.00000145
-0.30673483 -0.10901352 0.00000000
0.45575639 -0.06666421 -0.00000041
0.04161852 0.07074374 0.00001031
-0.08533746 -0.45796755 0.00000000
-0.47501636 -0.50491984 0.00000000
-0.52195460 0.11774529 0.24308837
-0.71707110 -0.09099638 -0.00000074
0.31916497 -0.33919208 0.00000000
-0.04325280 -0.44730517 0.00000000
0.57851162 -0.55161580 -0.00000008
0.12526486 -0.29127462 0.00000000
-0.25615100 0.01108732 0.00000000
0.09509453 0.28003677 0.00000000
0.17030626 0.22146106 0.00000000
-0.24309375 0.49106017 0.09985358
0.38401366 -0.65562094 0.00000000
-0.03531604 0.02706145 0.00000000
-0.22692014 0.27385887 -0.00000002
-0.21960233 0.41500449 0.25081188
-0.06968727 0.16479463 0.00000000
-0.27732741 -0.63803548 0.00000000
-0.23100724 -0.70447364 0.00000000
0.33305252 -0.10419945 0.00000000
0.64714235 -0.76118162 -0.00000000
-0.09294288 -0.35507993 0.00000000
-0.27610927 0.46596697 0.08783949
-0.74722118 -0.69338909 -0.00000013
0.58074972 0.10409640 0.00000047
-0.22173478 -0.09905434 0.00000000
-0.53278674 0.22974815 0.05681337
0.38300103 0.11441990 0.00000410
0.60919904 -0.26617316 -0.00000072
0.04391165 0.65572375 0.00000150
0.08740420 0.48130126 0.00000346
0.63336629 -0.68381804 -0.00000008
0.15571916 0.43828582 -0.00000003
-0.26030763 0.29126365 0.37673083
-0.10460362 0.35950400 0.00000000
0.52869849 -0.68480828 0.00000000
0.58532089 0.00072634 -0.00000109
-0.20091859 0.20511484 0.00000000
-0.15352971 -0.08622242 0.00000000
0.37592339 0.06336101 0.00000509
-0.53493657 0.26081616 0.00643968
0.22933975 0.10371677 0.00000000
-0.41287966 -0.14261135 -0.00000005
-0.20790694 0.35564464 -0.00000005
0.03332070 0.27973558 0.00000000
-0.42784238 -0.18943807 -0.00000004
0.70458757 -0.31023509 -0.00000104
-0.26519423 -0.15521955 0.00000000
0.45256121 0.11967492 0.00000267
-0.06049079 0.65141890 0.00000000
0.00181039 -0.34372657 0.00000000
0.05984918 0.17104039 0.00000853
-0.22919495 0.45318986 -0.00000018
-0.67744474 -0.03370788 -0.00000071
0.49392915 -0.23894958 -0.00000027
-0.56324382 0.10947760 0.19301218
-0.73687750 -0.11850878 -0.00000076
-0.24860166 0.36971198 0.27551971
-0.62880763 -0.39081514 -0.00000029
0.52606390 -0.23436204 -0.00000042
-0.69159105 -0.63581829 -0.00000021
-0.54160526 -0.12691275 -0.00000034
0.50581038 -0.65246877 0.00000000
0.00791996 0.58374346 0.00000312
0.39999676 -0.05578159 -0.00000019
-0.03647782 0.37258140 0.00000000
0.20072088 -0.42742368 0.00000000
0.51642389 -0.49412979 0.00000000
-0.72486456 0.05133493 0.03609051
-0.05000657 -0.66415483 0.00000000
-0.73571245 -0.02302510 -0.00000084
0.01669586 0.66944206 0.00000171
-0.34683227 -0.01870659 -0.00000002
-0.09613220 0.03034101 0.00000000
0.46863357 -0.49356391 0.00000000
-0.77241995 -0.43629824 -0.00000045
0.11412712 0.08415028 0.00000000
-0.12980314 -0.43337395 0.00000000
0.55048927 0.08651360 0.00000135
-0.75426932 -0.45597074 -0.00000043
0.08547002 0.47285962 0.00000362
0.60612439 -0.53939656 -0.00000022
0.13089319 0.27288439 0.00000000
0.53690169 0.02496922 -0.00000092
-0.39812970 0.12329583 -0.00000025
0.04241263 -0.47342132 0.00000000
-0.58848827 0.16812457 0.06579368
0.22483864 -0.37949863 0.00000000
0.48798187 0.26965882 -0.00000051
0.28502862 -0.07008248 0.00000000
0.71727118 -0.16972185 -0.00000135
0.74535395 -0.64581247 -0.00000039
-0.75576283 -0.01180544 -0.00000090
-0.11106378 0.28003201 0.00000000
0.49369117 -0.26356501 -0.00000023
-0.74580280 -0.52677054 -0.00000034
0.56656680 0.16277625 -0.00000024
0.20299677 0.15763858 0.00000657
0.29151283 0.22660578 -0.00000023
0.73787162 -0.31724512 -0.00000117
-0.23769123 0.31481898 0.37530692
-0.16726316 0.02992764 0.00000000
-0.53214966 -0.05626245 -0.00000038
-0.63479821 -0.38891010 -0.00000030
-0.25249248 -0.78763021 0.00000000
0.78251394 -0.55051750 -0.00000062
0.75043509 -0.21718966 -0.00000140
0.27583650 0.34368597 0.00000233
-0.52127391 0.23916020 0.05999918
0.26098697 0.43233187 -0.00000046
0.17281177 0.37395050 0.00000378
-0.61508116 0.15812369 0.04063235
0.40442918 0.27330291 0.00000103
0.10955249 0.48553185 0.00000306
-0.31801099 0.36499546 -0.00000029
0.06673335 -0.42560019 0.00000000
0.50575242 -0.74543912 0.00000000
0.48936589 -0.04644455 -0.00000059
0.56896070 -0.27074179 -0.00000054
-0.22150770 -0.12267948 0.00000000
0.15268995 -0.44793711 0.00000000
0.02900091 -0.59546232 0.00000000
0.03535537 0.10415530 0.00000000
0.18240685 -0.77120936 0.00000000
0.19994324 0.22307379 0.00000000
0.54075644 -0.32585547 -0.00000032
0.35685523 0.30053518 0.00000149
-0.57198516 -0.19150916 -0.00000034
-0.48983916 -0.04557385 -0.00000030
0.04003236 0.46379075 0.00000000
0.17351416 0.39845880 -0.00000003
0.70508593 -0.41563212 -0.00000086
-0.28622112 0.15391641 -0.00000004
0.13710119 0.21627665 0.00000000
0.52649408 0.16962113 0.00000042
0.60958646 0.18009251 -0.00000135
0.02101127 -0.28102128 0.00000000
0.04276348 -0.49322144 0.00000000
0.49384279 0.15066158 -0.00000096
0.76019850 -0.23403980 -0.00000141
0.66272193 -0.75425221 -0.00000008
0.69192105 -0.39236229 -0.00000085
-0.11984294 0.01699091 0.00000000
-0.00999003 -0.24047418 0.00000000
0.54270031 -0.14326401 -0.00000065
-0.17884377 0.41908773 0.30642783
-0.45090039 -0.40736520 0.00000000
-0.44638722 -0.23900578 -0.00000003
-0.44043866 -0.62071015 0.00000000
-0.43944384 -0.52316462 0.00000000
0.07828958 0.41241612 0.00000463
0.61806979 -0.34092651 -0.00000062
0.03566910 -0.37298544 0.00000000
0.26415415 0.50765160 -0.00000061
0.50831637 -0.58578334 0.00000000
0.22176659 -0.36892251 0.00000000
0.70172103 -0.22810306 -0.00000118
0.60683186 0.10477111 -0.00000004
-0.58526729 -0.79086777 0.00000000
-0.32310981 0.34029056 0.20714845
-0.41065609 -0.78016562 0.00000000
0.57317454 -0.66816215 0.00000000
-0.21454439 0.47079682 0.17387599
0.19478435 0.50853794 -0.00000032
-0.33059527 0.40453803 0.09836794
-0.53013668 -0.03768477 -0.00000039
-0.47045634 -0.03963316 -0.00000026
-0.56908908 -0.56483978 -0.00000001
0.11818515 -0.47346647 0.00000000
0.21559206 -0.61305253 0.00000000
0.24805306 0.39629084 -0.00000034
0.39094173 -0.00118810 -0.00000025
-0.52206075 -0.43266920 -0.00000002
-0.39444863 0.36807155 0.05683638
0.10789408 -0.64013366 0.00000000
0.63802663 -0.11564989 -0.00000110
0.42190384 -0.79456487 0.00000000
-0.49219669 0.17614824 0.19964935
-0.19893823 0.38846812 -0.00000006
-0.45794122 0.28864177 0.08100423
-0.52225527 -0.53802177 0.00000000
0.10814518 0.31397932 0.00000566
0.00939180 0.69060532 0.00000000
-0.28833737 0.02528430 0.00000000
0.40853226 -0.11306108 -0.00000013
0.46024251 -0.12534513 -0.00000033
0.73228391 -0.04757902 -0.00000163
-0.57839035 0.21541219 0.00939685
0.22403483 0.32260151 0.00000367
-0.42866102 0.05624888 -0.00000026
-0.20140523 0.03914019 0.00000000
0.07579001 0.04658643 0.00000000
0.56962952 -0.28481414 -0.00000051
-0.15211079 0.02912873 0.00000000
0.35550122 0.13923877 0.00000421
-0.20892198 0.45469872 -0.00000014
-0.43871538 0.07899502 -0.00000030
-0.24950115 -0.77794074 0.00000000
-0.67149880 -0.35686709 -0.00000041
-0.24633368 0.41046105 -0.00000018
0.37077545 -0.19586130 0.00000000
-0.08345174 -0.44745735 0.00000000
-0.54714649 0.16312001 0.13607647
