ply
format ascii 1.0
element vertex 1394
property float x
property float y
property float z
end_header
0.23540913 -0.23337100 0.00000000
0.54833515 -0.27224388 -0.00000044
-0.10488386 -0.46027470 0.00000000
0.73780488 -0.02943841 -0.00000168
0.04478832 0.44896757 0.00000459
0.06260365 0.31750306 0.00000629
0.08963142 -0.00799674 0.00000000
-0.42464616 0.17956576 -0.00000036
-0.16325826 0.47109726 -0.00000006
-0.47206352 0.04362349 0.14340587
0.01730253 -0.55746884 0.00000000
-0.59492913 0.17703634 -0.00000072
-0.05896879 0.41234345 0.00000000
-0.56384202 0.04543954 0.09619684
0.32158401 -0.78813377 0.00000000
-0.07930498 0.25215899 0.00000000
0.76435420 0.01621836 -0.00000188
-0.44881686 -0.44565212 0.00000000
-0.27589014 -0.40355096 0.00000000
0.73581446 0.03901876 -0.00000142
-0.69208176 -0.36876347 -0.00000044
-0.39802138 0.34449968 0.02899149
-0.46882203 0.24273965 0.04460719
-0.28622503 0.17707563 0.16982954
0.06383649 0.41747403 0.00000000
0.14644571 0.61956241 0.00000020
-0.18225216 0.44518009 0.08704239
-0.47583795 0.19295882 0.06617768
0.68057786 -0.18118406 -0.00000117
0.29685602 0.12133933 -0.00000007
0.66267499 0.07567753 -0.00000063
-0.55959428 0.02008352 -0.00000050
-0.37128101 0.34036495 0.04456486
-0.43108003 -0.48518400 0.00000000
0.06895353 -0.36519940 0.00000000
-0.34828046 -0.17602287 0.00000000
-0.50387182 0.11173273 0.09300766
0.29548559 0.41182698 -0.00000057
-0.40967003 -0.52172499 0.00000000
0.05030069 0.45553141 0.00000441
-0.27343636 0.45973963 0.03370535
-0.68832501 -0.78221619 -0.00000002
-0.47795070 -0.56732800 0.00000000
-0.50901353 -0.73142610 0.00000000
0.05562955 0.69954865 -0.00000006
-0.09655614 -0.26853874 0.00000000
-0.64626804 0.07049484 -0.00000073
-0.45040159 -0.23366232 -0.00000005
0.17082401 -0.13190175 0.00000000
-0.07966212 -0.49033028 0.00000000
-0.15633719 0.57381930 0.03522860
-0.19112377 0.24308325 0.00000000
-0.63879427 -0.39828373 -0.00000030
-0.02777787 -0.34220487 0.00000000
-0.02659888 0.20087597 0.00000000
-0.09194871 0.45887841 0.12568123
-0.10833583 0.61864380 0.03683109
0.32175577 0.20447194 0.00000377
0.32076718 0.24452150 -0.00000039
0.39493471 0.17885082 -0.00000059
0.19491805 0.38427445 -0.00000010
0.18602517 -0.33278057 0.00000000
-0.07187662 0.62819413 -0.00000000
-0.68763865 -0.43002310 -0.00000038
-0.45132898 0.34683321 -0.00000056
-0.19714366 -0.13437636 0.00000000
0.29007357 0.45936775 0.00000012
-0.20414659 0.02109177 0.00000000
0.33496069 0.24872391 0.00000278
-0.08594058 0.08366613 0.31796593
-0.53567592 0.20208821 0.03139062
0.24840029 -0.33741443 0.00000000
-0.01942384 0.75349385 -0.00000000
-0.64443459 0.07009471 0.04311000
0.09552702 -0.53867616 0.00000000
0.59162461 -0.51285215 -0.00000020
0.35301084 -0.63517622 0.00000000
-0.20102888 0.20958110 0.00000000
0.36054689 0.26615739 0.00000199
0.48700247 -0.39441165 0.00000000
-0.01749768 -0.06023508 0.00000000
0.51265262 -0.68264248 0.00000000
0.02914642 0.26418720 0.00000760
-0.35250214 0.30038149 -0.00000031
-0.71710423 0.03987605 0.02169769
-0.44673004 0.11272152 -0.00000035
0.48405466 0.25900762 -0.00000026
-0.16311720 0.11285533 0.26431605
0.48327545 0.28285835 -0.00000064
0.40849581 0.24258836 -0.00000076
-0.33263931 -0.51270601 0.00000000
0.49079816 0.30269500 -0.00000112
-0.19991492 0.16613242 0.21888311
0.08957653 -0.11120292 0.00000000
-0.16145269 0.25303850 0.00000000
0.27864370 -0.45804323 0.00000000
0.08259788 0.22037788 0.00000000
0.05212420 0.14946166 0.00000897
-0.27294516 -0.74819732 0.00000000
0.46525131 -0.48304269 0.00000000
-0.10080603 0.09172705 0.30640209
0.04746890 0.32691188 0.00000638
-0.41907730 0.21062557 0.08589665
-0.09489519 -0.64057398 0.00000000
0.10867253 -0.31245085 0.00000000
0.17312688 0.31703115 0.00000000
-0.34765631 0.33931628 -0.00000033
-0.57906183 0.17415242 -0.00000068
-0.73860041 0.02266944 -0.00000089
0.59516226 -0.42095574 -0.00000038
0.14329147 0.27909008 0.00000000
0.12879052 -0.15864636 0.00000000
-0.08587950 0.23106551 0.24364959
0.34195766 0.15280073 -0.00000032
0.64256209 0.03095422 -0.00000138
-0.28338882 0.10137034 0.20944527
0.24918625 -0.32970243 0.00000000
0.70792242 -0.32308904 -0.00000104
-0.46672144 0.10965758 0.11279298
-0.25443608 0.34634728 -0.00000014
0.29254814 -0.02934985 0.00000000
-0.74666327 -0.60207561 -0.00000025
-0.01959216 -0.12019641 0.00000000
0.22920438 -0.17248924 0.00000000
0.18699816 0.07110308 0.00000000
0.56701703 -0.34778596 -0.00000039
-0.37168521 0.40853338 0.00997700
0.75144928 -0.21100125 -0.00000142
0.00038037 -0.79248290 0.00000000
0.46752605 0.13113235 0.00000219
0.17466405 0.24584502 0.00000000
0.05583812 0.12556509 0.00000000
0.07984208 0.08120189 0.00000958
0.10272541 0.15742267 0.00000000
0.62995346 -0.68479160 -0.00000006
0.12222100 -0.56440153 0.00000000
0.04297972 -0.70126064 0.00000000
0.24186573 0.54751715 -0.00000059
-0.07245401 0.65260819 0.03779830
0.37184054 -0.56955646 0.00000000
-0.69275551 -0.42958764 -0.00000039
0.04759688 0.31291437 0.00000000
-0.35138695 0.30416421 -0.00000031
0.17773649 0.42688254 0.00000282
-0.12349371 0.45726222 0.11058546
0.46565193 0.17850018 -0.00000089
0.19627517 0.42613874 -0.00000018
-0.51576691 0.13042174 0.07758109
-0.29781986 0.13226977 -0.00000005
0.00897208 0.62861373 0.00000000
0.43104348 -0.21842601 -0.00000004
0.27166901 -0.16444834 0.00000000
0.05418433 -0.75510539 0.00000000
-0.32216972 0.32750213 0.07582454
-0.56709418 -0.31926091 -0.00000022
-0.61348264 -0.52971806 -0.00000013
-0.13682475 0.32785401 0.00000000
-0.49261844 -0.38480006 -0.00000000
-0.08900397 0.53595812 0.00000000
-0.26113820 0.50378507 0.01769213
0.66381645 -0.08207234 -0.00000127
0.02861182 0.03304990 0.00000000
-0.52731197 0.04649555 0.11408992
0.22678527 0.18786699 0.00000576
0.52582159 -0.11627151 -0.00000062
-0.13938352 -0.12239642 0.00000000
0.67570842 -0.35413194 -0.00000084
0.40219358 -0.46998112 0.00000000
-0.73039415 -0.77047256 -0.00000004
-0.76922233 -0.10842562 -0.00000084
-0.52777841 -0.60823890 0.00000000
-0.21859522 0.51305378 0.03447567
0.54518004 -0.07494526 -0.00000078
0.03510590 0.37860980 0.00000579
0.05275311 -0.77262410 0.00000000
0.12698864 0.54960400 0.00000174
0.10623421 0.12567026 0.00000000
-0.27031161 0.11844817 0.20742735
-0.33397177 0.00522594 -0.00000001
0.14969071 0.34374474 0.00000000
-0.08324995 0.05547241 0.00000000
0.02939406 -0.43925774 0.00000000
0.37643299 0.34183782 -0.00000080
0.07804674 0.32838611 0.00000000
0.55544960 0.12784160 0.00000056
-0.78134257 -0.29529120 -0.00000063
0.39166011 -0.23495278 0.00000000
0.10802003 -0.01457747 0.00000000
-0.12933741 -0.68831738 0.00000000
0.10827631 -0.43683951 0.00000000
0.05108289 -0.04550832 0.00000000
-0.06548428 -0.28132618 0.00000000
-0.17416344 0.18951794 0.00000000
0.61447344 -0.03654978 -0.00000114
0.60951726 -0.55496335 -0.00000021
0.75946111 -0.47838368 -0.00000080
-0.04885860 0.35502298 0.19979933
-0.13712890 0.22268319 0.00000000
0.54195553 -0.62633828 0.00000000
0.27646581 0.39006659 0.00000154
-0.78713185 -0.55216526 -0.00000031
-0.33620461 -0.70466733 0.00000000
0.08457384 0.54653981 0.00000253
-0.35211468 0.25289733 0.09835079
-0.55057001 0.00252233 -0.00000047
0.00047582 0.57940554 0.00000330
-0.35267829 -0.14422149 0.00000000
0.17416725 0.01833577 0.00000910
0.74264970 -0.01778766 -0.00000172
0.74990295 -0.26077428 -0.00000133
-0.61554830 -0.76169394 0.00000000
-0.36582657 -0.34776925 0.00000000
-0.26278653 0.38250139 0.07803589
-0.21798944 0.37242032 -0.00000009
-0.17711922 0.21155231 0.00000000
-0.52474350 -0.19205634 -0.00000024
0.24199949 -0.50404283 0.00000000
0.19428073 -0.71184759 0.00000000
0.21369620 -0.09174796 0.00000000
-0.51702258 -0.65854108 0.00000000
-0.78232369 -0.21854143 -0.00000073
-0.19302714 0.58910435 -0.00000023
0.08030829 0.12796129 0.00000000
0.03392212 0.15166355 0.00000921
0.02657857 0.55373930 0.00000000
-0.15655502 0.14060220 0.00000000
0.27698885 0.20666318 -0.00000013
-0.33985903 -0.54117386 0.00000000
0.30736025 0.04774033 0.00000665
0.03744784 -0.08805986 0.00000000
0.02204222 -0.77627707 0.00000000
-0.59342205 -0.23523342 -0.00000035
0.01705491 0.51999752 0.00000000
-0.69796572 -0.65571562 -0.00000018
0.05125510 0.13796615 0.00000000
0.31645844 0.30563193 0.00000218
0.27623676 0.10521790 0.00000625
0.68296667 -0.47808905 -0.00000066
-0.25099090 -0.09336185 0.00000000
-0.56555405 -0.54353726 -0.00000002
-0.25309666 0.49215548 0.02761421
0.06619907 0.08137959 0.00000978
0.75531739 -0.65148749 -0.00000037
0.63846617 0.10492889 -0.00000150
-0.47577193 0.31841861 -0.00000059
0.14936977 -0.63593925 0.00000000
0.74941139 -0.68168487 -0.00000030
0.02639223 0.50887616 0.00000000
0.11093777 -0.04160039 0.00000000
0.06138753 0.38113598 0.00000000
0.05420980 -0.52572000 0.00000000
0.29361049 0.28471611 0.00000297
-0.35951572 0.37311530 -0.00000039
-0.78601756 -0.39480450 -0.00000051
0.53126955 0.00834763 -0.00000087
0.77702186 -0.41704497 -0.00000096
0.18253336 0.16163924 0.00000682
0.39970508 0.31637990 -0.00000085
0.40064795 0.09241502 -0.00000046
-0.77042679 -0.12054124 -0.00000083
0.29798047 -0.12477346 0.00000000
-0.45738851 -0.45558669 0.00000000
0.00030187 -0.52974239 0.00000000
-0.45254370 -0.12240879 -0.00000015
-0.36597785 -0.47679752 0.00000000
-0.37597493 0.36932792 -0.00000042
-0.76072923 -0.60562152 -0.00000024
-0.11806838 -0.33209521 0.00000000
0.02254863 0.32781415 0.00000674
-0.51401590 -0.21577549 -0.00000020
0.67144757 -0.54849957 -0.00000048
0.61278740 -0.02169789 -0.00000116
0.36890817 0.06439749 -0.00000027
0.69009631 0.03462835 -0.00000047
0.24825412 0.30182782 0.00000355
0.31570567 -0.45192960 0.00000000
0.56573257 0.10575220 0.00000073
0.25948792 -0.20878895 0.00000000
-0.70938485 -0.51303143 -0.00000035
-0.72161891 -0.37107136 -0.00000050
-0.06258257 -0.67714059 0.00000000
-0.41270199 0.09196517 -0.00000025
0.43643860 -0.60745691 0.00000000
0.09796495 -0.71104406 0.00000000
-0.43669850 0.31413655 -0.00000050
0.36947068 0.26364484 -0.00000063
-0.01386310 0.73383530 0.02638059
0.33128669 0.17951627 -0.00000032
0.14040306 -0.52024806 0.00000000
0.00830969 0.06626187 0.00000000
0.37785294 0.27310170 -0.00000068
0.15312069 0.55035027 -0.00000021
-0.12550538 0.45541931 0.11050035
-0.04920535 0.44079309 0.15636263
-0.47869357 0.26784282 0.02696601
-0.71484706 -0.43116115 -0.00000044
0.02356778 0.77542434 -0.00000004
-0.12172070 0.23002771 0.00000000
0.54137133 -0.34373765 -0.00000029
0.12444366 0.25159120 0.00000000
0.40409587 -0.02241524 -0.00000027
-0.16416566 0.41007355 0.11387257
0.50191864 0.23724641 -0.00000115
-0.21365738 -0.07588993 0.00000000
0.57268421 -0.63907248 0.00000000
0.33267669 -0.27139128 0.00000000
0.21922579 0.03619181 0.00000815
0.34749906 -0.01283962 -0.00000005
-0.59971444 0.17398119 -0.00000073
-0.10072558 0.27632118 0.21333477
-0.34016553 -0.69154956 0.00000000
-0.04630535 -0.13133862 0.00000000
-0.70245895 -0.48842818 -0.00000036
0.18313237 0.10211714 0.00000000
0.42657343 -0.26939270 0.00000000
0.00665040 0.39108616 0.00000000
-0.33091717 0.14320907 -0.00000013
-0.34264389 0.06314343 0.19883901
-0.22494967 0.23697891 0.17052141
-0.07228229 0.42334423 0.15352394
0.57751017 0.07759966 -0.00000119
0.30133685 -0.22656435 0.00000000
-0.07382649 0.55917836 0.00000000
-0.03090674 0.00217093 0.00000000
-0.23975111 -0.20575031 0.00000000
0.70404310 -0.00660330 -0.00000158
0.68947794 -0.59084709 -0.00000048
-0.08541248 0.35272902 0.18251900
-0.23609774 -0.64512672 0.00000000
0.01699149 0.33476702 0.00000672
-0.22891773 -0.25934329 0.00000000
-0.38982595 -0.46775947 0.00000000
0.25427519 -0.07977309 0.00000000
-0.23303507 0.34942121 0.10972807
-0.41695998 0.32710850 0.02821094
-0.66669979 -0.40857460 -0.00000035
0.11474261 -0.37642340 0.00000000
0.14341532 -0.70338581 0.00000000
-0.67829390 -0.69709889 -0.00000012
-0.78806952 -0.34410895 -0.00000057
-0.30550974 -0.01401068 0.00000000
-0.29522657 0.17558322 -0.00000008
-0.52156314 -0.30169130 -0.00000014
-0.68232553 -0.39503693 -0.00000040
-0.11140631 0.67702487 -0.00000013
-0.47331102 -0.52060468 0.00000000
0.18776936 0.37572354 -0.00000005
-0.55146256 -0.45253711 -0.00000007
-0.38169735 -0.62146507 0.00000000
-0.26460165 0.47105781 0.03245272
0.29939416 -0.63914666 0.00000000
0.35217309 0.34858521 0.00000078
0.30201585 -0.45336921 0.00000000
-0.63104192 -0.17133344 -0.00000049
-0.42848137 0.27722509 -0.00000045
-0.70441100 -0.39409673 -0.00000045
-0.44982245 0.11104954 0.12061472
0.54350964 -0.72821039 0.00000000
-0.41714118 -0.07496436 -0.00000012
0.22883554 0.01532013 0.00000000
-0.23818172 0.53346271 0.01430203
-0.64111581 0.04984532 0.05499773
0.24242790 0.12147581 0.00000652
-0.15959693 -0.32843023 0.00000000
0.63270333 -0.26702379 -0.00000081
-0.20796927 -0.41373243 0.00000000
-0.05139113 0.35486639 0.19860092
0.06293211 -0.36463652 0.00000000
0.01152750 -0.60871097 0.00000000
-0.06601386 0.55756351 0.08898647
-0.62979976 -0.54888670 -0.00000015
0.52457654 -0.66910574 0.00000000
0.39101042 -0.19478763 0.00000000
-0.36925482 0.27643036 -0.00000033
-0.00067916 -0.24005622 0.00000000
-0.23552937 0.52690304 -0.00000026
-0.06649029 0.29036628 0.22351845
-0.30050144 0.27127251 0.11511608
-0.55472442 -0.55786197 0.00000000
0.11824630 -0.75037850 0.00000000
-0.01158028 0.55423815 0.00000000
-0.34005794 0.29741380 0.08197820
-0.15714014 -0.00471047 0.00000000
-0.45325235 -0.18909357 -0.00000009
0.01485874 -0.34021739 0.00000000
0.09018338 0.34950509 0.00000540
0.17180767 0.50006132 -0.00000020
0.71284290 -0.48445430 -0.00000077
0.19855979 0.54516596 0.00000044
-0.25433444 -0.22607336 0.00000000
-0.08042922 0.36604731 0.17831485
0.77378976 -0.36372623 -0.00000109
-0.08406116 0.65216294 0.03216825
0.21798918 0.51609157 -0.00000043
-0.03963696 0.43981975 0.00000000
-0.55479302 -0.28811602 -0.00000022
-0.69784301 -0.42135008 -0.00000041
0.16489222 0.32039470 0.00000000
-0.70336037 0.06225789 -0.00000085
-0.50051374 -0.05380459 -0.00000031
0.09206077 -0.46748351 0.00000000
0.07974521 0.05140039 0.00001003
-0.54846503 -0.54722674 0.00000000
-0.18396142 -0.28386006 0.00000000
0.58765206 0.09108717 0.00000056
-0.28140947 -0.24779282 0.00000000
0.22110748 0.06551177 0.00000768
0.63198041 0.11382405 -0.00000148
-0.70530062 -0.45123017 -0.00000040
-0.31678302 0.32894502 0.07781380
0.39591062 -0.51954134 0.00000000
-0.54811563 -0.71833735 0.00000000
0.23364600 0.47530080 0.00000094
-0.48050896 0.13889882 -0.00000044
0.04807312 0.71382659 -0.00000005
-0.40946314 0.35443553 0.01820865
0.08069676 0.39874638 0.00000000
0.51638895 -0.06785236 -0.00000067
0.43298626 -0.05710971 -0.00000033
-0.15076743 0.24492566 0.00000000
-0.02051964 0.34983822 0.00000000
0.54087774 -0.12453754 -0.00000067
0.08398928 -0.15855907 0.00000000
-0.39105987 0.32665381 -0.00000042
-0.21574664 0.04772709 0.00000000
-0.27220055 -0.42623501 0.00000000
0.33860635 -0.67660802 0.00000000
0.15212527 0.11252080 0.00000000
-0.47659476 0.27592687 0.02394708
-0.32043756 0.25101100 0.11528017
-0.19727389 -0.19156475 0.00000000
-0.10277807 0.39131137 0.00000000
-0.33682787 0.07393874 0.19632747
-0.45654167 -0.42163501 0.00000000
-0.18851376 0.28915833 0.16258039
-0.28359671 0.42320259 -0.00000027
0.20892216 -0.21390803 0.00000000
0.11750589 0.49616323 0.00000278
-0.43433498 -0.02544833 -0.00000020
0.44762396 0.32193106 -0.00000107
-0.17139184 0.32906336 0.15108870
0.66458770 -0.03113212 -0.00000137
-0.20973223 -0.15565700 0.00000000
-0.20974897 0.17284459 0.21053735
-0.06703110 -0.53453507 0.00000000
-0.69843451 -0.57561464 -0.00000027
0.03409162 -0.11173164 0.00000000
-0.22316450 -0.53934013 0.00000000
0.52753021 0.11766937 0.00000127
-0.11963005 0.08912327 0.29822078
-0.39965913 0.04341116 -0.00000018
0.41879113 0.32586277 -0.00000095
-0.38424236 0.10121746 0.15865255
-0.45741976 -0.67747118 0.00000000
0.56662802 0.06806763 0.00000134
-0.01113544 0.40549865 0.00000000
-0.35800686 -0.04615652 -0.00000002
0.46124482 -0.49254215 0.00000000
-0.75913932 -0.77948038 -0.00000003
0.65112324 -0.76918226 -0.00000000
-0.05664749 -0.78087026 0.00000000
0.16674046 0.36305291 0.00000404
-0.37972582 -0.71772812 0.00000000
0.22209555 -0.62012098 0.00000000
0.23842467 -0.63003659 0.00000000
-0.23498830 -0.07701401 0.00000000
-0.28484622 -0.72212629 0.00000000
0.04284421 -0.32725004 0.00000000
-0.77109156 -0.54707568 -0.00000032
-0.02088965 0.09081001 0.00000000
-0.30736813 0.36018470 0.06680544
0.18418022 -0.12967255 0.00000000
-0.53103899 -0.27568049 -0.00000018
-0.36047880 0.20803270 -0.00000025
-0.63946313 -0.26685753 -0.00000042
-0.31822786 0.36973638 -0.00000030
-0.35899043 -0.47066416 0.00000000
-0.34944940 0.07286362 0.19050359
-0.72678807 -0.73373304 -0.00000008
-0.26906158 0.12525731 0.20462337
-0.21442740 0.56616187 -0.00000025
0.28202234 0.11497519 0.00000000
-0.01232903 -0.54983558 0.00000000
0.18159613 0.16785475 0.00000674
0.68839042 0.02211757 -0.00000156
-0.23041837 0.48355998 -0.00000021
-0.40192916 0.10023289 -0.00000024
-0.13337899 -0.32068516 0.00000000
-0.65166743 -0.67585194 -0.00000009
0.40837898 0.11737272 -0.00000054
-0.11750999 0.53460593 0.07459200
-0.56950939 0.16035546 -0.00000065
0.50820868 0.22449149 -0.00000115
0.47993467 0.08882827 0.00000266
-0.09565776 -0.21766477 0.00000000
-0.47294149 -0.07787937 -0.00000023
-0.13507887 0.32350876 0.00000000
-0.62847179 -0.65687210 -0.00000005
0.35827110 0.07540369 -0.00000025
0.01599088 0.67839927 0.00000000
-0.04078836 -0.15887470 0.00000000
-0.09830017 -0.52917631 0.00000000
-0.05187849 0.11483050 0.00000000
0.48831398 -0.22752726 -0.00000027
0.72932920 -0.20955230 -0.00000133
-0.10535494 0.30785020 0.19509677
-0.02416617 -0.72183545 0.00000000
-0.63730641 -0.14414954 -0.00000053
-0.01316183 -0.73566329 0.00000000
0.55880680 0.06647990 0.00000152
0.55177569 0.13050356 -0.00000117
-0.05870071 -0.47431561 0.00000000
0.24535669 0.35463827 -0.00000026
-0.73264803 -0.15469615 -0.00000072
-0.13734886 -0.12338483 0.00000000
0.36912791 -0.55672356 0.00000000
-0.71739845 -0.72717995 -0.00000009
-0.23574563 -0.33488656 0.00000000
0.61856332 0.10909926 -0.00000034
-0.17798153 0.55933736 0.03161586
0.51912871 0.18951326 -0.00000114
0.65866877 -0.54539892 -0.00000043
-0.66582776 -0.17944666 -0.00000056
-0.11273067 -0.65077437 0.00000000
0.31234174 -0.44523057 0.00000000
0.64462097 -0.03778760 -0.00000127
0.10150545 0.28365390 0.00000621
-0.51909436 -0.46138929 0.00000000
0.09907460 0.06987912 0.00000000
0.04516491 0.49169941 0.00000000
-0.17126753 -0.33069429 0.00000000
0.58615027 -0.57417292 -0.00000007
-0.58358399 -0.67399471 0.00000000
0.43384085 -0.48728000 0.00000000
0.09453331 0.33921396 0.00000549
-0.34414905 0.14850622 0.15502326
-0.28002918 0.16495654 0.17906744
-0.41912333 -0.05124301 -0.00000014
0.16426808 0.54804424 0.00000105
-0.07987513 0.16322454 0.00000000
-0.18291215 -0.39167125 0.00000000
0.50595533 -0.55811642 0.00000000
-0.11075702 0.29654954 0.19807199
0.39264053 -0.14072952 -0.00000001
0.12573127 0.32843689 0.00000518
-0.45850622 -0.34443989 0.00000000
0.44761982 0.34809760 -0.00000111
-0.28135057 -0.63725929 0.00000000
-0.62937588 -0.10441388 -0.00000054
0.16056625 -0.70720689 0.00000000
-0.30003778 0.36445698 0.06834794
-0.59506418 -0.11212377 -0.00000046
-0.20212964 0.31967865 -0.00000001
-0.24539194 0.30107020 0.12788338
-0.61878103 0.05936468 -0.00000067
-0.74894764 -0.19758356 -0.00000072
-0.34738063 -0.38279307 0.00000000
-0.07019803 -0.78973316 0.00000000
-0.47961481 -0.21805069 -0.00000012
-0.52145576 0.20497408 0.03710762
0.01657965 0.63561880 0.00000222
-0.16695033 -0.20798434 0.00000000
-0.60405502 -0.20539796 -0.00000040
0.50372233 0.09329745 0.00000213
0.01248297 -0.19405938 0.00000000
-0.72362169 -0.31675164 -0.00000056
0.06172055 0.53013285 0.00000312
0.21400412 0.31250401 0.00000403
-0.67015235 -0.27759495 -0.00000048
0.15308158 -0.60905588 0.00000000
-0.65613164 0.13666304 -0.00000081
0.57471962 0.03251206 -0.00000110
0.04714886 -0.19426431 0.00000000
-0.14044840 -0.67037544 0.00000000
-0.20653409 0.50019306 0.04704621
0.72168031 -0.43542330 -0.00000090
-0.79603153 -0.25906137 -0.00000068
0.05588199 0.23432741 0.00000000
-0.00804123 0.32169572 0.00000000
0.27996362 -0.24761941 0.00000000
-0.65092898 0.08705342 0.03128030
-0.13772354 0.56160173 0.05077982
-0.62190321 0.11140792 0.03363653
0.14694634 -0.59413096 0.00000000
0.17501016 0.41116751 -0.00000006
0.32052814 0.07984738 0.00000587
-0.25482612 0.30776774 -0.00000011
-0.25926177 -0.29100244 0.00000000
0.15718361 0.31841732 0.00000000
0.03162872 -0.42575872 0.00000000
-0.32577765 -0.50241805 0.00000000
-0.49699593 0.29895754 -0.00000062
0.38834391 0.33713741 -0.00000084
0.49048798 0.27370638 -0.00000116
-0.66035781 0.01159941 -0.00000071
0.38009659 0.40404808 -0.00000092
-0.45131696 -0.39551296 0.00000000
0.08941389 0.44786887 0.00000393
-0.40947081 -0.29888337 0.00000000
-0.31450281 -0.43114128 0.00000000
0.01322134 0.26396719 0.00000784
-0.27724174 -0.64313984 0.00000000
-0.42796917 -0.14516302 -0.00000008
-0.68674144 -0.76812537 -0.00000004
0.39539088 0.01359996 0.00000554
-0.60648153 -0.58356546 -0.00000007
-0.64495397 -0.56776427 -0.00000017
-0.26585312 0.18405538 0.17658437
0.14433239 0.19924081 0.00000683
-0.38077186 -0.02172334 -0.00000009
0.30255470 -0.34115569 0.00000000
-0.29097418 0.22673343 0.14238703
-0.14659043 0.35860684 0.14869676
-0.65099576 -0.28542804 -0.00000043
0.17060193 0.10955154 0.00000000
-0.16479667 0.27132824 0.18353640
-0.49752697 0.21464880 0.04429739
-0.19132749 0.12165637 0.00000000
-0.49234064 0.17668973 0.06605983
-0.28897131 0.23779792 0.13781637
-0.79003292 -0.22095650 -0.00000072
-0.29444527 0.42697394 0.03963540
-0.05671075 -0.74730329 0.00000000
-0.66140587 -0.60142980 -0.00000017
-0.14226762 -0.38517535 0.00000000
0.31424624 -0.48649680 0.00000000
-0.37259901 0.21524398 -0.00000028
0.07781138 0.56660536 0.00000233
0.53046337 -0.59126485 0.00000000
-0.39930979 0.33176504 -0.00000044
-0.37703853 -0.19706479 0.00000000
0.33465188 0.31379578 0.00000170
-0.12422589 0.02830703 0.00000000
0.17931641 0.42506961 0.00000282
-0.03077437 0.09340456 0.00000000
0.35561741 0.19250833 0.00000332
0.63142364 0.00143770 -0.00000128
-0.54736457 -0.69631434 0.00000000
0.69960162 0.03794651 -0.00000071
0.61492124 0.18413950 -0.00000154
-0.15149355 0.12209408 0.00000000
0.11149385 0.66725958 0.00000008
-0.24515087 0.41483119 0.07062424
-0.31292568 -0.69216594 0.00000000
-0.62815927 -0.50913710 -0.00000018
0.05347056 -0.52380406 0.00000000
-0.67833177 0.08859956 0.01667848
0.22223711 -0.18725200 0.00000000
-0.32000139 -0.20011779 0.00000000
0.26567558 -0.24836237 0.00000000
0.50930912 0.11073238 -0.00000096
-0.17610842 -0.66347349 0.00000000
-0.31504611 0.04678361 -0.00000001
-0.11810197 0.52289375 0.08020094
0.03049463 0.25262689 0.00000775
0.07740825 0.13038931 0.00000888
0.35184080 0.16282380 0.00000389
-0.01608558 0.07959057 0.00000000
0.60997386 -0.56173408 -0.00000020
-0.77643511 -0.55491275 -0.00000031
0.47321690 0.06360568 -0.00000072
-0.31550338 0.45012533 0.01733621
0.53788566 -0.55430455 0.00000000
-0.54664996 -0.27906832 -0.00000021
-0.40112300 -0.47746055 0.00000000
-0.73138673 -0.27079452 -0.00000061
-0.27064401 -0.54287243 0.00000000
0.45582722 0.17693450 0.00000165
-0.75711640 -0.02979411 -0.00000088
0.41554390 0.16982657 0.00000255
-0.76667558 -0.50642216 -0.00000037
-0.10964911 -0.69481701 0.00000000
-0.28819967 0.35353120 -0.00000022
0.21934629 0.56528334 -0.00000052
-0.32435403 -0.05504609 0.00000000
0.25287838 0.23635850 -0.00000008
-0.74498533 -0.43223470 -0.00000046
0.06652764 -0.63484947 0.00000000
0.29705517 -0.57329373 0.00000000
0.71224928 -0.70006056 -0.00000025
-0.13730626 0.07227889 0.29780127
0.25287380 -0.54950776 0.00000000
-0.34184810 0.08037333 0.19054976
0.29856105 -0.22777215 0.00000000
-0.68858468 -0.06136002 -0.00000071
0.18090489 -0.11941582 0.00000000
0.60059728 -0.31572616 -0.00000059
0.30126422 -0.55632914 0.00000000
0.00188067 0.60657957 0.00000287
-0.48044803 0.04981507 -0.00000036
0.76768276 -0.12429609 -0.00000164
-0.33257383 0.09216940 0.18927776
-0.65127444 -0.41135866 -0.00000032
-0.11188690 -0.01680353 0.00000000
0.29400956 -0.04213916 0.00000000
0.20262200 -0.21888665 0.00000000
-0.29796829 0.42648048 -0.00000031
-0.49007684 0.13058747 0.09045555
0.71349371 -0.52550383 -0.00000069
-0.11721854 -0.05984632 0.00000000
-0.58015067 0.17724162 0.02149013
-0.12393078 -0.24628646 0.00000000
0.09172161 -0.21977243 0.00000000
-0.56592038 0.13482635 -0.00000062
0.71557759 -0.11836806 -0.00000143
0.42094064 -0.42661137 0.00000000
0.18031666 0.56323330 -0.00000035
-0.79659569 -0.28828533 -0.00000064
-0.21228574 0.33319177 -0.00000004
0.32513059 0.46067133 -0.00000058
0.30279938 -0.60470405 0.00000000
0.77363484 -0.73628718 -0.00000016
-0.49715790 0.18330681 0.06029237
0.26666176 0.25830861 0.00000393
0.33088108 -0.33696794 0.00000000
0.54527393 -0.72620381 0.00000000
0.21937123 -0.71627167 0.00000000
-0.34955591 0.41179403 -0.00000040
0.03992913 0.44685627 0.00000000
-0.35841691 0.07178690 0.18652357
0.00063720 -0.75540659 0.00000000
-0.31222334 0.32636437 0.08141537
-0.07629900 0.57911298 0.00000000
-0.55362179 -0.74067438 0.00000000
-0.11439533 -0.09479155 0.00000000
0.18187662 -0.41402200 0.00000000
0.29855623 0.16256894 0.00000491
0.10054199 -0.43080399 0.00000000
0.17914481 -0.09501104 0.00000000
-0.47079829 0.11930539 -0.00000040
-0.76460810 -0.20680194 -0.00000074
-0.37186284 -0.60410061 0.00000000
-0.05405142 0.29035412 0.00000000
-0.09014938 0.45273093 0.12968953
0.21076541 -0.30665695 0.00000000
0.17527279 0.28832148 0.00000000
-0.56169327 0.18338119 0.02770325
0.44632586 0.00976371 -0.00000051
-0.38042751 0.22019667 0.10056395
0.28920795 0.46515556 -0.00000064
-0.55536235 0.22520976 0.00979834
0.61307003 0.12784168 -0.00000143
-0.15398972 0.17394057 0.23810892
-0.09340036 0.62975304 0.03876106
-0.00438077 0.10569737 0.00000000
-0.06610193 -0.19828170 0.00000000
0.71926583 -0.30890235 -0.00000111
0.03574290 0.38725392 0.00000565
0.26932410 0.09125681 0.00000000
-0.24690869 -0.47602715 0.00000000
0.68818741 0.09483895 -0.00000144
-0.30931129 -0.74898619 0.00000000
0.25820349 0.24884247 0.00000425
-0.08824237 0.59450891 -0.00000001
0.23968576 -0.01180758 0.00000000
0.54089656 -0.68314467 0.00000000
0.07086619 0.09476764 0.00000000
-0.08915644 0.59306711 -0.00000001
0.61294603 -0.57893367 -0.00000018
0.44729995 -0.42830258 0.00000000
-0.11479963 0.18721322 0.00000000
-0.01837373 -0.32698808 0.00000000
-0.17857573 -0.67727458 0.00000000
0.23873979 -0.30960262 0.00000000
0.08989409 0.14409786 0.00000000
-0.65802366 0.07948360 -0.00000077
-0.21976068 0.19931261 0.00000000
-0.63422440 -0.35226410 -0.00000033
0.37048271 0.33931575 -0.00000077
0.10020475 -0.03394769 0.00000000
-0.65711808 -0.51748499 -0.00000024
0.33947057 -0.68107596 0.00000000
0.20881159 -0.18538552 0.00000000
0.01978152 0.36820232 0.00000618
-0.37235651 -0.36802169 0.00000000
0.44960417 -0.42940956 0.00000000
0.41284322 -0.42820970 0.00000000
0.57588532 -0.75745628 0.00000000
-0.28032363 0.20250038 0.15998209
-0.56160374 -0.37887808 -0.00000016
-0.11594786 -0.68024972 0.00000000
-0.25651711 0.27460225 -0.00000008
0.67841792 0.11403178 -0.00000157
-0.06570542 -0.06700824 0.00000000
-0.53910469 -0.23892712 -0.00000023
0.23120381 -0.43546586 0.00000000
0.15730695 0.11196582 0.00000000
-0.08794079 0.67147711 0.02046935
0.36569348 0.04217063 -0.00000022
0.48841410 -0.53438527 0.00000000
-0.54175733 -0.53109438 0.00000000
-0.45878372 0.15098619 -0.00000041
0.28255624 0.17289065 0.00000505
-0.22521496 0.24174961 0.16798129
-0.37617238 -0.46156176 0.00000000
-0.16306776 -0.57378643 0.00000000
0.10638962 -0.26440802 0.00000000
0.22562927 -0.78769052 0.00000000
-0.36636120 0.34092356 -0.00000038
0.67772775 -0.04592653 -0.00000140
-0.16646636 0.19791323 0.00000000
0.00722980 -0.15396507 0.00000000
-0.41698084 0.27014527 0.05693253
-0.08302027 -0.30264569 0.00000000
-0.36249873 0.31554424 0.06151414
0.48865287 -0.44708524 0.00000000
0.06216339 0.53566903 0.00000303
-0.23426671 0.08699302 0.24147375
-0.58119109 0.17412123 -0.00000069
-0.60855261 -0.65369140 -0.00000001
0.31739056 -0.17934695 0.00000000
-0.44407082 0.33411821 -0.00000054
0.14996425 0.62578040 -0.00000033
-0.02990290 -0.24623481 0.00000000
-0.11696812 -0.60648967 0.00000000
-0.33289987 -0.66064644 0.00000000
0.47328331 0.23373853 -0.00000102
-0.11468022 0.32926608 0.17959119
-0.17312972 0.35856920 0.13532961
0.30368292 -0.25141902 0.00000000
0.72633125 -0.46334107 -0.00000084
0.23856022 -0.06448757 0.00000000
-0.20445156 0.12708967 0.00000000
0.00443067 0.70580146 0.00000000
-0.18391822 -0.75446812 0.00000000
0.57058559 -0.41660486 -0.00000028
0.68815930 -0.76471920 -0.00000009
0.14547802 0.04742991 0.00000909
-0.64145788 -0.15088567 -0.00000053
0.36115050 0.04886710 0.00000561
-0.17548646 -0.68252034 0.00000000
0.61732935 0.08340010 0.00000011
-0.11297133 -0.66576090 0.00000000
0.40551467 0.33601710 -0.00000091
0.01430705 0.54463177 0.00000361
-0.21458096 0.00923934 0.00000000
0.68722639 -0.15110107 -0.00000125
0.49632920 0.12132888 0.00000181
0.41071856 0.25159061 -0.00000078
-0.40554937 -0.70239825 0.00000000
-0.25095397 0.24197245 0.15488641
-0.47130400 -0.12587956 -0.00000019
0.45555785 0.34355194 -0.00000114
0.16965395 -0.36149142 0.00000000
-0.47684864 0.25360253 -0.00000053
-0.28693657 0.45715379 0.02820014
0.01385032 -0.45446736 0.00000000
-0.04318247 0.47673221 0.00000000
-0.61779431 -0.75378807 0.00000000
-0.32396856 -0.52274134 0.00000000
0.40386102 -0.26601299 0.00000000
-0.09704530 -0.50154974 0.00000000
-0.05357928 0.43148538 0.15885120
0.53336628 0.00913282 0.00000297
0.44941016 -0.71209932 0.00000000
-0.38812825 0.28694893 0.06301003
-0.16995320 0.15510119 0.23955955
-0.18007343 0.30176899 0.16047688
-0.26549109 -0.24188670 0.00000000
0.24395231 0.43875380 -0.00000040
0.73461117 -0.11878582 -0.00000151
-0.37121588 0.10705627 0.16227802
-0.06465781 0.42866155 0.15468763
0.07388074 -0.24305647 0.00000000
-0.68240843 -0.26957662 -0.00000051
0.41824426 0.35976558 -0.00000101
-0.37262007 -0.64142742 0.00000000
0.34287585 0.31510793 -0.00000061
-0.47023232 0.30322806 0.01338564
0.42184050 -0.50777094 0.00000000
-0.73784207 -0.27314042 -0.00000063
0.75015638 -0.20790015 -0.00000142
0.48511276 -0.07687814 -0.00000052
0.08140359 0.39156881 0.00000490
0.78659665 -0.13972176 -0.00000165
-0.11964389 0.64781200 -0.00000012
0.65357079 -0.06898547 -0.00000125
-0.10122350 0.37922441 0.00000000
-0.69796825 0.01112519 0.04585173
0.47984275 0.20138561 0.00000078
-0.32293097 0.11636866 -0.00000008
-0.05708981 0.68820496 0.02759308
-0.70583627 -0.57593904 -0.00000028
0.54479824 0.21226053 -0.00000129
-0.15791398 -0.50661764 0.00000000
0.02869774 0.74783159 0.00000032
0.30937082 -0.67481958 0.00000000
-0.73014550 -0.14531896 -0.00000072
-0.33576622 0.03427526 -0.00000004
-0.54877189 0.21290955 -0.00000065
-0.11146409 -0.02632050 0.00000000
-0.22732463 0.39294541 0.09065491
-0.32538070 -0.07021527 0.00000000
-0.63376251 -0.34797135 -0.00000034
-0.52225983 0.05585639 -0.00000046
0.20692022 -0.58129811 0.00000000
0.41457174 0.19482922 0.00000215
-0.37545885 0.27269404 0.07659059
0.58795308 0.01507150 0.00000182
-0.08212281 0.48185992 0.11904561
0.04285283 -0.55471636 0.00000000
0.06357344 -0.00645741 0.00000000
-0.27127765 -0.46107351 0.00000000
-0.41262670 0.36172207 -0.00000049
0.02495991 0.43647356 0.00000000
0.32234931 0.05047791 -0.00000005
-0.44422252 0.33811078 -0.00000054
0.29135373 0.35668803 -0.00000046
-0.18804863 0.56394637 -0.00000019
-0.38504424 0.35579098 0.02984185
0.03214346 -0.72261923 0.00000000
0.78645097 -0.47170401 -0.00000082
0.72238885 -0.78707672 -0.00000003
0.03094478 0.25216003 0.00000000
0.16123262 0.61727112 -0.00000037
-0.45596741 -0.19664606 -0.00000009
-0.42595321 0.32238053 -0.00000049
0.24133462 0.48755729 0.00000058
-0.69832835 -0.50626645 -0.00000034
0.14596021 0.56291945 -0.00000020
0.11462187 0.49659593 0.00000000
0.17168760 -0.36797046 0.00000000
0.25849634 -0.03224811 0.00000000
0.77469498 -0.49443507 -0.00000076
-0.10991773 0.31259131 0.00000000
0.08441516 0.20573958 0.00000000
-0.15350638 0.49951090 0.07413742
0.30923981 0.16927986 -0.00000020
-0.24587340 0.50622331 0.02416184
0.69772454 -0.46874863 -0.00000073
-0.22192586 0.47421000 0.05238840
0.22189860 0.05070409 0.00000789
-0.27024051 0.23699511 0.14766902
-0.40580437 0.08329630 -0.00000023
0.11591664 0.24878395 0.00000000
-0.15039945 0.64886780 -0.00000019
0.30041950 0.09318471 0.00000604
-0.63216381 0.02931004 -0.00000067
0.27231723 -0.23192682 0.00000000
-0.02987390 0.16539011 0.00000000
0.34018461 0.26028204 -0.00000050
-0.10432654 0.44912246 0.12435881
-0.01881086 -0.38706996 0.00000000
0.55868012 -0.18824014 -0.00000064
-0.04599575 -0.61260862 0.00000000
-0.21408798 0.39181331 0.09790250
0.35410310 -0.37019626 0.00000000
-0.70918441 0.03591245 -0.00000084
-0.76642559 -0.26908547 -0.00000066
-0.07743830 0.44764519 0.00000000
0.09054893 0.60621462 0.00000150
0.52905725 0.15582594 -0.00000112
0.70214303 -0.74491091 -0.00000014
0.02369503 0.50911735 0.00000000
-0.20415969 -0.56689911 0.00000000
-0.07500685 0.57774002 0.00000000
0.54729537 -0.23063587 -0.00000051
-0.65385514 -0.14500270 -0.00000056
0.49780869 -0.49355339 0.00000000
0.39978757 0.39780908 -0.00000100
0.27675783 -0.52802339 0.00000000
0.16514685 0.04670734 0.00000000
-0.23071986 -0.20395802 0.00000000
-0.39806130 -0.65310234 0.00000000
0.10410150 -0.26209036 0.00000000
-0.73691038 -0.29749144 -0.00000060
0.24703304 0.52360434 -0.00000057
0.40620827 0.14805762 0.00000309
-0.27487888 0.37044733 -0.00000021
0.28289121 0.27855944 -0.00000029
-0.09724533 0.51829334 0.09304123
-0.04949236 -0.71642791 0.00000000
-0.29799584 0.23696853 0.13368275
-0.32764687 0.07189143 0.20199092
-0.01236265 0.33127710 0.00000000
0.57671502 0.20538687 -0.00000141
0.58710157 -0.77623492 0.00000000
0.12999939 0.15853813 0.00000766
-0.43645230 0.07375406 0.14617036
0.58980465 -0.02621897 -0.00000106
0.18762004 -0.71436883 0.00000000
0.64910034 -0.04984321 -0.00000127
0.28330224 0.05736789 0.00000000
-0.09413162 0.57935583 0.06381229
0.03799625 0.64706259 0.00000000
-0.56432550 -0.14195469 -0.00000037
-0.78178721 -0.21175561 -0.00000074
0.55343174 0.04699675 -0.00000103
0.08836436 0.57414453 0.00000000
0.36482485 0.42056368 -0.00000067
-0.34177632 -0.32964726 0.00000000
0.36900324 0.30049521 -0.00000069
-0.15442688 0.53473214 -0.00000010
-0.36913869 -0.59818494 0.00000000
-0.04322759 -0.52147683 0.00000000
-0.15042959 0.59657527 -0.00000014
-0.14556840 -0.40684017 0.00000000
0.22005240 0.53266985 -0.00000047
0.33102511 0.44328628 -0.00000078
-0.67858574 -0.66920167 -0.00000015
0.49192122 0.07720223 -0.00000082
0.69462470 0.03128696 -0.00000050
-0.08876687 -0.51476738 0.00000000
0.11991663 0.28369959 0.00000000
0.48498658 0.05503927 -0.00000075
0.00018281 -0.66330261 0.00000000
0.46599710 0.03466998 -0.00000064
0.07381887 0.28339808 0.00000664
-0.33122982 0.05402505 0.20919539
-0.30059074 0.36341230 -0.00000026
-0.31387649 0.23418556 -0.00000017
0.20241794 0.43897165 -0.00000023
0.58484610 0.14791070 -0.00000034
-0.72594895 -0.16118557 -0.00000070
0.21899854 0.56803180 -0.00000033
0.59576991 -0.46882402 -0.00000030
-0.15425343 0.43587638 -0.00000001
-0.72141928 0.03523691 -0.00000086
0.67316248 -0.67051845 -0.00000027
0.34425851 -0.39035127 0.00000000
0.16286433 0.40884112 0.00000341
-0.02878538 -0.09616330 0.00000000
0.41062383 0.09090354 -0.00000050
0.20950302 0.01893880 0.00000855
0.08172875 -0.56299593 0.00000000
0.38838543 -0.66846356 0.00000000
0.25931231 -0.22407269 0.00000000
0.22251023 -0.29816252 0.00000000
-0.40146989 -0.06646542 -0.00000009
0.65978038 -0.06035379 -0.00000129
-0.25267507 0.43822318 -0.00000022
-0.34769152 0.23746685 0.10836492
0.28841295 0.44285410 0.00000043
0.12712154 0.28752120 0.00000000
-0.25268224 0.53332332 -0.00000030
0.05656615 0.30492198 0.00000000
-0.30499388 0.22270784 -0.00000014
0.25335098 -0.51414125 0.00000000
0.53300920 -0.23214590 -0.00000045
-0.05332230 0.60866081 0.06961486
-0.19256692 -0.37147592 0.00000000
0.43316453 0.30196744 -0.00000097
-0.69358678 -0.01074656 -0.00000076
-0.51309684 -0.58859083 0.00000000
0.58026850 -0.14754652 -0.00000080
-0.06102630 -0.36086603 0.00000000
-0.72362640 -0.68148597 -0.00000015
0.42947013 -0.41560677 0.00000000
0.58211998 -0.34602288 -0.00000046
0.75222685 -0.04816833 -0.00000171
0.33286150 0.40678958 0.00000018
-0.10085637 0.12511182 0.28953768
0.18257799 0.22911251 0.00000581
-0.21222395 -0.61402725 0.00000000
0.59086993 -0.57054273 -0.00000010
-0.13566471 0.23727393 0.21540699
-0.12616235 0.40627864 0.00000000
0.33286831 -0.54136951 0.00000000
0.05139155 0.52163476 0.00000000
0.27400669 -0.69985920 0.00000000
0.52477829 0.13251394 -0.00000106
-0.23616700 -0.64255134 0.00000000
-0.68363629 0.11235996 0.00201820
-0.40557351 0.29060307 -0.00000042
-0.69699566 -0.13436479 -0.00000066
0.16673774 0.56342289 -0.00000029
-0.15720507 -0.29050022 0.00000000
0.19620912 0.16579047 0.00000655
0.66272340 0.09666603 -0.00000098
-0.22479408 0.24927256 0.16439906
0.04428137 0.33296045 0.00000000
0.30774178 0.19367967 -0.00000024
-0.31084782 0.16367749 0.16416798
0.06590036 0.24054125 0.00000000
0.05003178 0.69699926 0.00000076
0.02832847 0.61354986 0.00000237
0.64459458 -0.51945536 -0.00000042
-0.20599324 0.27269682 0.16206698
-0.77861526 -0.18383465 -0.00000077
-0.02369133 -0.79566386 0.00000000
-0.04233257 0.14619247 0.00000000
0.73945250 -0.75142453 -0.00000012
-0.10524678 -0.23871509 0.00000000
0.11787475 0.33929043 0.00000513
-0.24387592 -0.55348881 0.00000000
0.23843740 0.07212561 0.00000000
0.27071173 -0.76691432 0.00000000
0.05397888 -0.10982225 0.00000000
-0.21518385 0.55790919 -0.00000025
0.67418814 -0.56139665 -0.00000047
0.20745849 0.25248554 0.00000000
-0.09309389 -0.60071856 0.00000000
-0.07639836 0.67533281 -0.00000005
-0.03454831 -0.42129369 0.00000000
-0.14522462 0.38389803 0.00000000
-0.32534319 0.41845617 -0.00000036
0.43361181 -0.79782120 0.00000000
-0.56515821 -0.67851795 0.00000000
0.06984237 0.54788568 0.00000000
-0.63432123 -0.35822705 -0.00000033
-0.21144221 0.54674469 0.02109003
-0.31190515 0.19994703 -0.00000014
-0.03542713 -0.12937171 0.00000000
-0.30106167 0.12283260 0.18970587
-0.61909302 -0.57521439 -0.00000011
0.30610025 -0.55708080 0.00000000
-0.33835072 0.22279087 -0.00000021
-0.53845357 -0.01824701 -0.00000043
-0.20211808 0.11796139 0.24206896
0.37524714 0.28195876 -0.00000069
0.76367402 -0.04147061 -0.00000177
0.00535527 0.36019153 0.00000652
-0.64716616 -0.74531756 -0.00000002
0.53582353 -0.58397093 0.00000000
-0.51784539 0.22020400 -0.00000059
-0.36657934 -0.21929924 0.00000000
-0.22664963 0.14567533 0.00000000
-0.69983027 -0.73078432 -0.00000009
-0.18680928 0.12442289 0.24653143
0.38634952 -0.62752438 0.00000000
-0.09522507 -0.04286277 0.00000000
-0.36609318 0.23634898 -0.00000028
0.07544443 0.06382614 0.00000990
0.00219245 0.61847695 0.00000000
-0.33869987 -0.21580066 0.00000000
0.21704089 -0.02945528 0.00000000
-0.67539802 -0.29679715 -0.00000047
0.60713755 -0.27376090 -0.00000069
0.64241671 -0.23681391 -0.00000091
-0.75841715 -0.44909048 -0.00000044
0.65973037 -0.22844316 -0.00000100
0.13372057 0.35065921 0.00000472
0.21144996 0.05988614 0.00000000
-0.60724276 -0.31718608 -0.00000031
0.21865822 0.21073498 0.00000554
-0.67037845 -0.29402197 -0.00000046
-0.55702262 0.07596755 -0.00000055
-0.09232509 -0.11726291 0.00000000
-0.53255808 0.08788338 0.09056787
0.56121310 -0.41785232 -0.00000024
-0.19623045 -0.57200835 0.00000000
-0.30563360 -0.57119836 0.00000000
-0.04709820 0.54139378 0.10668322
0.10203430 0.36961731 0.00000492
-0.47813303 -0.22016645 -0.00000012
0.25221921 0.12849849 0.00000000
-0.62030610 0.02223909 0.07941865
-0.13065132 0.10934307 0.28246305
-0.01390191 0.06799462 0.00000000
0.19590960 0.36079765 -0.00000006
-0.51180511 0.23518146 0.02673888
0.35613157 -0.09975389 0.00000000
-0.05974414 0.32024251 0.21185179
-0.10131655 0.27911575 0.21162713
0.02190744 0.21667428 0.00000000
-0.23412542 0.04702304 0.00000000
-0.48652432 -0.49317147 0.00000000
-0.50116576 0.15852464 -0.00000050
-0.03715827 0.66735593 0.04816244
0.12595078 0.61924720 -0.00000022
0.08582907 0.37945909 0.00000000
0.47262354 -0.60889603 0.00000000
-0.54381005 -0.01471006 -0.00000044
0.40201093 0.23884762 -0.00000072
0.78386482 -0.22427354 -0.00000144
-0.23238380 0.24160830 -0.00000000
-0.12280961 -0.11787321 0.00000000
0.11878253 0.36406940 0.00000000
-0.20067735 0.21633121 0.19317865
0.31669374 -0.16023823 0.00000000
0.40445465 0.31444075 -0.00000087
-0.75612504 -0.10808269 -0.00000081
-0.32369862 -0.67579771 0.00000000
0.43867121 -0.66999193 0.00000000
0.37085171 0.15217433 0.00000370
-0.48715369 -0.79358849 0.00000000
-0.13149279 -0.45534158 0.00000000
-0.29234284 -0.32571552 0.00000000
-0.40164614 0.19270280 -0.00000032
-0.61905736 -0.73933422 0.00000000
-0.42569594 -0.77834018 0.00000000
-0.14533410 -0.36335057 0.00000000
-0.63628968 -0.31958663 -0.00000037
-0.47764317 0.13882542 0.09257189
-0.21564685 0.48041681 0.05242483
0.17332436 -0.01815183 0.00000000
0.10377147 0.68600744 -0.00000024
-0.30823194 0.07514189 -0.00000002
0.64233623 -0.67652578 -0.00000013
0.56820099 -0.47642858 -0.00000017
0.39894465 0.31286252 0.00000048
0.34065505 -0.62920039 0.00000000
-0.27201262 -0.61381931 0.00000000
-0.27256292 0.01903719 0.00000000
0.02502591 -0.49722090 0.00000000
0.24633563 -0.75868909 0.00000000
0.79596628 -0.67477247 -0.00000031
-0.52121760 -0.49454635 0.00000000
0.51105948 -0.57339872 0.00000000
-0.22707665 0.22115327 0.17743091
0.31515332 0.46193298 -0.00000041
0.08615806 0.37834283 0.00000000
0.61608119 0.12174333 -0.00000050
-0.17388293 0.39224829 0.11796221
-0.11362570 -0.51487276 0.00000000
-0.43492650 0.12066668 0.12327737
-0.36838378 -0.01881961 -0.00000006
0.17768912 0.02233705 0.00000898
0.47491829 -0.34981421 0.00000000
0.58606607 0.20337165 -0.00000129
0.79296942 -0.71000701 -0.00000022
-0.42795308 -0.21205619 -0.00000002
0.71395321 -0.64473864 -0.00000039
0.01655691 -0.11888924 0.00000000
0.46568840 0.13089418 0.00000223
-0.01153997 0.52595106 0.00000000
-0.31297548 -0.19309541 0.00000000
-0.32745171 0.37625101 -0.00000032
0.56184295 -0.37026944 -0.00000033
0.03662030 0.29879894 0.00000000
0.12777331 0.32069051 0.00000526
0.08363785 0.33158403 0.00000576
0.56936016 -0.30685041 -0.00000047
0.25682673 0.16303576 0.00000568
0.07678724 -0.76536115 0.00000000
-0.17914867 0.24081384 0.00000000
-0.55450294 -0.64033847 0.00000000
-0.70625355 -0.60522057 -0.00000024
0.43548014 0.12793723 -0.00000067
-0.76010229 -0.30028084 -0.00000062
0.36907967 -0.29441058 0.00000000
0.30574041 -0.46207358 0.00000000
-0.27326182 -0.40738602 0.00000000
0.02999181 -0.66094329 0.00000000
-0.79470199 -0.36789193 -0.00000054
-0.14697441 -0.74440969 0.00000000
0.09834909 -0.21649691 0.00000000
-0.09211127 0.24597798 0.23298462
-0.33403655 -0.33952625 0.00000000
0.38638177 0.01203195 -0.00000026
-0.64422768 0.02283502 -0.00000069
0.13209246 -0.09149028 0.00000000
0.23443542 0.14647402 0.00000627
-0.58228596 0.21184601 0.00295873
0.75286199 -0.32342022 -0.00000119
0.41124684 -0.16284849 -0.00000005
0.19329160 -0.20795519 0.00000000
-0.73178356 -0.55545766 -0.00000031
-0.01548098 0.23733010 0.00000000
0.49004220 0.28483297 -0.00000081
-0.20761334 0.35722404 0.11861493
0.11119419 -0.57362156 0.00000000
-0.48777547 0.17314865 -0.00000049
-0.14352128 0.04112764 0.00000000
-0.69721250 -0.55480292 -0.00000029
0.10688034 0.09878988 0.00000891
-0.31584059 -0.10180798 0.00000000
0.40850953 0.03457177 0.00000494
-0.00599730 -0.32084897 0.00000000
-0.18607340 -0.62206195 0.00000000
0.58451153 -0.45195918 -0.00000028
-0.45868042 -0.58708755 0.00000000
-0.16665957 0.19516581 0.22101253
-0.67429676 -0.62338710 -0.00000018
0.27891425 0.12623369 0.00000000
0.03571180 0.53139453 0.00000000
-0.27819359 0.18003437 0.17238814
0.46776209 0.21820072 0.00000074
0.24870186 -0.11033022 0.00000000
-0.47658734 -0.68474447 0.00000000
0.16905758 0.14648140 0.00000725
0.00526294 -0.47035750 0.00000000
0.36114847 0.23636652 -0.00000054
0.27004153 -0.19351690 0.00000000
-0.62340456 0.16878866 0.00393655
0.07809638 0.00162895 0.00000000
-0.60186844 -0.18710441 -0.00000041
-0.14232223 0.47188355 0.09371367
0.24173260 0.19224231 0.00000547
0.37199368 0.38109974 -0.00000085
-0.42593071 -0.46234562 0.00000000
-0.08906045 0.40072160 0.15647190
-0.09103682 -0.61963341 0.00000000
0.24057952 0.50784371 -0.00000051
0.01475780 0.45878679 0.00000490
0.30354733 -0.69851298 0.00000000
0.61392845 0.04204303 -0.00000128
-0.66948279 -0.16070720 -0.00000058
-0.10578339 -0.66582561 0.00000000
0.02228177 0.17073844 0.00000000
-0.50122711 0.20842819 0.04556870
-0.32339428 -0.34240681 0.00000000
-0.46285193 0.30591790 0.01575155
-0.57656076 -0.37014988 -0.00000020
-0.16330604 -0.76319109 0.00000000
0.01014899 0.38930355 0.00000601
0.28185158 0.45723141 -0.00000060
-0.50531181 0.24382631 -0.00000059
-0.34034121 -0.64067934 0.00000000
-0.00319000 0.47196450 0.00000000
0.72460107 -0.70096620 -0.00000025
0.34548635 -0.56267747 0.00000000
0.65396388 -0.49000543 -0.00000051
0.20281663 0.45719788 0.00000183
0.37078656 0.39181924 -0.00000030
-0.55383095 -0.29830735 -0.00000021
0.24686692 0.33158561 0.00000308
0.14089818 0.26110027 0.00000000
-0.08862181 0.25972995 0.00000000
-0.38578245 -0.00409345 -0.00000011
0.27759014 -0.20857255 0.00000000
-0.51072751 -0.33516779 -0.00000009
0.25703163 0.48358220 -0.00000054
-0.29741493 -0.44629935 0.00000000
-0.16596106 0.13601934 0.25119789
0.45029142 -0.03114416 -0.00000045
-0.13058478 0.31939736 0.17654681
-0.19995392 0.16168013 0.00000000
0.39931874 0.31494310 0.00000043
0.14271378 0.03223191 0.00000000
-0.05034488 0.37862760 0.00000000
-0.37794607 0.09173643 -0.00000018
-0.23881964 -0.06795633 0.00000000
0.68988430 0.06026988 -0.00000164
-0.12549313 0.11955563 0.00000000
-0.53835075 -0.76959907 0.00000000
0.66833724 -0.03681152 -0.00000137
-0.73474753 -0.75460587 -0.00000006
0.03718986 -0.69864127 0.00000000
-0.63354919 -0.62755204 -0.00000009
-0.55615896 -0.18949606 -0.00000031
0.11782723 -0.76807430 0.00000000
0.13060813 0.66216876 -0.00000021
-0.23880736 0.00657344 0.00000000
-0.07816211 0.39827300 0.16320396
-0.02848410 -0.08142822 0.00000000
-0.48967900 -0.72517668 0.00000000
-0.66278069 -0.56603874 -0.00000021
0.38569290 0.13249049 -0.00000047
0.24781487 -0.33737551 0.00000000
-0.50294305 0.20124124 0.04832826
0.10771043 -0.45495272 0.00000000
0.79374291 -0.28181122 -0.00000130
0.18534784 0.20223968 0.00000617
0.13573730 -0.03857025 0.00000000
0.65404551 -0.23568417 -0.00000096
0.04236508 -0.44198831 0.00000000
0.10068780 0.55757038 -0.00000000
0.71667358 -0.59147522 -0.00000052
-0.55199456 -0.72975480 0.00000000
0.32902786 -0.21655061 0.00000000
-0.65477857 0.12899437 0.00818367
-0.27859933 0.05421297 0.00000000
0.54402212 -0.26814100 -0.00000043
0.19390139 0.03129543 0.00000000
0.25769381 -0.12331391 0.00000000
0.65190334 -0.00844373 -0.00000135
0.19643818 0.48498352 0.00000149
0.46766493 -0.20167885 -0.00000023
0.01885400 0.05590468 0.00001088
-0.03492818 -0.74302545 0.00000000
0.37724320 0.29941447 0.00000112
0.09624888 0.38553276 0.00000476
0.58015667 0.05331420 0.00000133
0.34254076 0.35360245 -0.00000067
-0.06614734 -0.26238527 0.00000000
-0.22022709 -0.33136307 0.00000000
0.72949040 0.06978934 -0.00000182
-0.07813822 0.62666980 0.04801437
0.29002691 -0.35846222 0.00000000
0.60930295 0.07473208 0.00000041
0.27266353 0.07090657 0.00000000
-0.03710045 0.65048989 0.05669871
0.50188792 -0.25353788 -0.00000028
0.24487799 0.08068682 0.00000000
0.17882026 0.47460096 0.00000200
-0.51917261 -0.48712884 0.00000000
-0.43523623 -0.75129926 0.00000000
-0.25005757 0.13895676 0.20729889
0.28566228 0.41515218 -0.00000054
0.43789290 -0.07840880 -0.00000032
0.37120522 0.04245567 -0.00000025
0.09410438 0.07732358 0.00000942
-0.26928376 0.26271744 0.13517741
-0.29514087 -0.35740836 0.00000000
-0.48410798 0.15300752 -0.00000046
0.09582280 0.21706598 0.00000730
-0.43642090 -0.32989993 0.00000000
0.59738232 -0.76790734 0.00000000
0.08308529 -0.10017117 0.00000000
0.36571064 0.00813476 0.00000620
0.00838026 -0.10449907 0.00000000
-0.38683763 -0.32310952 0.00000000
0.41155720 0.02102250 -0.00000038
