ply
format ascii 1.0
element vertex 1393
property float x
property float y
property float z
end_header
-0.59556605 0.03514847 -0.00000059
-0.47895853 0.05328474 -0.00000036
0.40607979 -0.42012965 0.00000000
0.00122442 -0.65848196 0.00000000
0.37597644 0.04955664 -0.00000028
-0.71969078 -0.19464870 -0.00000066
0.04191882 0.74115704 0.00000018
-0.38151922 0.38205650 0.36838747
-0.49390765 -0.70656481 0.00000000
-0.37113159 -0.68347418 0.00000000
-0.24581780 0.02593933 0.00000000
-0.25254432 0.13407559 0.00000000
-0.69534126 0.09682002 0.07927119
-0.72189992 -0.47564489 -0.00000041
0.06151102 0.51429157 0.00000000
-0.25825396 0.14281967 0.00000000
0.44514922 -0.35665696 0.00000000
-0.38578753 0.36809454 0.46642623
-0.69725586 -0.46004011 -0.00000037
-0.48943054 0.28928430 0.21527160
0.43886453 -0.22016743 -0.00000007
0.64896933 0.08394781 -0.00000150
0.48512435 -0.36639173 -0.00000001
-0.37484127 -0.40860700 0.00000000
-0.07862062 0.40480959 0.00000000
-0.54042124 0.22213398 -0.00000064
0.07268265 0.41426401 0.00000000
-0.23923297 -0.39466612 0.00000000
-0.22057825 -0.73867806 0.00000000
-0.14302822 -0.54355432 0.00000000
0.24835561 -0.69737148 0.00000000
-0.23864821 0.31866659 -0.00000008
-0.71002393 -0.19954443 -0.00000063
-0.37253616 0.00448940 -0.00000009
-0.56875182 -0.37602586 -0.00000017
0.67786826 -0.35013292 -0.00000086
-0.35378189 0.43516303 0.11180991
0.41260869 -0.49933757 0.00000000
0.09521165 -0.50425369 0.00000000
-0.17479597 0.60835370 0.17042623
0.01779217 0.53386359 0.00000372
-0.50515945 -0.59069993 0.00000000
0.35587225 -0.50855252 0.00000000
-0.25195012 -0.64586636 0.00000000
0.17079422 0.16270480 0.00000698
-0.14345925 -0.64905054 0.00000000
-0.22843702 0.56929344 0.02295794
-0.27077032 0.42740474 -0.00000025
0.19804716 0.58437450 -0.00000046
-0.17323451 0.11543612 0.00000000
-0.43038924 -0.24325425 0.00000000
0.32274176 0.23573692 0.00000323
-0.42915188 0.14203111 -0.00000033
0.63358667 -0.34424879 -0.00000068
-0.66012400 -0.20113475 -0.00000052
-0.52212423 -0.65040708 0.00000000
-0.21067792 0.53959189 -0.00000022
0.62187529 -0.68093527 -0.00000004
-0.19191793 -0.68389853 0.00000000
0.25719150 0.17056186 0.00000000
0.13522698 -0.29487212 0.00000000
-0.46939029 0.12880751 -0.00000041
0.06465116 -0.48641534 0.00000000
-0.09467427 -0.55049938 0.00000000
-0.73680217 0.03869099 -0.00000090
-0.36039833 -0.21222360 0.00000000
0.38978349 -0.64401966 0.00000000
0.29889496 -0.69375949 0.00000000
0.01729196 0.08341959 0.00001049
-0.14313303 -0.10076578 0.00000000
-0.40590605 0.37826368 0.16010399
0.11240783 0.45869154 0.00000342
0.15656761 0.58384311 -0.00000029
0.09601503 0.41150592 0.00000000
-0.21009872 -0.40260078 0.00000000
0.48375834 0.08211643 0.00000270
0.52649177 0.15309656 -0.00000110
0.55432828 -0.79856040 0.00000000
0.34000146 0.27465632 -0.00000052
-0.39434168 0.38253564 0.23385848
0.02018284 0.44495859 0.00000000
-0.40266748 0.38858609 0.08845945
-0.57869812 -0.13601071 -0.00000041
-0.56686942 0.20728772 0.26136536
0.06941150 0.14287921 0.00000000
-0.78938685 -0.30784770 -0.00000062
-0.12069291 -0.12712264 0.00000000
0.19089395 -0.70518927 0.00000000
0.63243927 -0.16076406 -0.00000100
-0.63710523 0.13666053 -0.00000077
-0.53941534 -0.17291255 -0.00000029
-0.47096725 -0.59830786 0.00000000
0.65193244 -0.31272112 -0.00000082
-0.30787786 0.03102725 0.00000000
-0.40072679 0.37245049 0.27127962
0.07903230 0.61831450 0.00000152
0.64695788 -0.56225949 -0.00000035
-0.79757939 -0.12887800 -0.00000084
-0.56138529 0.19724882 -0.00000067
-0.28527155 0.36750935 -0.00000023
-0.01126311 -0.22420753 0.00000000
0.47699826 -0.76873821 0.00000000
-0.42188835 -0.78386085 0.00000000
-0.29084267 0.49234628 0.17002647
0.73899244 -0.35340722 -0.00000111
0.05007474 0.74698875 -0.00000008
0.09280711 -0.07468575 0.00000000
-0.66253780 0.08198530 -0.00000078
0.63802629 0.09319063 -0.00000045
0.28147964 0.38606088 -0.00000047
0.42377594 -0.56408255 0.00000000
0.40820586 0.38160553 -0.00000100
-0.55610183 0.24215151 0.01766091
-0.07026607 0.72510779 0.04679626
0.34077498 0.40486932 0.00000006
0.59166997 -0.11085600 -0.00000091
0.26617733 0.49142655 -0.00000059
-0.06664973 0.06181800 0.00000000
0.42810677 0.18555106 -0.00000074
-0.38920730 -0.66311243 0.00000000
0.39325444 0.22104721 0.00000212
0.17163502 0.08174456 0.00000818
0.23294083 -0.07940244 0.00000000
0.24546838 0.32479724 -0.00000021
-0.08903710 -0.27717263 0.00000000
-0.64874863 -0.46472131 -0.00000027
-0.11815172 0.65930706 -0.00000013
-0.32252423 0.17121788 -0.00000013
-0.43560480 -0.54708858 0.00000000
-0.61116640 0.18628862 0.02573347
-0.24053697 0.22871606 -0.00000001
0.29608409 -0.38221099 0.00000000
0.05964824 -0.03064349 0.00000000
0.14317381 0.21118397 0.00000667
-0.24889008 -0.14750553 0.00000000
-0.78379967 -0.48700833 -0.00000039
-0.38119012 0.38355758 0.35653437
0.08402712 0.69602206 -0.00000017
0.69603793 0.03382592 -0.00000057
-0.15149100 0.26956742 0.00000000
0.41771266 -0.09323402 -0.00000020
-0.15101461 -0.70315917 0.00000000
0.43889732 -0.43345019 0.00000000
0.45357910 -0.09088417 -0.00000036
0.21988573 0.16942202 0.00000000
-0.07176440 -0.14776803 0.00000000
0.07163038 0.39228888 0.00000000
0.02302435 0.35021560 0.00000000
0.73005567 -0.57587556 -0.00000056
-0.30165683 -0.53611193 0.00000000
-0.27244996 0.22751491 -0.00000008
0.37291889 0.21389733 -0.00000056
-0.71889967 -0.37321390 -0.00000050
-0.48294035 0.27598993 -0.00000057
0.22887484 -0.49721341 0.00000000
0.22090419 -0.45367212 0.00000000
-0.59604331 -0.11966945 -0.00000046
0.55571681 0.06013631 -0.00000106
0.22188241 0.41129331 -0.00000026
0.16150276 -0.06043354 0.00000000
0.73944104 -0.70466236 -0.00000024
0.40504390 -0.65065657 0.00000000
-0.51151484 -0.23744941 -0.00000017
-0.44462198 0.34776089 0.07703670
-0.21723826 0.49603900 -0.00000019
-0.74684319 -0.41989547 -0.00000048
0.11179049 0.54346902 0.00000214
0.00231099 0.70651770 0.00000000
0.60906006 0.00116035 0.00000165
0.17173793 -0.18450535 0.00000000
-0.16612315 -0.20385588 0.00000000
-0.38367680 -0.56476129 0.00000000
0.38592618 0.28195616 -0.00000073
0.11755964 0.15409935 0.00000000
0.10870293 0.25025026 0.00000661
0.28467698 -0.19439060 0.00000000
0.43689858 -0.73625943 0.00000000
0.16019114 -0.28096698 0.00000000
0.32941323 -0.78112575 0.00000000
-0.76986635 -0.55652609 -0.00000030
0.62541715 -0.16985762 -0.00000095
-0.52671089 0.18790260 -0.00000058
0.16836572 0.04942114 0.00000000
-0.42686857 -0.47297173 0.00000000
-0.41262241 0.36198091 0.25685676
-0.19692122 -0.05948471 0.00000000
0.18004124 -0.63073889 0.00000000
-0.38735888 -0.44313954 0.00000000
-0.20501658 -0.61473815 0.00000000
-0.22678645 0.07959713 0.00000000
0.17435041 0.56687328 0.00000055
0.48963192 -0.31388616 -0.00000012
-0.67889953 -0.39486766 -0.00000039
0.08769807 -0.48219490 0.00000000
0.26033564 0.45147187 0.00000082
-0.05244074 -0.08430146 0.00000000
0.44865424 -0.29325065 0.00000000
0.56319077 -0.55217061 -0.00000001
-0.08511431 -0.14386624 0.00000000
0.00709704 0.19497431 0.00000897
0.02507411 -0.56097529 0.00000000
-0.09597336 0.53387560 0.00000000
0.15701995 -0.71554784 0.00000000
-0.39832417 0.35160736 0.50638066
0.29085629 0.48340056 -0.00000068
0.43196672 -0.08328424 -0.00000028
-0.11262990 0.19855728 0.00000000
-0.18773719 0.13222617 0.00000000
-0.12197582 0.65069071 -0.00000013
0.70698470 -0.05917755 -0.00000150
0.24748284 -0.58250501 0.00000000
0.46678603 -0.01714301 -0.00000055
-0.03233759 -0.26105094 0.00000000
0.11918879 0.31333537 0.00000000
-0.37930588 -0.33158468 0.00000000
0.33764149 -0.44655615 0.00000000
0.79300189 -0.52331548 -0.00000069
0.38156196 -0.15545875 0.00000000
-0.32045274 0.47068808 0.08960195
0.26492658 -0.57102895 0.00000000
0.78420605 -0.28384421 -0.00000129
0.21792490 0.20629591 0.00000562
0.38596799 0.12717818 0.00000383
-0.19374980 -0.59351184 0.00000000
0.37760705 0.24759426 -0.00000064
-0.39739205 -0.57839009 0.00000000
-0.72325222 0.07417990 0.02596205
-0.25232554 -0.70199297 0.00000000
0.09422451 0.32080321 0.00000577
-0.44610256 -0.11455109 -0.00000014
0.24322292 0.50269249 -0.00000051
-0.44014325 -0.51932384 0.00000000
0.61861130 0.05745228 -0.00000133
0.51968359 -0.00282794 -0.00000080
0.22400878 0.36558851 -0.00000019
-0.35083885 0.39838763 0.51351223
0.42302197 -0.12376015 -0.00000017
-0.20911263 0.15095383 0.00000000
-0.57445658 0.20277901 0.23023018
-0.36383718 0.40452495 0.31997947
0.27012775 0.26740045 0.00000371
0.53579979 -0.16052370 -0.00000059
0.68009197 -0.68018599 -0.00000029
0.23597275 0.01623551 0.00000820
-0.25037652 -0.70906381 0.00000000
-0.36011411 0.39723850 0.43132668
-0.53130723 0.05148652 -0.00000047
0.31243832 -0.63376817 0.00000000
-0.10994770 -0.17419740 0.00000000
-0.69945596 -0.41297627 -0.00000042
0.04203733 0.50043939 0.00000000
0.01172655 -0.06476429 0.00000000
0.15176992 -0.74608887 0.00000000
-0.56948704 0.20463936 0.26167606
-0.31989103 0.17611695 -0.00000013
0.02780033 0.21708459 0.00000832
-0.07174643 -0.09876492 0.00000000
-0.43516533 0.36117721 0.03698963
0.50562895 0.05307259 0.00000277
0.42457281 0.07301375 -0.00000053
0.29052063 -0.30746981 0.00000000
-0.32366673 0.44862179 0.28026984
-0.23344710 -0.15177221 0.00000000
0.06684526 0.19450645 0.00000000
0.02051667 -0.75593673 0.00000000
0.05791534 -0.68396645 0.00000000
-0.38265155 0.37764161 0.40158635
0.71355131 0.00157740 -0.00000163
0.33144455 -0.23848882 0.00000000
-0.32445183 0.01803577 -0.00000000
-0.21848852 0.56837056 0.13290935
-0.56476533 0.20477772 0.30803146
0.01903117 -0.37461845 0.00000000
0.65648672 -0.73532756 -0.00000009
0.28316524 0.00340382 0.00000768
-0.40270896 -0.09918000 -0.00000006
-0.18875464 -0.48232757 0.00000000
-0.43529038 0.07226400 -0.00000029
-0.15256367 0.62939463 0.18247584
0.58452008 -0.69593298 0.00000000
-0.35949353 0.39900588 0.41972831
0.30163091 0.44165117 0.00000019
0.32304548 0.33397428 0.00000158
0.19272074 -0.10821178 0.00000000
0.15333853 -0.61574830 0.00000000
-0.57970534 -0.43793778 -0.00000014
0.05566713 0.52682670 0.00000000
0.41836584 -0.52567702 0.00000000
-0.27810180 0.30918091 -0.00000016
0.49988194 0.20334092 -0.00000108
0.25509435 -0.74577877 0.00000000
0.62991885 -0.69388793 -0.00000005
-0.35282853 0.12148642 -0.00000015
-0.03160322 -0.78988590 0.00000000
-0.32183690 0.37625230 -0.00000031
0.59133513 -0.75253408 0.00000000
-0.28156107 0.18567750 -0.00000006
-0.25251149 0.16837504 0.00000000
-0.20654644 0.26042120 0.00000000
-0.15334144 0.60259738 -0.00000015
-0.54716271 -0.14584481 -0.00000033
-0.71570917 0.08067505 0.03656059
-0.04340894 0.74876645 -0.00000005
0.16520506 0.57664698 0.00000056
-0.19795722 0.58325861 0.18998399
0.08152252 0.69922076 -0.00000017
0.39012545 0.03770492 -0.00000032
-0.52051012 -0.27932159 -0.00000016
-0.17296734 0.19656362 0.00000000
0.33921787 -0.10154057 0.00000000
0.21753074 -0.00234623 0.00000000
-0.09274509 0.44073702 0.00000000
0.16998676 -0.16369857 0.00000000
-0.57773507 -0.13415322 -0.00000041
-0.57339176 0.19183988 -0.00000069
-0.04747042 0.10642633 0.00000000
0.37652576 0.12482417 0.00000405
-0.30692356 0.16348958 -0.00000009
-0.33493515 -0.46532590 0.00000000
-0.40033199 0.39560858 0.04105599
-0.66047358 -0.21853744 -0.00000051
-0.41842540 0.36761690 0.14116481
-0.14029572 0.17819312 0.00000000
0.02193439 0.23007625 0.00000822
-0.38297411 -0.48475800 0.00000000
-0.31413503 -0.66334975 0.00000000
0.08879770 0.32529560 0.00000578
0.54070291 0.09819618 -0.00000107
0.25807417 0.45421981 0.00000082
-0.09103557 -0.00098744 0.00000000
-0.33478841 0.46358861 0.01641588
-0.09261730 0.61041077 -0.00000003
-0.39519700 0.10257525 -0.00000023
-0.65893492 -0.36604941 -0.00000038
0.37723271 -0.00764186 -0.00000018
-0.49640791 -0.23900678 -0.00000014
0.04690666 0.19679787 0.00000834
0.58219720 -0.34929084 -0.00000045
-0.12072963 0.66161260 0.17859344
0.54793434 0.00268772 -0.00000093
0.06657881 -0.30784309 0.00000000
0.35826024 -0.38984097 0.00000000
0.00522380 0.13499816 0.00000000
-0.77425406 -0.00804772 -0.00000094
-0.41881953 0.16871452 -0.00000034
0.48910603 -0.00574424 -0.00000066
-0.65525594 0.13107760 0.13821299
-0.12545196 -0.08250630 0.00000000
-0.47574394 0.30307867 0.21418205
0.14938436 0.18891011 0.00000691
0.46862317 -0.65803084 0.00000000
0.75706657 0.00567702 -0.00000183
-0.33790625 0.45082562 0.11396514
0.04783876 0.46245472 0.00000434
-0.06165426 -0.73187617 0.00000000
0.48237884 -0.42573950 0.00000000
0.02661105 0.19293296 0.00000000
0.33616824 -0.44685013 0.00000000
0.34453731 -0.39950136 0.00000000
-0.18580427 0.19025514 0.00000000
0.14285919 -0.41275159 0.00000000
0.15822695 0.44048531 -0.00000004
-0.19716081 0.24819591 0.00000000
-0.39542500 -0.50017725 0.00000000
0.14294680 0.64992633 -0.00000024
0.68161409 -0.50147361 -0.00000061
-0.78731444 -0.37887226 -0.00000053
-0.52206513 -0.06683555 -0.00000035
-0.20101575 0.58232627 0.16848029
-0.20479109 -0.06239924 0.00000000
0.19092834 0.18734398 0.00000631
0.31071539 -0.46175096 0.00000000
-0.57895087 -0.21340890 -0.00000034
0.00901975 -0.42520225 0.00000000
0.57999897 0.09998150 0.00000055
-0.47338643 0.30599100 0.20857067
-0.37192873 -0.04146225 -0.00000005
0.35934115 -0.05081283 -0.00000003
0.53693959 -0.68799944 0.00000000
0.35163977 0.30144272 -0.00000062
-0.68004885 0.11179127 0.08251983
0.08853582 -0.08053448 0.00000000
0.46225687 -0.48740860 0.00000000
-0.04273756 0.43182389 0.00000000
0.59608253 -0.44916129 -0.00000034
-0.01984650 0.67061353 0.00000000
-0.43623259 -0.10909233 -0.00000013
-0.23521367 0.06169215 0.00000000
-0.55333880 -0.63595730 0.00000000
-0.49010814 -0.43783431 0.00000000
0.63587147 -0.67866285 -0.00000010
0.52565559 -0.74548555 0.00000000
-0.29660600 0.03255803 0.00000000
0.30347392 -0.03490950 0.00000000
0.77022507 -0.08175970 -0.00000173
-0.68744494 0.10257328 0.10094595
0.50401329 0.21837742 0.00000004
0.28142982 0.50207340 -0.00000067
-0.51885872 -0.45879230 0.00000000
-0.63014465 -0.68510024 -0.00000003
-0.29485265 -0.33295383 0.00000000
0.03346712 -0.08281361 0.00000000
0.49099088 -0.16915296 -0.00000038
-0.58425290 -0.23068319 -0.00000034
-0.50042166 0.28209349 0.17683567
-0.13470239 0.65898527 0.06384852
0.11239500 -0.04469471 0.00000000
0.23554659 0.54237629 -0.00000055
-0.17993455 0.59643815 0.23896649
0.53607161 0.05055556 -0.00000096
0.21405953 -0.73125027 0.00000000
0.28326643 -0.12152443 0.00000000
-0.66421323 -0.68627231 -0.00000010
-0.54382546 0.15495628 -0.00000059
0.15221546 -0.29909728 0.00000000
-0.14055306 0.08573809 0.00000000
-0.21102295 0.57255510 0.16609295
-0.10048242 0.56278104 -0.00000000
0.12158999 -0.38565800 0.00000000
0.67208041 -0.41839833 -0.00000071
0.38680305 -0.48836526 0.00000000
0.53496254 0.01764459 0.00000280
0.04959015 -0.55207695 0.00000000
-0.15813126 -0.66779574 0.00000000
0.35861019 -0.58090355 0.00000000
0.77407525 -0.44720082 -0.00000088
0.37879275 -0.35260883 0.00000000
0.42662149 0.14918608 -0.00000067
0.32545858 -0.63953558 0.00000000
-0.77903326 -0.14319425 -0.00000082
-0.45009153 -0.60009523 0.00000000
-0.50647187 0.25950820 0.34406800
-0.34343929 0.16960263 -0.00000018
-0.04794450 -0.76568366 0.00000000
-0.49284470 -0.78660205 0.00000000
-0.15046407 0.48015100 -0.00000004
-0.66311542 -0.72897748 -0.00000006
-0.24239093 0.05646095 0.00000000
0.05041196 -0.10236033 0.00000000
0.18947002 0.39436176 -0.00000009
0.08139948 0.65171621 0.00000091
-0.27511165 -0.50998458 0.00000000
0.54673768 0.13118686 -0.00000115
0.32880417 0.41651400 0.00000009
0.38478956 -0.02750449 -0.00000018
-0.24122594 -0.17987332 0.00000000
0.41100383 -0.34665189 0.00000000
-0.41109142 0.07503151 -0.00000024
-0.25882459 0.50632627 0.35245947
0.62851637 -0.24186730 -0.00000084
-0.14839210 -0.63384334 0.00000000
-0.32925238 0.45459757 0.16334027
-0.39835507 0.24987909 -0.00000036
0.47454929 -0.37790573 0.00000000
0.61937781 -0.30046169 -0.00000070
-0.45106814 -0.58340000 0.00000000
-0.67894042 0.11746607 0.03633640
0.29738536 0.11020829 0.00000581
0.36424066 -0.49224563 0.00000000
-0.63021351 0.16919749 0.00595063
-0.17855235 0.60554398 0.16085190
0.00700814 0.77540832 0.00000026
0.10515294 -0.22968958 0.00000000
-0.26433284 0.40835783 -0.00000022
0.59978768 0.10474736 -0.00000133
0.69296986 -0.74356266 -0.00000014
-0.34710397 0.41236808 -0.00000040
-0.34087386 -0.45121802 0.00000000
0.13652500 -0.14507629 0.00000000
0.00824580 0.58036806 0.00000317
0.75235161 -0.39456229 -0.00000101
0.05791972 0.23203448 0.00000000
-0.76228889 -0.38409277 -0.00000052
-0.12845076 0.38025846 0.00000000
0.13592305 0.05370270 0.00000914
-0.30330612 -0.71425043 0.00000000
-0.10756986 -0.46888846 0.00000000
0.13367234 -0.21165980 0.00000000
-0.04093985 -0.25020318 0.00000000
-0.35799344 0.43198224 0.10138503
-0.22890211 0.55357829 0.17719396
0.22405317 -0.70965207 0.00000000
0.42081632 0.15402029 -0.00000065
-0.58750744 -0.11304872 -0.00000045
-0.48547522 0.29332732 0.21438475
0.01732668 -0.21934640 0.00000000
-0.27275023 -0.60854688 0.00000000
-0.23224836 0.08186428 0.00000000
-0.76429283 -0.55299808 -0.00000031
0.34377032 -0.01434978 -0.00000003
0.21139588 0.05428822 0.00000000
0.41425317 0.26266440 -0.00000082
-0.25612733 0.51649293 0.27691605
0.39180680 -0.47656818 0.00000000
0.71300497 -0.06944141 -0.00000151
0.28322335 0.49291893 -0.00000067
-0.00877609 0.33788867 0.00000000
0.50742936 -0.26434604 -0.00000028
0.52112753 -0.27714775 -0.00000032
0.14124836 0.39898070 0.00000000
-0.34563024 0.23041735 -0.00000023
-0.28033369 -0.20789728 0.00000000
0.15209151 0.50105111 0.00000207
0.38678307 0.17854221 0.00000295
0.30902425 -0.39468988 0.00000000
0.32383297 0.25367108 -0.00000042
-0.27848414 0.16468649 -0.00000003
-0.39518577 0.38000693 0.25089625
-0.38434403 0.36907241 0.47113548
0.29013737 -0.00804603 0.00000000
0.47102718 -0.55120456 0.00000000
0.76236748 -0.15707966 -0.00000156
-0.54623965 0.23067703 0.23345636
0.06964146 0.10712454 0.00000934
-0.10569969 0.09564339 0.00000000
0.59856375 0.07675929 0.00000059
0.20391369 0.35184542 -0.00000008
-0.50607112 0.25987378 0.34442370
-0.61429487 -0.62605152 -0.00000005
0.62619953 -0.36858798 -0.00000061
-0.17624742 0.60353753 0.20445598
-0.34780222 -0.72461836 0.00000000
0.36196775 -0.12314287 0.00000000
0.26746165 -0.41920978 0.00000000
0.59157050 -0.49795927 -0.00000023
0.42062572 -0.79987387 0.00000000
-0.16423281 -0.24175787 0.00000000
-0.30953149 -0.04885557 0.00000000
-0.33845364 0.41117659 0.50942906
0.37582152 -0.48557142 0.00000000
-0.39662679 0.37943460 0.24211056
0.73734387 -0.52271560 -0.00000069
-0.07666020 -0.15610949 0.00000000
-0.17938202 0.59504111 0.25868388
-0.30173398 -0.00373595 0.00000000
-0.52032339 0.25188557 0.28107012
0.25031868 -0.58940693 0.00000000
0.59368730 -0.67056755 0.00000000
0.31053787 0.00442753 0.00000725
0.66727118 -0.36552553 -0.00000079
0.09681564 0.17031978 0.00000000
-0.05503152 0.74138274 0.03627424
-0.00593836 0.04159872 0.00000000
-0.16261046 0.02545837 0.00000000
0.67354628 -0.06783137 -0.00000134
-0.76537998 -0.50908715 -0.00000036
-0.62744243 0.16226678 0.10407279
-0.10750963 0.29486757 0.00000000
0.54842975 -0.29815832 -0.00000040
-0.22285918 -0.52521444 0.00000000
0.21159614 -0.01275912 0.00000000
0.74302561 -0.24196698 -0.00000133
0.61289358 0.00614242 -0.00000121
-0.50000368 0.18120567 -0.00000052
0.57645008 0.18579638 -0.00000081
0.57175920 -0.36931407 -0.00000037
0.28796150 0.07718690 0.00000000
0.56971437 -0.49065163 -0.00000015
-0.10986330 0.16095623 0.00000000
0.25783531 0.28331072 -0.00000019
-0.73857124 -0.75237664 -0.00000006
-0.34948395 0.24833777 -0.00000026
-0.68262699 -0.11931945 -0.00000064
0.71485677 0.07853647 -0.00000178
-0.02671929 0.70527805 0.00000000
-0.04509523 0.75302197 0.01905138
0.22976682 0.53580386 -0.00000051
0.01349222 -0.72284483 0.00000000
0.36799809 -0.15183237 0.00000000
-0.26923801 0.50272484 0.28356462
-0.39374904 0.36530072 0.41416148
-0.49138558 0.28598678 0.22884922
0.20607571 -0.70735442 0.00000000
-0.25952394 0.50960247 0.31225182
0.23177391 0.27531170 -0.00000006
0.16661485 0.62811920 -0.00000033
-0.31693058 0.48010029 0.03003104
-0.61766944 -0.07685323 -0.00000054
0.18161402 -0.32912086 0.00000000
0.26225351 0.16070290 0.00000563
-0.63927202 -0.41502748 -0.00000029
-0.25456961 0.37489503 -0.00000017
0.17240280 0.47179125 0.00000217
0.49968807 0.19094081 -0.00000106
0.78881508 -0.28054209 -0.00000130
0.02011344 0.69280751 0.00000130
0.24794659 -0.18372703 0.00000000
0.65512791 -0.65569666 -0.00000022
-0.32092388 0.02476590 0.00000000
0.58181614 0.02619578 -0.00000112
0.08358080 0.29095207 0.00000637
-0.44954767 0.22804358 -0.00000045
0.00610526 -0.56065538 0.00000000
-0.29535166 0.42063156 -0.00000029
-0.76416952 -0.51196858 -0.00000036
-0.23606351 -0.59102094 0.00000000
0.25616795 0.42695687 0.00000131
-0.51683999 0.27662321 0.06610861
0.17118501 0.14912903 0.00000000
-0.59133039 0.18313131 0.25828434
-0.07937713 -0.53449739 0.00000000
0.45187964 0.34002052 -0.00000112
0.34516958 -0.34180007 0.00000000
-0.14560338 0.31638376 0.00000000
0.17175462 0.12644837 0.00000751
0.35463333 -0.68506386 0.00000000
-0.11118172 -0.21163902 0.00000000
-0.25099435 0.53632734 0.12822975
0.55031611 0.18253781 -0.00000126
0.65351945 -0.10979173 -0.00000118
0.28190545 -0.10282450 0.00000000
0.00270131 0.60320326 0.00000291
0.71519860 0.01137600 -0.00000056
-0.08551612 -0.30813726 0.00000000
0.30305812 0.35125661 0.00000168
-0.40720764 0.35618190 0.37026994
0.55940447 -0.75493690 0.00000000
0.30773201 -0.72340446 0.00000000
-0.59487768 -0.63967427 0.00000000
0.12373874 0.35143209 0.00000486
-0.45475219 -0.21742845 -0.00000007
0.31412673 0.01688745 0.00000701
-0.24014147 0.51755186 -0.00000026
-0.19658096 0.28727078 0.00000000
-0.09508807 -0.72328155 0.00000000
0.09339308 -0.38269554 0.00000000
0.30269813 -0.04951730 0.00000000
0.79371106 -0.07640284 -0.00000181
-0.50922892 0.26621432 0.24835950
0.42934934 -0.39511418 0.00000000
0.43920449 0.05633682 0.00000399
0.11014680 0.38042616 0.00000000
0.12978412 0.61602148 0.00000058
-0.01903306 0.31507677 0.00000000
-0.49516674 0.26787411 0.37379471
0.19607609 0.10389234 0.00000748
-0.64170405 0.15256909 0.05791368
-0.47212892 0.30981222 0.18264184
0.09889995 0.01167928 0.00000000
0.10408449 0.11136184 0.00000876
-0.26887414 -0.67230823 0.00000000
0.72927956 -0.03451407 -0.00000164
-0.48192785 0.09138214 -0.00000040
-0.28819683 0.47925368 0.32920080
-0.04470921 -0.26256479 0.00000000
0.68225008 -0.59653411 -0.00000044
0.42222567 -0.73334456 0.00000000
0.37624080 0.14292949 -0.00000044
0.53613158 0.16623118 0.00000029
-0.27326134 0.31059124 -0.00000015
0.45075485 0.21631758 0.00000109
0.09044067 0.10144823 0.00000000
0.67481082 0.04425533 -0.00000034
0.44373687 0.14338367 -0.00000073
0.31394932 -0.62628625 0.00000000
-0.29495308 -0.01412501 0.00000000
-0.24751147 -0.09785927 0.00000000
0.07936846 -0.53644179 0.00000000
-0.70977941 -0.42769902 -0.00000043
-0.16030574 0.22592130 0.00000000
-0.42531729 0.35368266 0.21238975
-0.27914136 -0.16940797 0.00000000
-0.03288513 0.51126926 0.00000000
0.03724899 0.01304628 0.00001124
0.60986277 -0.16191574 -0.00000090
0.59476427 -0.61193990 -0.00000004
0.47635356 0.04341605 -0.00000070
0.32133385 -0.37449008 0.00000000
-0.37737314 -0.18449795 0.00000000
0.69978295 0.03029741 -0.00000058
0.04329635 -0.74257847 0.00000000
-0.46335585 -0.32250211 0.00000000
-0.60399148 0.18293570 0.13221033
-0.00427416 0.05789295 0.00000000
-0.23112520 0.28771364 -0.00000004
-0.47056787 0.00884528 -0.00000030
-0.32382529 0.42792749 0.48796259
0.36081929 0.08897604 0.00000495
-0.38649552 0.39710489 0.16586253
-0.13223143 0.09536290 0.00000000
0.04440889 0.22371153 0.00000000
-0.43364952 0.33609084 0.30603885
0.30704849 -0.25460723 0.00000000
-0.21842155 0.41870070 -0.00000013
-0.59667128 -0.13877623 -0.00000044
0.78456588 -0.45514875 -0.00000086
-0.28453535 0.50137372 0.14251588
0.13980481 -0.30938257 0.00000000
-0.26311114 -0.01527261 0.00000000
-0.74994565 0.00613163 -0.00000090
0.50580166 -0.59538242 0.00000000
0.26495644 -0.47409305 0.00000000
-0.76600508 -0.56118672 -0.00000030
-0.23505187 -0.72523413 0.00000000
-0.14041706 -0.35348792 0.00000000
-0.47707363 0.30839139 0.14700178
-0.32959818 0.42537465 0.45539575
0.07175086 0.13074201 0.00000896
0.67355194 -0.63656531 -0.00000034
0.37904747 0.39954891 -0.00000091
0.52381048 0.21714723 -0.00000032
-0.34131149 0.35457902 -0.00000033
-0.66903151 -0.37519019 -0.00000039
0.79677088 -0.60559114 -0.00000049
0.15099540 0.32248183 0.00000488
0.36340560 0.01351498 0.00000616
0.20312192 -0.53448848 0.00000000
-0.30743387 0.48247390 0.10207315
0.45675334 -0.43610010 0.00000000
-0.66986485 -0.45704344 -0.00000032
0.51345611 -0.13624010 -0.00000054
0.07866248 0.44958565 0.00000000
0.10708573 0.58052195 0.00000161
-0.29872027 -0.31431244 0.00000000
0.31286705 -0.16503820 0.00000000
0.04498695 0.68341312 0.00000000
-0.66247250 -0.70145385 -0.00000009
0.42888702 -0.44582465 0.00000000
0.26759490 0.33918180 -0.00000033
0.40163996 -0.60952948 0.00000000
0.36929471 0.18995513 0.00000310
-0.29395478 -0.46046760 0.00000000
0.16049692 -0.15372375 0.00000000
0.28793442 0.26666177 0.00000338
-0.27472051 -0.08997048 0.00000000
-0.53435418 0.24540195 0.20473898
-0.23512360 0.34681288 -0.00000010
0.12826392 0.32995437 0.00000512
0.45294247 0.08764845 0.00000320
-0.32660796 0.44287668 0.30862740
-0.10190857 0.58758817 -0.00000003
-0.01285487 0.15817852 0.00000000
-0.02133207 -0.57040861 0.00000000
-0.47795873 -0.51543828 0.00000000
-0.36820683 -0.69822728 0.00000000
-0.70721001 -0.25054116 -0.00000058
-0.14291282 0.33333545 0.00000000
-0.51945478 -0.05756956 -0.00000035
0.07116873 0.70886783 -0.00000014
-0.65788934 -0.45744578 -0.00000029
0.09446257 0.05895485 0.00000969
-0.14615400 0.63959888 0.14409865
0.09981438 0.34478708 0.00000532
-0.07944693 0.41616144 0.00000000
0.62375633 0.01805184 -0.00000128
-0.56853433 -0.76464639 0.00000000
-0.37676505 -0.32011439 0.00000000
0.53494680 0.12119531 -0.00000108
-0.76051786 -0.54971767 -0.00000031
-0.27578206 0.27258325 -0.00000012
0.33708183 -0.38199312 0.00000000
0.00195255 0.56154440 0.00000355
0.56464236 0.13068674 0.00000034
-0.60592284 0.16313590 -0.00000073
0.11985054 -0.37536287 0.00000000
0.22958264 0.28085837 -0.00000006
0.53933934 0.03898657 0.00000235
-0.65985700 0.12670927 0.13585906
0.32930814 -0.46465312 0.00000000
0.40841304 0.21058441 0.00000200
-0.54749465 0.24941049 0.03129663
-0.67474675 0.12389086 0.01377127
-0.33014417 -0.52823714 0.00000000
0.00194689 -0.17794332 0.00000000
-0.56454388 -0.24765266 -0.00000028
-0.43493459 -0.35002060 0.00000000
0.54285422 -0.03677357 -0.00000084
0.36759007 -0.71063667 0.00000000
-0.17658274 0.27623980 0.00000000
-0.52575954 0.16872634 -0.00000056
0.32412553 -0.36395900 0.00000000
-0.29450451 -0.49378608 0.00000000
0.10294402 -0.65404414 0.00000000
-0.61941094 0.16393695 0.16841039
0.10857423 0.32956521 0.00000000
0.50449823 0.10887359 0.00000186
-0.19159923 0.60419402 0.04255146
0.71706698 -0.65980684 -0.00000035
-0.33916939 -0.60404759 0.00000000
0.63617610 -0.22228619 -0.00000091
-0.38740481 -0.02448959 -0.00000010
-0.40494389 0.36178092 0.33653792
-0.55323351 0.23711378 0.09762138
-0.49008983 0.28454802 0.25650550
0.12645921 0.36968613 0.00000000
0.13210118 -0.47879897 0.00000000
-0.35628026 0.08139048 -0.00000013
-0.71468300 -0.07541152 -0.00000075
0.38297641 0.23547496 -0.00000064
0.75635569 -0.29100521 -0.00000127
-0.35110459 -0.10501653 0.00000000
0.12971890 -0.51671820 0.00000000
0.18988440 -0.02588111 0.00000000
-0.36101894 0.15830876 -0.00000020
-0.43277386 0.35803248 0.09298179
-0.15960624 0.07127257 0.00000000
0.32434721 -0.73549070 0.00000000
0.47958876 -0.68648240 0.00000000
-0.05818863 0.23294524 0.00000000
-0.55614188 -0.16792229 -0.00000033
-0.47989453 -0.03769143 -0.00000028
0.14938593 0.28397947 0.00000549
-0.33518819 0.26561439 -0.00000024
0.42752066 -0.16851052 -0.00000011
0.08345428 0.34736270 0.00000000
0.52969518 0.03626422 -0.00000091
-0.41005569 0.36031110 0.29970395
0.56647702 0.01653497 0.00000221
-0.30778503 0.46776493 0.24728476
-0.78350463 -0.56412125 -0.00000029
0.13271291 0.42803426 0.00000000
-0.35055855 0.42989845 0.19765540
0.21552456 -0.35277882 0.00000000
-0.42073029 0.34436740 0.35299391
0.70157147 -0.15466695 -0.00000131
0.03946250 -0.02117790 0.00000000
-0.68916782 -0.37047732 -0.00000044
-0.34265152 0.44178848 0.15737220
-0.67694874 0.12087015 0.02205164
-0.01771831 -0.56085195 0.00000000
-0.55625252 -0.63060298 0.00000000
-0.61977282 -0.51522781 -0.00000016
-0.25393950 -0.54844229 0.00000000
0.48296792 -0.52469930 0.00000000
0.16866303 0.49019646 0.00000194
0.40388676 0.26121134 0.00000124
-0.14564863 -0.71677119 0.00000000
-0.24596089 -0.03360512 0.00000000
0.75795529 -0.58149690 -0.00000055
0.07547345 -0.09221607 0.00000000
-0.26314546 0.51340994 0.23711702
-0.70489795 0.08355902 0.11673568
0.27702770 -0.08580321 0.00000000
0.44010022 0.07312568 -0.00000059
0.45918785 -0.27095987 -0.00000007
-0.08342840 -0.43122898 0.00000000
-0.38949301 0.38705414 0.23719793
0.59416574 -0.18073066 -0.00000080
-0.50829459 0.22487336 -0.00000058
0.00682585 -0.77420459 0.00000000
0.78777776 -0.70687585 -0.00000023
-0.13154016 -0.16841091 0.00000000
-0.67516148 0.11204717 0.12936175
-0.12484960 0.03453232 0.00000000
0.04837173 -0.68531471 0.00000000
-0.34116557 -0.00104806 -0.00000002
-0.33338594 0.43694730 0.30004479
-0.20781377 -0.32607386 0.00000000
0.22697654 0.32332506 0.00000360
-0.25074418 -0.09857574 0.00000000
-0.75590577 -0.71011926 -0.00000011
0.21592891 0.56775760 -0.00000051
0.44204993 0.18828563 -0.00000081
0.74047988 -0.74721328 -0.00000013
0.16166053 -0.06802465 0.00000000
-0.27130866 0.49561707 0.33450866
0.41241085 -0.52553188 0.00000000
-0.50329579 -0.38440000 -0.00000003
-0.40982450 0.37465387 0.15698243
0.02266738 -0.61535597 0.00000000
0.14966032 -0.11571565 0.00000000
0.35316557 0.25544564 -0.00000054
-0.36160578 -0.45031681 0.00000000
-0.34155604 0.10538718 -0.00000011
0.10831487 -0.73231699 0.00000000
-0.14963773 -0.00300801 0.00000000
0.00864020 0.14935204 0.00000000
0.68608299 -0.44012516 -0.00000074
-0.48376248 0.30231769 0.14078013
-0.43028150 -0.58015996 0.00000000
0.04060716 -0.26290190 0.00000000
-0.11373139 0.37634044 0.00000000
0.28254621 0.00194687 0.00000000
-0.19570916 0.57695283 0.27649534
-0.25142977 -0.75992804 0.00000000
-0.67343188 -0.47306046 -0.00000031
-0.39682652 0.11294135 -0.00000024
-0.19059284 -0.34010263 0.00000000
0.42110942 -0.68745310 0.00000000
-0.56969572 0.21280359 0.17699399
0.14855400 0.11031708 0.00000000
-0.47663538 0.30959628 0.13924811
0.26305782 0.32837825 -0.00000029
0.02822882 -0.26807738 0.00000000
0.78869017 -0.63538949 -0.00000041
0.47296052 0.26789634 -0.00000108
0.03303190 -0.53683871 0.00000000
0.45749387 -0.46381565 0.00000000
-0.61483720 -0.20001128 -0.00000043
0.43938032 0.09785649 -0.00000063
-0.19191396 -0.17176689 0.00000000
0.26740928 0.26501283 -0.00000020
-0.49240349 -0.35143518 -0.00000003
0.29199044 0.17864960 -0.00000015
-0.09400043 0.55890390 0.00000000
-0.49096068 -0.36549253 -0.00000002
0.10297317 0.68798235 -0.00000024
0.18141418 0.16366983 0.00000000
0.60262223 -0.15907110 -0.00000088
0.23778626 0.37433407 -0.00000026
0.16189183 -0.40463057 0.00000000
-0.61449273 0.17202671 0.13633397
-0.37593432 0.39287057 0.31550122
-0.64389848 0.10904557 -0.00000076
-0.42147507 -0.12829956 -0.00000008
0.24312591 0.02998660 0.00000000
0.00306519 -0.18970043 0.00000000
0.41031265 0.25741479 -0.00000079
-0.59491682 0.11196537 -0.00000066
-0.60544724 0.17819707 0.16541270
-0.08965073 -0.24933584 0.00000000
-0.56918311 0.20888440 0.22181648
0.02744137 0.02848335 0.00000000
-0.36045036 -0.43228281 0.00000000
0.44509736 -0.15981925 -0.00000020
0.73002468 -0.65274865 -0.00000037
0.29445891 0.43782848 -0.00000062
0.73643372 -0.64574457 -0.00000039
-0.17205950 0.34448294 0.00000000
-0.50429669 -0.52180157 0.00000000
-0.37260303 0.03241842 -0.00000012
-0.04856867 0.74067022 -0.00000005
-0.59428704 0.04224333 -0.00000060
0.24583778 0.28368109 -0.00000014
-0.21039249 -0.03897446 0.00000000
-0.47408023 -0.40400831 0.00000000
0.05017255 -0.04168203 0.00000000
-0.28734956 0.47009882 -0.00000032
-0.40404323 0.35722539 0.39172037
0.15898367 0.41630912 0.00000336
-0.19188789 -0.49013747 0.00000000
-0.73924481 -0.76805942 -0.00000004
-0.41349075 -0.29539127 0.00000000
-0.37366203 -0.34114317 0.00000000
0.47405478 -0.75879284 0.00000000
0.14869529 0.23346222 0.00000625
-0.19852615 0.41603455 -0.00000008
0.07632478 0.69269374 -0.00000014
0.45071334 0.09294082 -0.00000067
-0.38464312 -0.28101350 0.00000000
0.20383052 0.07673960 0.00000000
0.71232300 -0.79732187 -0.00000001
-0.50680894 0.28095654 0.12373457
0.30078632 -0.55221525 0.00000000
-0.29311648 -0.27655655 0.00000000
0.01053968 0.03821792 0.00001127
0.32602838 -0.67975423 0.00000000
-0.37028768 0.24196237 -0.00000030
-0.48206427 -0.47594297 0.00000000
-0.35793186 0.21159818 -0.00000024
-0.70509908 -0.19669246 -0.00000062
-0.60132581 -0.00919341 -0.00000057
-0.15850146 -0.73477062 0.00000000
0.20831748 -0.14849055 0.00000000
-0.08300048 -0.05187179 0.00000000
-0.01665000 -0.27051432 0.00000000
0.16618142 0.44407252 -0.00000008
-0.40827864 0.35095766 0.41227456
-0.77805738 -0.22242945 -0.00000072
0.67867816 -0.17532067 -0.00000117
-0.10320784 0.54968148 0.00000000
-0.75675783 -0.78529878 -0.00000002
-0.30947952 0.47222512 0.18503807
-0.64378233 -0.09757482 -0.00000058
0.67400229 -0.78954102 -0.00000003
-0.50477224 0.28611800 0.09213136
-0.14251685 -0.03613801 0.00000000
-0.72026577 -0.23734506 -0.00000062
-0.46149359 0.31370733 0.25081153
0.40008601 -0.02765422 -0.00000024
0.05619544 -0.74208470 0.00000000
-0.03817370 0.58744571 0.00000000
0.46856741 -0.47363872 0.00000000
-0.48680662 0.28974705 -0.00000059
-0.75418389 -0.29591449 -0.00000063
0.28018643 -0.29564427 0.00000000
0.02012257 0.33522990 0.00000667
0.11524680 0.30099195 0.00000000
0.46522749 0.27508084 -0.00000017
0.28557055 -0.31868516 0.00000000
0.60619930 0.04303598 -0.00000125
0.01968882 0.77994163 -0.00000004
0.05593038 0.28877696 0.00000682
-0.07600418 -0.38633353 0.00000000
0.70692101 0.03638903 -0.00000167
-0.49539636 -0.62357853 0.00000000
0.08695387 0.44157219 0.00000000
-0.24872730 0.03693829 0.00000000
-0.09086483 -0.44828084 0.00000000
-0.53473590 0.24884211 0.16608523
-0.73302179 -0.69408408 -0.00000013
-0.49860399 0.27974685 0.21895279
-0.26234949 0.49945194 0.38633457
-0.40817799 -0.24229755 0.00000000
0.32697826 0.37794466 0.00000077
0.30284496 0.24116145 -0.00000030
-0.15367286 0.63596613 0.10479544
-0.40117332 0.38975838 0.09171478
0.65120036 -0.14656209 -0.00000111
0.40634044 0.01458077 0.00000532
-0.17107323 0.43979968 -0.00000005
-0.01892249 -0.01525460 0.00000000
-0.16819448 0.56735440 -0.00000015
0.28654077 0.39653509 -0.00000051
-0.38406789 0.37946027 0.36886843
0.55827928 -0.73322232 0.00000000
0.31234244 -0.12455155 0.00000000
0.21594110 -0.08778148 0.00000000
-0.33680177 0.26718601 -0.00000025
-0.41363897 -0.55973081 0.00000000
-0.58222960 -0.23240416 -0.00000033
-0.34939892 0.00948033 -0.00000005
0.49096056 0.04182422 -0.00000076
-0.66814561 0.12993981 0.01935628
-0.48712839 0.19062841 -0.00000050
0.75200673 -0.76145010 -0.00000010
-0.69726434 -0.42980329 -0.00000040
-0.55692051 -0.68323732 0.00000000
0.30767211 0.21354884 -0.00000028
0.06818530 0.19464524 0.00000000
0.15450518 -0.14400902 0.00000000
0.01966201 0.21903601 0.00000842
0.47131458 0.00146245 -0.00000060
0.07268478 0.67706223 0.00000066
-0.36059247 -0.28107052 0.00000000
-0.28696783 -0.09531891 0.00000000
-0.50103333 -0.66684823 0.00000000
-0.18088843 -0.67191280 0.00000000
0.71092807 -0.33437152 -0.00000103
-0.73711646 0.01068927 -0.00000088
-0.22508285 0.55607942 0.19052524
0.27272762 0.26357106 0.00000372
-0.27083105 0.08824812 0.00000000
-0.58524064 -0.40332594 -0.00000019
0.41246798 0.15704599 -0.00000062
-0.27117279 -0.65106527 0.00000000
0.76813003 -0.03740450 -0.00000180
-0.74783567 -0.55937439 -0.00000030
-0.06612437 0.32968462 0.00000000
0.15506740 0.53712132 -0.00000020
0.66054499 -0.29313444 -0.00000089
-0.10815442 -0.55976309 0.00000000
-0.50338083 -0.36977281 -0.00000004
-0.38094139 0.39938504 0.19897508
-0.04868519 0.53887160 0.00000000
0.25633644 -0.74270393 0.00000000
0.46054297 0.31271592 -0.00000070
-0.27216652 -0.32209250 0.00000000
0.11987103 -0.65665103 0.00000000
0.40755685 -0.29928012 0.00000000
-0.64192401 -0.23910018 -0.00000045
-0.66477925 0.13282854 0.02418696
-0.69165845 -0.31061612 -0.00000049
0.54293778 -0.48688385 -0.00000004
0.13138987 -0.29049399 0.00000000
-0.66038191 -0.35465451 -0.00000039
0.02658268 0.08964391 0.00001025
-0.07128161 -0.51242999 0.00000000
0.04103711 0.11389201 0.00000967
0.70627656 -0.27292631 -0.00000112
-0.24439072 0.55090823 0.04754934
0.05314743 0.45847151 0.00000432
0.28587882 0.18681695 0.00000475
-0.31376021 -0.65879171 0.00000000
-0.38396612 -0.06331268 -0.00000006
0.12677633 0.57222031 0.00000137
0.23245458 0.06015931 0.00000759
0.11080134 -0.44755186 0.00000000
0.32351716 0.27727101 -0.00000046
0.16647819 -0.73834412 0.00000000
0.02992246 -0.41430587 0.00000000
0.50626281 0.20478767 0.00000022
-0.73032635 -0.13970556 -0.00000073
0.05496046 0.12608960 0.00000000
-0.62130350 0.17545240 0.03280401
-0.25555632 -0.05535828 0.00000000
-0.17467682 -0.15520025 0.00000000
-0.35007509 -0.08781522 0.00000000
0.14695247 -0.31728234 0.00000000
-0.18257340 0.28384721 0.00000000
-0.26660482 0.53179315 0.01620581
0.03542550 -0.17485575 0.00000000
0.42542038 0.10376272 -0.00000058
0.79410415 -0.16844284 -0.00000158
-0.62282475 -0.13003137 -0.00000051
0.71810792 -0.21227895 -0.00000128
0.12445549 0.05638499 0.00000000
-0.15576647 -0.63302177 0.00000000
-0.03509377 -0.14328500 0.00000000
0.07614168 0.08231304 0.00000962
0.05927914 0.72714721 -0.00000012
0.25825119 -0.66914413 0.00000000
-0.44193448 -0.56400768 0.00000000
0.44498389 0.19939763 -0.00000084
-0.59807999 -0.22266533 -0.00000037
-0.77650699 -0.71184219 -0.00000011
-0.52167733 -0.75364081 0.00000000
0.74621847 -0.77163145 -0.00000007
0.05797317 0.57976387 0.00000000
-0.10906609 0.47765467 0.00000000
0.31180292 -0.51660168 0.00000000
-0.18298636 0.60695218 0.10176523
-0.28791606 -0.53824821 0.00000000
0.15200285 -0.08880535 0.00000000
-0.30857093 -0.79643771 0.00000000
-0.32508733 -0.06810025 0.00000000
-0.54700662 -0.19647605 -0.00000029
0.08861607 -0.56061416 0.00000000
-0.39844985 0.37861426 0.23196928
0.29522998 -0.40053981 0.00000000
-0.63075618 -0.59815645 -0.00000011
0.74686499 -0.63754701 -0.00000041
0.39876684 -0.11996622 -0.00000008
-0.74361346 -0.67105538 -0.00000016
0.26357082 0.43770197 -0.00000048
0.55490327 -0.02819710 -0.00000090
-0.30694976 0.46505003 0.28319030
0.26304266 0.48692886 0.00000018
-0.50522766 0.28020481 0.14733023
0.34387836 -0.38126777 0.00000000
-0.13614191 -0.66242905 0.00000000
-0.18910294 -0.52411446 0.00000000
0.08520760 0.46652288 0.00000372
0.32263425 0.15286022 -0.00000023
0.35013808 0.44928265 -0.00000087
-0.45300111 -0.70101874 0.00000000
-0.37129646 0.38160855 0.47630820
-0.40591629 -0.40166495 0.00000000
0.41858113 -0.48401161 0.00000000
0.57543494 -0.59794149 0.00000000
-0.54070995 0.06347483 -0.00000050
0.15145597 0.11845263 0.00000000
0.71751145 -0.65295481 -0.00000037
-0.39969062 0.38122297 0.19303623
0.30849250 -0.63972513 0.00000000
-0.61285390 0.16921431 0.18135298
-0.62340780 -0.40923221 -0.00000026
0.07008829 0.05949295 0.00000000
0.22851214 -0.12965074 0.00000000
-0.39509221 -0.52377080 0.00000000
0.05393757 0.26301253 0.00000000
-0.71110361 -0.52933264 -0.00000034
0.53534409 -0.67662728 0.00000000
0.12925585 0.21142875 0.00000000
-0.06874441 0.43984105 0.00000000
-0.36878131 0.41732940 0.14047422
-0.02693282 -0.70100700 0.00000000
-0.17859124 0.16872629 0.00000000
-0.40605376 -0.76219908 0.00000000
-0.31910190 -0.66623283 0.00000000
-0.72281736 -0.28475200 -0.00000058
0.09257446 0.32253485 0.00000577
-0.11480139 -0.36325904 0.00000000
0.33066163 0.10101055 0.00000533
0.73979216 -0.41409013 -0.00000096
-0.69944434 0.09282655 -0.00000087
0.22543434 0.43258619 -0.00000031
-0.47223755 -0.68139805 0.00000000
0.12734441 -0.53363924 0.00000000
0.76146075 -0.07882737 -0.00000170
0.15503355 0.57148405 0.00000084
0.74122489 -0.21171156 -0.00000137
0.06455727 -0.60462385 0.00000000
0.24116511 0.06448786 0.00000739
0.44914351 -0.74395745 0.00000000
-0.22406387 0.43383475 -0.00000015
-0.14068950 -0.64939877 0.00000000
0.30917273 -0.64400032 0.00000000
-0.63351189 -0.22905928 -0.00000044
0.20255754 -0.48545938 0.00000000
-0.57624506 0.00077682 -0.00000052
0.09480496 -0.15098971 0.00000000
0.34634867 -0.19806815 0.00000000
-0.44456737 0.32924411 -0.00000053
-0.16927132 -0.38176030 0.00000000
-0.38824595 0.38923890 0.22771425
0.18482140 -0.64455616 0.00000000
-0.25769029 -0.76644599 0.00000000
-0.05803059 -0.19430498 0.00000000
0.30290372 -0.63938679 0.00000000
0.71484391 0.04780355 -0.00000116
0.22002669 0.55382091 -0.00000050
-0.38888138 -0.48037325 0.00000000
0.21773536 -0.23637760 0.00000000
-0.25932631 0.50200138 0.39112592
0.59900554 0.10497291 -0.00000133
0.49003252 -0.32025710 -0.00000011
-0.60444475 0.17026212 0.25580440
0.72189627 -0.28934483 -0.00000116
0.24974288 0.42561746 -0.00000040
0.33863453 0.04661436 -0.00000011
-0.51529033 -0.79334107 0.00000000
0.38734902 0.31914847 0.00000059
-0.51612119 0.10556186 -0.00000049
-0.11669594 0.67960541 0.03741463
-0.48731009 0.31221335 0.00481708
0.07072578 -0.68840466 0.00000000
0.42527700 -0.02254595 -0.00000036
-0.28015409 0.37070806 -0.00000022
-0.04276829 0.00494024 0.00000000
0.43722831 0.02498250 -0.00000050
-0.45882015 -0.14036771 -0.00000015
0.08457257 0.51433572 0.00000301
0.01919802 0.55519422 0.00000000
-0.78576390 -0.48604970 -0.00000039
0.66032752 -0.79104332 -0.00000001
-0.63909208 0.01323278 -0.00000067
0.26377407 0.00309426 0.00000797
-0.72192467 -0.39011711 -0.00000049
0.48850283 -0.47547010 0.00000000
0.17654167 -0.08354415 0.00000000
-0.04874596 -0.32201622 0.00000000
-0.40221687 -0.65054107 0.00000000
0.58185884 -0.40806405 -0.00000035
0.01325700 -0.29550479 0.00000000
-0.15495639 0.62310010 0.22193753
0.04912630 0.04634004 0.00000000
-0.47401545 0.31673807 0.09351501
0.30171130 0.33299294 0.00000201
-0.17740652 0.16217021 0.00000000
0.18653131 -0.56110821 0.00000000
-0.39796230 0.38963094 0.12547938
-0.41763934 0.35058968 -0.00000049
-0.59017202 -0.31367755 -0.00000027
0.68643082 -0.06022253 -0.00000141
0.11711677 0.56777388 0.00000163
-0.39967972 0.17843418 -0.00000030
0.55841423 -0.15948315 -0.00000069
0.17310815 0.15521926 0.00000000
-0.01699489 -0.17785755 0.00000000
0.15038845 -0.24189776 0.00000000
0.05317773 -0.76051673 0.00000000
-0.29660591 0.49887047 0.04575342
-0.40706101 -0.78252167 0.00000000
-0.19211001 0.59779083 0.10214622
-0.23403191 0.24665090 -0.00000001
-0.00831935 0.56703526 0.00000000
0.43271341 0.11021049 -0.00000063
-0.01251892 -0.54575659 0.00000000
0.45888209 0.26300231 -0.00000101
-0.27152609 0.50145744 0.27324182
0.51665953 -0.59022032 0.00000000
-0.59613363 -0.37443674 -0.00000023
0.11023150 0.30003695 0.00000000
-0.53832893 0.25023420 0.11566644
-0.66306944 -0.56626701 -0.00000021
-0.24236912 -0.23571086 0.00000000
0.56414639 -0.01438775 -0.00000097
0.52058834 -0.63284589 0.00000000
0.42660035 0.26009241 -0.00000087
-0.37255332 0.29897303 -0.00000035
-0.38534854 -0.75606518 0.00000000
0.15021628 0.10074023 0.00000000
-0.47674220 0.26163975 -0.00000054
-0.62710610 -0.49139507 -0.00000020
0.58680897 -0.69077619 0.00000000
-0.19482460 0.33469523 -0.00000000
-0.66879808 0.11689011 0.14473957
0.47344775 0.07903414 0.00000295
-0.78572078 -0.31574753 -0.00000061
-0.42805158 -0.76813408 0.00000000
0.22823597 -0.52160527 0.00000000
-0.38415114 -0.48075152 0.00000000
-0.28168847 0.49265729 0.25946434
-0.45095307 -0.37504850 0.00000000
-0.02124919 -0.14935529 0.00000000
0.15438377 0.02855192 0.00000000
-0.58514775 -0.59547865 -0.00000002
-0.52399870 -0.42564023 -0.00000003
0.48759714 0.09127978 -0.00000083
0.03220495 0.02861060 0.00000000
-0.48674239 -0.73296477 0.00000000
-0.23932619 -0.40492582 0.00000000
-0.26697786 -0.53806728 0.00000000
-0.17450560 0.55871824 -0.00000016
-0.67145772 0.06456569 -0.00000078
0.02140729 0.35253765 0.00000639
-0.67974320 -0.64908357 -0.00000017
0.11331957 -0.35789496 0.00000000
0.15852523 -0.70192837 0.00000000
0.70807308 -0.63692735 -0.00000041
-0.26289448 0.45071620 -0.00000025
-0.45212743 0.00801718 -0.00000026
-0.14255042 -0.15896409 0.00000000
0.02718915 0.47672987 0.00000444
-0.77464565 -0.68407609 -0.00000014
-0.79595361 -0.79286620 -0.00000001
0.43954356 0.30098535 -0.00000011
-0.19316982 0.20633355 0.00000000
0.33720389 0.34291674 0.00000116
0.45145335 -0.37079702 0.00000000
-0.14994482 -0.08822070 0.00000000
0.29682776 0.03567950 0.00000000
0.62319049 -0.31684734 -0.00000069
-0.21027565 0.52709184 -0.00000021
0.46662439 0.13087548 -0.00000081
-0.76778943 -0.51589720 -0.00000036
-0.75050500 -0.65194010 -0.00000019
0.06723640 -0.64370430 0.00000000
0.35645827 0.08442289 -0.00000026
0.03551028 0.35358593 0.00000000
-0.07139987 -0.44786729 0.00000000
0.26494533 -0.49088786 0.00000000
0.18147313 0.19513857 0.00000633
-0.43665749 0.30518561 -0.00000049
0.40270912 0.28117822 0.00000093
0.30647566 0.32752900 -0.00000047
0.01556329 0.64996986 0.00000202
0.23156018 -0.66117980 0.00000000
0.14929783 -0.06459158 0.00000000
0.79899624 -0.38994765 -0.00000103
-0.74279977 -0.70849525 -0.00000011
0.74123286 0.03448166 -0.00000181
0.33973476 -0.05164974 0.00000000
0.02824686 0.62542938 0.00000000
0.00226561 0.75599724 0.00000000
0.21110099 -0.60046252 0.00000000
-0.36538432 0.42958797 0.05084991
-0.71231506 -0.04451692 -0.00000077
-0.40126204 -0.03928594 -0.00000011
-0.59847431 -0.34585205 -0.00000026
0.56264442 0.03146177 -0.00000104
0.03436447 0.13848875 0.00000000
0.25217049 -0.36435130 0.00000000
0.38295165 0.03689743 -0.00000029
0.36414733 -0.08487930 0.00000000
-0.69700007 -0.15634751 -0.00000064
-0.54363022 -0.25130501 -0.00000023
-0.70368137 -0.42370207 -0.00000042
-0.10662191 0.00692582 0.00000000
-0.00100875 -0.47355550 0.00000000
-0.02703237 0.11157572 0.00000000
-0.50184580 0.28854060 0.09722718
0.64664698 -0.32636807 -0.00000077
0.02175096 0.62112371 0.00000235
-0.61353298 0.17884253 0.07710665
0.35516841 0.11197863 -0.00000030
-0.49977367 -0.68757921 0.00000000
-0.31468314 0.36017468 -0.00000028
-0.38268194 0.16623180 -0.00000026
0.11176786 0.17953663 0.00000762
0.31291396 0.15656505 0.00000474
-0.67203038 -0.00317714 -0.00000072
-0.07359500 -0.65889087 0.00000000
-0.66942892 -0.64495174 -0.00000015
0.53959978 0.22111067 -0.00000069
-0.43551425 0.36300877 0.01493662
-0.10856560 -0.76570012 0.00000000
-0.58475556 0.07824719 -0.00000061
0.39454102 -0.16592445 0.00000000
0.50111119 -0.17061283 -0.00000042
-0.53132779 -0.65883797 0.00000000
0.24875953 0.03458579 0.00000000
-0.51226795 -0.79169664 0.00000000
0.11175863 0.27607910 0.00000000
0.71073666 -0.75477513 -0.00000011
-0.61667686 -0.68012776 -0.00000001
-0.52582495 -0.30415810 -0.00000015
-0.11032403 0.15768486 0.00000000
0.38530028 0.26295741 0.00000157
-0.56710508 0.20735175 0.25833429
0.15389024 -0.60208018 0.00000000
0.09913485 -0.21837411 0.00000000
0.04747526 0.59951333 0.00000000
0.36642011 0.05835545 -0.00000025
0.08975758 -0.69160145 0.00000000
0.63196223 -0.57691717 -0.00000026
-0.07638035 0.35938606 0.00000000
0.76169354 -0.66207622 -0.00000034
0.36947634 0.21603294 0.00000266
0.40168109 -0.49263527 0.00000000
0.19456107 -0.12962916 0.00000000
0.37321983 0.14028569 -0.00000043
-0.26666905 -0.63472659 0.00000000
-0.54126000 -0.76793426 0.00000000
-0.66644466 0.12703398 0.06594844
0.17304919 -0.46781403 0.00000000
0.33658153 0.35525942 0.00000097
-0.69434563 -0.52726501 -0.00000031
0.46974318 -0.60735876 0.00000000
0.00012546 0.27733845 0.00000000
-0.32430798 0.45912363 -0.00000039
0.30632026 -0.75937708 0.00000000
0.03956200 0.20178576 0.00000000
-0.12344911 0.00139420 0.00000000
-0.22569349 0.15669625 0.00000000
0.25505448 -0.26979825 0.00000000
0.69295756 -0.58752974 -0.00000050
0.50943593 0.23565764 -0.00000118
0.71802563 -0.72429047 -0.00000019
-0.65326235 -0.38948630 -0.00000034
-0.09157451 -0.15597159 0.00000000
0.16746728 -0.45675524 0.00000000
