ply
format ascii 1.0
element vertex 1402
property float x
property float y
property float z
end_header
0.18599446 0.56577111 0.22823065
-0.52201169 0.70893769 0.00000000
-0.66524191 -0.48178291 0.00000000
-0.48653020 -0.35361752 0.00000000
-0.65201665 -0.12771032 0.00000000
0.44952535 0.27584675 -0.00000050
-0.24168805 0.68306068 0.00000000
0.21247728 -0.03397132 0.00000000
-0.14819622 -0.63606167 0.00000000
-0.59525460 0.58634461 0.00000000
-0.45799738 0.49268723 0.00000000
0.55178918 0.22760976 -0.00000067
0.65796655 -0.05222913 -0.00000065
-0.50288967 -0.02708670 0.00000000
0.35330950 0.36189940 0.40120927
-0.43847717 0.40416051 0.00000000
0.38356530 0.31859132 0.46296997
0.59794403 0.19183275 0.04836891
0.38322750 0.22785257 -0.00000031
-0.23854460 -0.15849097 0.00000000
-0.01333330 -0.51514995 0.00000000
-0.47779284 0.20932766 0.00000000
-0.12977527 0.37376462 0.00000000
-0.29260721 0.72713438 0.00000000
0.10048470 -0.19929517 0.00000000
0.52655038 -0.57817624 0.00000000
-0.53232272 0.08277163 0.00000000
0.05878691 0.40368309 0.00000000
0.02885000 -0.20877061 0.00000000
-0.12228525 -0.70626357 0.00000000
0.17599382 0.59461822 0.13905316
-0.14610875 0.38084511 0.00000000
-0.04200575 0.60677086 0.00000000
-0.41706329 0.28358595 0.00000000
0.36498996 -0.41318692 0.00000000
-0.28292073 0.36449994 0.00000000
0.38794063 0.40275371 0.04402740
-0.54670769 -0.53220351 0.00000000
-0.29609669 0.47244201 0.00000000
0.34084881 0.43593446 0.10985199
-0.07602595 -0.26536950 0.00000000
0.16770561 -0.20500189 0.00000000
-0.13269955 -0.00249262 0.00000000
-0.23520425 0.53894832 0.00000000
-0.67754337 -0.72833517 0.00000000
0.63400964 -0.32842808 -0.00000036
0.22326101 0.57032699 0.03033537
-0.79841543 -0.24680968 0.00000000
0.66081259 -0.47987604 -0.00000028
-0.49813517 0.46868287 0.00000000
0.19788186 0.56648308 0.16861313
-0.33050349 0.18765652 0.00000000
-0.45135242 0.70702643 0.00000000
-0.37077754 -0.07985141 0.00000000
0.36658000 -0.38509063 0.00000000
-0.50742242 0.51198293 0.00000000
-0.46546715 -0.34843765 0.00000000
0.37106531 0.32398183 0.49661046
-0.10790040 -0.63368860 0.00000000
0.31605651 0.07612254 -0.00000003
0.19753800 0.47156280 -0.00000013
-0.77097675 0.64862198 0.00000000
0.35821339 0.41075904 0.14681136
0.08924571 0.51366732 0.00000000
-0.25556824 0.30374717 0.00000000
-0.67204247 0.64322996 0.00000000
0.19353990 0.58421482 -0.00000022
0.27798291 0.51813017 0.01838715
-0.16976704 0.20662811 0.00000000
0.48117142 0.31159451 -0.00000060
0.19549318 0.60014146 0.02065109
0.34087291 -0.15657573 0.00000000
0.53300350 0.22519259 0.19780273
0.03069811 0.45447232 0.00000000
0.25815550 0.48410360 0.27321334
-0.19454799 -0.10467719 0.00000000
-0.48935247 -0.79572589 0.00000000
-0.24013707 0.26501534 0.00000000
0.24919313 0.44745303 -0.00000022
-0.37867293 0.29890762 0.00000000
-0.17662283 -0.04832250 0.00000000
-0.24880440 -0.42473756 0.00000000
-0.69185431 0.04452447 0.00000000
-0.49099425 0.17512697 0.00000000
-0.03881891 0.60140822 0.00000000
0.40874877 0.31128548 0.37837681
0.34351489 -0.33862697 0.00000000
0.27194518 -0.02691018 0.00000000
0.41128934 0.29452035 -0.00000043
0.42125694 0.21415603 -0.00000038
-0.63636464 0.23372183 0.00000000
-0.74978683 0.49028332 0.00000000
0.42025737 -0.38278535 0.00000000
0.40637864 0.31413476 0.37610956
0.08621179 -0.09085468 0.00000000
0.76768800 -0.30325289 -0.00000062
0.08337465 0.14256115 0.00000000
0.50470445 -0.16790320 -0.00000022
-0.42250918 0.74005597 0.00000000
0.29104624 0.19521380 -0.00000009
-0.33907858 0.35485180 0.00000000
0.76013382 -0.21152374 -0.00000073
0.46225078 -0.50374775 0.00000000
0.34463330 -0.34635663 0.00000000
-0.77098081 0.18750676 0.00000000
-0.47732154 0.47608574 0.00000000
0.68482703 0.10246761 -0.00000084
-0.08835557 -0.01294401 0.00000000
-0.21974473 0.64004734 0.00000000
0.10483401 -0.14811590 0.00000000
0.36039452 -0.22494308 0.00000000
0.63663908 -0.43974239 -0.00000026
-0.46715697 -0.72007165 0.00000000
-0.69371656 0.07529990 0.00000000
0.05237704 -0.18545254 0.00000000
0.07168167 0.72288227 0.02571765
-0.37443492 -0.34946078 0.00000000
-0.13109979 -0.53981553 0.00000000
0.38385175 0.36183564 0.25699162
-0.58383653 0.11422876 0.00000000
0.57760043 -0.03029486 -0.00000050
0.62330226 -0.54521729 -0.00000014
-0.43082254 -0.42457645 0.00000000
0.16938254 0.05201451 0.00000000
0.69393126 -0.22017508 -0.00000058
0.55735801 0.18747079 0.26105416
0.26791046 0.47000103 0.29378533
0.46554152 0.26863437 0.31146166
-0.46279912 -0.15094807 0.00000000
-0.67848050 0.04748746 0.00000000
-0.18535528 -0.23016177 0.00000000
0.62100081 -0.14879614 -0.00000049
0.20540160 -0.64253315 0.00000000
0.26904380 0.47197299 0.27909172
-0.53362949 -0.50270588 0.00000000
-0.05659668 -0.62745647 0.00000000
0.44474837 0.33575503 0.09224892
-0.68321262 0.76630154 0.00000000
-0.79483894 -0.40499224 0.00000000
-0.57828797 -0.48721396 0.00000000
-0.64841248 -0.46052085 0.00000000
-0.60364881 -0.53045718 0.00000000
-0.34357014 -0.28647412 0.00000000
0.10661298 0.43927512 0.00000000
0.29884315 0.18208983 -0.00000009
-0.34643453 0.74002025 0.00000000
-0.08603122 -0.51210040 0.00000000
0.23815754 0.49356745 0.32305846
-0.05763590 -0.78043504 0.00000000
-0.10601748 -0.10477584 0.00000000
-0.76268080 0.11805322 0.00000000
0.21412226 0.57567087 0.04829204
-0.57734203 -0.28688271 0.00000000
0.14381540 -0.39584482 0.00000000
-0.63766585 0.56131932 0.00000000
-0.61482597 0.02279436 0.00000000
-0.45925774 -0.15136399 0.00000000
-0.44693627 0.67272009 0.00000000
-0.11311278 -0.69717419 0.00000000
0.34293273 0.10111714 -0.00000011
0.16630713 0.61601966 0.08362135
0.35496168 0.40891671 0.17091541
-0.19517955 -0.34957353 0.00000000
0.33918488 0.40677412 0.25570632
-0.05197574 -0.03663497 0.00000000
-0.21986282 0.15392313 0.00000000
0.37926086 0.36336728 0.27146729
0.39773475 -0.61237701 0.00000000
0.15950967 -0.48222298 0.00000000
0.76155292 -0.22839065 -0.00000071
0.62190088 -0.75853353 0.00000000
0.56391008 -0.18123061 -0.00000034
0.18964433 0.59522164 0.07160644
0.06279772 -0.73697995 0.00000000
0.79145791 -0.27083512 -0.00000066
0.39007867 0.23128116 -0.00000033
-0.14643475 0.71521379 0.00000000
-0.08945241 -0.45775522 0.00000000
0.25399963 0.46548685 0.38096857
0.23769554 0.06515363 0.00000000
-0.44476421 -0.78645877 0.00000000
-0.22328343 0.30281831 0.00000000
0.59626986 0.19393925 0.04632317
0.24353238 -0.21744313 0.00000000
0.21537845 0.57188327 0.06027016
-0.14252405 -0.74560462 0.00000000
-0.40483845 0.19482973 0.00000000
-0.04975141 -0.24745700 0.00000000
0.71572754 -0.55548743 -0.00000031
0.00289837 -0.02526466 0.00000000
0.23740624 0.08411844 0.00000000
0.16567059 0.51245086 -0.00000010
-0.78463642 0.42360110 0.00000000
-0.20139392 -0.76228980 0.00000000
0.10506620 -0.01623723 0.00000000
0.18092861 0.60657627 0.05911960
0.47701255 0.27681963 0.21845198
0.48610464 -0.72922089 0.00000000
-0.70859647 -0.58277645 0.00000000
-0.24539785 -0.20793967 0.00000000
0.04046640 0.59465513 0.00000000
-0.24910930 0.30391296 0.00000000
0.48313645 -0.10068569 -0.00000023
-0.46432486 -0.79145376 0.00000000
-0.33815251 -0.06337277 0.00000000
0.13590390 -0.07755763 0.00000000
-0.24856230 -0.53896284 0.00000000
0.26795055 -0.25902292 0.00000000
0.46024114 0.32524679 0.06866307
0.40292456 -0.66888730 0.00000000
0.43108616 0.32107906 0.22633977
0.78425054 -0.51268052 -0.00000036
0.30909148 -0.72574887 0.00000000
-0.67565955 0.43378756 0.00000000
-0.49429844 -0.26424260 0.00000000
0.13386554 0.28201913 0.00000000
0.47694526 -0.47529585 0.00000000
0.03339273 -0.72841263 0.00000000
-0.71340781 0.62093510 0.00000000
0.72782131 -0.02561396 -0.00000082
0.39251835 0.30568506 0.48167568
0.45133778 0.29738547 -0.00000052
-0.76052632 0.24056347 0.00000000
-0.20670169 0.55110861 0.00000000
0.09109374 -0.18991652 0.00000000
-0.59454552 0.72982202 0.00000000
0.50314648 0.28169536 0.07172021
-0.67020440 -0.77846505 0.00000000
-0.61354339 0.48302824 0.00000000
-0.66245226 0.55757817 0.00000000
0.60941888 -0.74054620 0.00000000
0.60385341 0.06727376 -0.00000064
0.14317730 0.19863656 0.00000000
-0.74379568 -0.43459615 0.00000000
0.40597266 -0.77208084 0.00000000
0.18659298 0.55760530 0.26403748
-0.47602217 -0.64275109 0.00000000
0.21411098 0.54927702 0.17323582
0.19417466 -0.54563443 0.00000000
-0.79812633 -0.48214661 0.00000000
-0.71458252 0.32710348 0.00000000
-0.10195070 0.46500044 0.00000000
-0.53183861 -0.15753061 0.00000000
0.31832853 0.42001416 0.29174504
0.01922004 0.71217340 0.00000000
0.55648569 -0.63560537 0.00000000
-0.52447462 0.01620465 0.00000000
-0.45260249 -0.56644310 0.00000000
0.22325683 0.57473046 0.00951880
0.29996991 0.43518757 0.30681677
0.42628932 -0.74002203 0.00000000
-0.58652724 -0.51767743 0.00000000
0.10857585 0.40649452 0.00000000
-0.22667344 0.56693199 0.00000000
-0.72994440 0.38461813 0.00000000
0.47668127 0.12405062 -0.00000042
0.72053202 -0.39187702 -0.00000048
-0.69312648 0.76887691 0.00000000
-0.05994073 0.25614843 0.00000000
-0.30945345 0.12760523 0.00000000
0.52680232 0.23585755 0.17668095
0.69891268 -0.28139818 -0.00000054
-0.22275223 -0.08357676 0.00000000
-0.07288936 -0.23284912 0.00000000
0.70699453 -0.30089242 -0.00000054
0.79607317 -0.51050909 -0.00000036
0.19545382 0.57421892 0.14349772
0.44079896 -0.13240187 -0.00000012
-0.60592670 0.64886742 0.00000000
-0.51377471 -0.18740784 0.00000000
-0.41096819 -0.54875492 0.00000000
0.37178409 -0.33722190 0.00000000
0.72579239 -0.42916757 -0.00000046
-0.39930998 -0.75062552 0.00000000
-0.57834380 -0.26514862 0.00000000
0.40732412 0.37507660 0.08327122
0.35712762 0.25041797 -0.00000028
-0.26953011 -0.61931044 0.00000000
-0.42214187 0.22088206 0.00000000
0.36208286 -0.68022315 0.00000000
-0.52906396 -0.46510996 0.00000000
0.12033341 0.53048618 -0.00000002
-0.55472127 0.34578849 0.00000000
-0.39571325 -0.05505731 0.00000000
-0.20787937 -0.17755714 0.00000000
-0.02709465 0.60175633 0.00000000
-0.58277191 -0.37717327 0.00000000
-0.59769091 0.32248833 0.00000000
-0.25134482 0.43256523 0.00000000
0.14106025 0.62324819 0.16888036
-0.28757649 -0.67778550 0.00000000
0.44495773 0.26541742 0.42408171
0.36382758 0.16752943 -0.00000022
0.59522602 0.19114395 0.06448926
0.60147906 -0.38222868 -0.00000024
0.03548372 -0.59453120 0.00000000
-0.60203027 0.65981056 0.00000000
-0.17831684 0.73844697 0.00000000
0.42240840 -0.66245585 0.00000000
-0.27811173 0.06515839 0.00000000
0.36345936 0.33991453 0.45721007
-0.28841186 0.18059151 0.00000000
0.49587287 -0.56949755 0.00000000
-0.64003451 0.04956939 0.00000000
-0.37773253 0.70141862 0.00000000
0.03465585 0.76228360 0.01447719
0.21068708 0.53679540 0.24849736
0.51716418 -0.72425870 0.00000000
-0.24286876 0.14349435 0.00000000
-0.48760584 -0.60716057 0.00000000
-0.68197640 0.46084182 0.00000000
-0.31673178 0.47636593 0.00000000
0.06450055 0.30952580 0.00000000
-0.49496799 0.31762248 0.00000000
0.29046623 0.41292213 0.45714148
0.32270485 -0.24382249 0.00000000
-0.50667333 -0.67825508 0.00000000
0.60802051 -0.30335271 -0.00000032
0.61694063 -0.40977527 -0.00000025
0.55404456 0.19264045 0.25227092
-0.66054370 0.34271766 0.00000000
-0.62835835 -0.21345608 0.00000000
0.02574959 0.25311403 0.00000000
0.45596199 0.01419508 -0.00000028
-0.41262744 -0.60186925 0.00000000
0.41705756 0.31454989 0.32361495
-0.43267595 0.07821136 0.00000000
0.48972139 -0.13578425 -0.00000022
-0.27838556 -0.24649052 0.00000000
-0.78463253 -0.63556659 0.00000000
0.44652281 0.33539962 0.08553436
0.79804323 -0.19483547 -0.00000076
-0.41850080 0.64954309 0.00000000
-0.40481630 -0.29454826 0.00000000
-0.69205754 -0.36421266 0.00000000
-0.64358718 -0.17876213 0.00000000
-0.59765373 -0.75931718 0.00000000
0.26546963 0.49950783 -0.00000030
0.30714375 0.02257896 0.00000000
0.28409054 -0.77248612 0.00000000
-0.29268544 -0.63304166 0.00000000
0.32025077 -0.51711357 0.00000000
0.57079629 -0.77896622 0.00000000
-0.15314746 -0.78186863 0.00000000
-0.20038424 -0.68025045 0.00000000
0.30601942 -0.68319479 0.00000000
-0.40424090 0.76642665 0.00000000
-0.25775860 -0.72447582 0.00000000
-0.48121575 0.34565320 0.00000000
-0.73899663 -0.62967777 0.00000000
0.41797893 -0.00177653 -0.00000018
-0.56365369 0.33928294 0.00000000
0.27924764 0.46594420 0.25933624
-0.60828475 -0.74308978 0.00000000
-0.18707912 0.59800280 0.00000000
0.15337941 0.44248932 -0.00000001
0.36134275 -0.58534023 0.00000000
-0.59382025 0.72130060 0.00000000
-0.27787764 0.28844655 0.00000000
-0.75733061 0.13388011 0.00000000
0.73779808 -0.05372884 -0.00000082
-0.34452335 0.61586454 0.00000000
0.20733756 -0.33574078 0.00000000
0.40970859 0.36676435 0.11132034
0.45006028 0.31136446 -0.00000053
0.59045402 -0.40919491 -0.00000019
-0.30104964 0.72152138 0.00000000
-0.08792510 0.75840900 0.00000000
0.21611254 0.55626599 0.13069453
0.04160340 0.18229215 0.00000000
0.76570603 -0.30663533 -0.00000062
-0.71936472 -0.17033846 0.00000000
0.38536222 -0.68169142 0.00000000
-0.51648480 0.45563421 0.00000000
-0.11389246 0.04308907 0.00000000
-0.69603756 0.25582623 0.00000000
0.03618302 0.28767954 0.00000000
0.52528755 0.25697926 0.08390467
0.31325305 0.21606978 -0.00000015
0.27251472 0.37827659 -0.00000021
0.18814036 0.06595240 0.00000000
-0.32098911 -0.51717962 0.00000000
-0.32028419 -0.54007171 0.00000000
0.44304240 -0.32216186 0.00000000
-0.66433550 0.61044474 0.00000000
0.06752899 -0.22169862 0.00000000
-0.42934356 -0.32270723 0.00000000
0.46617251 -0.73627182 0.00000000
0.14604360 -0.67346999 0.00000000
-0.47586584 0.06023645 0.00000000
0.59016987 0.18824205 0.10214525
-0.63283347 0.45365187 0.00000000
0.20175124 0.54729987 -0.00000021
-0.46300604 0.22661079 0.00000000
0.25723895 -0.48753316 0.00000000
0.12686137 0.67182610 0.00620578
-0.21689686 0.69946277 0.00000000
-0.16530806 -0.35350779 0.00000000
0.26006681 0.52619779 -0.00000031
0.11334118 -0.59232394 0.00000000
0.46292865 0.30566453 0.14860579
-0.35097300 0.75851462 0.00000000
0.09227453 0.05724385 0.00000000
-0.76930066 0.11946857 0.00000000
0.48772541 -0.36225634 -0.00000001
-0.49433781 -0.49754452 0.00000000
-0.61842111 0.48010756 0.00000000
0.35345314 -0.36423088 0.00000000
0.26087152 0.50326819 -0.00000029
0.03145224 -0.24054552 0.00000000
0.15149465 -0.03147758 0.00000000
-0.61298928 0.79486114 0.00000000
0.75177918 -0.22471801 -0.00000070
0.47484453 0.30117886 0.11344742
-0.48410343 0.06719992 0.00000000
0.32172463 0.45267342 0.12113840
0.25463771 -0.41806777 0.00000000
0.45426598 -0.16070982 -0.00000012
0.27225565 0.34035891 -0.00000017
0.45524733 0.27560244 0.32720015
0.25469623 0.39905560 -0.00000019
-0.69318289 0.05942818 0.00000000
0.06816545 -0.36497086 0.00000000
0.26410564 -0.50254577 0.00000000
0.61240186 -0.76992052 0.00000000
-0.11622510 -0.10638045 0.00000000
0.68954617 0.09742929 0.06162409
-0.08945008 -0.30953709 0.00000000
0.05997154 -0.32337237 0.00000000
0.38112303 0.37960160 0.18583831
0.32869242 -0.63530744 0.00000000
-0.41069031 0.42733949 0.00000000
-0.23973995 -0.26190104 0.00000000
0.46906154 0.29630802 0.16385932
-0.63870564 -0.13524173 0.00000000
-0.22650359 0.79379499 0.00000000
0.22978033 0.53236311 0.17912484
-0.17590057 -0.34349902 0.00000000
0.29963487 0.50012573 0.00112776
0.07213900 0.52805179 0.00000000
0.59188988 -0.43517910 -0.00000017
-0.63516280 0.00747650 0.00000000
-0.18437758 -0.35924689 0.00000000
0.48811420 0.26800704 0.20762052
-0.71181950 0.45580319 0.00000000
0.69089642 -0.33606225 -0.00000047
0.03533373 0.52771542 0.00000000
0.37670493 0.34753894 0.35845778
0.22492376 0.33565845 -0.00000007
0.42878845 0.16479893 -0.00000035
0.31036274 -0.51401489 0.00000000
0.35322241 0.19878509 -0.00000022
-0.52734300 0.18727083 0.00000000
-0.13085904 0.42413118 0.00000000
0.33790263 -0.29282986 0.00000000
0.49149131 0.28256313 -0.00000059
0.48622495 0.25423690 0.28171779
0.05707155 -0.55960339 0.00000000
-0.09846592 -0.44979068 0.00000000
-0.77364227 0.61211974 0.00000000
0.01271091 0.43385617 0.00000000
-0.37528470 0.13123206 0.00000000
0.57694791 -0.22024365 -0.00000033
0.56278938 -0.04383848 -0.00000046
-0.34641613 0.23504093 0.00000000
-0.28235981 -0.72106733 0.00000000
0.46264940 0.30673544 0.14485981
-0.24810761 0.47251277 0.00000000
-0.58508621 -0.38276051 0.00000000
0.04386888 0.17873230 0.00000000
0.53644868 -0.46595456 -0.00000003
-0.22528578 0.02000013 0.00000000
-0.72146116 -0.28533705 0.00000000
0.65520260 -0.04319670 -0.00000065
-0.06249847 0.68620276 0.00000000
0.42221972 0.16900762 -0.00000034
0.36773962 0.42442824 0.03705504
-0.04489596 -0.76532670 0.00000000
-0.55860591 -0.24882821 0.00000000
0.26091312 -0.54426349 0.00000000
0.29650103 0.45602811 0.22461777
-0.29389266 -0.63039079 0.00000000
-0.20777368 0.12123377 0.00000000
0.29942951 0.43761534 0.29788615
-0.20612291 -0.54375221 0.00000000
0.56054141 0.17897009 -0.00000065
-0.03946868 0.48312433 0.00000000
-0.78788968 0.14269651 0.00000000
-0.65668603 0.63105070 0.00000000
-0.30268021 0.36630082 0.00000000
-0.54733258 0.71420455 0.00000000
-0.63059506 0.02911097 0.00000000
0.08221086 -0.70095118 0.00000000
-0.38885849 -0.56426123 0.00000000
-0.78135069 -0.23738763 0.00000000
-0.12344658 -0.40756863 0.00000000
0.26465133 -0.26608855 0.00000000
0.23236020 0.20968551 0.00000000
0.33658828 -0.76218207 0.00000000
0.74776796 0.04143131 -0.00000093
0.39478848 0.31704917 0.41716138
-0.54062057 0.36762700 0.00000000
0.06316568 0.71637161 0.09682061
-0.53960711 0.59968561 0.00000000
-0.41716103 0.11649595 0.00000000
-0.01466200 0.53115407 0.00000000
-0.26514526 0.52286331 0.00000000
0.44282495 -0.65574158 0.00000000
-0.33273103 -0.32260034 0.00000000
-0.14321279 0.30618618 0.00000000
0.46945705 -0.22831213 -0.00000009
0.70352958 0.07796142 0.08757547
0.29685795 0.49481009 0.03942016
0.16960253 0.58545004 0.21267723
0.63352199 -0.48284630 -0.00000022
0.44744170 0.26703980 0.40465128
0.08147376 0.65411438 -0.00000004
0.11525161 -0.73363598 0.00000000
-0.38708864 0.00982610 0.00000000
-0.30723605 0.41524856 0.00000000
-0.71659508 -0.55374344 0.00000000
0.08799317 0.70947123 0.01199320
0.13706309 0.63500135 0.13218064
0.50264380 -0.34580890 -0.00000006
-0.64225204 -0.06731293 0.00000000
0.05392859 -0.77995380 0.00000000
-0.10918655 -0.27039399 0.00000000
-0.07772403 -0.68747515 0.00000000
-0.13049186 -0.65712926 0.00000000
0.03579992 -0.12656116 0.00000000
0.00447767 -0.29615624 0.00000000
0.43127118 -0.00353289 -0.00000021
-0.61679541 0.72938854 0.00000000
-0.41967780 0.64440657 0.00000000
0.26361691 0.20940485 -0.00000004
-0.70764238 0.30035479 0.00000000
0.48243286 0.22759421 -0.00000052
0.38419016 -0.10525961 -0.00000002
-0.19412460 0.49642889 0.00000000
0.22455869 -0.18456501 0.00000000
0.28934384 0.32366509 -0.00000020
0.49333467 0.24207127 0.30564137
0.26398655 -0.15871691 0.00000000
0.53003712 -0.34969116 -0.00000011
-0.02457243 -0.29034975 0.00000000
0.53646386 -0.42268386 -0.00000006
-0.40464702 0.68876503 0.00000000
-0.26314819 -0.05171826 0.00000000
-0.55292772 -0.56036143 0.00000000
0.52851022 -0.14543706 -0.00000029
-0.20956674 0.28514576 0.00000000
0.26299915 0.45113645 0.40628778
0.34616793 0.44963327 0.01986278
-0.19267542 -0.02034560 0.00000000
-0.50092146 -0.75055322 0.00000000
-0.29720001 0.49649263 0.00000000
0.29964627 -0.34005689 0.00000000
-0.69434711 -0.30372526 0.00000000
-0.05336165 0.49651754 0.00000000
0.39719501 0.08161223 -0.00000021
0.44352652 0.31432437 0.19943629
0.28819746 -0.44638003 0.00000000
0.06963526 0.46765167 0.00000000
-0.33207971 0.53571698 0.00000000
0.48587312 0.22827038 -0.00000053
0.51444485 0.23187686 -0.00000060
0.76271808 -0.75675205 -0.00000005
0.17591205 -0.46994013 0.00000000
0.27781494 0.43539864 -0.00000027
-0.65171034 0.15342508 0.00000000
-0.30173608 -0.33676508 0.00000000
-0.43492647 0.59704083 0.00000000
-0.01233823 -0.48486590 0.00000000
-0.39542104 -0.68658210 0.00000000
0.28000067 0.50945466 0.04989033
0.37384607 -0.00565041 -0.00000009
0.07822749 0.16214305 0.00000000
0.05452950 0.69402825 -0.00000002
-0.33911414 -0.25700836 0.00000000
-0.64471306 0.32931325 0.00000000
0.49842152 -0.66102344 0.00000000
0.18565818 -0.71951780 0.00000000
0.09160880 -0.17891272 0.00000000
-0.44164527 -0.35329512 0.00000000
-0.75239035 -0.50721552 0.00000000
0.09986434 -0.17352858 0.00000000
-0.49920457 0.23901348 0.00000000
-0.52667543 -0.63882980 0.00000000
0.32686822 -0.77549781 0.00000000
-0.31329386 -0.41767360 0.00000000
-0.76413619 0.16760548 0.00000000
-0.09169405 -0.60043266 0.00000000
-0.21887917 0.08413154 0.00000000
-0.13845566 0.41702804 0.00000000
0.32621267 -0.32125079 0.00000000
-0.77775752 -0.30018240 0.00000000
-0.23104873 0.78072260 0.00000000
0.18434910 0.61452503 0.00532250
-0.59256870 -0.36759906 0.00000000
0.50199913 -0.57266464 0.00000000
0.68526504 0.11433261 0.00189830
0.35093162 0.23609772 -0.00000025
0.68477188 -0.38409441 -0.00000041
-0.54902167 -0.77378228 0.00000000
0.35183232 -0.74514378 0.00000000
-0.53407259 -0.60896290 0.00000000
0.11938613 0.61989979 -0.00000010
0.54123618 -0.45782791 -0.00000004
-0.58119303 -0.76962248 0.00000000
-0.32555922 0.38146751 0.00000000
0.38201634 -0.68000329 0.00000000
0.15796321 -0.21362647 0.00000000
0.11188981 0.07026161 0.00000000
0.63506033 -0.19143231 -0.00000048
-0.55473562 0.73661741 0.00000000
0.09883483 0.45039639 0.00000000
0.53961200 0.20158386 0.27824453
-0.04324876 0.73752398 0.00000000
0.38562126 -0.79444030 0.00000000
-0.54024221 0.47137493 0.00000000
0.55791556 -0.29110662 -0.00000023
-0.45972905 0.28613175 0.00000000
0.39807964 0.02319388 -0.00000016
0.44148793 0.18985339 -0.00000040
-0.00103501 0.35449137 0.00000000
-0.22782112 0.28337433 0.00000000
-0.33650373 -0.54890733 0.00000000
0.09701491 -0.56858483 0.00000000
-0.47798050 -0.07726160 0.00000000
0.16260057 0.29609080 0.00000000
0.23167029 -0.50259467 0.00000000
0.79362512 -0.59255159 -0.00000026
-0.02821100 -0.16242842 0.00000000
0.59998905 -0.72567146 0.00000000
-0.70485260 0.21696284 0.00000000
-0.16853439 -0.64301858 0.00000000
0.49248264 0.25502045 -0.00000057
-0.40221320 -0.01099873 0.00000000
0.28782682 -0.04557869 0.00000000
0.56772432 0.07411689 -0.00000057
0.35445616 0.28563474 -0.00000030
-0.35353623 0.21262571 0.00000000
0.25787278 0.47125380 0.33535366
0.19563329 0.24048177 0.00000000
-0.04827992 -0.66973214 0.00000000
0.58297401 0.17220956 0.21205734
0.17264329 0.15673195 0.00000000
-0.74373843 0.16631526 0.00000000
0.39671254 -0.08417123 -0.00000007
0.02444669 0.77521071 -0.00000003
-0.79734097 -0.69850995 0.00000000
-0.15304299 -0.28049318 0.00000000
-0.17054369 -0.20460317 0.00000000
-0.59051508 0.32673163 0.00000000
0.14335470 0.45877059 -0.00000000
-0.19016782 -0.08676309 0.00000000
-0.18275496 -0.52980635 0.00000000
0.25642753 -0.52862429 0.00000000
0.43990842 0.33490845 -0.00000053
0.73501864 -0.38363666 -0.00000052
0.68033149 -0.42881000 -0.00000037
0.44690573 0.31662619 0.17255467
-0.29623447 0.78171922 0.00000000
0.55534980 -0.11515911 -0.00000038
0.54970831 -0.08150825 -0.00000039
-0.30386799 0.77110818 0.00000000
-0.18318012 -0.63977832 0.00000000
0.28891833 0.41013890 -0.00000027
-0.47357142 -0.64215018 0.00000000
-0.15553854 0.36587318 0.00000000
-0.48588455 -0.10812626 0.00000000
-0.53690649 0.44375893 0.00000000
-0.14298494 0.57854185 0.00000000
0.74696356 0.04623968 0.03215534
-0.71564916 -0.74581731 0.00000000
-0.32281358 -0.75404812 0.00000000
-0.22903352 0.36881298 0.00000000
0.51147534 0.03058033 -0.00000041
-0.34349841 -0.40155670 0.00000000
0.69375762 0.02367568 -0.00000079
-0.16562469 0.39738710 0.00000000
-0.79211005 -0.64199188 0.00000000
-0.62783900 -0.76254927 0.00000000
-0.64471104 0.31883970 0.00000000
-0.44959401 -0.36783560 0.00000000
-0.33335821 -0.63465762 0.00000000
0.56944568 -0.33291836 -0.00000021
-0.79774335 -0.75975175 0.00000000
0.51069715 0.22756298 0.29213587
0.17471052 0.37058464 0.00000000
0.62843089 -0.16775683 -0.00000049
0.36581340 0.19573160 -0.00000025
0.69922120 -0.05928121 -0.00000073
-0.21625397 0.34117224 0.00000000
-0.55862779 0.38236603 0.00000000
0.57242200 0.18559352 0.19865709
0.37891958 0.33024861 0.42979270
-0.33305878 0.48123294 0.00000000
0.62528065 0.13460834 0.18979213
-0.66985544 -0.23731595 0.00000000
-0.06824577 -0.51500183 0.00000000
-0.24959143 0.09626726 0.00000000
0.46500267 0.28552909 0.23406894
0.29200971 0.39215958 -0.00000026
-0.61286641 -0.54678205 0.00000000
-0.09846212 -0.34125272 0.00000000
0.40510321 -0.69694329 0.00000000
-0.09209876 -0.61225928 0.00000000
0.15895358 0.58796759 0.25115329
0.53877667 0.25784836 0.01596433
-0.02366740 0.59712106 0.00000000
0.39013056 0.33887991 -0.00000042
0.25459930 -0.14574704 0.00000000
0.48818399 0.30139934 0.04928439
-0.44281025 -0.17554027 0.00000000
0.46094878 0.30650484 0.15399796
-0.51768473 0.39735440 0.00000000
-0.43849432 -0.33600289 0.00000000
0.31992593 0.46450825 0.07364939
0.62307705 -0.64195664 -0.00000006
0.44233972 0.33526592 0.10596057
0.67346932 -0.40409532 -0.00000037
-0.56363575 -0.46367768 0.00000000
0.33715826 0.00133049 -0.00000001
0.38840141 0.35774792 0.25480579
0.14198133 -0.46878426 0.00000000
0.60915697 0.17510727 0.07445312
0.75928809 -0.25985094 -0.00000068
-0.45746674 0.58854331 0.00000000
-0.79389597 0.13540298 0.00000000
-0.38026587 -0.30155596 0.00000000
0.30482061 0.48599319 -0.00000037
-0.65632691 -0.15283522 0.00000000
0.14469350 -0.10540800 0.00000000
0.03429146 0.14568647 0.00000000
-0.25372165 -0.01602464 0.00000000
-0.70496067 0.00122090 0.00000000
0.21277913 0.52018461 0.31719696
0.67137781 -0.74061526 -0.00000007
-0.11409129 -0.67615489 0.00000000
-0.37378209 0.04850608 0.00000000
-0.65126604 -0.76325369 0.00000000
0.64552694 -0.71529748 -0.00000004
-0.35326889 -0.63391569 0.00000000
-0.77616534 -0.37427745 0.00000000
-0.39812110 0.24912757 0.00000000
-0.30360111 0.28281823 0.00000000
-0.72174756 0.18006363 0.00000000
0.31167859 0.42574088 0.29611352
0.22646863 0.55858623 0.07071256
-0.58619420 0.31881502 0.00000000
0.16715387 -0.61156686 0.00000000
0.47601144 -0.27292736 -0.00000007
-0.48426828 0.36765306 0.00000000
-0.28308928 0.14048440 0.00000000
-0.40880267 0.20794155 0.00000000
-0.46493915 -0.34493454 0.00000000
-0.06235970 -0.50280173 0.00000000
0.05794994 0.58797414 0.00000000
-0.06438896 0.36056830 0.00000000
0.41066342 0.25451404 -0.00000039
0.58458666 -0.35565490 -0.00000023
-0.27817274 0.31056582 0.00000000
-0.12318233 -0.04660878 0.00000000
-0.50256317 -0.66581204 0.00000000
0.32629725 -0.26870528 0.00000000
-0.19260903 -0.43361122 0.00000000
-0.51159957 -0.14709567 0.00000000
0.38259032 -0.45686732 0.00000000
-0.05065745 0.71339833 0.00000000
0.38489360 0.40663747 0.04006824
-0.34033041 0.03720670 0.00000000
-0.23322431 0.58745828 0.00000000
-0.15607606 -0.08487599 0.00000000
-0.01063845 0.30779310 0.00000000
-0.28622267 -0.49724451 0.00000000
0.46362560 -0.29717514 -0.00000002
-0.39356612 -0.67123961 0.00000000
-0.68167676 0.15901716 0.00000000
0.54113371 -0.52002015 0.00000000
-0.63532785 -0.60893015 0.00000000
-0.55258283 0.00590327 0.00000000
0.14507638 0.06251339 0.00000000
-0.30105644 0.22144684 0.00000000
0.13537378 0.65364964 0.05193425
0.65222530 -0.48323737 -0.00000026
-0.02563343 0.28230287 0.00000000
-0.54274757 0.47545686 0.00000000
-0.06173580 -0.21532564 0.00000000
0.74058579 -0.14166381 -0.00000075
-0.12189435 0.27701277 0.00000000
0.77732738 -0.70431119 -0.00000012
0.37451669 0.35286333 0.34361816
0.28348992 0.43373254 0.39168147
-0.12292926 0.14948284 0.00000000
-0.45697883 0.03673503 0.00000000
0.25098989 -0.47822441 0.00000000
-0.29828385 0.74373356 0.00000000
-0.26338991 -0.76577097 0.00000000
0.46349425 0.26196514 0.35270630
-0.78005946 -0.04485478 0.00000000
0.55587687 0.17747378 -0.00000064
-0.24446361 -0.75433447 0.00000000
-0.15543571 -0.01607002 0.00000000
-0.46482363 -0.78795687 0.00000000
0.21775010 0.25555263 0.00000000
-0.38000649 0.66187274 0.00000000
-0.51954892 0.27915940 0.00000000
-0.28912767 0.21417614 0.00000000
0.26102483 0.47877464 0.28485181
-0.16491245 0.27188901 0.00000000
0.65169246 -0.57533034 -0.00000018
-0.08622952 -0.54966999 0.00000000
0.42270391 0.32297622 0.25702599
0.12088260 0.30822662 0.00000000
0.36718841 0.35919596 0.34832938
0.24928427 0.54995369 0.00360084
0.48198543 -0.78170914 0.00000000
-0.45209300 -0.53318036 0.00000000
-0.51708923 -0.75027502 0.00000000
-0.57318010 -0.29454300 0.00000000
-0.36604862 0.58098640 0.00000000
-0.57897866 0.29080262 0.00000000
-0.45017991 0.02435740 0.00000000
0.19256758 -0.54446983 0.00000000
0.66844172 -0.79144180 -0.00000001
0.56566637 -0.38805342 -0.00000016
-0.21394410 0.12251447 0.00000000
-0.67357617 -0.25603883 0.00000000
0.25726283 -0.56143488 0.00000000
0.23538482 0.51979453 0.21207743
-0.18388306 0.02457246 0.00000000
0.32547450 0.10610185 -0.00000008
-0.67491535 0.73555291 0.00000000
-0.77152162 -0.07187782 0.00000000
-0.70193109 0.14305977 0.00000000
-0.34547467 -0.25415236 0.00000000
-0.72842196 -0.49864269 0.00000000
-0.38988597 -0.35067576 0.00000000
-0.11017299 -0.19742498 0.00000000
-0.14418121 -0.10219887 0.00000000
0.38531654 0.32681043 0.41579238
-0.41058347 -0.72334060 0.00000000
0.44928651 -0.05383582 -0.00000020
-0.24388921 0.34027443 0.00000000
0.08218008 0.16229655 0.00000000
0.12434483 0.64824618 0.12968901
0.66762696 0.10209625 0.14325846
0.10028573 0.66579912 0.16047475
-0.57560134 0.10507174 0.00000000
0.09658554 0.68132449 0.10452049
0.74793060 -0.55902718 -0.00000030
0.65432126 -0.38185539 -0.00000035
-0.06768102 -0.43946515 0.00000000
-0.35713090 0.30031909 0.00000000
-0.59951007 -0.49460490 0.00000000
-0.49019196 0.01544368 0.00000000
-0.25972327 -0.72389563 0.00000000
-0.26968423 0.52105421 0.00000000
-0.62269640 0.62875633 0.00000000
0.46809869 -0.70980195 0.00000000
-0.42001793 0.72466119 0.00000000
-0.16665992 0.17313316 0.00000000
0.04532023 -0.33718894 0.00000000
-0.05307085 0.27528758 0.00000000
0.52722589 0.26964846 0.01478467
-0.74052017 0.01631247 0.00000000
-0.77289569 0.00323833 0.00000000
0.45422277 0.34259420 0.01505623
0.52750853 -0.49618840 0.00000000
0.65401370 -0.54851107 -0.00000020
-0.13020160 -0.36565882 0.00000000
0.60477718 -0.24062238 -0.00000037
0.22291837 -0.00370617 0.00000000
-0.77230382 0.63733740 0.00000000
0.11916748 0.47676901 0.00000000
0.24970888 -0.26688021 0.00000000
0.59403324 0.17795874 0.13252316
0.69096802 0.09356148 0.07319791
0.31670947 0.39295143 0.42746117
-0.14476907 0.55231544 0.00000000
-0.06490049 -0.55607655 0.00000000
0.23071297 -0.69302630 0.00000000
0.37043641 0.33663830 0.43969856
0.00986864 0.00101199 0.00000000
-0.71230598 -0.23261744 0.00000000
-0.29276744 0.66952106 0.00000000
0.64173042 0.15656891 -0.00000080
-0.49258161 0.05986359 0.00000000
0.75214351 -0.03692012 -0.00000087
0.31497790 -0.19823170 0.00000000
-0.11626967 -0.06582907 0.00000000
-0.02940392 0.08308215 0.00000000
-0.68577020 -0.51518014 0.00000000
0.01064081 0.72988146 0.00000000
0.52567519 0.21762143 0.26830413
0.40748271 0.36801322 0.11594336
-0.13860237 -0.73659544 0.00000000
0.37357531 -0.10593603 0.00000000
0.16107371 0.63718462 0.00823636
-0.66267848 0.62247841 0.00000000
0.33100306 -0.76637922 0.00000000
-0.10920290 -0.56237452 0.00000000
-0.40112084 -0.39992302 0.00000000
-0.47905002 -0.19963545 0.00000000
0.30809295 -0.73830419 0.00000000
-0.52287892 -0.55638757 0.00000000
-0.60035197 0.68498910 0.00000000
0.23558274 0.55860095 -0.00000029
-0.69392378 -0.32102052 0.00000000
0.21702970 0.10856911 0.00000000
-0.61616041 0.63640515 0.00000000
0.70631743 -0.02427569 -0.00000078
-0.13817375 -0.22209749 0.00000000
-0.68723331 -0.49364909 0.00000000
0.07764052 0.07042852 0.00000000
-0.78264065 0.76744225 0.00000000
-0.28284118 -0.60072618 0.00000000
-0.16531657 0.67179162 0.00000000
-0.00798662 0.78793077 0.00000000
-0.04413636 -0.51894452 0.00000000
0.49235908 0.26523399 0.20065611
-0.67253943 0.42729432 0.00000000
0.07721189 0.01186720 0.00000000
0.16887273 0.58743028 -0.00000017
0.20424077 -0.00852591 0.00000000
0.30027434 0.47691957 0.10790900
0.78382985 -0.70858230 -0.00000011
0.23211197 0.41598584 -0.00000016
0.53948800 -0.52089834 0.00000000
-0.07817842 0.04718445 0.00000000
0.40446374 -0.65559404 0.00000000
-0.29555983 -0.34319346 0.00000000
-0.14775940 -0.76973650 0.00000000
0.02927414 0.18029590 0.00000000
0.21995573 -0.26683354 0.00000000
0.43787640 -0.18959935 -0.00000006
-0.38389691 0.78043053 0.00000000
-0.18252299 -0.63747225 0.00000000
-0.07891607 -0.46960972 0.00000000
0.29906812 0.45327941 0.22547709
0.08454158 -0.47141182 0.00000000
0.30785784 0.41002380 0.38856240
0.61872120 0.16962180 0.05515324
0.45771589 0.30278705 0.18688726
0.03462371 0.75409769 0.05336332
-0.00299117 0.26939031 0.00000000
0.65855617 0.07925415 -0.00000077
-0.24278001 -0.67835110 0.00000000
0.35693076 -0.47773275 0.00000000
0.07379591 0.32578295 0.00000000
-0.18799570 0.33402206 0.00000000
0.33352452 0.04626752 -0.00000005
0.37079905 0.40335800 0.12227876
0.51383585 -0.12221315 -0.00000028
0.13870254 0.27023226 0.00000000
0.17279988 0.59209365 0.16611189
0.22776804 0.49326765 0.37363796
-0.03097409 0.69995167 0.00000000
-0.59263771 -0.73089338 0.00000000
-0.79086105 0.78951738 0.00000000
0.52711421 -0.42210589 -0.00000004
-0.15180800 -0.66129530 0.00000000
0.71274570 0.08498373 0.01073835
-0.23764468 0.68140680 0.00000000
0.04603143 -0.48542910 0.00000000
-0.51470541 0.37860608 0.00000000
-0.70123050 0.19080653 0.00000000
0.51049708 -0.21042002 -0.00000020
0.76817268 -0.70640823 -0.00000012
-0.67802741 0.25198607 0.00000000
-0.04143171 -0.10600380 0.00000000
0.40260166 0.37166910 -0.00000048
0.41047745 0.29701714 0.43771181
-0.46985034 -0.02429855 0.00000000
0.43145659 -0.05437401 -0.00000017
0.24586412 -0.51471666 0.00000000
0.42997472 0.28321004 0.41078718
-0.54499514 -0.21974027 0.00000000
0.75623481 -0.08782409 -0.00000083
-0.20100791 -0.08782482 0.00000000
-0.05017820 -0.12473277 0.00000000
-0.16827376 -0.03483561 0.00000000
0.29115493 -0.64496579 0.00000000
0.67545863 -0.43619057 -0.00000035
0.48099715 -0.29397201 -0.00000006
0.45749082 0.26211439 0.38040701
-0.31580236 0.23820274 0.00000000
-0.29206676 -0.56872412 0.00000000
0.31380659 -0.60340909 0.00000000
-0.44284227 -0.25727946 0.00000000
-0.41336847 0.08334144 0.00000000
-0.44754137 0.70235043 0.00000000
0.57463683 -0.70240236 0.00000000
-0.77515862 0.65877333 0.00000000
-0.06358706 -0.44116557 0.00000000
-0.36527858 0.00025309 0.00000000
-0.05303311 -0.56812916 0.00000000
0.28177791 0.18317720 -0.00000006
-0.01393130 0.73977801 0.00000000
-0.63909912 -0.11564913 0.00000000
0.56588195 0.22822447 -0.00000070
0.69864252 0.08114752 -0.00000086
-0.31053786 0.51299288 0.00000000
-0.63353841 -0.09083449 0.00000000
-0.49001275 0.30426525 0.00000000
-0.16557637 0.04066048 0.00000000
0.29673509 0.45719061 0.21800953
0.57568321 0.22213788 0.01030476
-0.19675325 -0.22268440 0.00000000
-0.02534867 -0.34441853 0.00000000
-0.75511217 -0.27511045 0.00000000
-0.24829927 -0.71813775 0.00000000
0.69081272 0.05534808 -0.00000082
0.10352277 0.67967107 0.07951864
0.21136132 0.34347853 -0.00000005
0.19978929 0.58057969 0.09288530
-0.11450188 -0.20617322 0.00000000
0.32872529 0.46879590 0.01172416
0.20918926 0.53396024 0.26900009
-0.69100531 0.65697637 0.00000000
-0.12095871 0.05718512 0.00000000
0.16813216 0.47069109 -0.00000007
0.35140248 0.35932512 0.42241383
0.29504571 -0.63194873 0.00000000
0.22702881 -0.28380577 0.00000000
-0.43936769 0.12231014 0.00000000
-0.41124506 -0.07908955 0.00000000
0.50905158 0.02473928 -0.00000040
-0.02422373 -0.75870060 0.00000000
0.28043952 -0.73785276 0.00000000
-0.00718988 -0.45202125 0.00000000
0.11338353 0.02435522 0.00000000
0.29982648 0.44844034 0.24478619
0.59004268 0.18222445 0.13122119
0.31628271 0.39681856 0.41118210
0.67414970 -0.68703351 -0.00000012
-0.46031893 -0.16717783 0.00000000
0.73614031 0.03226520 -0.00000089
-0.61631334 -0.16445888 0.00000000
0.08620999 -0.02813443 0.00000000
-0.17574440 0.31247049 0.00000000
0.55396406 0.23821243 0.03701397
0.41127987 -0.77649203 0.00000000
-0.51342280 -0.30766665 0.00000000
0.52408638 0.23043991 0.21516754
-0.73536917 -0.52784682 0.00000000
0.38470821 0.12936066 -0.00000023
0.38377035 0.07892701 -0.00000018
0.09098491 -0.41493810 0.00000000
0.37870545 0.06785003 -0.00000016
0.67944578 -0.59589255 -0.00000022
-0.43253594 0.54043325 0.00000000
-0.59213978 -0.44215685 0.00000000
0.63758294 -0.19044497 -0.00000049
-0.11105606 -0.57094281 0.00000000
0.15764757 0.45596148 -0.00000003
-0.51209944 0.07739954 0.00000000
0.27010667 -0.78102583 0.00000000
-0.72244549 0.54661755 0.00000000
0.13406965 0.17376589 0.00000000
-0.40288493 -0.40496666 0.00000000
-0.11868206 0.52395394 0.00000000
0.44121562 -0.16678812 -0.00000009
-0.09414552 -0.44663057 0.00000000
0.66505029 -0.41385059 -0.00000035
0.76707743 -0.24013840 -0.00000070
-0.68510521 -0.78892834 0.00000000
0.29435894 0.41699409 0.41945439
0.47347559 -0.50646225 0.00000000
-0.76116359 -0.66252160 0.00000000
0.63819229 -0.08445892 -0.00000058
0.01739401 -0.27293571 0.00000000
-0.61947202 0.74791122 0.00000000
-0.64907026 -0.02122971 0.00000000
-0.40449942 0.43658674 0.00000000
-0.43300671 0.19045722 0.00000000
0.44071803 0.34863447 -0.00000054
0.02328350 -0.39574706 0.00000000
0.26762090 0.52938230 0.01417525
-0.50307184 0.26508409 0.00000000
-0.00310440 -0.43353814 0.00000000
0.37555764 0.42246833 0.00933555
0.60276923 -0.77760601 0.00000000
-0.12148584 -0.65650383 0.00000000
-0.73049127 0.18980210 0.00000000
0.27432917 0.34338501 -0.00000018
0.52394106 -0.39814450 -0.00000006
0.25740544 0.06699069 0.00000000
0.53100472 -0.72029636 0.00000000
-0.61488865 0.52551489 0.00000000
-0.44505316 -0.79031683 0.00000000
-0.77074200 -0.78584921 0.00000000
-0.47108487 0.05651119 0.00000000
0.59318030 -0.38122444 -0.00000022
0.27798148 -0.63408677 0.00000000
0.09766543 0.33544507 0.00000000
0.30641803 0.43414950 0.28121760
0.08195259 0.37722207 0.00000000
0.00021794 0.43466621 0.00000000
-0.10337426 -0.69241882 0.00000000
0.41873881 -0.13787722 -0.00000006
0.45263705 0.13575467 -0.00000038
-0.54080647 -0.37986087 0.00000000
-0.67315183 -0.17725379 0.00000000
-0.25311956 -0.50993262 0.00000000
0.17899022 0.24370382 0.00000000
-0.48423679 0.33739821 0.00000000
-0.18292919 0.56608581 0.00000000
0.51630347 -0.00182307 -0.00000039
0.25324805 0.47158839 0.35565367
-0.31450333 0.75460107 0.00000000
0.33444913 0.43341364 0.15206214
0.25022687 0.53699423 0.06046234
-0.54475673 -0.23087197 0.00000000
-0.10287006 -0.27506261 0.00000000
0.03363630 0.56540472 0.00000000
-0.77699012 0.71566186 0.00000000
-0.44484167 0.32595227 0.00000000
0.72806361 -0.26065072 -0.00000062
-0.04042756 -0.32805046 0.00000000
-0.04800310 -0.71899266 0.00000000
0.40699447 0.28861190 -0.00000042
0.71282899 0.07959609 0.03583751
-0.66793611 -0.66321126 0.00000000
0.64454815 -0.49310152 -0.00000023
-0.60639036 -0.19500883 0.00000000
-0.29792202 0.39716201 0.00000000
-0.49575875 -0.55438443 0.00000000
-0.21812167 0.61220926 0.00000000
-0.57005973 -0.26432151 0.00000000
-0.49959652 -0.06322921 0.00000000
-0.77555147 -0.34570646 0.00000000
-0.13204333 0.17375172 0.00000000
-0.74027773 -0.34198762 0.00000000
0.17717703 0.30072611 0.00000000
-0.48633438 0.25395309 0.00000000
0.28528557 0.37413709 -0.00000023
-0.71219676 -0.34610836 0.00000000
0.33042562 -0.07167961 0.00000000
-0.61511488 -0.45532394 0.00000000
0.45997894 -0.28834938 -0.00000002
0.19414405 -0.69756693 0.00000000
-0.40189177 0.37517986 0.00000000
0.19987984 0.38958270 -0.00000006
0.66539726 0.10733006 0.12904356
-0.51477066 -0.40214929 0.00000000
0.09887016 -0.08295963 0.00000000
0.62346054 -0.65055098 -0.00000005
0.34805279 -0.76463116 0.00000000
-0.50662152 0.63833735 0.00000000
-0.04469760 0.48030239 0.00000000
0.54672450 -0.70186599 0.00000000
-0.00968367 0.70423005 0.00000000
-0.44876316 0.36396575 0.00000000
0.60181420 0.11819532 -0.00000068
0.47616192 -0.14875022 -0.00000018
0.45740550 0.29388967 0.23045666
-0.77643169 0.06738697 0.00000000
-0.07293453 0.32611912 0.00000000
-0.40324612 -0.50178696 0.00000000
0.47650149 0.27369242 0.23566759
-0.22795204 -0.28302952 0.00000000
-0.61939784 -0.01689442 0.00000000
-0.42454715 -0.14967321 0.00000000
0.30173529 -0.73555865 0.00000000
-0.60475289 -0.28784354 0.00000000
-0.50665882 0.14265015 0.00000000
0.45807352 0.32565040 0.07701004
0.11160460 0.65471170 0.15937958
-0.08582948 0.68521630 0.00000000
-0.20327107 0.70720450 0.00000000
-0.61336421 -0.31831106 0.00000000
-0.41844145 0.76987016 0.00000000
-0.75096001 0.06572224 0.00000000
0.54786835 0.19658258 0.26284216
0.10941800 0.66387962 0.12634545
-0.03026046 -0.22356630 0.00000000
0.10670673 -0.54560315 0.00000000
0.13334363 0.03159083 0.00000000
-0.75956568 -0.11461972 0.00000000
-0.30764017 -0.41084426 0.00000000
0.16833993 0.57751613 0.25619319
0.70409027 0.09040201 0.02605592
0.51699184 0.24010821 0.20298898
0.62506172 0.16968091 0.02487143
-0.18906790 -0.41507021 0.00000000
-0.12724752 0.29429982 0.00000000
0.25641136 0.53634232 0.03428322
0.12933696 -0.79001684 0.00000000
-0.79052854 -0.44033478 0.00000000
0.24197338 0.29526014 -0.00000007
0.23535155 -0.63329379 0.00000000
-0.61071448 -0.12624017 0.00000000
0.54786744 -0.74841636 0.00000000
-0.40705838 -0.23867486 0.00000000
-0.01828120 -0.26277132 0.00000000
-0.69632499 -0.40988419 0.00000000
-0.02220607 0.02564925 0.00000000
0.18022553 0.24851685 0.00000000
0.46885667 -0.15427703 -0.00000016
0.30293764 -0.05856779 0.00000000
-0.70136942 -0.61579508 0.00000000
0.39815335 0.36179591 0.18950721
-0.20432808 0.74066750 0.00000000
0.65073658 -0.30654829 -0.00000041
-0.20846463 -0.33633913 0.00000000
-0.40019603 0.22701593 0.00000000
-0.73085290 -0.44788884 0.00000000
0.54565310 -0.47424724 -0.00000004
-0.36576262 0.69108966 0.00000000
-0.46430025 0.76498641 0.00000000
0.60273628 -0.06382751 -0.00000052
0.57726664 0.19872614 0.11359212
0.16206960 0.36325062 0.00000000
-0.35025746 -0.46807794 0.00000000
-0.75837093 -0.48304434 0.00000000
-0.16880803 0.53972762 0.00000000
-0.37114935 -0.24988085 0.00000000
-0.22154150 -0.46138089 0.00000000
0.37621714 -0.79299775 0.00000000
-0.23342654 0.71812033 0.00000000
-0.22902838 0.45552263 0.00000000
-0.32170943 -0.21666969 0.00000000
0.43889511 0.21239275 -0.00000042
0.30777389 0.42436511 0.32109957
0.62354890 -0.61426400 -0.00000008
0.37252151 0.12052759 -0.00000019
0.57985650 -0.40364826 -0.00000017
0.53954573 0.19595656 -0.00000062
-0.21167469 0.08872623 0.00000000
0.33996616 0.25967503 -0.00000025
-0.68416848 -0.03264489 0.00000000
0.01718058 -0.58793352 0.00000000
-0.47934572 -0.40099423 0.00000000
0.63933086 0.02981419 -0.00000068
-0.37401648 0.28730425 0.00000000
-0.65837972 0.03309023 0.00000000
-0.06880079 -0.41333154 0.00000000
-0.79303171 -0.71370219 0.00000000
-0.35045106 -0.75789296 0.00000000
0.13373560 -0.66696710 0.00000000
0.65570328 -0.61969273 -0.00000014
-0.30331854 0.36351380 0.00000000
0.27104055 -0.77209422 0.00000000
-0.19177017 -0.14031146 0.00000000
-0.16873765 -0.79701688 0.00000000
0.07279214 -0.23221641 0.00000000
0.48192986 -0.39835884 0.00000000
-0.63923374 -0.11456186 0.00000000
0.54086606 0.25269428 0.03046590
-0.29672959 0.66377582 0.00000000
0.27311696 0.26612603 -0.00000011
-0.06063736 -0.32750720 0.00000000
0.55739291 -0.76632492 0.00000000
-0.19455177 -0.40572004 0.00000000
-0.64034856 0.78555998 0.00000000
0.07535275 -0.42948818 0.00000000
0.37563355 0.35867291 0.31084372
-0.11047781 0.54036907 0.00000000
0.08786962 -0.53182092 0.00000000
0.34481847 -0.14412874 0.00000000
-0.60204327 -0.36209103 0.00000000
-0.02189215 0.53214464 0.00000000
-0.00261833 -0.66379038 0.00000000
-0.26379865 -0.35733216 0.00000000
0.22576808 -0.41640826 0.00000000
0.25724211 0.21425896 -0.00000003
0.19070365 -0.42021299 0.00000000
0.30835553 -0.72031073 0.00000000
-0.73162386 0.60497029 0.00000000
0.11119789 -0.41650974 0.00000000
-0.70301492 0.00348265 0.00000000
-0.66640701 -0.61189185 0.00000000
-0.52855861 -0.15306887 0.00000000
-0.45575993 -0.02740135 0.00000000
-0.65030546 0.47358694 0.00000000
-0.59769731 0.46147387 0.00000000
-0.19497716 0.08312640 0.00000000
0.32400066 0.28438203 -0.00000024
0.52617167 0.25762212 0.07667930
-0.05815907 0.19526151 0.00000000
0.52200874 -0.50608415 0.00000000
0.39510611 0.38594269 0.08966828
-0.04814979 -0.58827532 0.00000000
-0.59708920 -0.75440657 0.00000000
-0.30311552 0.49519754 0.00000000
-0.37340433 -0.35157637 0.00000000
-0.49127424 0.16669399 0.00000000
-0.18272498 0.50700374 0.00000000
-0.15142411 -0.21555009 0.00000000
-0.24422234 0.36527162 0.00000000
0.37040530 0.09498941 -0.00000017
0.59809130 -0.57602689 -0.00000006
0.48894019 0.29641009 0.06931436
0.77657909 -0.29702012 -0.00000063
-0.52248370 -0.20939560 0.00000000
-0.12801070 -0.44912393 0.00000000
-0.22560362 0.10219908 0.00000000
0.41467565 -0.72196766 0.00000000
0.66913627 -0.74749796 -0.00000006
0.47128339 -0.10920413 -0.00000020
-0.46352568 -0.00906356 0.00000000
0.00273231 -0.67317316 0.00000000
-0.76661736 -0.55691047 0.00000000
-0.50051343 -0.50335133 0.00000000
-0.07183661 -0.78625213 0.00000000
0.65531771 -0.43278843 -0.00000031
0.15348736 0.62258987 0.11319303
0.47976108 -0.77609160 0.00000000
-0.19606463 -0.28511545 0.00000000
0.37891935 -0.08321548 -0.00000003
-0.27564590 0.24387015 0.00000000
0.40510223 -0.31190837 0.00000000
-0.24947865 0.42175278 0.00000000
0.74230122 -0.48908728 -0.00000039
-0.24895746 -0.05003986 0.00000000
-0.57198370 -0.18417840 0.00000000
0.45660867 -0.64565837 0.00000000
0.41612565 0.04847397 -0.00000022
0.15963503 -0.37251586 0.00000000
0.27558183 -0.23680559 0.00000000
0.45101499 -0.36580151 0.00000000
-0.04512886 -0.06660682 0.00000000
-0.15461506 -0.44931192 0.00000000
0.40621704 -0.76790461 0.00000000
-0.16287873 -0.11239032 0.00000000
-0.00107068 -0.69048685 0.00000000
0.19266196 0.56951514 -0.00000021
-0.53810278 -0.36323743 0.00000000
-0.37908880 0.15318999 0.00000000
0.15192538 -0.59536067 0.00000000
-0.69620762 0.03987342 0.00000000
0.67138303 -0.19761548 -0.00000055
-0.69585816 0.19284700 0.00000000
-0.26613767 0.56808502 0.00000000
0.29429465 0.17843840 -0.00000008
-0.38962390 -0.37381374 0.00000000
-0.55797120 -0.33196450 0.00000000
0.35527807 0.33459891 0.52107454
-0.06043740 -0.20190540 0.00000000
0.26282636 0.53175999 0.02561132
-0.46482525 0.13012792 0.00000000
-0.02601550 -0.24379462 0.00000000
-0.64624109 -0.12562812 0.00000000
0.32524458 0.43088791 0.20756750
-0.16930879 0.60546633 0.00000000
0.72969016 -0.71680337 -0.00000010
-0.52795806 -0.05153613 0.00000000
0.77777343 -0.51294994 -0.00000036
0.01166273 0.40733828 0.00000000
-0.77876929 0.62288795 0.00000000
0.36380849 0.34469513 -0.00000037
-0.49060800 -0.10881055 0.00000000
0.52251072 0.05155877 -0.00000045
0.42373026 -0.58235428 0.00000000
0.55230122 -0.62478468 0.00000000
-0.69340551 0.24720785 0.00000000
-0.69899620 0.37884264 0.00000000
0.44513434 -0.35877428 0.00000000
-0.33147033 0.27306850 0.00000000
-0.53188813 0.42295769 0.00000000
0.16258951 0.40248484 0.00000000
0.01009350 0.01505848 0.00000000
-0.75085141 -0.34616569 0.00000000
-0.33274821 0.29130560 0.00000000
0.25324745 0.46428695 0.39020534
0.00677173 0.38138814 0.00000000
0.20012184 -0.35344761 0.00000000
-0.20124017 0.72284789 0.00000000
-0.72473969 0.34150225 0.00000000
0.61174657 -0.60950010 -0.00000006
0.57826055 0.19669752 0.11848816
-0.47693483 -0.13973056 0.00000000
-0.30472539 0.68061726 0.00000000
-0.09675298 -0.13352135 0.00000000
-0.43900452 0.21493029 0.00000000
0.12152661 -0.22304536 0.00000000
-0.13194653 0.79305206 0.00000000
0.09672498 -0.66039919 0.00000000
-0.13289250 0.24095363 0.00000000
-0.25037083 0.55233913 0.00000000
-0.59520070 0.23226056 0.00000000
-0.05268220 0.48530220 0.00000000
0.16162742 -0.77944718 0.00000000
0.01388129 0.69492195 0.00000000
0.59046420 -0.14199456 -0.00000043
-0.27596934 -0.46859579 0.00000000
0.22617514 0.31487008 -0.00000005
-0.56455790 0.28400984 0.00000000
0.44329912 0.32904382 0.13086265
0.12979529 0.64225580 0.13224376
-0.30491012 0.42389819 0.00000000
0.24307230 0.02219304 0.00000000
0.64022083 -0.45720084 -0.00000025
0.26517597 0.18670183 -0.00000002
0.28192195 -0.33536696 0.00000000
0.20358482 0.03659632 0.00000000
-0.66469804 0.41288131 0.00000000
-0.59183854 0.12270222 0.00000000
0.22674904 -0.65435461 0.00000000
-0.48347920 -0.55267097 0.00000000
