ply
format ascii 1.0
element vertex 1384
property float x
property float y
property float z
end_header
-0.55955209 0.07551194 0.19761312
-0.73986219 -0.48973274 0.15662402
-0.17959413 0.13328102 0.00000369
-0.18930060 0.39295447 0.00000281
-0.23829870 0.12929052 0.00000711
-0.51610259 0.20888785 0.00000021
-0.18772808 0.53959696 0.00000344
-0.22520212 0.22646498 0.00000427
-0.54815332 0.04774166 0.18017235
-0.02893585 -0.26023286 0.00000157
-0.17335554 0.49864355 0.00000283
-0.25089475 0.43706006 0.00000343
-0.21436201 -0.48285215 0.00000241
-0.45572605 0.30916130 0.00000062
-0.00027311 0.08956432 0.00000223
-0.59040742 -0.59808672 0.00000041
-0.13765252 0.11876245 0.00000230
-0.31417548 0.11876186 0.00000594
-0.20014688 -0.53218007 0.00000218
-0.09034296 0.19650284 0.00000249
-0.04550102 -0.74458035 0.00000048
-0.13452351 0.56993212 0.02987896
-0.25789379 0.36915610 0.00000409
-0.56089869 -0.35487979 0.00000041
-0.04174149 -0.19545431 0.00000183
-0.41117927 0.01156143 0.06443691
-0.02963593 -0.28264963 0.00000152
-0.63919552 -0.05464858 -0.00000057
-0.03216456 -0.10538636 0.00000198
-0.25876618 0.04138641 -0.00000414
-0.18766212 0.32963663 0.00000587
-0.35870449 -0.55244542 0.00000333
-0.27509836 0.37193052 0.07448109
-0.14381067 -0.05197108 0.00000187
-0.60850887 0.13894456 0.00000005
-0.16699993 0.26161217 0.00000265
-0.43572317 0.06694843 0.00000104
-0.31922756 -0.01872141 0.00000436
-0.54182787 -0.49805191 0.00317331
-0.06935575 -0.29415722 0.00000179
-0.00276032 0.35118303 0.00000288
-0.59809061 -0.28447686 0.11340044
-0.43882162 -0.38514943 0.00000104
-0.32186763 0.35740026 0.00000300
-0.08409116 0.07016535 0.00000281
-0.33633892 0.43231797 0.00000151
-0.73342440 -0.54179949 -0.00000065
-0.52496368 0.00251615 0.14824345
-0.62094235 -0.14068049 0.17616813
-0.11545221 -0.33776327 0.00000116
-0.10117736 0.06935412 0.00000294
-0.40064006 -0.34442881 0.00000416
-0.35730802 0.03178740 0.00000175
-0.62105291 -0.33907110 0.11366606
-0.07212988 0.49490129 0.00000378
-0.79620332 -0.51738453 -0.00000071
-0.10089313 0.14938811 0.00000898
-0.51695381 -0.79091899 0.00000002
-0.09480932 -0.25165957 0.00000209
-0.28715735 -0.53854064 0.00000065
-0.35584126 -0.12383984 0.00000169
-0.31765557 0.09544433 0.00000615
-0.27550351 0.28204022 0.00000218
-0.33717876 0.03321385 0.00000192
-0.29172113 0.40506418 0.09759394
-0.44669308 -0.65624450 0.00000373
-0.49326573 -0.01263929 0.11931555
-0.63451167 -0.78742313 0.00000003
-0.00235473 0.69628256 0.00000500
-0.73390441 -0.76633121 0.06482798
-0.44884097 -0.66916073 0.00000371
-0.26869892 0.27557651 0.00000498
-0.51701293 0.01918389 0.14744620
-0.15984888 0.46146505 0.00000489
-0.28698674 0.05910175 0.00000708
-0.05275536 -0.04658341 0.00000188
-0.31670243 -0.35610776 0.00000350
-0.30863153 0.42409333 0.00000175
-0.11200137 -0.24246432 0.00000224
-0.48844065 -0.17219892 0.06530956
-0.36819074 0.28517698 0.11801363
-0.09754952 0.09257554 0.00000960
-0.00370549 -0.39103307 0.00000105
-0.19402131 -0.60175529 0.00000196
-0.24443617 0.22569877 0.00499654
-0.08837086 0.21138395 0.00000253
-0.43670668 0.21582307 0.00000088
-0.32842610 0.36753678 0.11371028
-0.45355589 -0.11300871 0.05741349
-0.21757270 -0.70792457 0.00000023
-0.22565234 -0.65171770 0.00000207
-0.55427333 -0.37695127 0.00000049
-0.28834041 0.10326924 0.00000226
-0.45478418 -0.47152338 0.00000082
-0.56555235 -0.25686619 0.09732911
-0.15614566 -0.46671739 0.00000201
-0.50604757 -0.06878058 0.00000058
-0.29328085 0.26659372 0.05509857
-0.10219094 -0.40639843 0.00000098
-0.66430429 -0.28530143 0.16356973
-0.41687903 -0.40577935 0.00000413
-0.27667711 0.16463663 0.00000230
-0.57064089 0.21203300 -0.00000008
-0.10383413 0.30082328 0.00000743
-0.16546878 0.42279909 0.00702885
-0.72670510 -0.46581467 0.15414877
-0.16506760 0.26541465 -0.00000221
-0.22865828 0.00483553 0.00000374
-0.29231791 -0.70673747 0.00000023
-0.64378422 -0.05847950 0.21949682
-0.00566722 0.57521536 0.00000344
-0.23052608 -0.67634332 0.00000205
-0.05817164 -0.09038306 0.00000177
-0.47548760 -0.69572465 0.00000026
-0.48930171 -0.29510260 0.02719294
-0.15086809 0.54969118 0.03594344
-0.22059082 0.07066345 -0.00000460
-0.35439054 0.30541513 0.11388770
-0.47676399 0.05344921 0.00000070
-0.07721932 0.27655822 0.00000269
-0.62450325 -0.16141959 0.17233761
-0.06128227 0.67444088 0.00706701
-0.11081774 -0.50951635 0.00000073
-0.04814042 0.06305119 0.00001064
-0.47668917 0.00714866 0.00000413
-0.04143166 -0.21266543 0.00000178
-0.53451259 0.02480568 0.00000024
-0.44287275 0.19088746 0.14514715
-0.35504318 -0.11890624 0.00000170
-0.14989662 -0.47076177 0.00000195
-0.08158091 -0.43667548 0.00000091
-0.51881948 -0.51950051 0.00000070
-0.02419720 0.18383317 0.00000264
-0.46208343 -0.34279403 0.00000463
-0.51005274 0.01882950 0.14202942
-0.50518475 -0.58296952 0.00000054
-0.22202325 0.38507363 0.03820106
-0.28962041 -0.64764190 0.00000038
-0.20571807 -0.17091775 0.00000157
-0.25913767 -0.17321655 0.00000157
-0.16640902 0.01328440 0.00000203
-0.10222907 -0.56118330 0.00000137
-0.59636218 -0.69411373 0.00000476
-0.34777675 0.44839647 0.00000144
-0.00839542 0.37549581 0.00000300
-0.22222259 -0.08975328 0.00000178
-0.64373708 -0.16703808 0.18521395
-0.65974420 -0.16483638 0.19809980
-0.14608650 0.47545903 0.00888028
-0.33663725 0.04148098 0.01710321
-0.04584068 0.33311311 -0.00000409
-0.44022242 -0.00087475 0.00000107
-0.11971958 -0.20904615 0.00000148
-0.29577333 0.12979914 0.01384231
-0.13260955 0.38644221 0.00000297
-0.48514874 -0.49413292 0.00000076
-0.48602720 0.29604982 0.00000056
-0.23862055 0.04137870 -0.00000469
-0.18018446 0.57731795 0.00000315
-0.39789318 -0.02899149 0.04152477
-0.27281712 0.08722896 -0.00000285
-0.14872109 0.24195085 0.00000734
-0.27182009 0.22018745 0.02410814
-0.43012572 0.13547628 0.11795475
-0.18696165 -0.15442305 0.00000302
-0.05397858 -0.57453517 0.00000097
-0.50529567 -0.26750181 0.00000079
-0.23228535 0.43032371 0.06029530
-0.75641677 -0.56131267 -0.00000060
-0.13650494 0.13904031 0.00000855
-0.03374073 0.27975323 0.00000295
-0.37072662 -0.11282536 0.00000451
-0.62464509 -0.16849551 -0.00000033
-0.03412240 0.09782999 0.00000250
-0.19913254 0.49039884 0.05399582
-0.37081739 0.25699563 0.11112376
-0.32737178 0.32721324 0.10018450
-0.07111530 0.20897097 0.00000884
-0.31812907 -0.24048587 0.00000380
-0.11836782 -0.77092430 0.00000097
-0.00700901 0.25860452 0.00000270
-0.63506495 -0.15667881 0.18187715
-0.02845841 -0.45213984 0.00000087
-0.18227033 0.39536608 0.01117072
-0.79613430 -0.69233044 -0.00000027
-0.75938912 -0.48703860 -0.00000078
-0.07880655 0.56780971 0.00000342
-0.44601682 -0.40729728 0.00000098
-0.15227750 0.05473613 0.00000915
-0.48921700 -0.01182412 0.11649428
-0.64277391 -0.63817961 0.00000000
-0.17012686 -0.00995081 0.00000326
-0.12196368 0.15562304 0.00000331
-0.65277908 -0.59128701 -0.00000013
-0.13947779 -0.17823424 0.00000155
-0.66807539 -0.30846170 -0.00000055
-0.16693896 -0.23114661 0.00000142
-0.00197053 0.02347577 0.00000206
-0.29524878 -0.09706549 0.00000176
-0.51842536 -0.06050123 0.00000047
-0.34823009 -0.11194945 0.00000435
-0.58893473 0.10822843 -0.00000031
-0.28772529 0.10982645 0.00141201
-0.23161687 -0.73431391 0.00000016
-0.14353789 -0.71708972 0.00000129
-0.71198393 -0.47999932 0.13846204
-0.11481499 0.36452025 0.00000291
-0.67974521 -0.17972392 0.20863632
-0.72436407 -0.03219422 -0.00000132
-0.12503676 0.56729360 0.00000432
-0.62796316 0.04047473 0.23866395
-0.27512822 -0.63686181 0.00000248
-0.14099445 0.55309491 0.00000305
-0.52788685 0.08276621 0.17578627
-0.70323754 -0.51958176 0.11931356
-0.50004638 -0.12072486 0.09038719
-0.30288051 0.16993095 0.00000207
-0.55427696 -0.51426092 0.00754128
-0.35452587 0.16300242 0.00000465
-0.63729465 -0.66338112 0.00000008
-0.61236829 0.04079455 0.00000113
-0.02749261 0.72243023 0.00000381
-0.00841588 0.54567822 0.00000336
-0.06886620 0.14564272 0.00000236
-0.49690867 -0.45742771 0.00000086
-0.13794468 -0.56214613 0.00000059
-0.62052233 -0.49054971 0.00000004
-0.37381493 -0.15324635 0.00000444
-0.04950313 0.34032958 0.00000322
-0.50891633 -0.71695062 0.00000405
-0.23039550 -0.43652580 0.00000265
-0.64933166 -0.70890460 0.00000002
-0.03306409 -0.41238994 0.00000122
-0.29941129 0.34313900 0.00000360
-0.21340740 -0.48930988 0.00000239
-0.70434931 -0.39519025 0.15940208
-0.15168075 0.30305266 0.00000276
-0.42534479 0.14756073 0.11812594
-0.60021638 -0.44360149 0.00000016
-0.47711776 0.14399541 0.15643362
-0.01982648 0.46088381 0.00000315
-0.45615883 0.18801475 0.00000240
-0.50611134 0.00903974 0.13593889
-0.47912106 0.01815341 0.00000072
-0.37596260 0.25790847 0.11533041
-0.36651702 0.07494442 0.05041684
-0.17665326 0.15510309 0.00000778
-0.23524840 0.29830032 0.00000535
-0.13217734 -0.11745831 0.00000171
-0.47032917 0.26223264 0.00000126
-0.46552549 -0.29146504 0.01023212
-0.35791629 0.36726838 0.13608560
-0.33319343 -0.33379144 0.00000368
-0.33662809 -0.67342643 0.00000032
-0.42256578 0.11716529 0.10641979
-0.31460478 0.33428904 0.00000180
-0.04646496 -0.40023919 0.00000100
-0.08077124 0.12585293 0.00000292
-0.21282239 -0.54466533 0.00000064
-0.61361821 0.00303320 0.00000154
-0.22190187 -0.43190833 0.00000092
-0.10107232 0.32020934 0.00000356
-0.34076731 0.04034197 0.00000188
-0.24055249 -0.38573933 0.00000285
-0.58686607 -0.57120861 0.01439639
-0.19977762 0.08809987 0.00000810
-0.62989214 -0.02936082 0.21810246
-0.49400004 -0.33512654 0.01814491
-0.18657383 -0.20710980 0.00000289
-0.10797842 -0.49170446 0.00000077
-0.23713233 0.32625520 0.00000499
-0.20897174 0.18346442 -0.00000266
-0.04444315 0.19279438 0.00000940
-0.26242215 0.19590052 0.00000603
-0.70953086 -0.30063979 -0.00000092
-0.70183492 0.05408301 -0.00000122
-0.07898866 -0.26872668 0.00000133
-0.30235116 -0.14336162 0.00000164
-0.11091483 0.12935729 0.00000232
-0.16479089 -0.02533872 0.00000318
-0.14538294 0.51606561 0.02115549
-0.54465564 -0.65676795 0.00000036
-0.58860397 -0.77392771 0.00000451
-0.43569879 0.02282009 0.00000473
-0.58136680 -0.04214643 -0.00000009
-0.50400551 -0.27155790 0.04581924
-0.62968571 -0.17997499 -0.00000036
-0.15611243 -0.16507994 0.00000277
-0.65512563 0.07528178 -0.00000084
-0.20030741 0.52168565 0.06476233
-0.13440936 0.15466626 0.00000843
-0.22774060 -0.46254607 0.00000256
-0.28551834 0.22839169 0.03713493
-0.08141234 0.68637009 0.02616290
-0.15112846 -0.48741590 0.00000078
-0.00055217 0.58558155 0.00000347
-0.33521705 -0.07703814 0.00000434
-0.43364795 -0.71550133 0.00000021
-0.12890299 0.61816321 0.04081533
-0.74128664 -0.63691367 0.11127775
-0.61286916 0.09603823 -0.00000050
-0.67122873 -0.42464693 -0.00000046
-0.41318795 -0.55444500 0.00000373
-0.66829742 -0.51831930 0.09310083
-0.09474628 -0.72385579 0.00000019
-0.00145102 -0.24297881 0.00000140
-0.08398611 0.33373970 -0.00000304
-0.19175608 0.46146098 0.03925042
-0.29362989 0.08627086 -0.00000230
-0.54444453 0.12267240 0.20098608
-0.42827700 0.27807977 0.16153735
-0.12106635 0.27828112 0.00000270
-0.31857024 -0.27411751 0.00000372
-0.52443289 -0.67167042 0.00000428
-0.48552777 -0.22018201 0.04795384
-0.34662467 -0.38246640 0.00000366
-0.17040377 0.44526208 0.00000488
-0.32855985 0.35390774 0.00000291
-0.52610235 -0.66024098 0.00000432
-0.38268454 -0.08478911 0.00000165
-0.07937201 -0.70458232 0.00000024
-0.39896898 -0.62380905 0.00000044
-0.68553048 -0.60925101 0.07753960
-0.24308659 0.20627133 0.00000435
-0.03276536 0.12951705 0.00000232
-0.00956865 0.26226394 0.00000923
-0.19236777 -0.52221955 0.00000069
-0.66849451 0.00110777 0.00000051
-0.24196998 0.12208381 0.00000413
-0.37248823 -0.69701775 0.00000026
-0.49846731 -0.05419536 0.11017261
-0.37010261 -0.03784552 0.00000171
-0.48814701 -0.70053808 0.00000393
-0.55198353 0.12445657 0.20729075
-0.14773545 0.47064365 0.00000308
-0.09256303 0.39890068 0.00000300
-0.05976426 0.57125887 0.00000539
-0.60506407 -0.64386443 0.00533555
-0.38382064 0.10771421 0.07392810
-0.20079149 0.21381868 -0.00000227
-0.21044649 0.54817999 0.00000291
-0.11858375 -0.72589820 0.00000108
-0.40236384 0.02798918 0.00000137
-0.16326414 0.51219655 0.00000423
-0.67756021 -0.78693302 -0.00000003
-0.42268517 -0.50021157 0.00000394
-0.32501600 0.01118055 0.00000448
-0.41723284 0.26954244 0.00000220
-0.11638239 0.48251637 0.00000542
-0.10969113 0.14254724 0.00000236
-0.23941501 0.01360336 0.00000384
-0.15572139 0.01633959 0.00000204
-0.00106733 0.01363110 0.00000203
-0.39525909 -0.06529173 0.02806697
-0.49995110 -0.33163536 0.02377870
-0.15922068 0.20142173 0.00000370
-0.00925583 -0.52482846 0.00000069
-0.51000362 -0.07949231 0.11097842
-0.11548183 0.43703727 -0.00000012
-0.19544981 -0.27712859 0.00000278
-0.68249163 0.00789558 -0.00000101
-0.05749367 -0.28592690 0.00000129
-0.70144878 -0.53017929 -0.00000061
-0.50912664 -0.03990583 0.12279884
-0.26457470 -0.78768182 0.00000003
-0.13305555 0.47635215 0.00000319
-0.06233002 0.57690010 0.00000391
-0.05562625 0.65225696 0.00000405
-0.65917529 -0.50726925 -0.00000027
-0.34758463 0.14075765 0.05675972
-0.56283300 -0.00122984 0.17590056
-0.25545568 -0.56133664 0.00000060
-0.46023854 -0.53080879 0.00000415
-0.05596938 0.23274661 0.00000300
-0.50610897 -0.20177663 0.06943517
-0.17204581 0.26286593 -0.00000207
-0.26527781 0.38500886 0.00000217
-0.03340218 0.55998797 0.00000590
-0.01124887 0.61416426 0.00000059
-0.38655232 -0.43454116 0.00000091
-0.03125444 0.07505173 0.00000219
-0.50860657 0.19779660 0.19739073
-0.05017518 -0.77655535 0.00000006
-0.30763754 -0.72362013 0.00000251
-0.58176471 -0.13596643 0.14781695
-0.59760191 -0.54112525 0.03206338
-0.56866195 0.11655988 0.00000108
-0.56464975 -0.54093661 0.00702599
-0.15207191 0.36771405 0.00000603
-0.18769089 -0.19274446 0.00000152
-0.06747477 0.33684655 0.00000761
-0.36520611 0.30822957 0.12301154
-0.02225273 0.74959354 0.00105054
-0.11040837 -0.68536743 0.00000112
-0.27303975 0.04866902 0.00000418
-0.12184792 -0.11459825 0.00000263
-0.46632160 0.14683922 0.00000269
-0.37120275 -0.66346604 0.00000314
-0.58729912 -0.56433958 0.01689318
-0.65243265 -0.79725655 0.00000493
-0.43513767 -0.55302067 0.00000390
-0.08686048 0.63442491 0.01392515
-0.05635278 -0.20106029 0.00000150
-0.16127522 0.41891831 0.00000302
-0.57792319 -0.01827723 0.18201860
-0.06487393 0.50419552 0.00000598
-0.29768419 0.30080650 0.06924534
-0.25373340 0.05393037 -0.00000403
-0.30141045 -0.08817212 0.00000178
-0.36095736 -0.72250564 0.00000019
-0.12336811 0.32081793 0.00000693
-0.45258498 -0.00328068 0.09128993
-0.23576711 0.43680381 0.00000236
-0.36859994 -0.52859520 0.00000068
-0.04036644 0.43230589 -0.00000226
-0.42620221 0.07642066 0.09633484
-0.45533292 -0.18941963 0.00000114
-0.55628276 -0.02719814 0.16272261
-0.37391034 -0.54708156 0.00000345
-0.04148563 0.20244772 -0.00000682
-0.30984595 0.22398094 0.05427177
-0.08154550 0.18379206 0.00000893
-0.65501237 -0.69922812 0.02591141
-0.12396108 0.64180510 0.00000347
-0.08448915 0.41894409 -0.00000133
-0.49300996 -0.45197276 0.00000087
-0.06675488 -0.78257328 0.00000004
-0.05182292 0.47602259 0.00000319
-0.66669653 -0.03853436 0.24323930
-0.10677379 0.44500482 0.00000594
-0.23428339 0.40969634 0.05530718
-0.12056953 -0.00201609 0.00000199
-0.57264813 0.01907615 0.18978490
-0.66664775 -0.10658895 0.22173297
-0.40274414 -0.12165650 0.00000152
-0.43210760 0.08245983 0.10273795
-0.04379171 0.67619265 0.00000402
-0.38393882 -0.38072539 0.00000394
-0.42000423 0.22250591 0.00000101
-0.45213130 -0.41872877 0.00000095
-0.44120890 -0.40238391 0.00000099
-0.18131328 0.00825758 0.00000202
-0.52470811 -0.00883480 0.00000036
-0.16646865 0.19141230 0.00000757
-0.44600543 0.03041150 0.00000444
-0.18324429 0.10527049 -0.00000492
-0.05815351 0.11094289 0.00000272
-0.46449302 -0.74421884 0.00000364
-0.22264901 0.37399948 0.00000254
-0.16447309 0.10551295 0.00000226
-0.16166469 -0.62699502 0.00000165
-0.22949819 -0.33688489 0.00000116
-0.04031807 0.41865700 0.00000335
-0.02067242 0.03572949 0.00000225
-0.11320154 0.60629877 0.02511263
-0.53299687 0.11008080 0.18829508
-0.18750885 -0.39061349 0.00000102
-0.32532521 0.16897309 0.00000514
-0.30896099 0.41559669 0.00000176
-0.44485782 0.20822989 0.15212856
-0.00474192 0.33855762 0.00000285
-0.33152354 -0.34664217 0.00000363
-0.29366425 -0.40578001 0.00000320
-0.08870951 0.10982898 0.00000956
-0.44104304 -0.22051660 0.00000129
-0.11138203 0.56072833 0.00000330
-0.20008910 0.54521219 0.00000314
-0.60124793 -0.18331319 0.14771921
-0.72407527 -0.48098996 0.14735850
-0.42479411 0.31180999 0.00000088
-0.14821549 0.58932448 0.04642630
-0.30058271 -0.69322001 0.00000027
-0.13321930 -0.17639072 0.00000156
-0.17296853 0.60981397 0.00000272
-0.48362529 -0.46267576 0.00000084
-0.40790369 -0.62656607 0.00000043
-0.31899849 0.37487449 0.10884488
-0.08700153 -0.64220113 0.00000039
-0.16326885 -0.65282644 0.00000160
-0.25390971 -0.29886898 0.00000317
-0.20701887 0.15636913 0.00000239
-0.69183647 -0.60647524 -0.00000045
-0.68173212 -0.24852403 0.18844521
-0.46811192 -0.01527371 0.00000085
-0.40857171 0.08191073 0.08464404
-0.43837981 0.02533690 0.08949328
-0.54258798 -0.62094015 0.00000045
-0.03140280 -0.38351373 0.00000128
-0.66795350 -0.49662271 0.09968351
-0.13669600 0.26614452 0.00000267
-0.28295855 -0.29296302 0.00000127
-0.62404359 -0.54953692 0.00000007
-0.68400177 0.00265523 0.00000020
-0.24530342 0.43557252 0.00000355
-0.32787187 -0.32774829 0.00000118
-0.29112038 0.11628623 0.00602801
-0.56904188 -0.10233853 0.14873563
-0.51721840 -0.73801026 0.00000406
-0.79655854 0.00014440 -0.00000194
-0.09665273 0.32531163 0.00000729
-0.65188044 -0.74045422 0.01052049
-0.43505786 -0.25259647 0.00000465
-0.56136796 -0.24963032 0.00000030
-0.00290774 0.58401390 0.00000612
-0.16775692 0.27767925 0.00000396
-0.54466078 -0.73993024 0.00000426
-0.29344018 0.09508082 0.00000662
-0.57498169 0.15176000 0.00000055
-0.31818737 0.20381248 0.05425726
-0.43260154 -0.66946555 0.00000033
-0.20667633 -0.15104232 0.00000162
-0.43198221 0.20613829 0.14166392
-0.42207627 -0.14113107 0.02456634
-0.14319729 0.45440217 0.00000314
-0.07628490 -0.03059672 0.00000250
-0.47646890 -0.05545538 0.09302076
-0.19946317 0.34762089 0.00000277
-0.27958939 -0.41920132 0.00000095
-0.01606332 0.37001857 0.00000305
-0.13916041 0.61081289 0.04630820
-0.64133794 -0.78653625 0.00000003
-0.02035383 0.46527411 0.00000332
-0.60632160 -0.14598034 0.16336079
-0.27769409 0.23134479 0.03210208
-0.03162258 -0.54762584 0.00000087
-0.00659893 -0.75181435 0.00000012
-0.14438377 0.38762350 0.00000406
-0.31495153 0.22586962 0.05875157
-0.60381767 -0.49290373 0.00000018
-0.01215817 0.25013517 -0.00000667
-0.23457035 0.13790495 -0.00000287
-0.68177305 -0.35445716 -0.00000062
-0.43742256 -0.22562140 0.00000133
-0.19360906 0.35418388 0.00681411
-0.12137197 -0.03378071 0.00000192
-0.33397493 -0.45272386 0.00000339
-0.19917171 -0.24666139 0.00000138
-0.57811724 0.07734641 -0.00000019
-0.11592478 0.16206647 0.00000328
-0.65088504 0.13162210 -0.00000086
-0.23792199 -0.17905816 0.00000155
-0.44335190 0.06836787 0.00000405
-0.06408117 0.61301381 0.00000200
-0.18974999 0.45398462 0.00000441
-0.30974527 0.30073250 0.00000390
-0.22692208 0.09665415 0.00000395
-0.39565869 -0.19811340 0.00000449
-0.52953653 -0.29923106 0.00000062
-0.52854610 0.09307988 0.00000022
-0.56347649 -0.28970862 0.00000032
-0.35785209 -0.68088510 0.00000030
-0.72547811 -0.74782216 -0.00000013
-0.39160293 0.11254302 0.08138391
-0.08904026 0.43219973 -0.00000094
-0.10368086 0.05233876 0.00000213
-0.26216430 0.51562517 0.00000206
-0.13193810 0.00508600 -0.00000831
-0.14549582 0.15571773 0.00000239
-0.39354818 -0.20522602 0.00000149
-0.51796366 -0.56596416 0.00000059
-0.37738215 0.15849993 0.00000426
-0.16393032 0.06419871 0.00000340
-0.38015869 -0.79735591 0.00000287
-0.54239402 -0.69811263 0.00000025
-0.05143610 0.16891980 -0.00000722
-0.18832235 0.14042631 0.00000377
-0.54266866 0.00217431 0.00000292
-0.03241776 0.02209626 0.00001129
-0.08871547 -0.61911012 0.00000045
-0.36910288 -0.66414655 0.00000312
-0.05735070 0.60488215 0.00000166
-0.24708632 0.11299863 0.00000415
-0.00757830 0.01578770 0.00001173
-0.05129654 0.06164732 0.00000215
-0.07090925 0.63509749 0.00198680
-0.14680416 0.09728004 0.00000224
-0.00341267 -0.00608532 0.00000198
-0.24185237 -0.29383153 0.00000309
-0.15399188 0.63141336 0.00000286
-0.01860446 0.09086034 -0.00000968
-0.38095147 -0.26544259 0.00000421
-0.14270153 0.65070317 0.00000301
-0.47331017 -0.57243619 0.00000057
-0.29047239 -0.26697575 0.00000352
-0.21432082 -0.18463538 0.00000154
-0.46350540 -0.63449508 0.00000041
-0.62903297 -0.16407688 0.17494923
-0.02526897 -0.07673921 0.00000181
-0.13826409 0.48202583 0.00499764
-0.36092971 -0.38464845 0.00000376
-0.24300872 0.28117904 0.00000246
-0.07553858 -0.15754401 0.00000161
-0.15915854 0.38422634 0.00000001
-0.04542080 0.46317015 -0.00000150
-0.02483356 -0.68949098 0.00000028
-0.44573956 0.06270924 0.10689419
-0.14236737 0.17923207 0.00000245
-0.03653004 0.17541588 0.00000969
-0.50339359 -0.67380922 0.00000411
-0.39195068 -0.48506357 0.00000079
-0.05013922 0.04094886 0.00001083
-0.42409910 0.19233802 0.13130645
-0.73141685 -0.76259113 0.06411329
-0.47990212 -0.42133921 0.00000457
-0.50409061 0.25839068 0.00000066
-0.47897973 0.16596883 0.00000222
-0.32055581 0.05285595 0.00843553
-0.28428851 0.19905063 0.02693611
-0.21371844 0.19242519 0.00000248
-0.11298371 0.06391197 0.00000216
-0.54737364 0.04085962 0.00000237
-0.19620374 0.31420267 0.00000279
-0.00114329 -0.32071955 0.00000120
-0.09823388 0.16401454 0.00000315
-0.77710224 -0.45378680 -0.00000087
-0.35739513 -0.67581918 0.00000301
-0.66022082 -0.23052381 -0.00000057
-0.06969124 -0.42058031 0.00000147
-0.51135002 -0.17475787 0.08195044
-0.14678092 0.36195337 -0.00000077
-0.49612780 0.06576682 0.00000307
-0.15814981 0.51092594 0.02926005
-0.34386761 0.43622599 0.00000144
-0.03364923 0.71447909 0.00000320
-0.06728079 0.22144101 -0.00000574
-0.12518999 0.63884427 0.04451170
-0.45399811 -0.78832455 0.00000345
-0.00288241 0.31889740 -0.00000554
-0.44892316 -0.16931725 0.00000117
-0.12732810 0.64656736 0.04857652
-0.22974411 0.38099597 0.00000449
-0.21688451 -0.50618872 0.00000073
-0.05571949 -0.19491131 0.00000193
-0.27040663 -0.06491935 0.00000184
-0.65723621 -0.76169204 0.00789964
-0.01090037 -0.11702236 0.00000179
-0.40714070 -0.30423129 0.00000431
-0.14550811 0.01948147 0.00000315
-0.74084999 -0.37706379 -0.00000106
-0.63598607 -0.23779533 -0.00000035
-0.08125949 0.45878436 0.00000376
-0.16754105 -0.34142123 0.00000115
-0.23965876 -0.56272631 0.00000059
-0.02683297 0.46705482 -0.00000193
-0.32418797 -0.33164584 0.00000117
-0.13394837 0.51675200 0.01266298
-0.47242444 0.19989777 0.17049576
-0.45438355 0.15495327 0.00000282
-0.03057427 0.46635508 0.00000688
-0.01745185 0.67206268 0.00000368
-0.44649426 0.12593496 0.12741151
-0.28272345 0.17295955 0.00000224
-0.20494840 -0.19257089 0.00000306
-0.17607907 0.53344303 0.05001743
-0.38126362 0.03049019 0.04762412
-0.61493394 -0.11719443 -0.00000030
-0.29400687 0.26057585 0.05375307
-0.42965009 -0.00585023 0.07300505
-0.37839216 -0.47827742 0.00000366
-0.57327794 -0.33114679 0.00000028
-0.57743172 -0.16248409 0.13615135
-0.13676817 -0.75146469 0.00000012
-0.33826534 -0.03771662 0.00000446
-0.22563275 0.35948135 0.00000253
-0.47664319 0.13270753 0.15251093
-0.24425888 0.45020912 0.07568642
-0.38559354 0.18049318 0.00000385
-0.47497257 0.05191558 0.00000072
-0.67085847 -0.42679121 0.12392572
-0.41480289 -0.34909573 0.00000113
-0.62705717 -0.53652673 0.05594768
-0.08651136 -0.66292503 0.00000034
-0.30235812 -0.50621528 0.00000302
-0.15991406 -0.21912263 0.00000266
-0.25172667 -0.03961682 0.00000190
-0.29158407 -0.34285273 0.00000114
-0.42398604 -0.02262940 0.06340457
-0.32216566 -0.17650635 0.00000156
-0.00909786 0.08312062 0.00001103
-0.58596559 -0.28941137 0.10260914
-0.66273831 -0.24436004 0.17529283
-0.03950072 0.51712860 0.00000329
-0.08811226 0.37536611 0.00000692
-0.02248804 -0.02171292 0.00000212
-0.24429016 -0.76035690 0.00000194
-0.38965501 0.01484714 0.04907294
-0.71033620 -0.41875503 0.15652782
-0.53135051 0.02131014 0.15903334
-0.68823022 -0.54514588 -0.00000048
-0.32980105 0.43937939 0.00000156
-0.46393739 -0.16056520 0.05031757
-0.21437733 0.15589954 0.00000721
-0.35891170 0.16747881 0.00000451
-0.37577323 -0.75048306 0.00000296
-0.11415604 0.37979805 0.00000295
-0.59387496 -0.58113596 0.01660270
-0.61197896 -0.48836819 0.00000011
-0.23015029 -0.21151307 0.00000321
-0.68727624 -0.41912640 0.13884778
-0.21818629 0.56836242 0.00000252
-0.49138326 0.16677572 0.17448702
-0.13982389 0.15807765 0.00000345
-0.30949742 0.16692578 0.03600114
-0.06309260 0.25133702 -0.00000526
-0.12658092 -0.60904787 0.00000143
-0.61863775 -0.02135508 0.21205650
-0.15346081 0.14707136 0.00000821
-0.17760674 0.15855795 0.00000374
-0.52934664 0.16834498 0.20389560
-0.21458793 0.26150273 0.00000265
-0.58336760 -0.02498263 0.18404979
-0.46493735 0.06152050 0.00000371
-0.01125716 0.07099415 0.00000218
-0.76513184 -0.21945099 -0.00000145
-0.31832552 0.00178604 -0.00000332
-0.35386786 -0.60600095 0.00000315
-0.42450285 0.02190621 0.07784783
-0.33842928 -0.47162845 0.00000082
-0.43273325 -0.70173897 0.00000025
-0.16134118 0.00155912 0.00000322
-0.16686206 0.21972001 0.00000381
-0.13091118 0.23883660 0.00000260
-0.00878923 0.36671898 0.00000820
-0.33937607 0.21594273 0.07422248
-0.41732270 -0.69749550 0.00000026
-0.03532739 -0.26653001 0.00000160
-0.39004233 0.10006352 0.07625307
-0.26027111 -0.36608049 0.00000108
-0.20937086 0.47136031 0.05578725
-0.33768559 0.16647580 0.00000493
-0.17359692 0.60946237 0.00000272
-0.00987001 -0.70138668 0.00000032
-0.41449558 -0.14202623 0.00000144
-0.31555762 -0.51046201 0.00000310
-0.43451537 -0.04594250 0.00000117
-0.60519515 -0.12551835 -0.00000021
-0.41905225 -0.10627771 0.03325839
-0.70176199 -0.46875477 0.13422414
-0.56281077 -0.62289007 0.00000469
-0.54863084 -0.76600816 0.00000422
-0.21672013 -0.77309446 0.00000007
-0.17845921 -0.02737998 0.00000193
-0.26767428 0.46921668 0.00000206
-0.72480330 -0.60791662 -0.00000048
-0.32336506 0.33087855 0.09829113
-0.10919307 0.38590861 0.00000649
-0.16068208 0.49219741 0.02527774
-0.56320702 -0.19436105 0.11526136
-0.00296814 0.60438795 0.00000353
-0.52068280 0.02879496 0.15326975
-0.65678032 -0.77828225 0.00000003
-0.01806811 0.14873007 0.00001024
-0.10034009 0.40046069 0.00000376
-0.22855867 -0.01453349 0.00000369
-0.00283604 0.08491051 0.00001111
-0.35698911 -0.59185244 0.00000321
-0.07194129 -0.26477842 0.00000188
-0.00906427 0.70675211 0.00000384
-0.09465936 -0.06248259 0.00000256
-0.26195463 0.39340775 0.00000219
-0.26821936 0.37143784 0.06908650
-0.36204778 0.19833019 0.08593750
-0.25219441 0.24775007 0.00000242
-0.04742258 0.26930315 -0.00000533
-0.75304615 -0.34182244 -0.00000115
-0.69257261 -0.53464532 -0.00000053
-0.42301113 0.26075628 0.15206085
-0.14599405 0.41704954 0.00000414
-0.15548235 0.62842149 0.00000302
-0.50663742 -0.00232757 0.13275327
-0.62764282 0.01136076 0.22923473
-0.28380360 0.10032514 0.00000671
-0.24730591 0.48990855 0.09053204
-0.51952862 -0.24585640 0.06574994
-0.27184716 -0.29701712 0.00000126
-0.48552544 0.00333023 0.00000068
-0.29542319 0.09906099 0.00387867
-0.32001473 -0.52133093 0.00000070
-0.43979343 -0.40559956 0.00000099
-0.23364928 0.29520101 0.01870182
-0.41302683 -0.43371203 0.00000403
-0.02047117 -0.29102995 0.00000143
-0.38376058 -0.69785930 0.00000315
-0.14123701 0.33957216 0.00000285
-0.36891859 -0.06236577 0.00000174
-0.73930102 -0.53763569 0.14108468
-0.21484550 0.05105535 -0.00000514
-0.31793283 -0.17956916 0.00000155
-0.67436917 0.01885872 -0.00000095
-0.56096031 0.03129024 0.18473644
-0.27013337 -0.52531927 0.00000069
-0.59731409 -0.71338178 0.00000022
-0.32511583 0.00598587 0.00000703
-0.14960265 0.51905421 0.00000442
-0.06774065 -0.78456772 0.00000004
-0.08774840 -0.47049680 0.00000082
-0.00456562 0.09431956 -0.00000999
-0.42166560 0.10967655 0.00000112
-0.08339957 -0.61287191 0.00000110
-0.29229378 -0.37691160 0.00000326
-0.43021126 0.01449831 0.07985848
-0.43755572 0.06884387 0.10259653
-0.38925252 -0.76284697 0.00000009
-0.05298719 0.47326897 0.00000358
-0.65724574 -0.61132148 0.05534429
-0.04630971 0.40605594 0.00000336
-0.09929845 -0.02385721 0.00000194
-0.29499612 -0.77043892 0.00000007
-0.42151768 -0.18578414 0.01005421
-0.08097923 0.36769199 0.00000353
-0.01136661 -0.38974015 0.00000103
-0.00239947 0.41603187 -0.00000361
-0.43106113 -0.33173319 0.00000442
-0.65057126 -0.67852318 -0.00000002
-0.74533965 -0.59271719 0.12830726
-0.57601459 0.05222856 0.00000169
-0.38484858 -0.12446921 0.00146944
-0.46300053 0.12362632 0.00000075
-0.53314392 0.08842152 0.18157240
-0.02391035 0.63047140 0.00000376
-0.13824185 -0.75956083 0.00000114
-0.29250241 0.05308123 -0.00000299
-0.34920136 0.05853116 0.00000597
-0.02008325 0.16766795 -0.00000810
-0.76026485 -0.12765213 -0.00000153
-0.18960676 -0.72642101 0.00000161
-0.29275355 0.42329810 0.10413181
-0.35944377 -0.65977692 0.00000035
-0.29509919 0.21000828 0.00000209
-0.65621688 0.02003425 -0.00000079
-0.09293381 -0.60613040 0.00000048
-0.16105669 -0.65196375 0.00000159
-0.05525943 0.23599236 0.00000301
-0.38737271 0.20597666 0.00000131
-0.76072540 -0.79583007 -0.00000001
-0.57700836 -0.06089990 0.16787568
-0.00120452 -0.56437622 0.00000059
-0.75702238 -0.52272431 -0.00000069
-0.28918733 -0.54822390 0.00000063
-0.21803230 -0.21646949 0.00000146
-0.33378050 0.01410818 0.00628339
-0.24912623 -0.54564787 0.00000252
-0.56371760 -0.49713199 0.00000053
-0.26510243 0.06303786 0.00000416
-0.45092036 0.24466189 0.16824007
-0.41932346 -0.37488850 0.00000423
-0.31546403 -0.47197782 0.00000082
-0.49278471 -0.27982382 0.03466564
-0.27033130 -0.28222918 0.00000129
-0.52354824 -0.22437132 0.07558925
-0.15442409 0.25823670 0.00000709
-0.05099499 0.35803182 0.00000290
-0.60487616 0.06382653 0.00000100
-0.16825005 -0.50098503 0.00000202
-0.32252280 0.04213598 0.00000203
-0.07391775 0.14252189 -0.00000714
-0.48541969 -0.55061878 0.00000062
-0.43455637 0.31815236 0.00000129
-0.56716389 -0.38615887 0.05776852
-0.55231949 -0.38440139 0.04701722
-0.04347593 0.22031831 0.00000255
-0.44624321 0.13021055 0.12856922
-0.50488244 -0.45867276 0.00000466
-0.03357989 0.08195995 0.00001067
-0.04019198 0.72770828 0.00780976
-0.66099839 -0.56566200 -0.00000023
-0.51329255 -0.76636034 0.00000396
-0.22913159 -0.74053363 0.00000188
-0.41636113 -0.17330772 0.01006283
-0.06610766 0.57478173 0.00000129
-0.64643839 -0.61175420 0.04697673
-0.48986990 0.14590016 0.00000050
-0.28286987 -0.55809211 0.00000274
-0.50783248 0.05882244 0.15295900
-0.24577877 -0.41833281 0.00000095
-0.15289836 0.07922074 0.00000220
-0.25590859 0.15567211 0.00000239
-0.37393205 0.02330599 0.00000161
-0.29221848 -0.07123512 0.00000403
-0.04699742 0.68327096 0.00000446
-0.39715754 -0.62532820 0.00000044
-0.57134587 -0.30381907 0.08692932
-0.42356361 0.15552520 0.11928205
-0.07435396 0.15901178 -0.00000680
-0.29221262 0.03043111 0.00000208
-0.10065621 -0.29867941 0.00000201
-0.28514382 0.26346141 0.04791313
-0.51771331 0.06396785 0.00000034
-0.64988022 0.01646366 0.00000069
-0.18503710 -0.25354325 0.00000276
-0.68634413 -0.66940122 0.05918371
-0.11777655 0.08715212 0.00000935
-0.43332827 -0.32374216 0.00000446
-0.04094275 0.62314655 0.00000157
-0.45390091 -0.27353695 0.00703443
-0.68684713 -0.32273702 -0.00000070
-0.33482663 0.20852569 0.06841741
-0.21525807 0.09203370 0.00000385
-0.33524557 -0.46758415 0.00000083
-0.53427696 -0.70996235 0.00000023
-0.06229246 0.17360731 0.00000932
-0.21057144 -0.72989144 0.00000018
-0.04539670 -0.11726516 0.00000205
-0.07251396 -0.71843997 0.00000020
-0.31235290 0.39442096 0.10994900
-0.27813295 -0.30315247 0.00000124
-0.70877724 -0.65662334 -0.00000036
-0.57614295 0.14556809 -0.00000024
-0.27991228 0.17157649 0.00000226
-0.07249053 0.18079852 0.00000245
-0.64749346 -0.35246049 -0.00000033
-0.33115560 -0.05984050 0.00000185
-0.04803594 -0.50199559 0.00000075
-0.41885200 -0.13065020 0.02541709
-0.13379150 0.27206306 0.00000726
-0.19061967 0.11086492 -0.00000461
-0.11491857 0.51601748 0.00000416
-0.09253381 0.47021519 0.00000318
-0.57554354 -0.46713138 0.03860621
-0.07766531 0.70746871 0.02996508
-0.48079135 -0.45106601 0.00000087
-0.25927048 0.35419293 0.05683065
-0.17042093 0.42633913 0.01191747
-0.20094885 0.46487946 0.00000406
-0.23075494 -0.24802011 0.00000312
-0.08218880 -0.01941051 0.00000195
-0.10973471 0.02423515 0.00000289
-0.66869913 -0.72216549 -0.00000013
-0.45109092 0.12042297 0.12917682
-0.04637752 -0.64587296 0.00000074
-0.53306156 0.06402255 0.17381436
-0.41649288 0.15136022 0.11258266
-0.02267462 0.36804384 0.00000292
-0.08820134 0.42506741 0.00000642
-0.47456297 0.20047712 0.17230819
-0.33927298 -0.79300420 0.00000002
-0.65601059 -0.03049612 -0.00000074
-0.15213565 -0.05779055 0.00000300
-0.04152680 0.43908351 -0.00000209
-0.41390162 0.09556240 0.00000430
-0.27918997 0.46747174 0.10773766
-0.10067907 0.01893422 0.00001029
-0.43116197 -0.66410988 0.00000034
-0.51059711 -0.54911832 0.00000448
-0.61144151 -0.64495553 0.00984851
-0.16454182 -0.07206031 0.00000306
-0.57166942 -0.24730833 0.00000021
-0.70557809 0.08477097 -0.00000118
-0.57583196 -0.15230061 0.00000007
-0.21182408 -0.17463490 0.00000316
-0.05336651 0.43610295 0.00000309
-0.40362331 0.15046128 0.00000385
-0.68312527 -0.00342053 -0.00000100
-0.66368082 -0.71024869 -0.00000010
-0.76203028 -0.43984392 -0.00000090
-0.15861987 0.09921411 0.00000861
-0.23833521 0.23476698 0.00321069
-0.34428143 -0.07096890 0.00000442
-0.63355939 -0.02564249 -0.00000055
-0.26615634 -0.16157342 0.00000360
-0.04941034 0.39491269 0.00000336
-0.48975490 -0.33216379 0.01584640
-0.13253173 -0.19559998 0.00000251
-0.13579065 -0.50733394 0.00000073
-0.24627368 0.28460041 0.00000530
-0.07097576 -0.76105776 0.00000010
-0.27810609 0.42136289 0.09236514
-0.03522255 0.36734966 0.00000780
-0.77446663 -0.61742081 -0.00000046
-0.16982015 0.15305939 0.00000791
-0.79496884 -0.50842551 -0.00000073
-0.06406372 0.38794696 0.00000715
-0.25160082 -0.70544510 0.00000024
-0.56814639 -0.38542948 0.05874691
-0.45771814 0.20836429 0.16196706
-0.17920889 -0.17918102 0.00000290
-0.15918276 0.54203779 0.00000291
-0.20253083 -0.58135230 0.00000055
-0.62574334 -0.75866935 0.00000010
-0.17281833 -0.44978525 0.00000088
-0.18037885 0.39318677 0.00904254
-0.16771194 -0.67044684 0.00000032
-0.70004928 -0.14584714 0.23478735
-0.34706852 -0.37763676 0.00000367
-0.36733813 0.13715097 0.07066651
-0.20776601 0.06239538 0.00000372
-0.57616085 -0.77561600 0.00000441
-0.40703386 0.11046109 0.09247956
-0.38123376 -0.59428115 0.00000339
-0.02924219 0.57287848 0.00000365
-0.44925471 -0.72465087 0.00000019
-0.24110447 0.26245929 0.00000250
-0.22948258 0.05568262 0.00000214
-0.12025307 0.07961813 -0.00000714
-0.49994627 0.10190003 0.00000046
-0.30627247 -0.35731801 0.00000342
-0.48184870 -0.39741975 0.00000464
-0.58815379 0.13143441 0.00000053
-0.35104510 -0.40948613 0.00000362
-0.05590738 0.53200042 0.00000016
-0.00601921 0.21605025 0.00000254
-0.14202576 -0.17882134 0.00000262
-0.21374504 -0.12621725 0.00000330
-0.27229887 0.21142339 0.00000566
-0.29497016 0.06835676 0.00000217
-0.49108077 -0.06000825 0.10271311
-0.24237936 0.54799414 0.00000219
-0.34945804 0.22330711 0.00000161
-0.73034001 -0.52215010 -0.00000069
-0.25582039 0.01631198 0.00000798
-0.31309205 -0.35558806 0.00000347
-0.28588976 0.35960539 0.00000366
-0.24118567 0.07870997 0.00000757
-0.57338538 -0.08373751 0.15791177
-0.11645376 -0.56047749 0.00000060
-0.01314811 -0.54948152 0.00000063
-0.45975164 -0.75591907 0.00000011
-0.32764307 0.04383791 0.00000199
-0.42621855 0.23067051 0.00000095
-0.49342914 -0.72061770 0.00000392
-0.22005139 -0.12962204 0.00000168
-0.06673214 -0.23922298 0.00000191
-0.59532446 -0.19291748 -0.00000005
-0.05394718 -0.64407841 0.00000080
-0.26355375 0.33873190 0.00000223
-0.64495270 -0.71179329 0.01428587
-0.17915183 -0.48447896 0.00000079
-0.24121800 0.27119929 0.00000249
-0.48073154 0.03497244 0.12479011
-0.14901077 0.47511887 0.00000494
-0.05219216 -0.48980875 0.00000078
-0.44090294 -0.57378832 0.00000389
-0.03821752 -0.42927550 0.00000122
-0.00046775 -0.74046848 0.00000015
-0.04734137 0.57382190 0.00000076
-0.46752975 -0.22817405 0.00000107
-0.49729556 -0.12590489 0.00000071
-0.46754758 0.20271313 0.16766955
-0.03601490 -0.66508477 0.00000061
-0.37029146 0.06007268 0.00000161
-0.00977480 -0.35473155 0.00000111
-0.31037316 -0.30377715 0.00000124
-0.63812490 -0.60298026 0.00000001
-0.14418687 0.48317458 0.00986765
-0.13966846 0.26502950 -0.00000291
-0.16121964 0.19414066 0.00000249
-0.25445450 -0.74513107 0.00000014
-0.44364075 0.00082915 0.08576823
-0.09319997 0.07365580 0.00000289
-0.53926837 0.04937739 0.17392145
-0.37102508 0.41284410 0.00000141
-0.20636991 -0.04789849 0.00000344
-0.11885699 0.16110182 0.00000860
-0.33041412 0.23594048 0.00000176
-0.17339247 0.31790074 0.00000279
-0.55125152 0.16469414 -0.00000005
-0.31650179 0.29110391 0.00000388
-0.75067630 -0.40541920 -0.00000099
-0.01485702 0.72417196 0.00000289
-0.19948146 0.49734468 0.00000371
-0.11087020 0.07481446 -0.00000749
-0.11748220 -0.26686399 0.00000133
-0.61954886 -0.06268616 0.19971170
-0.67318405 -0.76636269 0.01857233
-0.48675057 -0.58657242 0.00000053
-0.35636439 0.39223154 0.00000138
-0.63817013 -0.09373636 -0.00000052
-0.23676882 -0.14042677 0.00000165
-0.40162389 0.21670511 0.00000118
-0.30648330 0.35308018 0.09243576
-0.05828352 0.64896958 0.00000463
-0.02748336 0.27486655 0.00000884
-0.14389275 -0.04009887 0.00000190
-0.60041439 -0.43598406 0.00000016
-0.00966561 0.22190683 0.00000964
-0.46604863 -0.37585367 0.00000458
-0.04091290 -0.07722423 0.00000181
-0.49062021 -0.56373558 0.00000429
-0.72849951 -0.73850805 0.06948888
-0.46490954 0.00352636 0.00000086
-0.06350417 0.44196463 0.00000310
-0.42234844 0.02091978 0.00000501
-0.47103574 0.07129518 0.00000073
-0.04623697 0.02195232 0.00001108
-0.05866814 -0.04522810 0.00000233
-0.28324544 -0.18716812 0.00000367
-0.06385819 0.00679340 0.00000202
-0.24641963 -0.50869921 0.00000073
-0.13966339 0.15400805 0.00000344
-0.11438065 0.40579360 0.00000301
-0.09330844 0.10092018 0.00000296
-0.28223896 0.41635934 0.09393433
-0.13166946 0.33502383 -0.00000172
-0.70873102 0.07772727 -0.00000130
-0.05523784 0.06634891 0.00000217
-0.35703626 0.12680975 0.05955246
-0.62434765 -0.53610008 0.05401866
-0.16348572 -0.34442310 0.00000114
-0.47726673 -0.70610611 0.00000023
-0.57251767 -0.14682552 0.00000009
-0.00260336 -0.30300698 0.00000124
-0.04017376 0.64107836 0.00000498
-0.12273309 0.31461942 0.00000279
-0.42558763 0.28159662 0.16059854
-0.07238756 0.19735708 0.00000304
-0.03273777 0.63796729 0.00000165
-0.52402393 -0.04786852 0.13163288
-0.31522165 0.34193582 0.00000178
-0.41697685 -0.52207389 0.00000069
-0.07344695 0.04919052 0.00000212
-0.29131747 0.19630829 0.03142448
-0.70892582 -0.49265850 0.13213934
-0.61929370 -0.41509252 0.08834374
-0.13825902 0.31858614 -0.00000187
-0.25271788 -0.20643070 0.00000148
-0.79118801 0.00219128 -0.00000193
-0.30212937 0.21742056 0.04632004
-0.62276239 -0.05006266 -0.00000044
-0.40711963 0.02652730 0.06605975
-0.26206855 0.03772789 0.00000767
-0.26967808 -0.05409109 0.00000390
-0.19618141 0.07773983 0.00000367
-0.00415172 0.37534606 0.00000818
-0.32996439 -0.75415442 0.00000011
-0.20715008 -0.32207430 0.00000119
-0.18861752 0.40574766 0.00000280
-0.45585138 0.11809143 0.13206373
-0.51483846 -0.11785705 0.10255779
-0.48085277 -0.00823648 0.11125036
-0.46556037 -0.17370717 0.04740776
-0.24086199 0.06674221 0.00000217
-0.75144400 -0.05336216 -0.00000153
-0.79464858 -0.41811901 -0.00000095
-0.00600251 0.65084744 0.00000118
-0.30337285 -0.02855848 0.00000422
-0.72761228 -0.38443497 0.18051254
-0.61086641 -0.44568994 0.07227281
-0.38955516 -0.11466980 0.00814547
-0.02571942 -0.59707993 0.00000051
-0.44916686 -0.02371358 0.00000102
-0.07638851 -0.53351145 0.00000124
-0.40994805 -0.68065557 0.00000339
-0.54083148 -0.52491574 0.00000069
-0.49903037 0.06757136 0.14901199
-0.06035641 0.28278072 0.00000316
-0.42204316 -0.47199683 0.00000082
-0.29786374 0.38573930 0.00000189
-0.54291849 -0.07264250 0.00000027
-0.05220537 0.65797546 0.00000364
-0.26144267 0.05782111 -0.00000374
-0.51638191 -0.78023627 0.00000395
-0.55694496 -0.04320451 0.15817742
-0.02802947 -0.64111881 0.00000040
-0.53102048 -0.24889523 0.00000055
-0.35078004 -0.49383914 0.00000341
-0.04897639 0.64960813 0.00000476
-0.00204315 0.33101938 0.00000866
-0.06383501 0.59517391 0.00000164
-0.09664272 -0.78215951 0.00000004
-0.03440278 0.32683122 0.00000308
-0.07835266 0.31097227 -0.00000365
-0.18601900 0.25964123 0.00000405
-0.51299189 0.14804376 0.00000178
-0.58558384 -0.57860106 0.00000043
-0.10592935 0.09034911 -0.00000732
-0.31993478 -0.53497171 0.00000066
-0.05667682 0.28117713 0.00000833
-0.14952968 -0.47738854 0.00000193
-0.44709356 0.23789302 0.16318989
-0.34865813 -0.61762873 0.00000046
-0.35467986 -0.58189058 0.00000055
-0.44377390 0.23031858 0.15827282
-0.20379213 -0.45214650 0.00000087
-0.05641179 0.34633789 -0.00000354
-0.19325525 0.44696590 0.00000272
-0.45996887 0.05966327 0.00000084
-0.77539369 0.00759257 -0.00000180
-0.27611862 -0.23231832 0.00000350
-0.05837412 0.30117161 0.00000811
-0.39694993 0.00953516 0.05295318
-0.29795840 0.39937572 0.00000297
-0.43042107 0.28837383 0.00000086
-0.39969230 -0.32947069 0.00000118
-0.65676587 -0.65325832 -0.00000010
-0.19417585 0.05574744 0.00000851
-0.32129150 -0.06785089 0.00000425
-0.18806121 0.16631110 0.00000242
-0.11493034 -0.59107528 0.00000052
-0.14228672 0.35951933 0.00000290
-0.04186094 0.05207547 0.00000245
-0.56770139 0.01389227 0.18437944
-0.06701645 -0.07976933 0.00000180
-0.25242968 0.19206005 0.00000247
-0.05516872 0.07178205 -0.00000907
-0.02587368 -0.50218350 0.00000074
-0.33665677 -0.02951693 0.00000447
-0.51206885 0.23502512 0.00000078
-0.72238864 -0.14597400 -0.00000119
-0.26967964 -0.76948072 0.00000211
-0.39507687 -0.43320818 0.00000390
-0.47606785 -0.55957753 0.00000060
-0.03684406 0.54129197 0.00000363
-0.30502849 -0.63839905 0.00000271
-0.22770546 0.21049402 0.00000646
-0.08467277 -0.10697400 0.00000237
-0.36852930 -0.75079219 0.00000012
-0.05760010 0.35967839 -0.00000324
-0.11875049 0.59074340 0.00000320
-0.03581425 0.21451596 0.00000931
-0.40799837 -0.43261538 0.00000400
-0.19639095 -0.77646138 0.00000154
-0.09827523 0.19394980 0.00000858
-0.60707780 -0.14636354 -0.00000020
-0.43107237 -0.45486074 0.00000086
-0.79843385 -0.65076570 -0.00000037
-0.67772595 -0.41798034 -0.00000052
-0.22846977 0.46248550 0.06753386
-0.25846225 0.30328870 0.00000485
-0.55874795 -0.37756061 0.05407130
-0.64737976 -0.37327188 -0.00000031
-0.36752980 -0.52612551 0.00000068
-0.59915802 -0.46751339 0.00000020
-0.05765966 0.35784209 0.00000333
-0.43887531 -0.24005285 0.00615391
-0.11051332 0.07781890 -0.00000744
-0.26314450 0.47838603 0.09896012
-0.34425983 -0.25525662 0.00000136
-0.11099466 0.51234719 0.00000520
-0.28425029 -0.29283020 0.00000341
-0.61133361 0.03029199 0.22278560
-0.05214090 0.28799165 0.00000272
-0.45468220 -0.33384932 0.00000117
-0.03081241 0.74126196 0.00000380
-0.11795996 0.39184548 0.00000630
-0.08250729 0.67291557 0.00000343
-0.23848740 0.23957914 0.00000598
-0.49276827 0.09478283 0.15283027
-0.06607795 0.58243302 0.00000346
-0.22408628 -0.57499655 0.00000225
-0.18238098 0.08242310 -0.00000540
-0.13238930 0.19534927 0.00000805
-0.04023764 0.22670294 0.00000257
-0.44400297 0.30631518 0.00000072
-0.60375733 -0.69210519 0.00000027
-0.48591080 -0.56694502 0.00000058
-0.33972408 0.12281509 0.04510648
-0.09216230 0.13282163 0.00000233
-0.62191401 -0.28136249 0.13252722
-0.04465662 0.54117159 0.00000591
-0.22308692 0.42610540 0.05195640
-0.25971986 0.28102640 0.00000509
-0.60718372 0.01861808 -0.00000037
-0.37328390 0.08545138 0.00000519
-0.31327567 0.14390260 0.00000566
-0.27991717 0.51099056 0.00000201
-0.50932768 -0.60799304 0.00000432
-0.69496716 -0.03341871 0.26638451
-0.64615910 -0.06067281 0.22061364
-0.73168538 -0.50519068 0.14551990
-0.27306501 0.52570433 0.00000195
-0.01626484 0.03813938 0.00001137
-0.17953561 0.53850521 0.00000361
-0.39619876 0.10332388 0.00000134
-0.24365622 0.37819016 0.05250597
-0.41789639 0.27513895 0.00000212
-0.71372264 -0.27128756 -0.00000098
-0.06470104 0.36185619 0.00000741
-0.12490984 0.59645586 0.03092481
-0.04808141 0.65579130 0.00000364
-0.15232019 0.21910886 -0.00000348
-0.09243313 -0.21532403 0.00000146
-0.54834295 -0.27788870 0.00000044
-0.04960820 0.57593240 0.00000344
-0.36253356 0.28355126 0.00000144
-0.45865449 -0.46098408 0.00000431
-0.40653514 0.01298510 0.06134212
-0.49197718 0.01132304 0.00000062
-0.32727189 0.21000880 0.06313586
-0.55006471 -0.75935041 0.00000010
-0.61496645 -0.21328007 0.14871381
-0.14754509 0.46837307 0.00000505
-0.45661882 -0.03564317 0.00000097
-0.05363854 0.69925551 0.00907488
-0.69596475 -0.77630954 0.03278459
-0.06395253 -0.28362848 0.00000129
-0.29291891 -0.05467501 0.00000407
-0.27912574 0.05931736 0.00000425
-0.13971692 -0.55200794 0.00000167
-0.63167903 -0.34345508 0.12037607
-0.01942535 -0.20842411 0.00000148
-0.33996286 -0.11776023 0.00000427
-0.39639034 0.37250398 0.00000139
-0.14741260 -0.47031118 0.00000082
-0.39851569 -0.38417418 0.00000104
-0.04995940 -0.39767331 0.00000101
-0.63443312 -0.66614829 0.02067361
-0.05281968 0.52346671 0.00000597
-0.40606837 0.35537555 0.00000099
-0.60888983 -0.33455640 0.10582671
-0.52168687 -0.40287636 0.01785862
-0.55035091 -0.30530583 0.07047019
-0.01739644 0.31359961 0.00000278
-0.01002120 0.73323664 0.00000383
-0.65084790 -0.06870362 0.22165123
-0.64118107 -0.52329265 -0.00000010
-0.18965638 0.37328446 0.00000282
-0.54629831 -0.20186751 0.10001535
-0.39001783 -0.03340836 0.03413339
-0.07825463 -0.24528596 0.00000198
-0.61117950 -0.35390012 -0.00000002
-0.56796431 0.02154449 0.18699391
-0.21365489 -0.22630281 0.00000305
-0.48235908 0.14803174 0.00000056
-0.35335041 0.29229824 0.00000316
-0.13468320 0.23500944 0.00000259
-0.58818589 -0.12195603 0.15712728
-0.45457332 -0.17108131 0.03986822
-0.04880711 0.15475220 0.00000239
-0.27096189 0.34654758 0.00000216
-0.33430244 -0.56466306 0.00000059
-0.72492100 -0.06107637 -0.00000130
-0.06134044 0.60863532 0.00000184
-0.59654324 0.11393291 0.00000057
-0.28199857 0.31966683 0.00000421
-0.16248901 0.04486428 -0.00000669
-0.38724332 0.22211134 0.00000333
-0.64758584 0.00099751 -0.00000070
-0.59894911 0.06173489 0.22327370
-0.13938801 -0.78726863 0.00000003
-0.54400860 0.04405694 0.00000014
-0.69516493 -0.13382546 0.23485982
-0.29314077 0.43775013 0.00000261
-0.07875792 0.13356409 -0.00000719
-0.13018815 0.37576172 0.00000294
-0.49151267 0.28593912 0.00000034
-0.68812471 -0.15914929 0.22150896
-0.20897738 0.39845763 0.03248732
-0.26924422 0.11453078 0.00000229
-0.32405821 -0.00515547 0.00000443
-0.67538642 -0.56451216 0.08392746
-0.19813108 0.04972202 0.00000212
-0.06999331 -0.34558122 0.00000114
-0.57031184 0.00637924 0.00000234
-0.06256855 0.65855589 0.00303662
-0.28673759 -0.13259002 0.00000167
-0.41042889 0.33273625 0.00000159
-0.68446403 0.03776432 -0.00000022
-0.09093884 0.24779196 -0.00000457
-0.38976499 -0.02401240 0.03690496
-0.39854226 -0.73359741 0.00000017
-0.55231765 -0.03611075 0.15689106
-0.39350956 -0.08979051 0.01900588
-0.25237496 0.00541338 -0.00000504
-0.42049527 0.08857739 0.09582835
-0.52098341 -0.28876283 0.05332224
-0.19354282 -0.45560944 0.00000086
-0.52481454 0.26622493 0.00000007
-0.32367917 -0.64613181 0.00000283
-0.48660809 0.21289864 0.00000045
-0.71552370 -0.74625798 0.05716140
-0.64966408 -0.62832160 -0.00000007
-0.19966608 0.44617905 0.00000431
-0.08717311 -0.32746204 0.00000184
-0.33673190 -0.56897509 0.00000058
-0.04083923 -0.53060028 0.00000067
-0.14051796 0.30006466 0.00000275
-0.22910317 0.05944223 0.00000388
-0.03198389 0.29479455 0.00000298
-0.52596443 0.11132556 0.00000196
-0.61243403 -0.58245509 0.00000020
-0.41106951 -0.74017586 0.00000015
-0.21343410 0.20180121 0.00000250
-0.26886610 -0.55960307 0.00000060
-0.09503347 0.24347359 0.00000333
-0.06167566 0.70540275 0.01713535
-0.09112336 -0.70101319 0.00000093
-0.03752952 0.09069360 0.00001053
-0.17262715 0.59097864 0.00000274
-0.29492965 0.00727530 0.00000748
-0.02363264 0.63551646 0.00000529
-0.10337327 0.30830181 0.00000355
-0.27352516 0.16944947 0.00940623
-0.06490545 0.69448685 0.01615093
-0.12354156 0.15957113 0.00000854
