ply
format ascii 1.0
element vertex 1398
property float x
property float y
property float z
end_header
0.06114085 0.66783660 0.09784417
-0.09825414 0.49132102 0.00000315
-0.27992805 0.34401063 0.00000224
-0.54775487 -0.47737915 -0.00000008
-0.59051713 -0.07801254 -0.00000097
0.41290163 -0.08697310 0.66076959
0.34622726 0.13261487 0.55407025
-0.09680956 -0.54349306 0.00000000
-0.64414639 -0.26392711 -0.00000087
0.08409326 -0.01233594 0.13457574
-0.01943079 -0.50470768 0.00000000
-0.23222574 -0.22175979 0.00000000
-0.74811759 -0.27204414 -0.00000130
-0.10896861 -0.65501488 0.00000000
-0.11262317 -0.50625683 0.00000000
-0.09999804 -0.66489889 0.00000000
0.22614814 -0.50803855 0.36190837
-0.66290191 0.12658256 -0.00000148
0.00731487 0.18383131 0.01172270
-0.54317018 -0.05981873 -0.00000080
0.32247703 -0.06826133 0.51606300
0.17265083 -0.14394895 0.27629579
-0.53040310 -0.65732526 0.00000000
-0.31964618 -0.66576654 0.00000000
0.13684148 0.11381504 0.21900186
0.36831996 -0.15018454 0.58942573
0.15344961 -0.36187405 0.24556778
0.17975642 0.39074670 0.28766563
0.30504116 -0.36420827 0.48816134
0.39231898 -0.22655792 0.62783163
-0.18252076 0.09394465 0.00000000
-0.02790438 -0.64563561 0.00000000
0.27031207 -0.51220498 0.43258459
0.36039272 -0.41954352 0.57674066
0.15470855 -0.02377302 0.24758249
-0.51236345 -0.31579988 -0.00000021
0.22740929 -0.44610009 0.36392660
-0.15760350 -0.07994832 0.00000000
0.40253614 -0.05439274 0.64418158
0.06604293 0.29288204 0.10568952
-0.22045552 0.43743731 0.00000182
0.06073525 0.59667968 0.09719531
-0.58855166 0.05398918 0.00000116
0.13776480 0.23373763 0.22047583
0.25842750 -0.59108616 0.41356552
-0.21583823 -0.03416681 0.00000000
0.21951575 0.22767523 0.35129305
-0.07635044 -0.61857685 0.00000000
0.31678505 -0.10743268 0.50695425
-0.03153742 0.66018963 0.00000000
0.30838401 -0.37840328 0.49351095
0.01812483 0.25750104 0.02900545
0.16251090 0.47138647 0.26006735
-0.05693610 -0.20367407 0.00000000
-0.30767054 0.18052436 0.00000444
0.26561534 -0.15857792 0.42506751
0.23060170 0.06141229 0.36904325
-0.15502392 -0.03149080 0.00000000
0.27382514 -0.00618829 0.43820515
-0.61337434 -0.19030694 -0.00000087
0.22621450 -0.11658408 0.36201419
-0.24792909 -0.44657859 0.00000000
0.11875952 -0.11758837 0.19005270
0.06905939 0.66233929 0.11051644
0.06894092 0.66822095 0.11032666
-0.29999918 0.22492584 0.00000385
0.26020226 -0.65351301 0.41640570
0.19158351 -0.27086970 0.30659405
-0.62246727 -0.63135498 -0.00000013
0.00034893 -0.42038985 0.00055840
-0.59530186 0.01438251 0.00000169
0.22075560 -0.41978096 0.35327861
0.17983724 -0.45607480 0.28779632
0.03966574 -0.05340648 0.06347770
0.26150569 -0.03898492 0.41849045
0.36751188 0.06613553 0.58813302
0.40793856 -0.47031599 0.65282845
0.36605788 -0.25185807 0.58580606
-0.29995040 0.29695229 -0.00000039
-0.20699603 0.03981737 0.00000000
-0.57118769 -0.21738107 -0.00000064
-0.29809542 -0.21714781 0.00000000
0.03778533 0.33968628 0.06047930
-0.44485550 -0.00374613 -0.00000048
-0.33115147 -0.64649544 0.00000000
-0.10777076 0.22121840 0.00000706
-0.75033889 -0.52999698 -0.00000068
-0.29060557 -0.60062031 0.00000000
-0.37191426 -0.29663005 0.00000000
-0.30379870 0.08465516 0.00000612
0.00040397 0.00431962 0.00064648
0.09591270 -0.25599612 0.15349058
-0.14377566 -0.38040559 0.00000000
0.08909924 0.05099699 0.14260324
0.24401888 0.04745751 0.39050600
-0.60930030 -0.58141044 -0.00000016
-0.47097900 -0.65900106 0.00000000
0.25764113 0.06329204 0.41230564
-0.11836571 -0.17782094 0.00000000
0.05963456 0.13916503 0.09544944
-0.20650215 0.49372786 -0.00000034
-0.18184030 -0.19305237 0.00000000
-0.38036934 -0.48959431 0.00000000
-0.66498803 -0.23987813 -0.00000100
0.15702844 0.28248507 0.25129438
-0.27240417 0.35281914 -0.00000037
0.00876455 0.24744583 0.01402605
-0.16456605 0.62703109 -0.00000040
-0.01989978 -0.52404956 0.00000000
0.30157671 -0.59242559 0.48261787
-0.30365052 0.38358997 0.00000112
0.14117053 0.06714926 0.22591738
0.08995892 0.37265963 0.14397010
-0.01336370 0.08872896 0.00001047
-0.04294397 -0.30222946 0.00000000
-0.07333943 -0.58209348 0.00000000
-0.53997934 0.08641992 -0.00000104
0.15050301 0.20065949 0.24086116
0.33885726 -0.65341393 0.54227821
0.37414245 -0.66252391 0.59874515
0.19720368 0.03400929 0.31559910
0.38483364 0.07121579 0.61585192
-0.11293121 -0.39134778 0.00000000
-0.40278611 -0.36915834 0.00000000
-0.03789575 0.58246219 0.00000269
-0.76789502 -0.46033772 -0.00000085
-0.19561797 0.11785813 0.00000000
0.14371611 0.39403161 0.22999420
-0.45709684 -0.07535092 -0.00000040
0.21141492 -0.50776569 0.33833057
0.08499299 -0.12067542 0.13601560
0.09265743 0.27538111 0.14829111
-0.02275117 -0.48542540 0.00000000
0.41217890 -0.31632013 0.65961376
-0.06674240 0.65501587 0.00000114
0.05288177 -0.07775193 0.08462752
-0.09789268 0.23006905 0.00000000
-0.17045957 0.36135546 0.00000401
-0.01605537 0.11469053 0.00001004
0.29695325 0.23214428 0.47521630
-0.47455497 -0.56528752 0.00000000
0.19766017 -0.31471973 0.31631862
-0.37320406 0.24232340 0.00000215
0.07575768 0.05286775 0.12123619
-0.43311136 -0.28856148 0.00000000
-0.62209692 -0.36946888 -0.00000059
0.04249607 0.43383192 0.06801516
0.37845191 -0.33447052 0.60564051
-0.68585812 -0.46266208 -0.00000069
0.10290839 0.23439230 0.16468589
-0.55166468 -0.11413781 -0.00000074
0.24836384 -0.28934818 0.39746035
-0.08022066 0.26876670 0.00000676
-0.12181032 0.65799723 -0.00000027
-0.27969994 -0.63423162 0.00000000
0.11157678 -0.51829266 0.17855805
-0.44420877 -0.55944902 0.00000000
-0.61064272 0.02639499 -0.00000124
0.04752653 -0.08791378 0.07605745
-0.37961095 0.38967162 -0.00000089
-0.21790602 0.23587282 0.00000517
-0.09681980 -0.26663609 0.00000000
0.15344186 0.33709263 0.24555461
0.18081336 -0.40152922 0.28935842
0.02026183 -0.60457055 0.03242531
0.42055426 -0.38405811 0.67301707
0.31227590 -0.48413018 0.49973949
0.14099956 0.28646848 0.22565053
0.08191568 -0.18518710 0.13109093
-0.18430318 0.31390402 0.00000451
0.08497192 -0.23825644 0.13598188
-0.38172235 0.25592645 -0.00000067
-0.44243697 0.28938960 -0.00000099
-0.03257640 -0.69913550 0.00000000
0.33531870 -0.46841495 0.53661485
-0.30974582 -0.18696946 0.00000000
-0.41369192 0.10550360 0.00000366
-0.58817595 -0.40009001 -0.00000039
-0.01099490 -0.49366626 0.00000000
-0.43217143 -0.50223367 0.00000000
-0.10261729 -0.70287787 0.00000000
-0.78905571 -0.70018538 -0.00000025
-0.66479732 -0.70294080 -0.00000018
0.11497208 -0.03750109 0.18399159
-0.34052667 -0.03349126 0.00000000
-0.08561788 -0.58994893 0.00000000
-0.03938587 -0.73413238 0.00000000
0.03150535 -0.16700091 0.05041851
0.02252472 -0.41788944 0.03604665
-0.11723039 0.03756667 0.00000000
0.02107088 -0.73769755 0.03372006
-0.38173952 -0.32799975 0.00000000
-0.69428107 -0.00743214 -0.00000154
0.26614090 0.21669560 0.42590732
-0.33286466 0.00856520 0.00000683
0.13173895 -0.44196888 0.21082387
-0.62849382 -0.53168014 -0.00000033
0.09906387 0.51505803 0.15853574
0.33174552 0.02375851 0.53089942
-0.67516296 -0.16445710 -0.00000118
0.01385349 0.67169540 0.02217281
0.03209993 -0.18830501 0.05137002
0.10509572 0.37314679 0.16819277
-0.00549477 0.66494603 0.00000194
0.04264454 -0.10670495 0.06824472
-0.64634775 -0.35144366 -0.00000072
-0.06340529 0.63280788 0.00000000
-0.43821987 -0.66483874 0.00000000
0.30271314 -0.74150561 0.48443651
-0.47788023 -0.34903104 -0.00000001
0.28697613 -0.48599991 0.45925227
-0.19425319 0.60364488 -0.00000048
0.20154972 0.28298624 0.32254577
0.10961324 0.47873032 0.17541517
0.12061100 0.11779554 0.19301565
-0.32119088 0.13823235 -0.00000020
0.06565608 0.37966885 0.10507045
-0.07988241 -0.31876819 0.00000000
-0.46053513 -0.65173979 0.00000000
0.00232992 0.60018221 0.00373399
0.23676631 -0.33802858 0.37890080
0.06927990 -0.65757509 0.11086970
0.09024295 0.50164911 0.14441682
0.24307579 -0.26747457 0.38899782
0.08950168 -0.47929283 0.14323092
-0.04349502 0.56060102 0.00000293
-0.64827220 -0.56094393 -0.00000036
-0.35125478 0.08097713 0.00000527
-0.09779154 0.16239548 0.00000000
-0.58079092 0.15211853 -0.00000033
-0.68309019 -0.24410993 -0.00000107
0.35987187 -0.33877616 0.57590687
0.20731811 0.05770123 0.33177371
0.15482489 0.10219244 0.24776864
-0.13364159 0.24251606 0.00000000
-0.19388530 -0.00170816 0.00000000
0.27431701 0.09725471 0.43899732
0.18141620 0.21457038 0.29032941
-0.29315260 0.34418586 0.00000198
0.00462644 0.41220628 0.00740376
0.29458231 0.15797808 0.47142482
0.20123661 -0.72626219 0.32204206
0.19464909 0.41684377 0.31149875
0.14412486 0.05013499 0.23064524
-0.66418628 0.11750803 -0.00000163
-0.06695844 -0.24507119 0.00000000
0.12957018 -0.25097992 0.20735316
0.30231565 0.04351821 0.48380376
0.28412229 0.21964106 0.45468422
0.32554358 0.13197391 0.52097130
-0.19848933 0.15527293 0.00000668
-0.56526009 -0.78617218 0.00000000
0.00160393 0.66848001 0.00256679
-0.42886395 0.17696827 0.00000217
-0.10756290 0.15190297 0.00000000
-0.01568241 0.13365100 0.00000976
0.26178371 -0.57848664 0.41893653
-0.51103977 0.01423476 -0.00000079
-0.59046366 -0.73294629 0.00000000
-0.44282930 -0.36219597 0.00000000
-0.61133418 -0.49623165 -0.00000032
0.00949472 -0.77125031 0.01519455
0.24513147 0.01962785 0.39229579
-0.27119051 -0.41161799 0.00000000
-0.63666782 -0.72712981 -0.00000002
0.39892113 -0.36158498 0.63839750
0.03090790 0.45674789 0.04947035
0.39562365 -0.45036901 0.63312082
-0.12569382 0.16178267 0.00000768
0.34075305 -0.22588168 0.54531064
-0.24060665 0.53075965 -0.00000012
0.04387027 -0.38666467 0.07020627
-0.70103609 -0.47584231 -0.00000074
0.16621261 0.26997292 0.26599187
0.03464345 -0.03654055 0.05544044
-0.27091026 0.47455680 0.00000023
0.05363836 0.58055385 0.08583821
0.12165346 0.12205793 0.19468391
0.01732694 0.15301300 0.02774553
-0.15768159 0.35150186 0.00000000
-0.56033935 -0.47878664 -0.00000013
0.09364139 -0.54077722 0.14985576
-0.60613919 -0.03490699 -0.00000111
0.14360826 0.08155588 0.22983141
-0.57065559 -0.71828215 0.00000000
-0.45380101 0.17995504 0.00000164
-0.24309382 0.28433191 -0.00000013
-0.74406418 -0.73761542 -0.00000016
-0.10263727 0.46680961 0.00000345
0.05657444 -0.66233999 0.09053695
0.22556354 -0.76444015 0.36097282
0.01224653 0.57579505 0.01960390
-0.78004084 -0.19512792 -0.00000151
0.35903216 -0.55380152 0.57456380
-0.20120749 0.00164034 0.00000000
0.00806665 0.45164141 0.01291839
-0.40738064 0.06021735 -0.00000043
-0.62557540 -0.32788693 -0.00000068
-0.08027166 0.62549144 0.00000137
0.06198573 0.32844909 0.09920673
0.30850423 0.06950967 0.49370186
0.03253557 -0.08380428 0.05206718
0.12617328 -0.02092991 0.20191705
0.37511621 -0.11303321 0.60030164
-0.31750087 0.10696285 -0.00000013
0.03585661 0.04833615 0.05740085
0.16036184 0.35937253 0.25663259
-0.33617826 -0.55289650 0.00000000
-0.04841411 0.29513742 0.00000000
-0.15455370 -0.09473909 0.00000000
-0.07619799 0.62103862 -0.00000001
0.36790392 0.02140482 0.58876183
-0.40252425 -0.40638612 0.00000000
-0.01593108 0.20792760 0.00000000
-0.36322896 -0.07959100 0.00000000
-0.03931119 0.55668694 0.00000306
0.07082662 -0.29075879 0.11334493
-0.21272416 0.17784011 0.00000612
0.35189263 -0.67139705 0.56313879
0.37974922 -0.09768544 0.60771581
0.29467788 0.05348846 0.47157560
0.02341404 -0.49902468 0.03746985
-0.03357832 0.76262519 -0.00000008
-0.30983483 -0.78839542 0.00000000
0.32752741 0.14983701 0.52414534
0.07203549 -0.08377333 0.11527951
0.18108443 0.41087118 0.28979078
0.09112346 0.45008731 0.14582606
-0.33809083 0.40999652 -0.00000075
0.33363716 -0.15729857 0.53392285
-0.08325451 0.08743312 0.00000000
-0.70583002 -0.23108168 -0.00000119
-0.60040942 -0.76633579 0.00000000
-0.02913558 -0.33620307 0.00000000
-0.01725665 0.24248874 0.00000810
-0.06342857 -0.02571983 0.00000000
0.23574388 -0.34382067 0.37726459
-0.14679233 0.31031984 0.00000513
0.11220012 0.35953717 0.17956199
-0.08305894 -0.42066091 0.00000000
-0.07505324 0.06464565 0.00000000
0.20832665 0.35288767 0.33338827
0.03139692 0.69405643 0.05024621
-0.54110662 0.13553127 0.00000071
-0.45249326 0.03930520 0.00000402
0.11432903 -0.71941561 0.18296252
0.11287896 0.21136902 0.18064195
-0.35329045 -0.12952339 0.00000000
0.18370235 0.11884886 0.29398120
0.07230464 0.13423984 0.11572508
-0.08406112 0.46493682 0.00000000
-0.31560985 0.33031492 0.00000178
0.10807296 0.32846221 0.17295076
0.05445006 0.47600547 0.08713727
-0.79647839 -0.00606950 -0.00000197
-0.18702187 0.25186551 0.00000540
-0.53007638 -0.78320417 0.00000000
-0.03441346 0.49659093 0.00000000
-0.09950593 0.69118627 -0.00000009
0.07437866 0.42451352 0.11903609
-0.00996014 0.42789741 0.00000543
0.23081592 0.21246456 0.36937676
0.41746858 -0.59890516 0.66807977
0.02240372 0.74712088 0.03585286
-0.08088108 -0.54614108 0.00000000
-0.00542881 0.27771836 0.00000775
0.33201193 -0.53629080 0.53132325
0.17466075 0.26625668 0.27951737
-0.13772289 -0.32298071 0.00000000
0.27926126 -0.34291661 0.44690569
-0.06320251 0.03028920 0.00000000
0.01106260 0.13821604 0.01772132
-0.73691386 -0.42413793 -0.00000094
0.04359481 0.37793363 0.06976544
-0.32535833 0.36551565 0.00000101
0.01428820 0.29043780 0.02286563
-0.66214893 -0.52307725 -0.00000049
-0.32210737 0.42471467 0.00000008
0.31285362 -0.36606212 0.50066363
-0.66460552 -0.50820551 -0.00000052
0.09241861 -0.79565482 0.14789893
-0.03701752 0.41889990 0.00000516
-0.19378167 -0.08834878 0.00000000
0.00464397 0.35601314 0.00743181
0.32268721 0.14639022 0.51639864
0.37181568 -0.34885486 0.59502059
0.05172118 -0.36169954 0.08277021
0.12312490 0.11569535 0.19703868
-0.77918670 -0.17519144 -0.00000156
-0.01638283 0.65361904 0.00000000
0.02879896 -0.60096251 0.04608742
0.31787395 0.10261805 0.50869896
0.38200565 -0.49964669 0.61132809
-0.57252715 -0.31588485 -0.00000047
-0.71975886 -0.19536423 -0.00000131
-0.03841854 -0.18919423 0.00000000
-0.18768948 0.41167219 -0.00000011
-0.59903150 -0.37419552 -0.00000048
0.20858991 -0.26912617 0.33380966
-0.06878040 0.38344614 0.00000000
-0.06392099 -0.25999675 0.00000000
-0.26418338 0.19926279 -0.00000007
-0.33190999 -0.67493754 0.00000000
0.12128645 0.13720848 0.19410901
-0.08037031 -0.19305494 0.00000000
-0.19782511 0.29026602 0.00000466
0.19828169 0.16423963 0.31731238
-0.03822228 0.52434896 0.00000000
0.13344322 0.12632325 0.21356340
0.21906750 -0.56940439 0.35057711
-0.25127662 -0.59166742 0.00000000
-0.07009565 0.68341117 -0.00000009
0.25227188 0.17371945 0.40371286
0.19162688 -0.21951749 0.30666346
-0.68435566 -0.09086662 -0.00000135
-0.10288257 0.13103556 0.00000848
0.38049272 -0.64814685 0.60890744
-0.06212606 0.37268927 0.00000000
0.03106693 0.10449162 0.04973453
0.16160630 0.26233201 0.25862041
0.16560923 0.48464811 0.26502565
-0.68901537 -0.09857315 -0.00000135
0.02731315 0.57513745 0.04370966
-0.08894791 0.12945137 0.00000000
-0.03673660 -0.04621011 0.00000000
0.08069219 0.34584819 0.12914159
0.20962292 -0.45394703 0.33546279
0.00945453 0.07072592 0.01514984
-0.15529268 -0.03645540 0.00000000
-0.18304367 0.55580361 0.00000056
-0.26839030 -0.12492876 0.00000000
0.06066962 0.16009759 0.09710523
0.39964609 -0.60197847 0.63955844
0.31654266 -0.78071723 0.50656811
0.23239937 -0.10146480 0.37191180
-0.43664051 0.25173127 0.00000077
0.20383350 0.32324106 0.32619908
-0.04856345 -0.70078221 0.00000000
-0.08030284 -0.77690992 0.00000000
0.02948497 0.44887680 0.04718526
0.18247003 0.18726991 0.29201668
0.01984824 0.51085515 0.03176345
-0.16251877 -0.68471250 0.00000000
-0.03813122 0.39344109 0.00000552
-0.20814385 -0.00949737 0.00000000
0.09388891 0.46707612 0.15025157
0.41680251 -0.58176535 0.66701380
0.01937975 0.02262185 0.03101372
0.14833293 -0.70735409 0.23737948
0.21059670 -0.12686202 0.33702105
0.24244257 -0.04552905 0.38798374
-0.44130182 -0.75120394 0.00000000
0.38014360 -0.49555556 0.60834825
-0.31466036 0.45668721 -0.00000074
0.09638189 0.35559583 0.15424903
-0.15054629 0.32827775 0.00000480
-0.67040483 -0.44584090 -0.00000066
0.00758684 0.01810017 0.01214134
-0.13891069 -0.61051282 0.00000000
-0.10852821 0.10195537 0.00000883
0.00464769 -0.60325397 0.00743777
-0.64352750 -0.63119397 -0.00000022
0.39942909 -0.25669092 0.63921004
0.11951224 0.54309972 0.19125634
0.20472016 0.22338835 0.32761566
0.37695135 -0.74582508 0.60324051
-0.56868119 0.02865264 -0.00000106
0.06297062 0.30722737 0.10077286
0.28383903 -0.23659590 0.45423114
0.09124287 -0.06125876 0.14601738
-0.56936289 -0.48605009 -0.00000016
-0.03807884 0.55279168 0.00000000
0.27832102 0.11682777 0.44539951
-0.00741627 -0.37628090 0.00000000
-0.13185636 0.27108813 0.00000594
0.26144014 -0.69379106 0.41838670
-0.68354774 -0.07749386 -0.00000137
-0.41587023 0.27232580 -0.00000084
-0.53958172 0.05340656 -0.00000098
-0.19611212 -0.60004429 0.00000000
0.13442990 0.33870326 0.21513577
0.36338315 0.10570553 0.58152450
-0.13150520 0.16977750 0.00000000
0.00359356 0.54852305 0.00575083
0.14148607 -0.07626191 0.22642235
-0.02276056 0.37371142 0.00000000
-0.25440779 -0.61000980 0.00000000
-0.58147366 -0.18306368 -0.00000074
0.15089189 -0.52947864 0.24147463
0.13983681 -0.06045080 0.22378300
-0.21991768 -0.63706429 0.00000000
0.05548934 0.52599992 0.08880045
0.23393633 0.20928338 0.37437470
-0.38471993 0.39562722 -0.00000063
-0.60536004 0.02145516 0.00000138
0.18211935 0.40121621 0.29144699
-0.69742664 -0.10628682 -0.00000137
0.33195605 -0.54588469 0.53123385
-0.28284696 -0.50393965 0.00000000
0.14324628 0.09188976 0.22925186
-0.62773483 -0.55026757 -0.00000029
0.13394152 -0.62018587 0.21434869
0.13682460 -0.51186949 0.21896252
-0.29478043 0.01875637 0.00000727
-0.23975819 0.30338479 -0.00000015
-0.20266998 0.35893047 -0.00000009
-0.25660013 -0.16044548 0.00000000
-0.01572875 0.57965759 0.00000000
0.38594509 -0.16713245 0.61763130
0.15749981 -0.36462989 0.25204938
-0.38012450 -0.75497992 0.00000000
-0.49116965 -0.61127259 0.00000000
0.12157605 -0.56882327 0.19456004
0.39031669 -0.34388767 0.62462774
-0.74512763 -0.23038361 -0.00000136
-0.26618770 0.48648133 0.00000013
-0.02121110 0.71131470 0.00000101
-0.29542056 -0.14203288 0.00000000
-0.45516293 -0.08323958 -0.00000038
-0.38687175 0.14090050 -0.00000049
-0.36150327 0.22962257 0.00000259
0.06496860 0.20175792 0.10398361
-0.69855163 -0.13351173 -0.00000133
-0.06502833 -0.68445351 0.00000000
0.03121829 -0.60684762 0.04995911
-0.02755811 0.02144980 0.00000000
0.07500303 0.12425413 0.12002851
0.26639090 -0.49594673 0.42630948
-0.13393003 -0.26595363 0.00000000
-0.48648119 -0.20030763 -0.00000031
-0.02838609 -0.36442880 0.00000000
-0.38946626 -0.39917845 0.00000000
-0.00977604 0.73958722 0.00000000
0.33014974 -0.20168469 0.52834208
-0.09431167 -0.08791944 0.00000000
-0.17001556 0.15657371 0.00000000
-0.36238266 -0.42976489 0.00000000
0.01257366 0.77404135 0.02012172
0.06270620 0.13491045 0.10036500
0.40437173 -0.26096909 0.64711975
-0.39340400 -0.11299563 -0.00000006
0.38870357 -0.59752247 0.62204711
-0.49076348 -0.01033162 -0.00000066
-0.06056648 -0.30265680 0.00000000
0.04857947 0.46262725 0.07774943
0.00905138 -0.05089862 0.01448507
-0.41639994 0.35744178 -0.00000060
0.11929338 0.51551511 0.19090619
0.21609495 0.19821819 0.34581883
0.05812646 -0.43857773 0.09302067
-0.79289374 -0.46758748 -0.00000083
-0.20611127 0.32769240 0.00000393
0.00746507 -0.29563104 0.01194647
0.32831809 -0.53110797 0.52541198
-0.68708965 -0.55604410 -0.00000054
0.18558383 -0.68158898 0.29699267
0.14371198 0.32215220 0.22998392
-0.65168524 -0.48076124 -0.00000052
0.09010838 0.48908079 0.14420559
0.14068914 -0.78353268 0.22514700
0.03324644 0.16295368 0.05320479
0.32719891 -0.64117445 0.52362132
0.05539480 -0.44186687 0.08864916
-0.21133047 0.22490105 0.00000544
0.36069098 -0.20738815 0.57721726
-0.52136858 0.09614871 -0.00000098
0.28863847 -0.27651147 0.46191183
-0.41094924 0.13741762 0.00000318
-0.57072922 -0.19327365 -0.00000068
0.28017812 0.17426037 0.44837124
0.11010754 -0.04526281 0.17620679
0.21985090 -0.50168820 0.35183079
0.01139514 0.74918842 0.01823666
-0.58183413 -0.45502946 -0.00000026
-0.04193123 -0.57856865 0.00000000
0.18912361 -0.09684240 0.30265743
0.00899442 0.19160065 0.01439390
-0.07521917 0.44512417 0.00000419
0.10878126 -0.15453564 0.17408433
0.09939479 0.43754030 0.15906780
0.22524428 -0.14604710 0.36046164
0.14290238 -0.30207965 0.22868888
0.08565616 -0.65653070 0.13707687
0.04115262 -0.43465363 0.06585718
-0.34764900 0.14043113 0.00000434
-0.09100722 -0.51051673 0.00000000
0.02859570 0.31687262 0.04576214
0.39781604 -0.16794943 0.63662838
0.28616622 0.20855204 0.45795538
0.10323502 0.42580166 0.16521348
0.03591518 0.67943310 0.05747700
0.29587165 0.07308961 0.47349082
0.22353981 0.20817433 0.35773774
0.29484612 0.20422444 0.47184549
0.12650184 -0.62577353 0.20244284
-0.25708746 0.04062998 0.00000000
0.06517552 0.33615198 0.10431104
-0.58258980 0.12707158 0.00000005
0.17958035 0.19328925 0.28738452
-0.51271635 -0.25504093 -0.00000032
-0.12854404 -0.06908221 0.00000000
-0.35507292 0.04297698 0.00000583
-0.17947930 0.52771093 0.00000110
-0.23391826 0.35614434 -0.00000021
0.07459040 0.35564772 0.11936817
0.00748063 0.16190913 0.01198855
-0.67657607 -0.70824537 -0.00000022
-0.10306770 -0.60526359 0.00000000
0.15641192 -0.37472700 0.25030842
-0.62143227 -0.00085035 -0.00000124
0.26406379 0.07552429 0.42258379
0.10241423 0.25524348 0.16390517
-0.52387882 0.26013309 -0.00000104
0.20341951 0.38111093 0.32553474
-0.65470970 -0.24704789 -0.00000094
0.24648617 -0.00063432 0.39445456
0.38779168 -0.20721976 0.62058652
0.30670304 0.20356468 0.49081950
-0.26716271 0.46873313 0.00000040
-0.34407624 0.29479873 0.00000183
0.12892261 0.19524758 0.20631685
0.22036316 0.03700121 0.35265986
-0.52167469 0.03163744 -0.00000087
-0.08946584 0.02625006 0.00000000
-0.60454656 0.12750262 -0.00000139
0.17604998 -0.37027454 0.28173551
0.23775084 -0.08435328 0.38047569
-0.06103359 0.55585701 0.00000000
0.11594364 0.31210606 0.18554627
0.34678257 0.08298841 0.55495866
0.22452833 0.09845772 0.35932317
0.01916395 0.51988526 0.03067515
-0.62723636 -0.40922392 -0.00000054
-0.05289016 0.40952551 0.00000506
0.29405384 -0.63753309 0.47057891
-0.22297274 -0.65704472 0.00000000
0.32031700 -0.43056734 0.51260750
-0.28413291 0.02070317 0.00000000
-0.24056558 -0.71640026 0.00000000
-0.06777593 0.18629129 0.00000818
-0.56955732 0.21073051 -0.00000109
0.04584047 0.55469091 0.07336376
-0.40982687 -0.39064953 0.00000000
-0.07313915 0.34048677 0.00000579
0.10048449 0.18013163 0.16080688
-0.33673743 -0.14869657 0.00000000
0.07000273 0.12183584 0.11202645
-0.26994679 -0.13608050 0.00000000
0.12319241 -0.38964276 0.19714671
0.04119594 0.22845625 0.06592651
-0.21524810 0.13948345 0.00000666
0.19637338 0.08160186 0.31425877
-0.20709478 -0.45517410 0.00000000
-0.05337998 0.07913747 0.00000000
-0.34951933 0.14924222 -0.00000034
-0.64778126 -0.29171280 -0.00000083
-0.14808088 0.26070608 0.00000000
0.22737226 0.25132829 0.36386574
0.38583230 -0.41450174 0.61745161
0.10228589 0.58110849 0.16368888
-0.55217080 0.15423394 -0.00000121
0.35406653 0.03434193 0.56661818
0.20234780 -0.44036245 0.32382031
0.04941412 0.11563357 0.07909464
0.04021521 0.63583965 0.06435953
-0.47263926 0.06972811 0.00000312
0.08878534 -0.03067595 0.14208455
0.20214448 -0.15459421 0.32349494
-0.67875373 -0.49818800 -0.00000060
0.28951886 -0.09091447 0.46332010
0.34849175 0.09585279 0.55769518
0.04320084 -0.11583977 0.06913497
-0.00133936 0.34244477 0.00000684
0.38394796 -0.77415975 0.61443727
-0.75480842 -0.76759515 -0.00000008
0.09510261 0.37860488 0.15219414
0.18191790 0.36963103 0.29112471
0.33952057 -0.37685948 0.54333881
0.05082427 -0.78420680 0.08133487
0.09427859 0.60915046 0.15087470
-0.11353492 -0.06664289 0.00000000
0.01420054 -0.59904654 0.02272534
-0.28665121 -0.73549626 0.00000000
-0.43971122 -0.11413361 -0.00000026
-0.31957544 -0.76493601 0.00000000
-0.62277971 -0.45033116 -0.00000045
0.07662405 -0.58811404 0.12262266
-0.63083296 -0.09928464 -0.00000110
-0.07654266 -0.27660769 0.00000000
-0.18758843 0.27887121 0.00000499
-0.38835800 0.20547137 -0.00000061
0.11352793 -0.21206035 0.18168051
-0.54677944 -0.20532453 -0.00000056
0.29576386 -0.19394374 0.47331431
-0.74159350 0.00512355 -0.00000176
-0.32662904 -0.52137242 0.00000000
0.01442826 -0.04924742 0.02308976
-0.79646859 -0.48195024 -0.00000080
0.27034094 -0.52661805 0.43263079
0.23877291 -0.57285244 0.38211198
-0.51971213 -0.77215421 0.00000000
-0.44361720 0.09996046 0.00000317
-0.31799219 0.29800881 -0.00000047
-0.52371401 -0.57965605 0.00000000
-0.51899850 0.12388165 0.00000133
-0.62468431 -0.76517361 0.00000000
0.23166078 0.05369542 0.37073828
-0.29238324 0.43374514 -0.00000060
-0.14926783 -0.58450080 0.00000000
-0.76974714 -0.03873808 -0.00000180
-0.44225961 -0.70743183 0.00000000
-0.05712831 0.41667958 0.00000489
-0.19307407 0.04495767 0.00000000
0.28978087 0.20510851 0.46373982
0.25575259 0.09989578 0.40928961
-0.04753864 0.66561852 0.00000130
0.18742823 0.42032587 0.29994349
-0.50672373 0.10722917 0.00000184
0.22837572 0.27712096 0.36547416
-0.62975859 -0.15600907 -0.00000100
-0.21548025 0.10980931 0.00000000
0.08170837 0.02175286 0.13075917
-0.08345723 0.04451463 0.00001007
-0.42611303 -0.15279520 -0.00000013
-0.41620156 0.31212882 0.00000016
0.21117620 0.03067445 0.33795867
-0.18543426 -0.56784773 0.00000000
0.42055370 -0.05396688 0.67301509
0.04693795 -0.46498597 0.07511552
0.40753334 -0.21215804 0.65217912
-0.17895696 -0.06807473 0.00000000
-0.05019399 -0.53752811 0.00000000
-0.07384181 0.49042625 0.00000353
-0.02549268 0.54800379 0.00000340
-0.45271828 0.22427477 0.00000092
0.14016372 0.10058457 0.22430617
-0.33886001 0.23878851 0.00000287
0.13085947 -0.29906951 0.20941644
-0.23288429 0.12592258 0.00000660
-0.26685345 -0.43409497 0.00000000
-0.06572978 -0.73733552 0.00000000
-0.36472925 -0.44509176 0.00000000
-0.15711244 0.15488225 0.00000000
-0.56231167 -0.42727479 -0.00000023
0.13256352 -0.65761673 0.21214345
0.31202373 0.20948044 0.49933366
-0.17034478 0.37566140 0.00000379
-0.27338370 0.19920456 -0.00000010
-0.21389722 0.16071269 0.00000000
0.26237539 -0.70733543 0.41988339
-0.20802098 -0.17715534 0.00000000
0.10945922 -0.23533302 0.17516928
-0.00638213 -0.57262118 0.00000000
0.28558424 -0.56635465 0.45702488
0.11906536 -0.72621342 0.19054214
0.26059693 0.07638568 0.41704251
-0.04628534 -0.11398952 0.00000000
0.20529324 -0.60828016 0.32853395
0.37047229 -0.68381573 0.59287186
-0.00977945 -0.72977024 0.00000000
0.33472604 0.10848744 0.53566624
0.08505988 -0.52663781 0.13612264
0.01174954 -0.04903650 0.01880297
0.26712355 -0.37998670 0.42748183
-0.31271364 0.43995283 -0.00000070
-0.36719647 0.24016105 -0.00000058
-0.66696343 -0.76705441 -0.00000008
0.16755057 0.23933298 0.26814019
0.18201654 -0.71338828 0.29128388
0.28873738 -0.11809294 0.46206959
-0.01735363 -0.18642077 0.00000000
-0.35490887 -0.60321651 0.00000000
0.30466554 -0.65691228 0.48756098
0.08660232 0.39045342 0.13859104
-0.54426742 -0.18609883 -0.00000058
-0.47944383 -0.40316925 0.00000000
0.36519791 -0.03778260 0.58442915
0.03317841 0.16237313 0.05311188
-0.75035786 0.03132749 -0.00000184
0.08754314 0.14608226 0.14009664
0.04174300 -0.30814221 0.06680196
0.27764825 0.01607408 0.44432320
0.22664421 0.28181313 0.36270054
-0.36916380 0.06318033 0.00000522
0.36596733 0.08125602 0.58566087
0.39168255 -0.01201438 0.62681244
-0.38581799 -0.02762265 -0.00000018
0.41835755 -0.09413528 0.66950073
-0.25883841 0.53961047 -0.00000064
0.27516682 0.12405077 0.44035636
0.10357979 -0.73814198 0.16576034
0.42076977 -0.49088668 0.67336230
-0.24802450 -0.77344485 0.00000000
-0.33913753 0.19639072 0.00000357
-0.49306944 -0.16890630 -0.00000039
0.11302384 0.21860688 0.18088438
-0.02126526 -0.13341936 0.00000000
-0.29506852 -0.61940144 0.00000000
-0.54291146 0.21800111 -0.00000070
-0.56113037 0.03068843 0.00000207
-0.75004834 -0.62621126 -0.00000043
0.09174612 0.56150725 0.14682403
-0.03861816 0.28511979 0.00000000
-0.78768014 -0.09353171 -0.00000177
-0.33004555 -0.49635271 0.00000000
0.24813782 -0.27591437 0.39709861
0.22559592 0.07738712 0.36103226
-0.26432336 0.51793894 -0.00000036
0.39181688 -0.74467810 0.62702982
0.00313905 0.30621548 0.00502347
-0.17356122 0.22787582 0.00000000
-0.54045569 0.04681126 0.00000220
-0.28879753 0.21546116 0.00000422
-0.29338948 -0.01937455 0.00000000
-0.27827205 -0.50145055 0.00000000
0.40148606 -0.41073108 0.64250232
0.02684289 -0.23201929 0.04295710
0.10002818 0.57138812 0.16007590
0.08634181 0.17955605 0.13817413
-0.28641085 -0.38232801 0.00000000
-0.22367646 0.35906380 0.00000307
0.09372122 -0.72946078 0.14998352
-0.49102134 -0.68718457 0.00000000
-0.12329707 0.15773407 0.00000777
-0.01351811 0.76457915 0.00000033
0.30054004 0.18264341 0.48095786
0.31775133 -0.30108100 0.50850122
-0.61582015 0.18307386 -0.00000152
-0.69217491 -0.76195095 -0.00000010
-0.12147180 -0.76241490 0.00000000
0.24314672 -0.45552720 0.38911146
0.18616612 0.04027839 0.29792423
-0.16619698 0.13453181 0.00000000
0.06055701 0.11269427 0.09692633
-0.11338072 0.08576757 0.00000900
0.41814202 -0.04758501 0.66915566
-0.03252938 -0.48172740 0.00000000
-0.26732518 0.42567630 -0.00000048
-0.07355868 0.69296491 -0.00000012
-0.46997826 0.03838419 -0.00000066
-0.19713240 0.43949118 -0.00000020
-0.71807939 0.00168451 -0.00000045
0.05743693 0.36364188 0.09191721
0.12979424 -0.51264679 0.20771173
0.18679466 -0.49980955 0.29893038
0.30024859 0.13171049 0.48049016
0.19870739 0.01348336 0.31799411
-0.20458518 0.23993372 0.00000000
0.38450304 -0.29690172 0.61532401
0.01832787 0.13309444 0.02934783
-0.51784449 0.18236957 0.00000037
-0.28898641 -0.12294903 0.00000000
0.37532555 -0.28561259 0.60063722
0.04942736 -0.34618010 0.07909937
0.12515469 0.27975466 0.20028682
0.10164801 -0.24723159 0.16266889
-0.41068825 -0.18405151 -0.00000001
-0.57121059 0.00588637 0.00000230
-0.32539005 -0.32868713 0.00000000
-0.31987635 -0.75173476 0.00000000
-0.43355017 -0.14821560 -0.00000017
-0.20611169 -0.62346125 0.00000000
-0.73984483 -0.56024795 -0.00000060
0.09858921 0.25468115 0.15777384
-0.63656404 0.14074711 -0.00000121
0.12745714 -0.01294999 0.20397164
0.10609339 0.36465491 0.16978956
-0.29229074 -0.04997313 0.00000000
-0.56763733 -0.62546892 0.00000000
0.00239581 0.62868822 0.00383405
0.09370466 0.47341985 0.14996103
0.28248915 -0.76086599 0.45207175
0.04872658 0.54106332 0.07798270
-0.69826018 -0.53540196 -0.00000062
0.35678124 0.02374946 0.57095974
-0.09549568 0.37093337 0.00000000
-0.15927184 0.12459234 0.00000000
0.28519534 0.04067965 0.45640715
0.32678150 -0.33198048 0.52295232
-0.29391018 0.16893266 -0.00000014
-0.60790435 -0.21675049 -0.00000080
0.24837679 -0.37345395 0.39748121
0.05060738 -0.40853057 0.08098777
-0.46093215 -0.59013972 0.00000000
-0.61419614 -0.48805837 -0.00000034
-0.13562753 0.43895346 0.00000337
-0.16228493 0.08029116 0.00000000
-0.24847310 -0.04124184 0.00000000
-0.33789299 -0.44196364 0.00000000
0.32081271 -0.11497290 0.51339975
-0.14262761 0.64293484 -0.00000012
0.28532986 -0.79820305 0.45661779
0.19400880 -0.12010833 0.31047529
-0.19057991 -0.66242095 0.00000000
-0.03785269 -0.28376687 0.00000000
-0.59541484 -0.52712102 -0.00000020
-0.46539382 -0.15814741 -0.00000029
0.20926595 -0.54439614 0.33489154
0.11145177 -0.42240201 0.17835799
0.09183366 -0.55764617 0.14696283
0.04865004 0.42986892 0.07785541
-0.26193808 -0.54012668 0.00000000
-0.28591458 0.12437220 -0.00000003
-0.11699360 -0.69819086 0.00000000
0.31883373 -0.16712428 0.51023295
0.22085878 0.04978488 0.35344288
0.14010171 0.19809688 0.22420682
0.36366670 -0.52554385 0.58198035
0.11886805 -0.46948311 0.19022638
-0.01677251 0.46657638 0.00000000
0.40433401 0.01750001 0.64705847
0.23173793 0.20223525 0.37085228
-0.03152941 0.30362593 0.00000000
-0.34686155 0.17096724 -0.00000037
0.13819148 -0.58139569 0.22114997
-0.08317805 -0.02435238 0.00000000
-0.21750543 -0.55472072 0.00000000
-0.43214723 0.02762268 0.00000460
0.22605965 0.29044414 0.36176745
0.02185400 0.07959041 0.03497329
0.20049173 0.35317864 0.32084848
-0.23234868 0.00630533 0.00000000
-0.28607284 0.21155526 -0.00000018
0.12705321 0.48782281 0.20332645
0.13212378 0.19131361 0.21143973
0.39638481 -0.27604189 0.63433834
-0.04275999 0.58519021 0.00000258
-0.78791596 -0.74004378 -0.00000015
-0.64914631 -0.73888750 -0.00000005
0.13839249 -0.63903278 0.22147165
-0.35891492 -0.79887597 0.00000000
0.20836534 0.39742430 0.33344874
-0.05947814 0.57018221 0.00000000
0.13778253 0.40321072 0.22049475
0.08985607 -0.59588756 0.14379805
0.17316186 -0.57912820 0.27711360
-0.19814895 -0.66033376 0.00000000
-0.03449265 -0.22437041 0.00000000
0.09958603 0.04059707 0.15938519
-0.24979401 0.35227525 -0.00000027
-0.40186867 -0.19284019 0.00000000
-0.00918135 0.55835209 0.00000000
0.10995852 0.31312391 0.17596828
-0.62473958 -0.49468311 -0.00000038
-0.56911893 -0.71385114 0.00000000
-0.53406440 -0.41192528 -0.00000014
-0.79866306 -0.45302017 -0.00000087
0.21756192 0.15263960 0.34816656
0.26193268 -0.54376445 0.41917492
0.21396605 -0.29733847 0.34241319
0.27213357 0.23391535 0.43549886
-0.36181200 0.37198798 -0.00000079
0.12013849 -0.58631038 0.19225948
0.38335393 -0.36220735 0.61348530
-0.59201554 0.18377880 -0.00000108
0.01426917 0.74448886 0.02283597
-0.04763499 0.49567576 0.00000000
0.18932716 -0.04526797 0.30298313
-0.62942543 -0.50272253 -0.00000038
0.06301933 -0.69935614 0.10085082
0.30711479 -0.48381055 0.49148017
-0.00212601 -0.54366316 0.00000000
-0.25865937 0.00082637 0.00000000
-0.27233008 0.34023490 -0.00000035
-0.19831194 -0.21345576 0.00000000
-0.44671832 -0.17425123 -0.00000018
-0.52442686 0.12144813 0.00000126
0.27636741 -0.34092732 0.44227465
-0.79275402 -0.69254635 -0.00000027
-0.26392318 -0.56003389 0.00000000
-0.10158010 -0.19999809 0.00000000
0.09836107 -0.64806545 0.15740875
-0.37945688 -0.42124695 0.00000000
0.25846057 0.24857533 0.41361639
-0.29278048 -0.48126542 0.00000000
0.00000729 0.08121420 0.00001167
0.39681030 -0.48065236 0.63501993
-0.14609546 0.17153946 0.00000722
0.15603893 -0.66961433 0.24971151
0.10086237 0.26919225 0.16141161
-0.61633009 -0.67290262 -0.00000003
0.02357234 -0.11762482 0.03772317
-0.44095885 -0.27107793 0.00000000
0.04591646 -0.13412233 0.07348082
-0.29871179 0.44592445 0.00000018
-0.61998607 -0.43946341 -0.00000045
-0.04324847 0.51676496 0.00000360
-0.36814552 -0.41134242 0.00000000
0.19420992 -0.57860563 0.31079714
-0.08043681 0.32653135 0.00000000
-0.11946200 0.35648929 0.00000485
-0.19510628 0.15023975 0.00000000
-0.53624742 -0.77019709 0.00000000
-0.28057498 0.51597431 -0.00000064
-0.51889502 -0.72251923 0.00000000
0.01497423 0.67553201 0.02396350
0.21996199 0.00974517 0.35201877
0.29963949 0.17285203 0.47951706
0.23077647 -0.10680594 0.36931468
-0.65197027 -0.75488423 -0.00000003
0.21575546 0.28307098 0.34527845
-0.68590301 -0.05965078 -0.00000141
-0.15309850 0.25576342 0.00000585
-0.35856086 -0.02769323 -0.00000007
0.23766650 -0.61677116 0.38034138
-0.57348068 -0.29407162 -0.00000051
0.14499153 0.28110940 0.23203172
-0.19545545 0.49051007 0.00000142
0.07051699 -0.50089756 0.11284943
-0.17146897 -0.55095585 0.00000000
0.15076409 -0.08137628 0.24127011
-0.44157556 0.25803236 0.00000057
-0.38784690 0.12452076 -0.00000046
-0.62301714 -0.65545974 -0.00000009
0.25447889 -0.33065517 0.40724642
-0.17582536 -0.03738687 0.00000000
0.03102238 -0.76199258 0.04964559
0.30243966 -0.59234620 0.48399887
0.32847610 -0.26932867 0.52566398
0.15442907 -0.37782535 0.24713522
-0.19489069 0.39706751 0.00000299
-0.47623975 0.15102150 -0.00000089
0.02891134 -0.78456465 0.04626726
0.10500550 0.49495437 0.16804446
0.10801913 0.16715063 0.17287692
-0.25257391 0.24756001 0.00000438
-0.44082830 -0.61319559 0.00000000
0.06266383 -0.37231616 0.10028190
-0.23322093 0.43113040 -0.00000034
0.36392975 -0.27781525 0.58240050
0.12672935 -0.21606884 0.20280694
0.32332751 -0.31835223 0.51742485
-0.08126030 0.56812366 0.00000000
0.40734964 -0.71884431 0.65188681
0.12662559 0.39779184 0.20264032
0.05300967 0.36326365 0.08484167
-0.72264717 -0.53842054 -0.00000065
0.38407617 -0.08636063 0.61464018
0.17389406 -0.66548554 0.27828535
0.27502097 -0.69862350 0.44012031
0.04154395 -0.73122038 0.06648342
-0.11617546 -0.68804458 0.00000000
-0.07637608 0.10196277 0.00000000
-0.68855332 -0.29635763 -0.00000100
-0.55492580 -0.27185335 -0.00000047
0.13009270 0.05766635 0.20820356
-0.29811937 -0.66907992 0.00000000
0.01056717 0.44279142 0.01691080
-0.47818435 -0.32539726 -0.00000005
-0.14963148 -0.24442256 0.00000000
-0.19916192 0.20424403 0.00000593
-0.05488029 0.00339680 0.00000000
0.29006740 -0.55587677 0.46419935
0.13532623 0.13669518 0.21657642
-0.31264801 0.07724603 0.00000607
-0.70515598 -0.09231298 -0.00000143
-0.15867450 0.61383927 0.00000006
-0.01179006 0.00361593 0.00000000
0.03503188 0.48877263 0.05606894
0.34344095 0.03940989 0.54961449
-0.44261902 0.28670322 -0.00000098
-0.66668232 -0.29378317 -0.00000091
-0.15909961 0.02657216 0.00000000
-0.56552657 -0.62309088 0.00000000
-0.53019762 0.12339652 0.00000112
-0.25528608 0.17777344 0.00000548
-0.21260895 0.58382108 -0.00000047
-0.29934981 0.45326542 -0.00000066
-0.71516393 -0.51661472 -0.00000071
0.01928894 0.00041965 0.03086839
-0.14285843 0.53503788 -0.00000014
-0.07308162 0.65244136 0.00000106
0.10733493 0.36579155 0.17177628
0.29556297 -0.56495451 0.47299399
0.16514758 -0.41513121 0.26428822
-0.29699386 0.13017365 0.00000549
-0.31634873 -0.38851260 0.00000000
-0.40350328 0.10838923 -0.00000050
0.21978687 -0.41381141 0.35172832
0.07246232 0.31147637 0.11597254
0.24086016 0.13918827 0.38545080
0.15118089 0.00122335 0.24195185
0.29868868 0.22141642 0.47799353
0.30966433 0.20186630 0.49555794
0.22230371 0.04191600 0.35576506
0.07636900 -0.52440207 0.12221449
-0.57104972 -0.15642040 -0.00000075
-0.75876373 -0.20519949 -0.00000146
-0.42335448 0.32898444 -0.00000026
-0.05045925 0.71067260 -0.00000006
-0.37805600 -0.62440211 0.00000000
-0.40434183 0.32140856 -0.00000088
-0.16473028 -0.14395321 0.00000000
-0.40135109 0.20008544 0.00000231
0.00050424 -0.74301277 0.00080695
0.24300615 0.22808849 0.38888473
0.38279872 0.00465418 0.61259559
-0.22726604 0.06468453 0.00000000
0.16596866 -0.48489051 0.26560221
-0.20084340 0.39751111 0.00000287
0.15721253 -0.58161985 0.25158964
-0.25761073 0.33317326 -0.00000027
0.09581955 -0.06902814 0.15334151
-0.10629664 -0.45478296 0.00000000
0.28069996 0.08359739 0.44921206
0.10771047 -0.16934321 0.17237073
-0.10773135 0.07194552 0.00000000
-0.00869224 -0.76615886 0.00000000
0.16446187 -0.45928395 0.26319087
-0.16997870 0.50518567 0.00000166
-0.20789563 0.00388015 0.00000000
-0.02443121 -0.29834534 0.00000000
0.31810050 -0.50001150 0.50906066
0.03673604 0.08208561 0.05880724
-0.27721866 -0.55475024 0.00000000
-0.19149141 -0.75757564 0.00000000
-0.37844548 -0.10878395 -0.00000001
0.28208748 -0.40317636 0.45142868
0.42116437 -0.36687185 0.67399338
-0.50283666 0.18365656 -0.00000106
0.10731694 -0.77197964 0.17174096
0.02287593 0.45487110 0.03661710
-0.49969101 -0.04827452 -0.00000063
-0.41420131 0.19227601 -0.00000069
-0.55967155 0.02601157 -0.00000102
0.08110031 -0.35902882 0.12978609
0.18159818 -0.20880113 0.29061438
-0.53716503 -0.43544065 -0.00000011
0.22748965 -0.46842648 0.36405520
-0.12342095 -0.56603218 0.00000000
-0.02278765 0.56696693 0.00000000
0.16669712 0.44977327 0.26676664
0.12704021 0.38744549 0.20330888
0.01589002 -0.04931319 0.02542904
0.24302881 0.17146404 0.38892611
0.09766358 0.35688280 0.15629253
-0.28492412 -0.38185983 0.00000000
-0.60930038 0.15719093 -0.00000096
0.14665136 -0.52752264 0.23468845
0.28943019 -0.68868963 0.46317961
-0.30818919 -0.44239613 0.00000000
-0.02972426 0.44707776 0.00000485
0.06222019 0.61355548 0.09957161
0.03070650 0.20946342 0.04914008
0.08340089 -0.72551261 0.13346773
-0.09086857 0.18948828 0.00000000
-0.46608148 -0.22206120 -0.00000018
0.17591513 0.45321711 0.28151864
0.10022230 0.47688379 0.16039074
-0.39267338 0.06612123 0.00000472
-0.39535891 -0.60325924 0.00000000
0.04385791 0.69238497 0.07018690
-0.29991493 0.30462691 -0.00000040
-0.77116106 -0.51160931 -0.00000072
-0.48466110 0.15969223 0.00000139
0.33009780 -0.50541358 0.52825996
0.21102836 0.14693087 0.33771833
0.05525388 -0.56567755 0.08842364
-0.15968451 0.59797707 -0.00000032
-0.68328660 0.05658947 -0.00000070
-0.32494481 0.33169018 -0.00000056
-0.42334318 -0.48254744 0.00000000
0.17925606 -0.07997338 0.28686624
-0.00781233 -0.65232897 0.00000000
0.01296778 0.69175330 0.02075253
0.05842459 0.19398644 0.09351165
0.08091094 0.37898185 0.12948304
-0.16152576 -0.56077523 0.00000000
0.27793234 -0.71557607 0.44477942
0.05130137 0.70317912 0.08209792
-0.34690362 -0.29208674 0.00000000
-0.25426185 0.02454612 0.00000780
0.38536973 -0.64194197 0.61671210
0.29495066 0.03204760 0.47201220
0.16621307 0.04110031 0.26600627
-0.53011369 -0.67275091 0.00000000
-0.19378977 -0.71658003 0.00000000
-0.40561026 0.37871562 -0.00000099
-0.28478696 -0.03965982 0.00000000
-0.28097295 -0.06375528 0.00000000
-0.74816001 -0.25578097 -0.00000133
0.16756033 -0.27895723 0.26814938
-0.05489987 0.65346051 0.00000000
0.22042458 0.05647385 0.35275752
-0.67802858 0.02951596 -0.00000153
0.28697013 0.01685405 0.45924101
0.02507783 -0.30622653 0.04013244
0.17872018 -0.35421513 0.28600866
0.36290377 -0.70203543 0.58076002
0.18460669 0.33078022 0.29543122
-0.13684293 0.57787267 -0.00000019
0.24339362 -0.04724316 0.38950571
-0.51790120 0.05397430 0.00000252
-0.07649098 0.00180442 0.00001082
-0.44121510 -0.20150748 -0.00000011
-0.35408972 -0.49834615 0.00000000
0.16900843 -0.01048908 0.27046681
-0.04290947 0.68352885 0.00000000
0.07982903 0.29912989 0.12776159
0.24836518 0.11049155 0.39746119
0.34633375 0.08907841 0.55424207
0.37622867 -0.48455682 0.60208315
-0.32461134 -0.05059905 0.00000000
-0.24516594 0.39146317 0.00000212
0.03737117 0.43691830 0.05981387
0.36042207 -0.32504380 0.57678730
-0.05361117 0.34830752 0.00000000
0.10743373 0.48743759 0.17192728
-0.22862964 -0.62893018 0.00000000
0.07997755 0.28925637 0.12799953
-0.12121548 0.09792627 0.00000870
-0.37710843 -0.70898821 0.00000000
-0.21912676 0.25664733 0.00000000
-0.59038613 -0.49266331 -0.00000023
-0.66249250 0.03772920 -0.00000148
0.00591055 0.74159287 0.00945874
-0.45446595 -0.35048048 0.00000000
-0.59526945 0.20239715 -0.00000145
-0.08249005 0.33019440 0.00000580
0.03246544 0.45445922 0.05195495
-0.62944059 -0.16934677 -0.00000097
-0.20448469 0.41551009 -0.00000019
-0.44810512 -0.14295661 -0.00000025
0.03768662 0.28997866 0.06032270
-0.68460559 -0.01034924 -0.00000149
0.29308032 -0.02083090 0.46901927
-0.49250556 -0.51807736 0.00000000
-0.06732369 -0.31947942 0.00000000
-0.54549244 0.12060851 0.00000087
0.40977754 -0.32868536 0.65577090
0.06716210 -0.26372615 0.10748055
-0.30556947 0.13398402 -0.00000013
-0.33142853 0.43810787 -0.00000077
-0.64234534 0.12851136 -0.00000155
-0.16104843 0.54598187 -0.00000024
-0.06316543 0.31416414 0.00000633
-0.23556359 -0.56508963 0.00000000
0.28621199 0.05757628 0.45802762
0.11743370 0.30623915 0.18793873
-0.06362255 0.01031225 0.00001089
0.24870138 -0.61449480 0.39800066
-0.35978471 0.40298265 -0.00000028
-0.18585290 -0.07091602 0.00000000
-0.23771925 0.35939299 0.00000279
-0.14974555 0.55516473 -0.00000021
0.05349385 0.45895758 0.08560703
-0.04648343 0.12080565 0.00000000
0.01714813 -0.72201802 0.02744242
0.14076574 0.41935693 0.22526873
-0.07158972 -0.64884498 0.00000000
-0.33771263 -0.54263367 0.00000000
-0.69298239 -0.44251930 -0.00000076
-0.64905264 -0.66329119 -0.00000018
0.00560940 -0.71864084 0.00897680
-0.25904937 0.48590730 0.00000027
-0.18419721 0.09950927 0.00000000
-0.49999088 -0.76330464 0.00000000
0.31859159 -0.26827834 0.50984579
-0.20133779 -0.05527588 0.00000000
0.03909321 -0.23199927 0.06256148
0.29079530 0.22260446 0.46536175
-0.29224086 0.20269253 -0.00000019
-0.45280851 0.09341488 -0.00000068
0.06993490 -0.28033635 0.11191791
0.09739720 -0.66480966 0.15586624
-0.28321581 0.03676908 0.00000718
0.16821609 0.11521212 0.26919854
-0.06130980 -0.38892192 0.00000000
0.07155756 0.19988950 0.11451467
-0.63784470 0.15080627 -0.00000157
0.02492390 0.71710989 0.03988601
-0.47619860 0.20798729 -0.00000099
-0.65130548 0.07334487 -0.00000150
0.07171264 0.49415004 0.11476277
-0.54279743 -0.66052894 0.00000000
0.36555289 -0.23090991 0.58499785
-0.40607856 -0.20519459 0.00000000
-0.29178681 0.06247642 0.00000000
-0.55357467 -0.11129807 -0.00000075
0.07538865 0.49456717 0.12064549
-0.38029880 -0.42200212 0.00000000
-0.73458421 -0.60030245 -0.00000050
-0.20070838 0.30660240 0.00000000
-0.09744175 0.64927817 -0.00000015
-0.25668628 -0.35879528 0.00000000
-0.38620981 0.24367118 -0.00000066
-0.43971730 0.24765404 0.00000078
-0.44058286 0.21925342 0.00000124
0.06697326 0.05003271 0.10717834
0.33652634 -0.07575949 0.53854614
-0.48282993 -0.41183293 0.00000000
-0.00602350 -0.07983798 0.00000000
-0.01583394 0.62866275 0.00000233
0.06785561 -0.38088112 0.10859038
-0.33381005 -0.50203244 0.00000000
-0.21363097 -0.74215920 0.00000000
-0.48637527 -0.67122024 0.00000000
0.03213977 -0.16708940 0.05143376
0.16361194 0.01729659 0.26184442
0.30051609 -0.41364710 0.48092003
-0.51971108 0.00049402 -0.00000080
-0.72927947 -0.66394309 -0.00000034
0.05756721 0.59644302 0.09212551
0.41574669 -0.49595110 0.66532389
-0.72625490 -0.70185696 -0.00000025
0.05264371 0.36225999 0.08424655
0.33011439 -0.26935762 0.52828573
0.00905982 -0.28866253 0.01449858
0.01991468 0.61612007 0.03186976
0.16963320 -0.43597740 0.27146663
0.13243579 -0.73833542 0.21193904
-0.10238595 -0.71532898 0.00000000
-0.37920727 -0.59458797 0.00000000
0.31164774 -0.22941950 0.49873342
0.35579155 -0.39752130 0.56937732
-0.58586094 -0.46059689 -0.00000027
0.16690189 0.18075854 0.26710404
0.03194516 -0.08535973 0.05112233
0.33347034 -0.32998050 0.53365647
0.14935844 -0.04470892 0.23902062
0.33603563 0.14471277 0.53776013
-0.33114371 0.03070967 -0.00000005
0.03628477 0.24166403 0.05808070
-0.22166441 0.48979377 0.00000092
0.05904506 0.11423526 0.09450677
-0.12088698 0.35451810 0.00000000
-0.79872924 -0.46460088 -0.00000084
-0.57692210 -0.32335371 -0.00000048
0.16967946 -0.01094879 0.27154067
-0.19940321 0.50201622 -0.00000032
-0.71954746 -0.18627222 -0.00000133
0.39242779 -0.36018167 0.62800619
0.19081537 0.36947102 0.30536538
0.35751834 0.08070815 0.57213913
0.09247873 0.50633948 0.14799473
0.13270117 -0.64473378 0.21236374
-0.51463162 0.10841279 -0.00000097
-0.61627327 0.07336714 -0.00000135
0.01821607 0.15081097 0.02916844
0.01739118 0.52353025 0.02783137
0.28463790 -0.54338083 0.45551044
-0.11912798 -0.13342155 0.00000000
0.23547605 -0.10768763 0.37683541
0.08373564 0.39213157 0.13400343
0.16174621 -0.12440306 0.25884496
0.06041644 0.20816669 0.09669875
-0.30859359 -0.67105678 0.00000000
0.01173952 0.74057949 0.01878801
-0.55832801 -0.57055035 0.00000000
-0.69577777 -0.11358084 -0.00000135
-0.31977447 -0.45178315 0.00000000
0.38170568 -0.17618946 0.61084698
-0.00494576 0.30334178 0.00000738
-0.61178352 0.15498684 -0.00000147
0.03227888 0.19468596 0.05165640
-0.14126323 0.24468260 0.00000000
0.26925647 0.12554508 0.43089830
0.11847572 -0.13830675 0.18959853
-0.13210645 0.52547433 0.00000205
0.03880255 -0.30437484 0.06209633
-0.48758278 -0.31506373 -0.00000011
-0.48502260 -0.69918565 0.00000000
-0.40898522 0.00048909 0.00000550
-0.30715675 -0.23372930 0.00000000
0.15003461 0.51223785 0.24010140
-0.31048369 -0.00527039 0.00000000
-0.08140281 0.13196127 0.00000879
-0.12087315 0.63978542 -0.00000023
-0.66413309 -0.02061871 -0.00000138
-0.76408832 -0.12777500 -0.00000162
0.33773042 -0.08687684 0.54047306
-0.55851885 -0.64674466 0.00000000
-0.57781057 0.01782672 -0.00000108
0.37332158 -0.69305544 0.59743161
0.13623955 -0.46861596 0.21802626
-0.25778176 -0.52801196 0.00000000
0.06256461 -0.19070749 0.10012311
0.12226069 0.06041984 0.19565567
-0.04530569 0.10020905 0.00000981
0.04815317 0.10685316 0.07707702
-0.79830587 -0.62362381 -0.00000044
-0.23168148 -0.27871106 0.00000000
-0.41470013 0.35000729 -0.00000045
0.25099286 -0.65831660 0.40166776
-0.26923775 0.24591987 0.00000409
-0.34710804 0.25939680 0.00000236
-0.65111797 -0.63371206 -0.00000024
0.23001850 -0.29101997 0.36810216
-0.73950082 -0.69120906 -0.00000027
-0.48058236 0.20908482 0.00000064
0.07034789 -0.00386758 0.11257881
0.11886064 -0.34863291 0.19021452
-0.33462613 -0.09956076 0.00000000
-0.15149347 -0.08430355 0.00000000
-0.72985063 -0.32964764 -0.00000112
-0.52077218 0.14037080 0.00000102
0.33304442 0.01562392 0.53297372
-0.19020881 -0.46475401 0.00000000
