ply
format ascii 1.0
element vertex 1380
property float x
property float y
property float z
end_header
-0.12598916 0.09067466 -0.00000604
-0.61264284 -0.66107837 0.13132025
-0.36148384 -0.66866610 0.00000057
-0.24130619 0.25029850 0.24011356
-0.60230722 -0.63584493 0.13337648
-0.25932480 0.20154040 0.20171683
-0.02294271 0.74522015 0.00455698
-0.06151194 0.07181463 -0.00000844
-0.47073247 -0.59685752 0.00000089
-0.11390677 0.57624940 0.00000577
-0.09558735 0.41747102 0.00000533
-0.46772939 -0.29871940 0.22268628
-0.14771939 0.44805561 0.03429493
-0.36535228 0.34465193 0.00000293
-0.31096459 0.06058437 0.08276028
-0.39892894 -0.72406563 0.00000033
-0.32429984 0.16182486 0.00000350
-0.41189539 -0.21541415 0.00000256
-0.11625195 0.42316735 0.00000156
-0.00589527 0.51390563 0.00000575
-0.57239825 -0.27007048 0.00000080
-0.11747782 0.19114984 -0.00000391
-0.57114109 0.13751223 0.00000062
-0.05811306 0.17212577 0.00001005
-0.19553601 0.35245456 0.17918581
-0.04496408 0.24471179 0.00000979
-0.44458886 0.20079800 0.00000207
-0.35838638 -0.05793624 0.05329102
-0.08996158 0.38835399 0.00000822
-0.52493274 -0.07745423 0.00000127
-0.22122524 0.27901664 0.09573550
-0.27784819 -0.63463802 0.00000072
-0.60614347 0.09707021 0.00000095
-0.19695350 0.34497005 0.14949512
-0.76321400 -0.19549504 -0.00000147
-0.24935303 -0.62029552 -0.00000072
-0.72236150 -0.39072974 -0.00000090
-0.22116108 0.21177086 0.00000443
-0.01079325 0.09333435 0.00000384
-0.33321997 -0.00331378 0.00848761
-0.00956561 0.24484897 0.00000457
-0.07624426 0.45774499 0.00000799
-0.18602817 0.35367100 0.02042172
-0.35635634 -0.41127650 0.00000170
-0.44432087 -0.41738969 -0.00000101
-0.26463971 0.19713739 0.26327134
-0.10908579 -0.30770103 0.00000215
-0.15148449 -0.39156066 0.00000179
-0.13930902 0.41691171 0.00000211
-0.11282924 0.67926808 0.00000579
-0.14876505 0.40929484 0.00000720
-0.01786727 -0.18088588 0.00000260
-0.13954909 0.31525791 0.00000792
-0.46562059 0.15155408 0.00000322
-0.09113179 0.25992659 0.00000464
-0.07275008 0.64079754 0.00000687
-0.47507529 -0.31552531 0.22946836
-0.24135177 -0.66043398 0.00000061
-0.16528056 0.30682686 0.00000759
-0.10216070 -0.70448510 -0.00000020
-0.11006646 -0.35524669 0.00000128
-0.31212306 0.02716730 0.00000174
-0.51627259 -0.34681154 0.00000150
-0.43402026 0.02281669 0.00000485
-0.37419142 -0.50089851 -0.00000095
-0.52661656 -0.44264926 0.20980030
-0.01428838 -0.40136971 0.00000166
-0.73382804 -0.62846118 -0.00000043
-0.40158670 0.15796082 0.00000260
-0.05394556 0.57997415 0.00000340
-0.15278167 0.39247845 0.00000522
-0.27350984 0.17724829 0.27441169
-0.09788730 -0.33938335 0.00000142
-0.28934278 0.10925726 0.05691288
-0.38949804 -0.06258869 0.00000285
-0.21052396 0.30222436 0.07654309
-0.07735287 0.01374772 -0.00000934
-0.13394463 0.61759634 0.00000588
-0.03395414 0.25864966 0.00000463
-0.77594601 -0.42074603 -0.00000095
-0.30531334 0.46433890 0.00000358
-0.38914312 -0.10842171 0.22688243
-0.08754196 -0.50873722 0.00000075
-0.58385950 -0.76331875 -0.00000336
-0.14640259 -0.55795125 0.00000106
-0.34481968 0.01564108 0.35146234
-0.11321737 0.52957533 0.02132987
-0.42418732 -0.38323873 0.00000182
-0.17699650 0.39146526 0.13719133
-0.39743980 0.22942718 0.00000261
-0.31075246 -0.24643466 0.00000242
-0.16144792 0.41560226 0.03928758
-0.71176213 -0.47270201 -0.00000073
-0.27601952 0.14018604 0.04797416
-0.59300300 -0.05752391 0.00000046
-0.02159080 -0.22807006 0.00000250
-0.08539161 -0.54787497 0.00000059
-0.29520746 0.34743286 0.00000493
-0.14260189 -0.28842469 0.00000138
-0.61750867 -0.28414586 0.00000028
-0.08085265 0.18250050 -0.00000523
-0.46945839 -0.73320151 -0.00000254
-0.65002613 0.08884599 0.00000017
-0.03640443 0.72143652 0.00000661
-0.23728064 -0.76927762 -0.00000130
-0.00049637 0.41161162 0.00000530
-0.29921623 0.07928020 0.01204311
-0.44340639 -0.22987535 0.29662485
-0.15133886 0.45572084 0.15410063
-0.05628647 -0.61109667 0.00000049
-0.45558514 -0.78704801 0.00000006
-0.15818260 0.44477059 0.00000532
-0.30344054 0.07537142 0.05799612
-0.73918662 -0.46678126 -0.00000083
-0.21054826 -0.30270407 0.00000218
-0.19679433 0.33454870 0.07059390
-0.21140689 0.37831617 0.00000472
-0.12753915 0.26700315 0.00000390
-0.19189449 0.36033114 0.17250450
-0.57550897 0.05178666 0.00000061
-0.71559558 0.04004867 -0.00000103
-0.53777275 -0.46568890 0.23823592
-0.23333678 0.25766707 0.15338002
-0.27437090 -0.40775790 0.00000172
-0.40177962 -0.16883609 0.00844784
-0.36262295 -0.70204884 -0.00000176
-0.76539051 -0.10545152 -0.00000154
-0.08894354 0.03912945 0.00000313
-0.43667548 -0.57325010 -0.00000164
-0.33599248 -0.67360118 0.00000055
-0.28801343 0.14489494 0.29385038
-0.52867175 0.19900917 0.00000109
-0.12028042 -0.02109497 0.00000341
-0.31199354 0.08355734 0.26867209
-0.33621193 0.02159558 0.24313621
-0.49648865 -0.37848263 0.14722017
-0.32009680 -0.33793057 0.00000202
-0.25274916 0.21675351 0.19688318
-0.34191234 -0.65938789 0.00000062
-0.01618167 0.30772039 0.00000485
-0.37245434 -0.06144833 0.27569542
-0.64631039 -0.40083247 -0.00000000
-0.01033922 -0.27658946 0.00000223
-0.39636829 -0.59557350 -0.00000150
-0.05203194 0.22227795 0.00000416
-0.22434035 -0.49033729 0.00000135
-0.00038775 -0.78887307 0.00000005
-0.38998422 -0.10954157 0.23353416
-0.52498898 -0.11189562 0.00000128
-0.66751710 0.12953821 -0.00000051
-0.28672107 -0.14766302 0.00000285
-0.23295689 -0.34953624 0.00000056
-0.78318831 -0.36290491 -0.00000109
-0.57417442 0.00104385 0.00000233
-0.14471819 0.44034572 0.00000706
-0.00758110 -0.49965130 0.00000131
-0.06823892 -0.56956957 0.00000060
-0.25488126 0.51223831 0.00000415
-0.21139271 0.30843137 0.13724846
-0.25663831 -0.73187904 -0.00000125
-0.23025954 0.27160914 0.20096816
-0.58784708 -0.13695584 0.00000056
-0.60419043 -0.74071866 0.00000026
-0.43933803 0.03937621 0.00000221
-0.74389667 -0.09598948 -0.00000129
-0.11242859 0.33598760 0.00000429
-0.18964932 0.34587330 0.02725692
-0.10375313 0.27683072 0.00000408
-0.22393247 -0.04624227 0.00000195
-0.31610935 0.07243044 0.25997203
-0.44731897 0.16802889 0.00000344
-0.72470166 -0.55589432 -0.00000061
-0.15310996 0.33290820 0.00000403
-0.32529038 0.05051911 0.26184830
-0.02074891 0.12315085 0.00000391
-0.14399776 -0.40905457 0.00000084
-0.10961638 -0.53566173 0.00000049
-0.76708138 -0.62491652 -0.00000044
-0.12337904 0.07152558 0.00000307
-0.27539208 0.02127732 -0.00000318
-0.60747651 -0.42509142 0.00000047
-0.09953482 0.13470091 0.00000966
-0.28214207 0.13886241 0.14626345
-0.52046566 -0.42209960 0.25143242
-0.46916084 -0.29500957 0.27502211
-0.62620760 -0.28929825 0.00000018
-0.34850159 -0.44776720 -0.00000056
-0.37221253 -0.49919725 0.00000132
-0.02834997 0.24903454 0.00001002
-0.02831592 0.53521873 0.00000157
-0.61290780 -0.14554496 0.00000027
-0.37555038 -0.58017324 -0.00000130
-0.47010431 0.03846770 0.00000403
-0.45620638 -0.54594022 0.00000111
-0.46754045 -0.55272397 -0.00000174
-0.16592567 0.40681767 0.05408574
-0.46555859 0.21041193 0.00000182
-0.49289768 0.03921299 0.00000359
-0.04820551 0.50579944 0.00000147
-0.25785471 -0.04582642 0.00000174
-0.52697741 -0.00446599 0.00000121
-0.28816373 -0.22514541 0.00000251
-0.29426790 -0.48271201 -0.00000039
-0.23793109 -0.31650815 0.00000212
-0.31058672 0.24730130 0.00000362
-0.75323202 -0.45857047 -0.00000085
-0.05780671 0.47979519 0.00000813
-0.03660266 0.74440209 0.00000660
-0.04403965 -0.19636671 0.00000238
-0.07367451 -0.56259712 0.00000059
-0.24390964 0.11334353 0.00000761
-0.15992770 -0.70923531 -0.00000057
-0.46892387 0.28964133 0.00000205
-0.60635019 -0.63697844 0.19637427
-0.29718422 0.12229688 0.29050120
-0.02336818 0.76642029 0.00000674
-0.30285172 0.07865157 0.07157630
-0.03502653 -0.11832384 0.00000277
-0.16598601 -0.75825053 0.00000018
-0.07485206 -0.46915616 0.00000145
-0.68701600 -0.00679423 -0.00000067
-0.21154089 0.23025612 0.00000323
-0.47701605 0.28842804 0.00000165
-0.39568542 0.28491485 0.00000350
-0.15973179 0.41663448 0.01655871
-0.43868744 -0.23711599 0.16053361
-0.59763788 -0.78933937 -0.00000356
-0.49374576 -0.37454281 0.12763100
-0.19881617 0.34497516 0.18238805
-0.26422011 -0.35088240 0.00000037
-0.43143366 -0.59251722 -0.00000170
-0.36697295 -0.52239603 0.00000121
-0.09062231 -0.48985022 0.00000081
-0.12708121 0.50619318 0.09499607
-0.38699574 -0.60337015 -0.00000148
-0.24335822 0.52966881 0.00000448
-0.30824121 0.10608611 0.00000660
-0.20884600 0.17454533 0.00000300
-0.31883310 0.00384388 0.00000352
-0.17577409 0.12896026 0.00000854
-0.20837842 -0.63110120 0.00000074
-0.11711305 0.05411060 0.00000374
-0.19900416 0.49926089 0.00000557
-0.41552655 -0.72265699 0.00000034
-0.38133347 0.15236731 0.00000284
-0.60146407 -0.04361042 0.00000035
-0.39442390 -0.16621569 0.00000277
-0.27405926 -0.69941382 0.00000044
-0.34340365 0.08603234 0.00000608
-0.50262498 -0.38059680 0.23997858
-0.25242603 0.20503698 0.10555326
-0.75896569 -0.01329190 -0.00000151
-0.39818335 0.35030291 0.00000255
-0.30816639 0.06683043 0.07895038
-0.26379646 0.41294504 0.00000501
-0.32721358 -0.58721539 0.00000093
-0.02591094 0.01680278 -0.00001082
-0.36730090 0.30042653 0.00000392
-0.11612644 0.12697969 0.00000406
-0.21999640 0.12772782 0.00000788
-0.03540663 0.61045323 0.00000765
-0.67954993 0.02409139 0.00000012
-0.46992960 -0.31712126 0.12707968
-0.20040636 0.31985402 0.02695766
-0.16349570 0.42525326 0.14592287
-0.00106007 0.27561996 -0.00000542
-0.37748787 0.38713298 0.00000277
-0.39095048 0.11141653 0.00000497
-0.43141767 0.24695460 0.00000221
-0.24262517 0.24527530 0.22667704
-0.19378949 0.54899101 0.00000485
-0.20364236 0.11866184 0.00000819
-0.31877986 0.04610970 0.11484536
-0.36122974 0.37807981 0.00000297
-0.06123795 -0.45633047 0.00000150
-0.14537657 0.00784981 -0.00000743
-0.47880146 0.26856100 0.00000164
-0.38884621 0.03850959 0.00000281
-0.69818296 -0.54525109 -0.00000054
-0.43635992 -0.20497480 0.35424348
-0.28179662 0.15174115 0.23423502
-0.15439650 -0.14364380 0.00000287
-0.46253202 0.04061633 0.00000194
-0.13501052 0.49167659 0.12879549
-0.25062423 -0.61919553 -0.00000072
-0.12447753 0.45833696 0.00000475
-0.08246183 -0.13406318 0.00000291
-0.22846379 0.00029228 0.00000212
-0.01258011 -0.61597600 0.00000081
-0.02337819 -0.51581742 0.00000124
-0.30130688 0.10142136 0.21073105
-0.43022634 -0.75350625 -0.00000239
-0.23287236 0.23986822 0.01522570
-0.09195514 0.51175485 0.00000741
-0.78347381 -0.07811283 -0.00000177
-0.19436419 -0.30462214 0.00000099
-0.57638716 -0.74406375 -0.00000323
-0.25120391 0.20880884 0.11155554
-0.32752344 -0.50971649 0.00000127
-0.32031850 -0.18529288 0.00000076
-0.34387659 0.19533553 0.00000521
-0.42649856 0.25635930 0.00000226
-0.26288386 -0.62138612 -0.00000081
-0.68787899 -0.43956944 -0.00000047
-0.69337863 -0.20965174 -0.00000065
-0.41316981 -0.31416103 -0.00000037
-0.56285094 -0.45481284 0.00000100
-0.18179392 0.07772400 0.00000384
-0.34461383 0.42956583 0.00000333
-0.43852252 -0.62124748 -0.00000186
-0.35014033 -0.30056160 0.00000007
-0.25681563 -0.61957580 -0.00000076
-0.14195910 -0.19771163 0.00000264
-0.57255934 -0.55266513 0.21635921
-0.62765370 -0.27107866 0.00000015
-0.27514944 0.17145266 0.26099500
-0.57815871 0.20933348 0.00000050
-0.16646211 0.27285923 0.00000778
-0.03849223 -0.25801585 0.00000214
-0.24389752 0.34732053 0.00000592
-0.39942608 -0.39010255 0.00000179
-0.01902812 0.11901171 0.00000391
-0.25600147 0.20649305 0.17929055
-0.19047397 0.34447871 0.03167519
-0.18320720 0.10932709 0.00000855
-0.44452954 -0.25180235 0.15628021
-0.20153006 -0.60137459 0.00000087
-0.05173179 -0.46526904 0.00000146
-0.38529196 -0.09006495 0.29304898
-0.29414676 0.10873344 0.13782259
-0.07829978 0.61169355 0.00540839
-0.00258405 0.12413150 0.00001119
-0.36709898 -0.06215389 0.17603707
-0.44727374 0.25056218 0.00000202
-0.06080549 -0.13271503 0.00000255
-0.32586950 -0.37339770 -0.00000010
-0.33442976 -0.76807866 0.00000014
-0.09582779 0.45726170 0.00000550
-0.12355002 0.21586435 0.00000370
-0.32241072 0.02933940 0.05627783
-0.57624553 0.06287211 0.00000180
-0.51855441 -0.42494854 0.19692409
-0.62553117 -0.14288243 0.00000012
-0.47709982 0.11061858 0.00000332
-0.20111389 -0.27285105 0.00000109
-0.07550484 -0.37670555 0.00000185
-0.15143295 0.44501213 0.07751680
-0.40152539 -0.11302035 0.00000273
-0.00216693 0.67181062 0.00000777
-0.70122103 -0.40943371 -0.00000064
-0.46102646 -0.34300953 -0.00000078
-0.22539110 0.35913473 0.00000457
-0.79050327 -0.02676833 -0.00000188
-0.09849006 0.19505372 0.00000376
-0.19886981 0.23956769 0.00000335
-0.68057760 0.06148190 -0.00000063
-0.54667800 -0.50690349 0.09424173
-0.44508486 0.13285879 0.00000376
-0.06117623 0.59646234 0.00000574
-0.43761729 -0.23902340 0.12773265
-0.11443746 -0.09424499 0.00000240
-0.69016266 -0.32010152 -0.00000056
-0.07437433 0.62340695 0.02172306
-0.35297726 -0.56651786 0.00000102
-0.70188341 -0.52604937 -0.00000059
-0.35999333 -0.04779542 0.15561087
-0.01928187 0.39748804 0.00000512
-0.00274319 0.17843147 0.00001084
-0.15214320 0.47412775 0.00000667
-0.10349328 0.13392309 0.00000346
-0.08929541 -0.41630956 0.00000168
-0.59890074 -0.53927407 0.00000062
-0.55097134 -0.50269826 0.00000117
-0.38996293 0.20275009 0.00000271
-0.08336455 0.45631059 0.00000135
-0.57167795 -0.62129877 -0.00000267
-0.17673069 0.38009569 0.04948110
-0.25229857 0.22561711 0.25367538
-0.23833118 0.11138978 -0.00000216
-0.60048808 -0.47559874 0.00000057
-0.25620880 0.18562236 0.03042478
-0.00672484 0.19368579 0.00001069
-0.18818127 0.31483758 0.00000116
-0.57955523 -0.76107628 0.00000017
-0.44852780 0.12118025 0.00000379
-0.59155019 -0.61276663 0.11226297
-0.11447224 -0.59207878 0.00000022
-0.16988905 0.39837424 0.06234614
-0.55890716 -0.69713313 0.00000045
-0.13613577 0.44043305 0.00000719
-0.29161702 -0.21270865 0.00000257
-0.09421498 -0.27326311 0.00000230
-0.23769730 0.43263825 0.00000439
-0.53292630 -0.47434615 0.08955238
-0.35919951 -0.03440156 0.23951948
-0.32189691 -0.65766380 -0.00000132
-0.34934250 -0.37454990 -0.00000025
-0.44134701 -0.24164704 0.17433535
-0.24035060 -0.59354930 0.00000090
-0.45089067 -0.72639955 0.00000032
-0.34925558 0.00031508 0.31774224
-0.20944847 0.31059756 0.11878764
-0.34172959 -0.60112938 0.00000087
-0.74791470 0.00655347 -0.00000105
-0.63168648 0.10599696 -0.00000008
-0.44918141 -0.48227352 -0.00000132
-0.31364439 -0.63432339 -0.00000117
-0.63081547 -0.41125340 0.00000019
-0.22187072 0.26942508 0.03711251
-0.01213098 -0.20625178 0.00000260
-0.27855618 -0.33392992 0.00000204
-0.16108364 -0.67801893 0.00000053
-0.43792518 -0.23430819 0.16760020
-0.17481724 0.14907428 0.00000415
-0.02236857 -0.30346640 0.00000217
-0.39242814 -0.11976042 0.20199126
-0.45859531 -0.07690628 0.00000204
-0.31410866 -0.17513037 0.00000084
-0.12670661 -0.02929185 0.00000261
-0.36066571 0.10022300 0.00000311
-0.18537215 0.35932136 0.05012301
-0.43033099 -0.19181483 0.34405419
-0.16557313 -0.63813834 -0.00000029
-0.29236636 0.09885991 0.03437782
-0.25945204 0.41157530 0.00000511
-0.44389804 -0.43594061 -0.00000109
-0.03715937 0.08127262 0.00001093
-0.23163138 0.07199536 0.00000381
-0.13457657 0.18326842 0.00000430
-0.04653813 -0.01299130 0.00000344
-0.30853921 0.10090744 0.00000664
-0.72419216 -0.09832728 -0.00000106
-0.42670374 -0.12820926 0.00000244
-0.28296525 -0.06198995 0.00000323
-0.76298077 -0.13472513 -0.00000150
-0.26855059 -0.42784566 0.00000001
-0.51897310 -0.67502561 0.00000055
-0.78919132 -0.19996198 -0.00000150
-0.69166030 -0.08549930 -0.00000069
-0.02586855 0.26182243 0.00000465
-0.10506016 -0.36136957 0.00000192
-0.35093127 -0.04008264 0.05223537
-0.15477443 -0.51417876 0.00000125
-0.11464325 0.44034540 0.00000543
-0.23241324 0.26185650 0.16769975
-0.00707649 -0.04293023 0.00000327
-0.57403667 -0.55115752 0.25341322
-0.31801573 -0.49742841 0.00000132
-0.37944277 -0.06834840 0.34852384
-0.15756214 0.43409893 0.10589201
-0.19863067 0.32351197 0.02229570
-0.06358897 0.04857347 0.00000371
-0.12795479 0.45070766 0.00000257
-0.62404405 -0.51854689 0.00000032
-0.33232068 0.04338714 0.33372123
-0.23280563 -0.34945789 0.00000057
-0.34977773 -0.06230768 0.00000323
-0.31335255 -0.34177496 0.00000200
-0.00576337 0.23453635 0.00001045
-0.36114430 -0.07114907 0.00541784
-0.54223420 -0.62841615 0.00000075
-0.61830385 -0.24514799 0.00000025
-0.24646029 0.21696112 0.08744748
-0.50510099 -0.78892077 0.00000005
-0.71017016 -0.23509029 -0.00000083
-0.29319545 0.15029890 0.00000387
-0.35373576 0.03032118 0.00000633
-0.48489777 -0.34965063 0.15342299
-0.06873127 -0.57091551 0.00000100
-0.27287824 -0.10332333 0.00000305
-0.19397035 0.25500688 -0.00000009
-0.60597955 -0.60361428 0.00000057
-0.32425767 0.03142687 0.10419448
-0.43239791 -0.38331043 -0.00000079
-0.06955484 0.48462229 0.00000161
-0.10990609 0.11377628 -0.00000598
-0.52511271 -0.43868813 0.21221431
-0.15392601 -0.45434928 0.00000151
-0.52548453 -0.71824603 0.00000036
-0.23064364 -0.15310020 0.00000283
-0.04705780 -0.34885481 0.00000197
-0.10423417 0.39485686 0.00000523
-0.48666747 -0.74271788 0.00000025
-0.58217623 -0.43467644 0.00000077
-0.15262641 0.43438113 0.02089297
-0.61706657 -0.12764274 0.00000021
-0.35761447 -0.38596582 0.00000181
-0.08164235 0.60905234 0.04504149
-0.08793185 0.19518733 -0.00000471
-0.06464347 0.60311240 0.00000427
-0.26982853 0.18103736 0.23716203
-0.11920100 0.18839709 0.00000360
-0.01898747 0.56783375 0.00000598
-0.02628636 0.70764463 0.00000644
-0.20694813 0.13148790 0.00000408
-0.50159777 -0.40332030 0.05590020
-0.47229804 -0.45083637 0.00000153
-0.35563159 0.26677395 0.00000309
-0.04067570 -0.56541529 0.00000078
-0.26236944 0.31162615 0.00000416
-0.59192983 -0.68729479 0.00000049
-0.40114535 0.15866158 0.00000440
-0.10677070 0.54989145 0.05602100
-0.12021241 0.45009227 0.00000547
-0.26540799 -0.19335044 0.00000105
-0.31777248 -0.51000817 0.00000127
-0.01873807 -0.05576737 0.00000314
-0.34536716 -0.62511952 -0.00000132
-0.22507213 -0.51724443 -0.00000012
-0.39241507 0.36067119 0.00000296
-0.20212687 -0.25705300 0.00000238
-0.40299220 -0.14726041 0.18741163
-0.32781111 -0.77015965 -0.00000185
-0.38851960 -0.09961944 0.28017744
-0.31212621 0.00904134 -0.00000237
-0.47206017 -0.47894625 0.00000140
-0.25973375 0.17339732 0.00327929
-0.37816346 -0.14463751 0.00000287
-0.17089602 0.40257748 0.11080099
-0.40879204 0.23305495 0.00000366
-0.21871462 0.09273089 0.00000391
-0.21549995 0.13803250 -0.00000222
-0.06877996 0.62211178 0.00000707
-0.36135152 0.14648830 0.00000308
-0.00616141 -0.61862285 0.00000079
-0.41095613 -0.33012262 0.00000206
-0.20475639 0.32145955 0.11535090
-0.22751018 -0.73662964 0.00000028
-0.20198694 0.06717592 0.00000379
-0.10898917 0.30549585 0.00000418
-0.17503324 0.38663975 0.06734654
-0.64182876 -0.28502637 -0.00000001
-0.47293451 -0.29646923 0.33090094
-0.13366368 -0.26178951 0.00000155
-0.20614909 -0.27317428 0.00000230
-0.12043380 -0.79247636 0.00000003
-0.21552202 -0.31756945 0.00000081
-0.27436785 0.47956397 0.00000394
-0.25393556 0.19755910 0.07761198
-0.05341311 0.22880297 0.00000976
-0.07084990 -0.77306051 -0.00000031
-0.04700814 0.02655594 0.00000333
-0.50963193 -0.42357515 0.04962793
-0.23143164 0.26227222 0.15342269
-0.62212739 0.13719796 0.00000032
-0.41216418 0.02502911 0.00000254
-0.52844182 -0.44233896 0.24424999
-0.36891236 -0.05065742 0.29205464
-0.10600177 0.44595576 0.00000545
-0.71438796 -0.01801971 -0.00000099
-0.36206519 -0.03733059 0.26865628
-0.11906401 0.22910238 0.00000378
-0.48007041 -0.33200098 0.00000192
-0.05104611 0.38040109 0.00000516
-0.11341822 0.00746319 0.00001024
-0.57157489 -0.30466898 0.00000083
-0.68347390 -0.37452522 -0.00000045
-0.09503153 0.31368677 -0.00000168
-0.60233291 -0.78090784 -0.00000355
-0.75238256 -0.56442963 -0.00000059
-0.07154545 0.42329482 0.00000492
-0.56080254 -0.55065850 0.02372060
-0.44387101 -0.29341713 0.00000222
-0.25852287 -0.77013707 0.00000013
-0.26896254 0.17667172 0.19002197
-0.19922651 0.09709447 -0.00000368
-0.48961753 -0.35066089 0.22926623
-0.26942324 0.18036750 0.22513834
-0.46553515 -0.37560640 -0.00000095
-0.25217998 -0.20824664 0.00000107
-0.28125861 0.07559244 0.00000383
-0.11951288 -0.29247650 0.00000150
-0.15786584 -0.65664883 -0.00000033
-0.28655560 -0.08102778 0.00000142
-0.12897631 0.42448957 0.00000740
-0.37784193 -0.59973428 0.00000088
-0.44023585 -0.70425421 0.00000042
-0.49771489 -0.27165106 0.00000168
-0.13983197 0.46892523 0.04764458
-0.52874645 -0.51278089 0.00000126
-0.19670240 0.05803254 0.00000375
-0.67139244 -0.80344843 0.12738405
-0.08738174 0.10057650 0.00001005
-0.11135170 0.44834480 0.00000479
-0.13900782 -0.26623184 0.00000150
-0.02335010 -0.37827765 0.00000170
-0.46287849 -0.63087280 -0.00000205
-0.33223908 0.04364108 0.33413434
-0.20242396 -0.06276122 0.00000323
-0.66719950 -0.55622290 -0.00000017
-0.51774974 -0.44435965 0.04096241
-0.18274666 -0.30043951 0.00000108
-0.10144548 -0.67504284 0.00000055
-0.63171941 0.09033005 0.00000051
-0.30105747 0.09808884 0.18199358
-0.41506963 -0.18133719 0.15148158
-0.15371167 -0.20860941 0.00000166
-0.05880210 -0.42012379 0.00000131
-0.54489668 -0.50897988 0.04766700
-0.25992278 0.08392388 0.00000755
-0.25746888 0.16612596 0.00000708
-0.33296438 -0.60249280 0.00000086
-0.38021545 0.01328044 0.00000292
-0.53741419 -0.45529141 0.00000130
-0.44806096 -0.48619207 0.00000137
-0.38036387 -0.08825442 0.21937720
-0.59087976 -0.61009521 0.11995276
-0.29744502 -0.37723920 0.00000185
-0.49732858 0.04116780 0.00000349
-0.07688428 0.62286548 0.00000693
-0.09663706 -0.09332609 0.00000251
-0.02455898 0.37230859 -0.00000242
-0.24469136 0.55126119 0.00000425
-0.24243986 0.40771653 0.00000546
-0.43853154 -0.24079508 0.13091355
-0.20214010 0.33133090 0.14132706
-0.23368239 0.14948441 0.00000754
-0.58448153 -0.59952031 0.08437121
-0.24515009 -0.74469685 -0.00000124
-0.32473299 -0.58142907 0.00000096
-0.52784491 0.06248059 0.00000116
-0.44904553 0.18617934 0.00000326
-0.25304875 0.20806557 0.13871142
-0.32255854 0.05073652 0.21526660
-0.44093655 0.06003469 0.00000218
-0.29918815 0.08982186 0.08857020
-0.36668656 -0.03782934 0.34648916
-0.34271034 0.00636485 0.24647826
-0.04222168 -0.38686004 0.00000181
-0.18454496 0.28652903 0.00000742
-0.30033605 0.08094804 0.04408128
-0.77157535 -0.79685189 -0.00000001
-0.53725796 -0.48591027 0.08147009
-0.48355301 -0.33703397 0.22185990
-0.19887466 -0.75231015 -0.00000099
-0.14251428 -0.34549089 0.00000113
-0.28068047 -0.63771775 -0.00000098
-0.08489396 -0.53534386 0.00000116
-0.57158618 -0.57610928 0.02797949
-0.53417900 0.10928514 0.00000224
-0.31432744 0.08449180 0.31666718
-0.38060207 -0.09815198 0.15128832
-0.27027136 -0.54929450 -0.00000053
-0.07414243 0.58557842 0.00000722
-0.27687502 0.32055957 0.00000550
-0.26406251 0.47372481 0.00000452
-0.23893155 0.22590274 0.01998046
-0.55660984 -0.52047372 0.17025331
-0.56804495 -0.09010711 0.00000077
-0.09015404 -0.54781508 0.00000110
-0.71312623 -0.23097141 -0.00000087
-0.13439907 -0.00773903 0.00000265
-0.03906331 -0.72484524 0.00000033
-0.43758201 0.01023017 0.00000225
-0.21391719 -0.43766899 0.00000159
-0.52038708 -0.44702536 0.06799609
-0.01136581 -0.05443732 0.00000326
-0.16609385 -0.74304584 0.00000025
-0.26393754 0.20875037 0.00000419
-0.20852139 0.18878905 0.00000767
-0.38962646 0.31986147 0.00000334
-0.03674286 -0.14685140 0.00000264
-0.52261948 -0.70654105 0.00000041
-0.24629941 0.53912467 0.00000435
-0.39171263 -0.45661503 0.00000150
-0.34771025 -0.01320467 0.19168710
-0.25295644 0.21748120 0.20583263
-0.47660229 0.17786558 0.00000171
-0.00777373 0.72127307 0.00000666
-0.19010427 0.19268373 0.00000793
-0.51531151 -0.45283750 -0.00000159
-0.20868251 0.32403477 0.20341914
-0.06713441 0.47472557 0.00000802
-0.15659055 -0.44475027 0.00000061
-0.22744138 0.21844595 0.00000308
-0.07725035 0.18177580 0.00000970
-0.12976859 -0.49944573 0.00000053
-0.52274897 0.06882723 0.00000278
-0.49009232 -0.40039175 -0.00000121
-0.24369609 0.44132015 0.00000431
-0.07426645 0.19078515 0.00000389
-0.03602137 0.53800509 0.00000186
-0.33921880 0.23351637 0.00000499
-0.66129560 -0.13375864 -0.00000031
-0.64301207 -0.73976147 0.09212849
-0.56826014 -0.01935642 0.00000073
-0.50362756 0.04596475 0.00000333
-0.03924828 0.39484470 0.00000523
-0.20113753 0.32140830 0.05120223
-0.55777853 0.06852101 0.00000211
-0.34210092 -0.66647786 -0.00000148
-0.73896449 -0.25606236 -0.00000116
-0.35512079 -0.72788825 0.00000032
-0.13197664 0.63779638 0.00000576
-0.14366813 0.53516114 0.00000544
-0.44129072 -0.23379804 0.23066965
-0.64366849 -0.55570179 0.00000011
-0.18843658 0.23270542 0.00000338
-0.54909095 -0.51073847 0.10877890
-0.54261310 -0.61807558 0.00000080
-0.41869925 -0.16933711 0.30312653
-0.00924125 -0.57297804 0.00000099
-0.14007787 -0.33366950 0.00000204
-0.46023623 -0.50778982 0.00000128
-0.45292382 -0.25814567 0.25796379
-0.03954892 0.19703957 0.00000412
-0.07712701 0.29261502 -0.00000272
-0.05878624 0.04570499 0.00000370
-0.06052368 -0.46391408 0.00000147
-0.17760800 0.39594232 0.18068969
-0.21072264 0.02181531 0.00000868
-0.47327945 0.27480801 0.00000170
-0.22330497 -0.20863831 0.00000259
-0.48106480 -0.77131815 0.00000013
-0.35037652 0.19339307 0.00000318
-0.19838904 0.32200194 0.00707471
-0.20206827 0.02146687 0.00000359
-0.34880643 0.01501246 0.00000329
-0.13008341 0.36738527 0.00000432
-0.22331754 0.42695537 0.00000456
-0.06103806 0.17145251 0.00000425
-0.05764472 -0.70550391 0.00000041
-0.25359628 0.00253214 0.00000198
-0.08460981 0.61469922 0.00000685
-0.28297821 0.15576991 0.28449230
-0.15558121 0.42693764 0.01862680
-0.16469382 0.00062088 0.00000951
-0.21186398 0.33790632 0.00000474
-0.45321151 0.03979125 0.00000205
-0.37635352 -0.40943368 0.00000171
-0.24442867 -0.57220696 0.00000100
-0.35307142 -0.51902136 -0.00000090
-0.39198460 -0.15451921 0.00000046
-0.16694188 0.08337300 0.00000896
-0.43547302 -0.20768787 0.31878958
-0.29953542 0.33544161 0.00000494
-0.00150833 -0.20709197 0.00000259
-0.22912327 0.17967578 0.00000290
-0.08177153 0.06016042 0.00000376
-0.67832524 -0.82558851 0.08792723
-0.03200827 0.14469600 0.00001061
-0.02645452 -0.10939232 0.00000302
-0.34571381 -0.15851595 0.00000281
-0.06357400 -0.69233152 0.00000047
-0.01084303 -0.03674833 0.00000327
-0.20075728 -0.40252179 0.00000174
-0.32915622 -0.67756786 -0.00000145
-0.29535790 0.41647302 0.00000372
-0.62297371 0.10182344 0.00000003
-0.22828419 0.25159052 0.00000459
-0.56604935 -0.55742594 0.06680841
-0.41430393 -0.55451775 0.00000107
-0.33447413 0.31616793 0.00000331
-0.14992797 -0.10139656 0.00000215
-0.09791570 0.21439180 0.00000385
-0.17639910 0.39229139 0.13268992
-0.02284950 0.40427639 0.00000913
-0.02720077 0.57243751 0.00000584
-0.55295726 -0.51724001 0.12946679
-0.12417910 -0.68377155 -0.00000024
-0.09236590 0.34471401 0.00000501
-0.19886141 0.22809815 -0.00000058
-0.47276582 -0.29574331 0.33322844
-0.01029439 0.06815031 0.00000374
-0.33258333 -0.38679539 0.00000181
-0.31028266 0.42969972 0.00000354
-0.17253859 0.52722717 0.00000586
-0.29538405 -0.32215067 0.00000209
-0.34125949 0.42960267 0.00000339
-0.48522016 0.27616556 0.00000156
-0.05049649 0.15959460 0.00000389
-0.44710464 -0.36008279 -0.00000077
-0.24265456 0.22985717 0.11454315
-0.43018183 -0.37432011 0.00000186
-0.35845922 -0.26330604 0.00000018
-0.17498052 -0.51741283 0.00000018
-0.59078590 0.20208106 0.00000036
-0.31574213 -0.66227703 -0.00000130
-0.37152829 -0.05897614 0.27742280
-0.17175942 0.28745704 0.00000761
-0.11260086 0.52986619 0.01258346
-0.24506062 -0.49807375 0.00000132
-0.35014548 -0.05155679 0.00000116
-0.40611772 -0.14735131 0.24185880
-0.25704460 0.08323094 0.00000231
-0.38196850 0.17305341 0.00000282
-0.07665488 -0.13653366 0.00000290
-0.25378392 -0.51846599 -0.00000030
-0.11942355 0.03263759 0.00000292
-0.32467577 0.05029226 0.24935417
-0.54572965 -0.76300090 -0.00000313
-0.25004263 0.21327610 0.12376183
-0.02225793 0.65161083 0.00000635
-0.56198826 -0.54103422 0.11492118
-0.31631056 0.05950524 0.16914228
-0.45040755 -0.26610694 0.15544851
-0.00642634 -0.63099782 0.00000074
-0.01389124 -0.59476721 0.00000090
-0.44374390 -0.24245364 0.21070763
-0.00750057 0.70882175 0.00000506
-0.29442839 0.10560506 0.00000388
-0.42631505 -0.20325929 0.18965527
-0.03928221 -0.23359351 0.00000224
-0.23498708 0.05792341 0.00000375
-0.59830197 -0.63698998 0.05439422
-0.22096971 0.44822755 0.00000555
-0.52584756 -0.10377286 0.00000127
-0.04663645 0.04965517 0.00000372
-0.07239101 0.11855291 -0.00000700
-0.56002786 -0.68880312 -0.00000289
-0.62808947 -0.42649576 0.00000023
-0.44404664 -0.23026735 0.30505106
-0.55977260 -0.53040055 0.15351850
-0.56558914 -0.55477827 0.00000102
-0.23648637 -0.22832414 0.00000250
-0.25833267 0.47316696 0.00000413
-0.13044148 0.48818664 0.02270336
-0.71214395 -0.22307563 -0.00000086
-0.05682679 0.53874776 0.00000586
-0.21209165 0.15713678 0.00000291
-0.69296794 -0.21530657 -0.00000064
-0.12838002 -0.33590751 0.00000126
-0.20565936 0.30732133 0.02804681
-0.57848271 -0.58676088 0.07178738
-0.37089575 -0.58066822 -0.00000128
-0.14861017 -0.43101541 0.00000161
-0.32585180 0.29069785 0.00000342
-0.49916360 -0.38668949 0.13444598
-0.23631769 0.41440083 0.00000441
-0.39650531 -0.48520483 -0.00000102
-0.69594001 -0.53451475 -0.00000052
-0.35531321 -0.20919216 0.00000044
-0.14798901 0.44415951 0.01059308
-0.68305480 -0.83510243 0.10183129
-0.43075607 -0.20283246 0.27107979
-0.26699534 0.45230792 0.00000464
-0.02017240 0.68693621 0.00000740
-0.72816489 -0.57266252 -0.00000057
-0.13377588 0.25183113 0.00000460
-0.38792609 -0.12192161 0.10682349
-0.64216325 0.12043356 -0.00000021
-0.27376735 -0.12660267 0.00000129
-0.26799473 0.16638199 0.09773667
-0.32718552 -0.18998018 0.00000069
-0.01820255 0.54215785 0.00000576
-0.36139951 -0.20032618 0.00000262
-0.46482363 -0.34181185 0.00000200
-0.09649306 0.36002686 0.00000508
-0.02261297 -0.53286778 0.00000117
-0.38343587 -0.07355419 0.38090616
-0.31397875 -0.06099689 0.00000134
-0.52319016 -0.76195013 0.00000017
-0.55404591 0.11180669 0.00000083
-0.17043077 -0.73621199 0.00000028
-0.32473047 0.03267767 0.12158674
-0.66468425 -0.27356120 -0.00000028
-0.00713243 -0.47720397 0.00000141
-0.30148951 0.25324085 0.00000373
-0.51250162 -0.39286470 0.32451959
-0.25731951 0.28326235 0.00000617
-0.00604950 -0.36640002 0.00000186
-0.18958283 -0.13499217 0.00000291
-0.69128206 -0.16309416 -0.00000064
-0.01543817 0.41696347 0.00000523
-0.20585558 0.24951188 0.00000335
-0.25247069 0.01134787 0.00000203
-0.42619888 0.15526504 0.00000394
-0.60965698 0.01225528 0.00000023
-0.13347566 0.19857456 -0.00000326
-0.30570046 0.07570398 0.10028851
-0.28081904 0.02267972 0.00000360
-0.33413416 0.00326453 0.07255126
-0.48793110 -0.07960841 0.00000170
-0.09645931 0.45587394 0.00000174
-0.57527433 0.06086411 0.00000061
-0.45396754 -0.46623224 -0.00000128
-0.05115708 0.27214697 0.00000953
-0.50378801 -0.29360607 0.00000162
-0.63046525 0.03322126 0.00000099
-0.78584844 -0.21157137 -0.00000147
-0.31086369 0.06050628 0.08041082
-0.15678852 0.43426119 0.09345713
-0.26356886 -0.36528836 0.00000031
-0.43965191 0.30377333 0.00000208
-0.18899354 0.42566267 0.00000635
-0.12322598 -0.03162534 0.00000336
-0.47797660 -0.31779256 0.26406680
-0.42530370 -0.22019900 0.04809945
-0.18420369 0.02774481 -0.00000578
-0.16381522 -0.37276402 0.00000187
-0.63428090 -0.47250269 0.00000017
-0.33610542 0.00455396 0.11674336
-0.30944390 0.09161874 0.28261291
-0.07940330 0.11981609 0.00000354
-0.09522699 -0.62353440 0.00000077
-0.21186337 0.57097601 0.00000475
-0.08877322 -0.11650676 0.00000245
-0.44438999 -0.22949934 0.31671452
-0.50679956 -0.22830973 0.00000155
-0.10219843 0.44770534 0.00000546
-0.04276109 0.31145888 0.00000486
-0.67031858 -0.37016931 -0.00000030
-0.36295645 -0.68718261 0.00000049
-0.30551840 0.10419169 0.30522511
-0.06076889 0.43355648 0.00000540
-0.35244195 0.06344463 0.00000322
-0.29158939 0.14119750 0.00000664
-0.15793923 -0.35501759 0.00000195
-0.43476560 -0.23740862 0.08924383
-0.38399624 -0.07548386 0.37669158
-0.30898949 -0.44975682 0.00000153
-0.36346008 -0.03852066 0.28452645
-0.19509794 -0.26837036 0.00000233
-0.41890594 -0.16192291 0.36092231
-0.19716637 -0.29342886 0.00000103
-0.19064533 0.34706621 0.05359512
-0.48127671 -0.31479245 0.34416531
-0.27258987 0.28280243 0.00000405
-0.29617411 -0.63305020 0.00000073
-0.68345544 0.06157196 -0.00000025
-0.34747861 -0.26279406 0.00000025
-0.72086214 -0.50218069 -0.00000074
-0.69207112 0.10614329 -0.00000077
-0.30657214 0.06853165 0.06325953
-0.74756874 0.02285773 -0.00000117
-0.40968605 -0.18134992 0.05646172
-0.44929444 0.05687354 0.00000209
-0.53701482 -0.11035251 0.00000114
-0.55508251 -0.31258377 0.00000103
-0.59453367 -0.61475256 0.15036038
-0.00000670 -0.34432146 0.00000199
-0.55565492 -0.62001707 -0.00000257
-0.14097165 0.05958780 0.00000376
-0.25031729 0.20890515 0.09668060
-0.17798476 0.27137491 -0.00000018
-0.29351297 -0.08419489 0.00000136
-0.36905300 -0.05536329 0.26016418
-0.27266202 0.45108989 0.00000397
-0.20218399 -0.32563545 0.00000208
-0.25114341 0.50229405 0.00000420
-0.54109184 -0.28884801 0.00000118
-0.28463037 0.13540956 0.16492028
-0.76965946 -0.58238554 -0.00000054
-0.38529419 -0.47320535 -0.00000090
-0.37696070 -0.72995653 0.00000031
-0.08688266 0.30787331 0.00000876
-0.48753792 0.21731703 0.00000227
-0.02013817 0.46540623 -0.00000034
-0.00573010 0.65864878 0.00000638
-0.02729223 0.67610494 0.00000629
-0.01453363 -0.59127333 0.00000091
-0.00451905 0.34371237 0.00000978
-0.22982674 0.25155554 0.04681286
-0.46139061 -0.30066791 0.09668541
-0.42557709 -0.76315137 0.00000016
-0.22315990 -0.07928676 0.00000315
-0.02220308 -0.68904491 0.00000035
-0.12472602 0.20183911 0.00000363
-0.04809360 0.37688282 -0.00000160
-0.18502009 0.30067915 0.00000370
-0.47333854 -0.45485266 0.00000151
-0.43017860 -0.54643048 -0.00000149
-0.15300866 0.12271074 0.00000892
-0.17159151 -0.66810057 -0.00000046
-0.44568460 -0.27176837 0.03082082
-0.07209534 0.53268157 0.00000283
-0.18122507 0.38415965 0.00000683
-0.50237339 -0.21018268 0.00000160
-0.23019265 0.03450992 0.00000365
-0.27055310 0.17424844 0.20033950
-0.52336298 0.01721579 0.00000124
-0.22433904 0.28118621 0.16651152
-0.19445369 0.34736880 0.12292760
-0.30791875 0.09384724 0.27199665
-0.08138647 0.53934259 0.00000586
-0.43667089 -0.32962022 0.00000206
-0.10741904 -0.65212428 -0.00000000
-0.55240038 -0.51479580 0.13749934
-0.74757036 0.02762855 -0.00000140
-0.10169657 0.18986923 0.00000372
-0.05226445 0.46630280 0.00000830
-0.25681928 0.21497424 0.25565181
-0.34329653 -0.28883272 0.00000224
-0.49054060 -0.38375040 0.00386587
-0.03772875 0.53197285 0.00000583
-0.36678290 -0.57999224 -0.00000125
-0.48011074 0.19604629 0.00000258
-0.64748471 -0.47176993 0.00000002
-0.39267481 -0.75110745 0.00000021
-0.03833784 0.42070544 -0.00000085
-0.13273773 0.25790160 0.00000383
-0.54878962 -0.73760644 -0.00000304
-0.65964614 -0.78939586 0.02292225
-0.33852105 -0.20024000 0.00000058
-0.16182108 -0.27745846 0.00000131
-0.26553910 -0.79909070 0.00000000
-0.63749698 -0.20923630 0.00000001
-0.08157588 0.10615153 0.00001011
-0.37404501 -0.23223296 0.00000023
-0.44175652 0.08608220 0.00000216
-0.25905308 0.10064745 -0.00000179
-0.25247587 0.02307631 0.00000208
-0.34705551 -0.59707672 -0.00000121
-0.06718847 0.67030695 0.00000627
-0.48941988 -0.63185037 0.00000074
-0.42873977 0.18917826 0.00000363
-0.50887020 -0.76960985 0.00000013
-0.28946857 0.12296796 0.15936062
-0.28352478 -0.55934198 0.00000105
-0.12095714 0.26281377 0.00000392
-0.34892429 -0.02096986 0.15636522
-0.12616227 0.24098148 0.00000859
-0.23197016 -0.21296992 0.00000257
-0.08065766 0.61101732 0.04202963
-0.42635015 -0.39477773 -0.00000080
-0.38590163 -0.09942312 0.23544959
-0.11629359 0.33313401 -0.00000058
-0.41524453 -0.19827648 0.03084565
-0.01805228 -0.55745456 0.00000095
-0.40373991 -0.33115180 0.00000205
-0.16905752 -0.45535132 0.00000049
-0.35670857 -0.61952436 -0.00000136
-0.47661149 -0.67579656 -0.00000233
-0.52889039 0.04835307 0.00000282
-0.57540575 -0.39284600 0.00000083
-0.03945969 0.33630287 0.00000473
-0.05074074 0.31342719 0.00000487
-0.06267535 0.64757070 0.00000701
-0.34725907 0.00472604 0.00000331
-0.21456317 0.40638905 0.00000467
-0.40243498 -0.15258887 0.13866876
-0.60670964 0.01926106 0.00000156
-0.10216954 0.00371079 -0.00000883
-0.37970714 -0.08924015 0.20059787
-0.20843787 0.00998196 -0.00000547
-0.14695712 0.31974363 0.00000778
-0.06027049 0.48925529 0.00000564
-0.13522415 0.47562782 0.01530373
-0.64072080 -0.72666981 0.14733667
-0.57085366 0.05423773 0.00000066
-0.23268008 -0.73723691 -0.00000113
-0.20134496 0.32801467 0.10311083
-0.64544643 -0.74313918 0.11037915
-0.24105053 -0.14283201 0.00000142
-0.04393440 0.69590016 0.01447688
-0.49154206 -0.64548077 -0.00000229
-0.74577672 0.01211275 -0.00000106
-0.28102544 0.13353836 0.08768897
-0.21570747 0.15315167 0.00000287
-0.26917494 0.01794807 0.00000195
-0.40130942 -0.40347917 -0.00000069
-0.44267799 -0.23534790 0.24381123
-0.34787760 -0.03355612 0.04605897
-0.31099195 0.08980239 0.29663449
-0.13909933 -0.00384472 0.00000348
-0.11945067 0.52636215 0.10777127
-0.45044036 0.29015716 0.00000196
-0.00296517 0.49409538 -0.00000018
-0.00599209 0.14444548 0.00000413
-0.20880690 -0.79119798 -0.00000122
-0.47212770 -0.29994717 0.29127296
-0.48457227 -0.64471126 0.00000068
-0.60288216 -0.62705475 0.20770274
-0.60531830 -0.05073976 0.00000031
-0.60678322 -0.62842258 0.00000057
-0.34903914 -0.77651527 -0.00000200
-0.64768054 -0.34959283 -0.00000004
-0.09733261 -0.38266687 0.00000183
-0.32889860 -0.69102201 0.00000048
-0.00418587 -0.79642987 -0.00000001
-0.05048313 -0.15719689 0.00000251
-0.60304026 -0.47746055 0.00000054
-0.33536797 -0.31083235 0.00000214
-0.69894520 -0.64508993 -0.00000039
-0.20577701 -0.03167754 0.00000336
-0.10085900 0.54353663 0.00000588
-0.32694983 0.21976770 0.00000534
-0.57288839 -0.60366211 0.00000086
-0.60747972 0.00453852 0.00000026
-0.34483538 -0.40062009 0.00000175
-0.02245758 -0.10075858 0.00000306
-0.56466288 -0.26010125 0.00000089
-0.15833427 -0.44498835 0.00000155
-0.65349034 -0.76176553 0.11616973
-0.08007833 -0.49597938 0.00000085
-0.10326143 0.02348793 -0.00000833
-0.28786872 -0.26591195 0.00000060
-0.42292656 -0.55128080 -0.00000146
-0.08013928 0.22111831 -0.00000433
-0.41898754 -0.17047292 0.29991431
-0.56149043 -0.78224861 -0.00000331
-0.07629802 -0.65146629 0.00000065
-0.32003536 -0.07530842 0.00000317
-0.15494279 0.05059981 0.00000935
-0.00151953 0.03670305 -0.00001108
-0.21130738 0.31400787 0.17645779
-0.07986279 -0.33990642 0.00000153
-0.08750337 -0.49324275 0.00000081
-0.50889276 -0.10460364 0.00000147
-0.12939682 0.08582362 0.00000388
-0.42328606 -0.18420570 0.27540820
-0.13990479 0.07881567 0.00000384
-0.24169815 -0.33466094 0.00000204
-0.17975570 0.37908018 0.09536939
-0.04403251 0.47725521 0.00000835
-0.39699253 -0.42101236 -0.00000074
-0.30025797 0.10664203 0.23033691
-0.14534669 0.45833265 0.06748775
-0.26952684 -0.64097469 0.00000070
-0.63495912 -0.03918817 -0.00000004
-0.11011134 0.53900397 0.03542637
-0.28577817 -0.27403534 0.00000058
-0.52239517 -0.62093430 -0.00000237
-0.32315708 0.05112890 0.22864725
-0.64982551 -0.19844933 -0.00000014
-0.52221108 0.01175035 0.00000125
-0.33528745 0.01921098 0.20945740
-0.74898389 -0.05517813 -0.00000137
-0.21366373 0.31031608 0.00000679
-0.31807336 0.29455673 0.00000351
-0.36262363 0.19605384 0.00000304
-0.60245639 -0.16173704 0.00000040
-0.66641158 -0.79397231 0.10877360
-0.26270668 -0.70392630 -0.00000117
-0.35268265 -0.01014772 0.30173037
-0.48585717 0.01648365 0.00000168
-0.03577183 -0.16732464 0.00000277
-0.24364803 0.23204115 0.14802422
-0.14911550 0.45877838 0.13722815
-0.36896882 0.01194999 0.00000305
-0.40095020 -0.11578645 0.38128267
-0.44073668 0.33535493 0.00000205
-0.56153112 -0.07117411 0.00000083
-0.13333903 0.05674064 0.00000963
-0.79202897 -0.02671670 -0.00000189
-0.21539759 0.09382453 -0.00000327
-0.63631899 -0.66327775 0.00000024
-0.15273985 0.04378390 -0.00000635
-0.18460531 0.44688750 0.00000626
-0.20889818 0.42841959 0.00000594
-0.25743260 0.40194281 0.00000417
-0.18118885 0.00985830 -0.00000630
-0.67512236 0.12104909 -0.00000056
-0.14451039 -0.04421309 0.00000243
-0.28380232 -0.20286036 0.00000261
-0.26373003 0.18767112 0.17806047
-0.19139601 0.16309373 0.00000306
-0.66977646 -0.31013189 -0.00000032
-0.24679857 -0.17904094 0.00000272
-0.01637450 -0.56528473 0.00000103
-0.05953395 0.42721907 0.00000537
-0.40521079 -0.12710844 0.37371558
-0.18030171 0.32672187 0.00000384
-0.61354156 -0.79873840 0.00000001
-0.13105618 -0.34955544 0.00000118
-0.12016212 0.36999768 0.00000512
-0.02665813 0.35543938 0.00000489
-0.50973648 -0.42212887 0.06203457
-0.72890664 -0.16206172 -0.00000109
-0.19432884 0.51216350 0.00000486
-0.04758130 0.12891384 -0.00000750
-0.00349248 0.49667930 -0.00000010
-0.00993755 0.26694921 0.00000467
-0.22614093 0.28046146 0.19301435
-0.01358254 0.33135933 0.00000495
-0.04246987 0.40589892 -0.00000108
-0.05033460 0.32261796 -0.00000282
-0.01886894 0.09429023 0.00000380
-0.01146669 -0.10680411 0.00000303
-0.09488048 0.57890999 0.05831350
-0.43241549 -0.21548529 0.00000242
-0.66197367 -0.47059209 -0.00000015
-0.22908109 0.25516506 0.06003336
-0.37815916 -0.35352770 -0.00000033
-0.17088143 0.27666638 -0.00000027
-0.62018389 -0.67642820 0.15217234
-0.42957031 0.32882667 0.00000219
-0.13305647 0.06726556 0.00000379
-0.43244019 -0.20235306 0.30427674
-0.34499390 -0.00870892 0.17662168
-0.62746637 -0.23474773 0.00000014
-0.46762538 -0.30213635 0.19589587
-0.35389965 0.19841322 0.00000314
-0.11908779 0.22424580 0.00000376
-0.51519203 0.04432265 0.00000312
-0.14816423 -0.14723979 0.00000286
-0.44357976 -0.08200789 0.00000222
-0.23364021 -0.44395933 0.00000156
-0.32211756 0.41091991 0.00000341
-0.37298502 0.23565815 0.00000290
-0.39505793 -0.30330543 -0.00000021
-0.36130685 -0.10311560 0.00000305
-0.29038692 0.01237462 0.00000180
-0.50194094 -0.63752455 -0.00000232
-0.38459241 -0.12658745 0.01396395
-0.40978398 -0.51658818 -0.00000123
-0.06220105 -0.37817088 0.00000185
-0.51196098 0.19799973 0.00000128
-0.36525001 0.27677118 0.00000297
-0.20483379 0.31492829 0.06899570
-0.28413997 0.30769190 0.00000390
-0.46912527 -0.28144475 0.37346407
-0.27689427 0.15882454 0.19952863
-0.74741021 -0.20713541 -0.00000128
-0.12552265 0.29024337 0.00000401
-0.33736176 -0.03601154 0.00000334
-0.08523263 -0.44748468 0.00000154
-0.04053504 0.56411859 0.00000597
-0.00636577 -0.29131477 0.00000223
-0.03712978 -0.76747225 -0.00000008
-0.31883590 0.04546966 0.11115876
-0.14459101 0.21251116 -0.00000259
-0.37142867 -0.04656681 0.36629491
-0.23234411 -0.78808410 -0.00000135
-0.60023387 -0.21668078 0.00000045
-0.37272491 -0.27084473 0.00000007
-0.31906756 0.06499111 0.25779639
-0.68222708 0.05659336 -0.00000065
-0.61868710 0.05826295 0.00000010
-0.22532965 -0.56880815 0.00000101
-0.03984360 0.35815407 -0.00000229
-0.63901285 -0.73502912 0.05618260
-0.21034963 -0.46892231 0.00000145
-0.20270266 0.13799520 0.00000288
-0.62079552 0.11810735 0.00000005
-0.44938795 -0.27728927 0.05579750
-0.10093752 0.48619037 0.00000259
-0.60046939 -0.48370686 0.00000058
-0.32365237 0.25904870 0.00000346
-0.09328001 -0.76468589 -0.00000041
-0.78881925 -0.10622678 -0.00000173
-0.10454546 -0.39737759 0.00000113
-0.23332856 0.25964457 0.16768360
-0.54600780 -0.50941554 0.06407709
-0.31887599 -0.56316253 0.00000104
-0.46205818 0.33333511 0.00000180
-0.24278998 0.23846938 0.17988294
-0.43089346 -0.36343322 -0.00000069
-0.26041088 0.16324934 0.00000705
-0.51933103 -0.42340080 0.22192227
-0.26111380 0.19108433 0.15689354
-0.44217153 -0.41320903 -0.00000098
-0.60192766 -0.41467277 0.00000053
-0.58596465 -0.17963805 0.00000060
-0.29414008 -0.38704084 0.00000003
-0.29232261 -0.35788530 0.00000193
-0.03744951 -0.05306648 0.00000327
-0.01546129 0.28114575 0.00000473
-0.44969282 -0.23439485 0.37446216
-0.43770530 -0.56694883 -0.00000162
-0.20641331 -0.52995531 0.00000118
-0.23095533 0.17092141 0.00000745
-0.22165472 -0.37739774 0.00000185
-0.08268309 0.45651354 0.00000500
-0.08921672 0.58978472 0.03786687
-0.09527682 0.27620373 0.00000413
-0.22833405 0.25802823 0.06777599
-0.75428830 0.04077717 -0.00000148
-0.27822368 -0.16803362 0.00000276
-0.02053781 0.15534891 -0.00000769
-0.31286451 0.05409251 0.06884610
-0.08975504 0.55014193 0.00000591
-0.04053360 0.70395188 0.01331929
-0.41693955 0.26946055 0.00000321
-0.22736069 0.27285050 0.15890560
-0.33596656 -0.10054476 0.00000306
-0.18485297 0.58877380 0.00000513
-0.31366262 0.07215747 0.21481989
-0.26644687 -0.40908907 0.00000171
-0.20657191 0.31030861 0.06595577
-0.30921066 0.32105996 0.00000487
-0.17551613 0.37777819 0.01113885
-0.08744834 0.69897630 0.00000612
-0.44978095 -0.68838490 -0.00000223
-0.52859575 -0.44469560 0.22975273
-0.02239444 0.38500566 0.00000926
-0.78908110 -0.17904864 -0.00000155
-0.56532850 -0.74165389 -0.00000316
-0.70328082 -0.06666960 -0.00000083
-0.01131309 0.04299419 0.00000362
-0.55554923 -0.63846621 -0.00000265
-0.00970331 -0.28272381 0.00000226
-0.35371379 -0.03531925 0.13600350
-0.24737857 0.20591522 0.02293834
-0.35332549 -0.63231919 -0.00000140
-0.02618218 -0.67350013 0.00000055
-0.24761043 0.21464631 0.09088338
-0.25267641 -0.26834388 0.00000233
-0.00732701 -0.47377749 0.00000138
-0.61003544 -0.35681126 0.00000040
-0.11436610 0.21698082 0.00000892
-0.48361723 -0.33984643 0.20245088
-0.07901093 0.26030332 0.00000416
-0.47677881 -0.32690015 0.17642721
-0.34088967 -0.01970701 0.02399315
-0.50286595 -0.59636958 0.00000089
-0.05837484 0.35813474 -0.00000173
-0.11210053 -0.32215603 0.00000141
-0.15533343 0.42519346 0.00000700
-0.12450396 0.54544329 0.00000566
-0.63278511 0.10078274 0.00000041
-0.03121750 -0.15477911 0.00000282
-0.12245307 0.45282586 0.00000548
-0.39975260 -0.53197110 -0.00000124
-0.33934149 0.12533241 0.00000585
-0.67656322 -0.55843793 -0.00000028
-0.62280705 -0.11103026 0.00000013
-0.76986800 -0.49334876 -0.00000077
-0.06639415 -0.78870757 -0.00000035
-0.68521195 -0.52863881 -0.00000040
-0.03436194 0.66781754 0.00000621
-0.47749396 0.14110322 0.00000307
-0.05520279 0.66848683 0.01294930
-0.00326740 0.45525411 -0.00000109
-0.01269955 -0.42661207 0.00000156
-0.48134009 -0.31659113 0.33214773
-0.38778396 -0.66277120 0.00000060
-0.05891987 -0.12446077 0.00000296
-0.17489952 0.39317739 0.11271241
-0.14578222 -0.37351075 0.00000099
-0.10063564 0.04388445 -0.00000792
-0.16141925 0.42795450 0.12903317
-0.66120026 0.12086807 -0.00000043
-0.05538337 0.47309425 0.00000524
-0.03827575 -0.14118635 0.00000265
-0.10281851 0.27257340 0.00000469
-0.20452198 0.42893221 0.00000478
-0.71883987 0.05355790 -0.00000107
-0.16693223 0.40299000 0.04387362
-0.27377723 0.05070418 0.00000207
-0.50656666 0.10070769 0.00000139
-0.44708720 -0.23722249 0.30786590
-0.17073350 0.04476375 0.00000267
-0.20969203 0.31739169 0.17268847
-0.10685900 0.45956541 0.00000551
-0.03888551 0.06598773 -0.00000926
-0.08836372 -0.62985145 0.00000074
-0.43430394 -0.38775988 -0.00000082
-0.04959860 0.68312713 0.02104976
-0.00299848 -0.31166677 0.00000214
-0.09592909 0.56090628 0.00000595
-0.39333654 -0.20522749 0.00000260
-0.54355320 0.05582521 0.00000248
-0.64407057 -0.00533561 -0.00000017
-0.09772784 -0.15066109 0.00000284
-0.51094114 -0.41182419 0.15853852
-0.32851005 0.02704664 0.14711144
-0.50178030 -0.38956037 0.15961732
-0.72723984 -0.41305625 -0.00000095
-0.10616256 -0.56378862 0.00000103
-0.04447902 0.14031140 0.00000411
-0.07369688 0.55152280 0.00000332
-0.04991178 0.10227757 0.00000365
-0.11203815 0.03855669 0.00000367
-0.36164058 -0.05077342 0.16290787
-0.31903803 0.06778898 0.27773694
-0.24476898 -0.51169475 -0.00000022
-0.50520171 -0.39071103 0.21154180
-0.19550809 0.58225856 0.00000498
-0.71454350 -0.73560433 -0.00000016
-0.23682612 0.24013714 0.08684620
-0.24983856 -0.77072965 0.00000013
-0.03158412 0.60321016 0.00000328
-0.13591416 -0.46851381 0.00000063
-0.02164617 0.11849087 0.00001093
-0.18867200 -0.17292406 0.00000274
-0.37114131 -0.06202334 0.24834339
-0.53849023 -0.47434178 0.18769125
-0.52679973 -0.44491888 0.19645333
-0.01326243 -0.78135648 0.00000008
-0.10387930 -0.71580977 -0.00000026
-0.19101179 0.18869533 0.00000794
-0.04648680 -0.31935838 0.00000210
-0.12100205 -0.34185396 0.00000127
-0.75505264 -0.19946933 -0.00000138
-0.13939110 0.04152167 0.00000368
-0.11909101 0.54951605 0.00000572
-0.10366126 0.66396992 0.00000609
-0.56465266 -0.63439279 0.00000072
-0.18050589 -0.33269473 0.00000204
