ply
format ascii 1.0
element vertex 1378
property float x
property float y
property float z
end_header
-0.39646371 0.49781424 0.11546360
-0.39312028 -0.42741357 -0.00000023
-0.59011741 0.14010821 -0.00000025
0.23839351 0.13405663 -0.00000058
0.34133692 0.05457765 0.00000583
0.21709771 0.03118267 0.00000822
0.12589491 0.50330939 0.00000191
-0.42588350 0.10161975 -0.00000042
0.61069425 -0.30435033 -0.00000080
-0.38900483 0.55638132 0.17805698
0.43759175 0.16289096 0.00000204
-0.32792801 -0.04979576 -0.00000047
0.06786336 -0.14660470 -0.00000041
0.03227924 0.76407226 -0.00000097
-0.12740500 0.46721709 -0.00000079
-0.39573176 -0.72863603 -0.00000004
-0.45458363 0.61769061 0.33346081
0.32908255 0.35591680 -0.00000119
-0.72944896 0.11951997 0.05997416
-0.10609831 0.50505692 -0.00000082
-0.16085926 0.03800014 -0.00000052
-0.17514350 0.54302983 -0.00000077
-0.58962216 -0.29670327 -0.00000017
-0.13281062 0.56518021 -0.00000082
0.63777276 -0.74866576 -0.00000003
-0.25518065 0.16713809 -0.00000060
0.27912879 0.47687278 -0.00000056
-0.17931626 -0.52762680 -0.00000017
0.21648565 0.00336422 0.00000868
0.15946410 0.63082538 -0.00000118
-0.41862508 0.06272630 -0.00000042
0.01204642 0.74956453 -0.00000036
0.03515125 0.48731933 0.00000355
0.49598966 -0.61481575 -0.00000012
-0.51907087 -0.38535663 -0.00000023
-0.72530275 -0.07928722 -0.00000007
0.57642459 0.14074435 -0.00000156
-0.71326783 0.15014820 0.07766774
0.61137813 0.18483735 -0.00000170
0.09231973 0.21925983 0.00000704
-0.62280088 0.39983001 0.27266116
-0.45402025 -0.19847265 -0.00000033
-0.78449057 -0.40656917 0.00000000
-0.40392829 0.27902574 -0.00000047
-0.22762924 0.16957625 -0.00000061
-0.70615081 -0.77238697 0.00000000
0.58586245 -0.31614821 -0.00000070
0.38896131 -0.30690564 -0.00000031
-0.62696503 -0.53263024 -0.00000009
-0.47840359 -0.39110330 -0.00000026
-0.35515810 -0.13432535 -0.00000042
0.27987403 0.41757225 0.00000049
-0.58943190 0.48290707 0.33354018
0.34248131 -0.55697196 -0.00000015
0.43312641 -0.03210512 -0.00000076
-0.55116589 -0.23958579 -0.00000022
-0.49520922 -0.57631912 -0.00000014
-0.48895769 0.18835501 -0.00000037
-0.48740611 0.02482994 -0.00000034
0.77405849 -0.62138148 -0.00000045
0.15601473 0.46640352 -0.00000085
-0.02583008 -0.04810508 -0.00000047
0.37724164 -0.57035954 -0.00000014
-0.10423705 -0.46253590 -0.00000021
-0.08854663 0.30997200 -0.00000069
-0.17531459 -0.23996172 -0.00000035
0.18433154 0.08283519 0.00000787
-0.69353560 0.28897715 0.22352787
-0.41040993 -0.63188991 -0.00000011
0.34309582 0.14782477 0.00000412
-0.38865328 0.58243898 0.20954005
0.25201844 0.44981470 -0.00000112
0.03894671 0.15124425 -0.00000059
-0.64963302 -0.69528766 -0.00000003
0.10781630 0.68369956 -0.00000098
0.24124136 0.02842798 0.00000790
0.47712366 0.23971843 -0.00000010
-0.14488202 -0.00505478 -0.00000050
-0.53446749 -0.66043671 -0.00000009
0.39003661 0.39379136 -0.00000146
0.63540235 -0.49625765 -0.00000051
0.27864002 0.16520662 0.00000505
0.23860132 -0.68773710 -0.00000007
-0.08223906 -0.60544632 -0.00000012
0.12604122 -0.61481305 -0.00000012
-0.02553792 -0.36755959 -0.00000027
0.30663815 0.39873617 -0.00000120
-0.51682810 -0.15038634 -0.00000027
-0.32545227 -0.44164439 -0.00000022
-0.47534005 -0.06340917 -0.00000033
0.25464634 0.18579029 -0.00000062
-0.31889363 -0.38533695 -0.00000026
-0.34177516 -0.29065587 -0.00000032
-0.11242271 -0.14318828 -0.00000041
-0.62997592 0.35837120 0.23067306
0.78852685 -0.43122774 -0.00000092
-0.44650610 -0.23966293 -0.00000033
-0.29267013 0.29410094 -0.00000060
0.05026627 0.65409751 0.00000061
-0.65813534 -0.72164063 -0.00000002
-0.12557480 -0.62264423 -0.00000011
-0.30966286 0.07569869 -0.00000054
0.17902615 0.50871708 0.00000079
0.36189875 -0.69063591 -0.00000007
-0.49295806 -0.45736548 -0.00000021
-0.50954103 0.47938493 0.23138161
0.21702304 -0.53125062 -0.00000017
-0.65911158 -0.69027564 -0.00000002
-0.67420703 -0.12676799 -0.00000011
-0.54159861 0.02848594 -0.00000028
0.11587795 0.27344772 -0.00000067
0.13054854 -0.70628380 -0.00000006
-0.27356384 -0.38330481 -0.00000026
-0.11456537 0.35718914 -0.00000072
0.05724147 0.44865681 0.00000385
-0.15669418 0.67708751 0.04137157
-0.19725150 -0.44739620 -0.00000022
0.11433090 -0.36638486 -0.00000027
0.50247428 -0.71716478 -0.00000005
0.51087491 0.13229256 -0.00000133
0.77117873 -0.57981480 -0.00000055
0.16197556 -0.77733476 -0.00000001
-0.56446972 -0.78017306 -0.00000001
0.18850079 0.33680385 -0.00000071
-0.32509410 -0.04707700 -0.00000047
-0.60215364 -0.41970671 -0.00000013
-0.40637273 0.33028491 -0.00000048
-0.25404403 0.68776394 0.17367457
-0.57781355 0.47896681 0.31448506
-0.39490923 -0.21885783 -0.00000036
0.29050305 0.09959668 -0.00000056
-0.23496178 0.62089635 0.06840937
0.51999078 0.00174099 -0.00000111
0.31561821 0.43338078 -0.00000048
-0.21660048 -0.75175908 -0.00000003
-0.12937307 0.39089535 -0.00000074
0.37877101 -0.00536338 -0.00000064
0.08991830 -0.07598465 -0.00000045
-0.52935608 -0.58452912 -0.00000013
0.36049288 0.35467071 0.00000007
0.43138751 0.24742472 0.00000064
-0.29975920 -0.50669992 -0.00000018
-0.59326426 -0.68340106 -0.00000007
-0.24710922 -0.43387671 -0.00000023
0.30142963 -0.25354976 -0.00000034
0.35870730 -0.29290974 -0.00000032
-0.78981679 -0.28006380 0.00000000
0.66898265 -0.45661765 -0.00000069
0.06034897 -0.23400610 -0.00000035
-0.26357326 -0.23406957 -0.00000035
-0.48180006 -0.27679441 -0.00000029
0.50264127 0.13323310 -0.00000131
0.36293852 0.42099696 -0.00000142
0.03940084 0.38560336 -0.00000074
0.28902440 0.24077096 0.00000349
-0.02241502 -0.01720631 -0.00000049
0.32077419 0.33904272 0.00000112
0.33285940 -0.59804569 -0.00000013
0.79593841 -0.78477618 -0.00000004
0.65990799 -0.00952183 -0.00000153
0.39244378 0.02581488 0.00000536
0.74539459 -0.62154247 -0.00000045
0.69762845 -0.18096116 -0.00000132
0.27656116 -0.51495033 -0.00000018
-0.79935493 -0.69447260 0.00000000
0.15239060 -0.24965896 -0.00000034
-0.73624700 -0.75090670 0.00000000
0.23202922 0.33932316 0.00000282
-0.62868024 0.23986721 0.08395194
-0.21748586 0.39242227 -0.00000069
0.15733611 0.30139237 0.00000473
-0.27365633 -0.53069025 -0.00000017
-0.02317140 0.19576521 -0.00000062
0.66764299 -0.02760247 -0.00000152
0.00791352 0.53518508 0.00000318
0.54085800 -0.39130579 -0.00000041
-0.07946093 0.49930882 -0.00000081
0.47882392 -0.59631323 -0.00000013
0.43778022 0.31724538 -0.00000146
0.04570606 -0.03957767 -0.00000048
-0.08714832 0.65658094 -0.00000088
0.17479287 0.45528556 -0.00000089
-0.58842154 0.59320094 0.46738310
-0.37638619 0.55306297 0.15853842
-0.59841838 -0.37415474 -0.00000015
-0.75947188 -0.12412845 -0.00000002
0.07003053 -0.68677959 -0.00000007
0.37759030 -0.17890963 -0.00000039
-0.59634728 0.36418752 0.19661060
-0.03799298 -0.22481480 -0.00000036
0.25117003 0.36505213 0.00000199
0.60865155 -0.77384208 -0.00000002
0.19691278 0.10946479 -0.00000057
-0.43296594 0.37458889 0.00925219
0.24923400 0.54142733 -0.00000114
0.57496776 0.06329535 -0.00000140
0.19008376 -0.79229448 -0.00000000
0.35658865 -0.34912335 -0.00000028
0.26774929 -0.70462319 -0.00000006
0.35997382 -0.22901001 -0.00000036
0.25373298 0.40055914 -0.00000103
-0.07324389 -0.46187744 -0.00000021
-0.66278843 0.39349383 0.31387508
0.06915052 0.26708690 -0.00000067
0.55452097 -0.79915019 -0.00000000
0.15705153 0.43841189 0.00000248
0.27982343 -0.38281865 -0.00000026
-0.16206522 0.39939069 -0.00000075
-0.46442906 0.45021939 0.14041207
-0.43996632 0.16177298 -0.00000041
0.27167062 0.30308950 0.00000270
-0.07048654 0.75441351 0.03049368
-0.71402511 -0.22367959 -0.00000005
-0.48462041 -0.42795998 -0.00000023
0.24870882 -0.57488369 -0.00000014
0.05366463 0.68014797 0.00000012
-0.13864507 -0.28132199 -0.00000032
-0.21549785 0.38433734 -0.00000069
-0.65783874 0.26306818 0.14807778
-0.71075806 -0.13843455 -0.00000007
-0.56923561 0.32404168 0.11423883
0.01829424 -0.49144400 -0.00000019
0.12522806 0.55991173 -0.00000093
0.13180732 0.33873665 -0.00000071
-0.57314217 0.33782330 0.13590191
0.31245727 0.38821694 -0.00000120
-0.38818664 0.66631012 0.31168815
-0.60432478 -0.59365876 -0.00000010
-0.55689015 -0.07957142 -0.00000024
-0.34913178 -0.71939578 -0.00000005
0.17960551 0.54521462 0.00000013
-0.17068480 -0.61052354 -0.00000012
-0.17478131 -0.21985595 -0.00000036
-0.58196528 0.32611957 0.13237400
-0.38235281 -0.01570395 -0.00000044
0.18120363 0.14253247 -0.00000059
-0.54780320 -0.17689524 -0.00000024
0.09825921 0.50594033 0.00000230
-0.47270563 -0.08392137 -0.00000033
0.54682097 -0.76287545 -0.00000002
0.41579033 0.29539035 -0.00000135
-0.62540178 -0.70217759 -0.00000006
0.24503756 0.06889081 0.00000718
-0.68625527 0.33965111 0.27667290
0.46898417 -0.75077883 -0.00000003
0.79170641 -0.26059321 -0.00000135
0.41693396 0.29704854 0.00000002
-0.18105454 0.68523943 0.08119017
0.39237126 -0.20682316 -0.00000037
0.63738639 -0.49646728 -0.00000051
0.71497386 -0.10694562 -0.00000152
0.07838094 0.52993708 0.00000221
-0.31966081 0.40730842 -0.00000059
-0.55966960 0.55809807 0.38917811
0.33458757 -0.19143092 -0.00000038
-0.17498350 -0.59139693 -0.00000013
-0.62178916 -0.77395647 -0.00000002
0.25428863 -0.08865833 -0.00000044
0.10764567 0.09829562 -0.00000056
0.13950792 0.13171848 -0.00000058
0.41584558 -0.35367854 -0.00000028
-0.75609975 -0.70678519 0.00000000
-0.28458693 0.64188485 0.15489189
-0.62256306 -0.61165957 -0.00000008
0.74936149 -0.76984455 -0.00000008
0.52439793 0.18108253 0.00000004
-0.29300033 -0.14905774 -0.00000041
0.20738059 -0.42281046 -0.00000024
0.24283395 -0.06893761 -0.00000046
-0.13169241 0.44758159 -0.00000078
-0.65110480 0.07734580 -0.00000017
-0.50263328 0.60001167 0.37065680
0.63949498 -0.57501948 -0.00000036
-0.48194394 0.24257770 -0.00000038
0.13472786 -0.38105181 -0.00000026
0.63360536 -0.44972048 -0.00000059
-0.02588417 0.30998974 -0.00000069
0.21176261 0.55080710 -0.00000119
0.14368347 -0.07817037 -0.00000045
-0.45850044 -0.32651477 -0.00000030
0.43319109 -0.27430144 -0.00000033
-0.25678343 -0.74291662 -0.00000004
-0.27042255 0.69918566 0.20772242
-0.00740151 -0.30799703 -0.00000031
0.05829962 0.58874526 0.00000155
0.02362519 0.49104958 -0.00000081
-0.35832450 0.64170152 0.24497611
0.16693415 -0.02752127 -0.00000048
0.12665866 -0.08950908 -0.00000044
0.75379450 0.00870522 -0.00000187
0.04727190 -0.41732993 -0.00000024
0.31644144 0.25948899 0.00000263
0.46805226 -0.51550141 -0.00000018
0.31564267 0.44036083 -0.00000131
0.07576752 0.00832555 0.00001072
-0.52335323 -0.73907255 -0.00000004
-0.30809345 0.57109368 0.09698120
-0.59840795 0.37289856 0.20980293
-0.18616503 -0.49334739 -0.00000019
0.07086657 0.20930321 0.00000753
-0.60582701 0.26552421 0.08738568
0.56743807 -0.49598226 -0.00000029
-0.61647555 0.50923150 0.39890175
-0.24060486 0.19111007 -0.00000062
-0.09814353 -0.53037451 -0.00000017
-0.12632883 -0.60469498 -0.00000012
-0.27123340 -0.44431137 -0.00000022
0.19162736 0.24473551 0.00000513
-0.28663738 -0.37459612 -0.00000027
-0.70164174 0.18964132 0.11179703
-0.18316813 0.66539352 0.05947300
0.32275069 -0.36363802 -0.00000027
-0.41388473 -0.75466763 -0.00000003
-0.10472780 -0.57041997 -0.00000014
0.12058366 -0.24225383 -0.00000035
-0.68961838 -0.03387909 -0.00000011
0.67273867 -0.72301185 -0.00000018
-0.20239237 -0.09889343 -0.00000044
0.46367469 0.08418757 0.00000295
-0.01577807 0.63069746 -0.00000089
-0.48855807 -0.29579849 -0.00000028
-0.38431113 -0.09106230 -0.00000043
-0.57707502 -0.03010009 -0.00000023
-0.43341093 -0.44343347 -0.00000022
-0.43490250 -0.01258347 -0.00000039
-0.25602907 -0.70656254 -0.00000006
0.07642836 0.04820447 0.00001006
0.06419261 -0.14141557 -0.00000041
0.39761273 0.31708023 -0.00000133
0.67541897 -0.78995230 -0.00000003
0.38469345 -0.28832021 -0.00000032
0.09670019 0.42243971 -0.00000076
-0.45280895 0.54159902 0.23809556
-0.04973466 -0.79260048 -0.00000000
-0.37197347 -0.43280571 -0.00000023
-0.78625986 -0.56851173 0.00000000
0.48777172 -0.67600598 -0.00000008
-0.09103881 -0.57733297 -0.00000014
0.50594855 -0.56402407 -0.00000015
-0.62024802 0.37577723 0.24007658
-0.23903287 0.03917883 -0.00000052
0.16476508 0.47086765 0.00000175
0.12723255 0.17730414 -0.00000061
-0.12367107 0.45678747 -0.00000079
-0.63139544 -0.73475177 -0.00000004
0.57733583 -0.67799859 -0.00000008
0.62016586 -0.06143389 -0.00000130
-0.70546601 -0.09635195 -0.00000008
0.78262777 -0.34392430 -0.00000114
-0.17055974 -0.52666863 -0.00000017
0.62690095 -0.73147470 -0.00000004
0.76622324 -0.05196769 -0.00000179
-0.70971134 -0.53101249 0.00000000
0.73596228 -0.55254649 -0.00000062
0.66272293 -0.47123986 -0.00000064
0.29030037 -0.44373239 -0.00000022
-0.78566952 -0.37393610 0.00000000
0.27943455 -0.10353872 -0.00000044
-0.57230757 0.31495387 0.10687111
-0.11707822 -0.17803206 -0.00000039
-0.33374054 0.30869423 -0.00000055
0.32149548 0.15506275 0.00000441
0.77633133 -0.46306221 -0.00000084
-0.11526442 -0.31793221 -0.00000030
0.18824739 -0.28105474 -0.00000032
0.55415309 -0.44554166 -0.00000034
-0.05169532 0.21558840 -0.00000063
0.34937131 -0.22117197 -0.00000036
-0.44633466 -0.10396689 -0.00000036
-0.79234034 -0.42144772 0.00000000
-0.09885016 0.41589215 -0.00000076
0.38069058 0.09549654 0.00000434
-0.25753175 0.60156673 0.07237799
-0.12460854 -0.19990616 -0.00000038
0.21471852 0.37561712 -0.00000086
0.05276651 -0.55066653 -0.00000016
-0.43160497 -0.14647655 -0.00000037
0.00048110 0.18156008 0.00000904
0.37438601 0.37772405 -0.00000061
-0.44292647 -0.23251148 -0.00000034
0.64190700 -0.48528175 -0.00000055
-0.36773136 0.47594674 0.05349282
0.79227938 -0.14505511 -0.00000164
0.05019321 0.72706875 -0.00000102
-0.30997041 0.04535144 -0.00000053
-0.20002239 -0.11066212 -0.00000043
0.03986997 0.68502975 -0.00000093
0.01113985 0.27936458 -0.00000067
-0.48307663 -0.67743117 -0.00000008
-0.33832960 -0.47456411 -0.00000020
-0.56057220 0.31690468 0.09488770
-0.01890532 0.18310696 -0.00000061
0.05890621 0.08099955 0.00000979
-0.32139645 0.44368242 -0.00000059
0.09581279 0.05726594 0.00000962
-0.07609309 0.58845846 -0.00000087
-0.25779482 0.03309953 -0.00000052
0.25646406 0.28811857 -0.00000082
-0.08738144 -0.03672432 -0.00000048
0.24786072 -0.68615715 -0.00000007
-0.35626456 0.17250181 -0.00000051
-0.40434007 -0.78896392 -0.00000001
0.19474423 -0.42994579 -0.00000023
-0.48265212 0.44509311 0.15645204
-0.56573442 -0.33262233 -0.00000019
-0.72439924 -0.64880092 0.00000000
-0.46183272 0.42617669 0.10778669
-0.78726596 -0.37773694 0.00000000
0.46974733 -0.02101470 -0.00000090
-0.69724198 0.29415211 0.23440503
-0.43629447 -0.39184778 -0.00000026
-0.39665789 0.46594121 0.07666587
0.20883706 0.03232268 0.00000832
-0.39121971 0.42836038 0.02397959
0.70741280 -0.27570971 -0.00000117
0.54910842 0.09186933 0.00000117
-0.10265258 -0.61625067 -0.00000011
-0.57206434 0.24081810 0.01577762
0.37671536 0.37144845 -0.00000054
0.54297772 0.24109893 -0.00000139
-0.24072204 0.66847684 0.13373719
0.18713543 0.47513278 0.00000124
-0.12923248 0.03569636 -0.00000052
0.35541502 -0.68618969 -0.00000007
0.71042156 -0.77910587 -0.00000005
0.07954046 0.26776066 0.00000645
-0.48224803 -0.32542446 -0.00000028
-0.58514072 -0.73164999 -0.00000004
0.52381665 -0.73286694 -0.00000004
-0.67906033 0.23275726 0.13694600
-0.76105993 -0.27059792 0.00000000
0.49114694 0.26793584 -0.00000153
-0.40675767 0.46760116 0.09106830
0.07673832 -0.74455829 -0.00000003
0.19121916 0.12681877 0.00000705
0.48899583 0.06367746 0.00000283
-0.17984389 -0.25948220 -0.00000034
0.14490352 0.33309684 0.00000440
-0.63336303 0.27082851 0.12760601
0.44894401 -0.28743523 -0.00000032
0.26208472 0.39716871 -0.00000105
0.24612402 0.04229275 0.00000760
-0.63954687 0.10172716 -0.00000019
0.24305233 0.12773609 -0.00000058
-0.18564131 -0.69436119 -0.00000007
0.08330102 0.56167380 -0.00000085
0.29058681 -0.63251474 -0.00000010
-0.34773283 0.45441730 0.00263257
0.52073939 0.26586799 -0.00000162
-0.09255065 -0.00638426 -0.00000050
0.35966154 0.21290087 0.00000263
-0.66224876 0.20522617 0.08263855
0.00112259 -0.10448369 -0.00000043
0.77798754 -0.77065853 -0.00000007
-0.66764227 0.02670078 -0.00000015
0.29901526 -0.52005951 -0.00000017
0.28597732 -0.58912213 -0.00000013
-0.44027134 -0.21361645 -0.00000034
0.59187539 -0.01530070 -0.00000130
0.06956467 -0.03168943 -0.00000048
0.36704598 -0.50869006 -0.00000018
0.20230960 0.27396944 0.00000450
0.21136175 0.24282676 -0.00000065
-0.01560025 -0.01231332 -0.00000049
0.01210653 -0.08863655 -0.00000044
0.52553203 -0.39044927 -0.00000036
0.04842815 -0.47644192 -0.00000020
0.28893568 0.50516721 -0.00000126
0.25091362 -0.77325520 -0.00000002
0.70370330 -0.44377272 -0.00000083
-0.59536794 0.29473805 0.11035498
-0.67717529 -0.49342472 -0.00000004
0.36374022 0.23834327 -0.00000107
-0.18730945 -0.52769613 -0.00000017
0.48333513 0.24544268 -0.00000147
-0.17060516 -0.22272455 -0.00000036
0.26062448 0.03750334 -0.00000052
0.24091503 0.04852295 0.00000758
0.14613709 0.52281499 0.00000117
-0.31946379 -0.07790225 -0.00000045
0.03760888 0.39752245 -0.00000075
-0.35465638 -0.14547649 -0.00000041
0.23828029 -0.78314265 -0.00000001
0.04094480 0.35905104 -0.00000072
0.46378339 -0.51725714 -0.00000018
0.37158196 -0.72097679 -0.00000005
-0.29759399 0.19478594 -0.00000057
0.07503645 -0.73485482 -0.00000004
0.17301536 0.17828218 0.00000649
0.56464061 -0.68190035 -0.00000007
0.18305929 0.15580991 0.00000671
0.09543399 -0.40890793 -0.00000024
0.49322161 -0.73814998 -0.00000004
0.72213788 -0.70483292 -0.00000024
-0.68304346 -0.78204491 0.00000000
-0.63060420 0.24902076 0.09751879
-0.07609574 -0.49458965 -0.00000019
0.20438435 0.06310735 0.00000789
-0.11707261 0.19927298 -0.00000062
-0.49182484 -0.43504619 -0.00000023
0.45253614 -0.76812630 -0.00000002
-0.70872798 -0.12690953 -0.00000007
0.38837686 -0.51705085 -0.00000018
0.10949187 0.45294847 -0.00000078
0.23743182 -0.73723493 -0.00000004
0.25193131 0.48926281 -0.00000120
0.56452481 -0.28948550 -0.00000068
0.08365298 0.17983492 -0.00000061
-0.73826425 -0.09153607 -0.00000005
-0.03685300 -0.47471258 -0.00000020
-0.55099727 0.61565936 0.44905394
0.21000146 -0.32672993 -0.00000030
0.25645594 0.36421094 0.00000190
0.45356955 0.11693140 0.00000255
-0.43014304 -0.03523023 -0.00000039
0.16898498 0.01484980 -0.00000051
0.47721339 -0.56525258 -0.00000015
-0.05328867 0.77433882 0.03383405
0.34465425 -0.34262596 -0.00000029
0.64465880 0.13077145 -0.00000136
-0.65015779 0.15141370 0.00192520
-0.48101041 -0.25789304 -0.00000029
0.61519605 -0.22252465 -0.00000097
0.11260323 -0.25584802 -0.00000034
-0.56773911 -0.66069071 -0.00000009
-0.46329449 -0.65452026 -0.00000009
0.33010293 -0.30076928 -0.00000031
-0.35472070 -0.75929203 -0.00000003
0.10473177 0.15035292 -0.00000059
-0.78630643 -0.38178023 0.00000000
0.34530714 -0.19375610 -0.00000038
-0.67540938 -0.15377538 -0.00000010
0.40629685 -0.05926257 -0.00000062
-0.36825292 -0.03588657 -0.00000045
0.39995895 -0.08930144 -0.00000055
0.10333079 -0.53103791 -0.00000017
0.78665333 -0.74619305 -0.00000013
0.09521957 -0.01396469 -0.00000049
-0.54945404 0.13657431 -0.00000029
0.09940579 0.34588960 0.00000488
-0.61284245 -0.32950550 -0.00000014
0.32230142 -0.22832217 -0.00000036
-0.29796111 0.29383681 -0.00000059
-0.74153593 -0.35599314 0.00000000
0.23435717 0.24769804 0.00000442
-0.54046890 0.04650653 -0.00000029
-0.20212745 0.39974709 -0.00000071
-0.73250857 -0.68743889 0.00000000
0.36969939 -0.10153070 -0.00000044
-0.67535622 -0.17350729 -0.00000010
0.05680098 0.24551045 -0.00000065
-0.31465293 0.35346827 -0.00000058
-0.33124309 0.33872013 -0.00000056
0.10499454 -0.04542800 -0.00000047
0.12845353 -0.36065718 -0.00000027
0.53237739 -0.29480859 -0.00000057
-0.65077945 -0.59336699 -0.00000005
0.35273093 -0.24237642 -0.00000035
-0.09524366 0.03612973 -0.00000052
-0.15562492 0.17827423 -0.00000061
-0.56544808 0.53425774 0.36705720
0.52697891 -0.43604236 -0.00000028
-0.34223547 -0.65130484 -0.00000009
-0.34469002 -0.69664091 -0.00000006
-0.12254545 -0.54544593 -0.00000016
0.60299904 -0.38179090 -0.00000062
0.58404369 -0.62049408 -0.00000011
-0.18259915 0.72771008 0.13509703
0.12478057 0.64413861 -0.00000060
-0.00332728 -0.76859296 -0.00000002
0.42603666 -0.52205879 -0.00000017
0.05415411 -0.56638536 -0.00000015
0.54624006 -0.25268033 -0.00000069
-0.23240184 -0.49701641 -0.00000019
-0.02970842 0.18320400 -0.00000061
-0.70493274 0.03508068 -0.00000011
-0.10966709 0.18391846 -0.00000061
-0.02492416 -0.46192130 -0.00000021
0.58824540 0.02942628 0.00000154
0.50301258 -0.78955660 -0.00000001
0.04290858 0.19290288 -0.00000062
0.36129438 -0.29992630 -0.00000031
0.20902053 0.17479654 -0.00000061
-0.47654019 -0.55995214 -0.00000015
-0.34145164 0.37512464 -0.00000056
0.11839511 0.31572781 0.00000508
-0.22492164 -0.73312692 -0.00000004
0.36754304 -0.06071794 -0.00000050
0.19569343 0.55663520 -0.00000115
-0.24750512 0.40698531 -0.00000066
0.19610704 -0.10685684 -0.00000043
-0.05849025 0.69059134 -0.00000092
-0.78739504 -0.70630377 0.00000000
0.24922339 -0.40780640 -0.00000025
0.16203468 0.42430870 0.00000263
0.52528078 -0.36585184 -0.00000041
0.09684031 0.37458961 0.00000445
0.50748164 -0.36978815 -0.00000034
0.27815812 0.15105259 -0.00000062
0.02959233 0.58983412 -0.00000087
0.59955230 -0.01486388 -0.00000133
-0.51174665 0.50662943 0.26745009
0.73485131 -0.73274367 -0.00000017
0.12368034 -0.60636357 -0.00000012
0.23159008 0.49570763 0.00000002
0.03228199 -0.58575914 -0.00000013
-0.47025549 -0.28205103 -0.00000030
-0.58770618 0.09007676 -0.00000024
0.28561586 -0.78582186 -0.00000001
0.53359352 0.16570958 -0.00000147
0.05852365 -0.46682521 -0.00000021
0.30700457 0.06986633 0.00000621
-0.02950355 -0.29329707 -0.00000032
0.11250072 0.63198270 -0.00000014
0.11370554 -0.35237103 -0.00000028
0.00000835 0.39104976 -0.00000074
-0.58515627 -0.06898196 -0.00000022
0.03434615 0.25307529 0.00000737
-0.47714593 0.44758143 0.15275597
-0.49101137 0.52653306 0.26643154
-0.43060721 0.49727074 0.15661438
-0.40171194 0.25706630 -0.00000047
0.04648382 0.50010658 -0.00000081
0.12980204 -0.73539891 -0.00000004
0.38801723 -0.69425742 -0.00000007
0.59219143 -0.60217250 -0.00000016
-0.09745896 -0.06982673 -0.00000046
-0.07591926 -0.57893283 -0.00000014
-0.52085218 -0.36743968 -0.00000023
-0.09242274 0.72598754 0.02254561
0.34152595 -0.64838863 -0.00000009
-0.53245258 0.33180033 0.07869192
-0.73264428 0.11472673 0.05801717
-0.27039093 -0.77066789 -0.00000002
0.58360859 -0.61179295 -0.00000012
0.37550225 0.06220015 0.00000504
0.53927746 -0.38345364 -0.00000042
0.20215104 0.02201604 -0.00000051
0.43399560 -0.75074488 -0.00000003
0.09262550 -0.35004828 -0.00000028
0.07759534 0.02040529 0.00001050
-0.37504870 -0.32544963 -0.00000030
-0.67901966 0.32518489 0.25009419
0.04637571 0.27958537 -0.00000067
-0.21094045 0.24134642 -0.00000065
-0.32402612 0.49187702 0.01947606
-0.38205052 0.06068835 -0.00000046
0.27076466 -0.38406801 -0.00000026
0.08166018 0.18833393 -0.00000062
0.05679601 -0.20023131 -0.00000037
-0.20171498 -0.31303683 -0.00000030
0.17444690 0.40695798 -0.00000079
0.22550876 0.17310951 0.00000578
-0.33625286 0.65031505 0.22849352
0.18512982 0.53854780 0.00000014
-0.45428808 0.44135826 0.11713976
-0.54559947 0.39509901 0.17231643
0.11779006 0.52072583 -0.00000083
0.09595486 -0.49385828 -0.00000019
-0.53032457 0.31988941 0.06149813
-0.04685339 -0.22010265 -0.00000036
-0.58371455 -0.74088023 -0.00000004
-0.26873474 -0.11501116 -0.00000043
-0.20868414 -0.72672391 -0.00000005
0.71184159 0.08136491 -0.00000188
-0.21796830 0.65260385 0.08642986
-0.11173657 0.26213788 -0.00000066
-0.63617049 0.40327510 0.29325466
-0.60836522 -0.46143668 -0.00000012
0.17637529 0.43013193 0.00000225
-0.16084012 -0.52204124 -0.00000017
-0.10978118 0.36344415 -0.00000073
-0.38290349 0.41720740 0.00013522
0.46075236 0.30403900 -0.00000151
0.11235580 -0.67828584 -0.00000008
-0.56158098 0.04950397 -0.00000026
0.24728047 0.19261388 0.00000514
0.13127581 0.23216613 -0.00000065
-0.38620894 0.39449196 -0.00000051
-0.49963390 0.21191611 -0.00000036
0.52428996 -0.36025621 -0.00000041
-0.40614104 -0.04404239 -0.00000041
-0.38788086 0.28634462 -0.00000049
-0.43070460 0.03018002 -0.00000040
0.28352081 0.11745524 0.00000581
-0.63779249 0.43537670 0.33455701
0.63457006 -0.33599673 -0.00000082
0.09967662 -0.24249068 -0.00000035
-0.43306176 0.42632319 0.07272959
-0.51510227 0.41090896 0.15432853
0.64087776 -0.65622110 -0.00000021
0.59913884 -0.11558215 -0.00000113
0.20440031 0.24304745 0.00000497
0.59674587 -0.59717434 -0.00000018
0.76078759 -0.64663750 -0.00000038
-0.51987223 -0.23030342 -0.00000026
0.05226538 -0.71016789 -0.00000006
-0.64178471 -0.59206884 -0.00000006
-0.51248970 0.47480428 0.22938288
0.31643750 -0.53523444 -0.00000017
-0.36360070 -0.17085959 -0.00000039
-0.47855533 0.28005147 -0.00000039
-0.02303801 0.17698545 -0.00000061
0.61914096 -0.32795175 -0.00000078
-0.16660079 0.58049290 -0.00000078
-0.52431321 -0.64467807 -0.00000010
0.37941167 0.40090819 -0.00000112
0.71851741 -0.20067661 -0.00000135
-0.16005392 0.08496954 -0.00000055
-0.55259135 -0.02925699 -0.00000026
0.06665623 0.34264954 -0.00000071
-0.54792739 -0.40608452 -0.00000019
0.43674611 0.09903325 0.00000320
0.53697267 -0.59088773 -0.00000013
-0.35633640 0.33497643 -0.00000053
0.39608983 0.09098159 0.00000412
0.16839268 -0.59611954 -0.00000013
-0.24735680 -0.15513165 -0.00000040
0.75516029 -0.36716397 -0.00000108
-0.61055468 0.19011674 0.00082270
0.01949525 -0.79791011 -0.00000000
0.54630488 -0.17143294 -0.00000085
-0.69123599 -0.11771944 -0.00000009
-0.66306207 -0.16692426 -0.00000012
-0.76259767 -0.56807011 0.00000000
-0.63726335 -0.18115574 -0.00000014
-0.45172655 -0.10465845 -0.00000035
-0.32506180 0.58089705 0.12976914
0.23338779 0.09347494 -0.00000056
0.42104407 0.22387820 0.00000126
-0.29068931 -0.40081865 -0.00000025
0.02831402 0.06862887 -0.00000054
-0.16072775 -0.19089086 -0.00000038
-0.39624653 0.49641941 0.11348935
0.74022104 -0.14417583 -0.00000153
-0.40842157 -0.61457990 -0.00000012
0.69637134 0.01829210 -0.00000170
0.36361507 0.00399529 0.00000631
0.58588727 -0.68151843 -0.00000007
0.57616470 0.05347310 0.00000134
-0.27680381 -0.76901873 -0.00000002
0.79819471 -0.57937884 -0.00000055
-0.08896531 -0.78509585 -0.00000001
-0.67899752 -0.24197052 -0.00000008
0.75054838 -0.18551543 -0.00000148
0.40620835 -0.21395600 -0.00000037
0.28499474 0.46287844 -0.00000125
0.25988632 0.02210467 0.00000772
-0.12937399 0.21473510 -0.00000063
-0.36728237 -0.71620519 -0.00000005
0.59696711 0.16508716 -0.00000106
-0.37570185 -0.21748507 -0.00000036
-0.68521493 -0.69972650 0.00000000
0.07087270 -0.15861751 -0.00000040
0.48209613 0.15913626 -0.00000129
0.55706504 -0.25846965 -0.00000072
-0.12623899 0.70735946 0.04114701
0.74755785 -0.55790117 -0.00000061
0.64036930 -0.24731512 -0.00000101
-0.16071956 0.25075169 -0.00000066
0.16744785 -0.68304632 -0.00000007
-0.49617157 0.23081148 -0.00000037
0.45150454 -0.53444976 -0.00000017
-0.63760565 0.28770068 0.15346574
0.28982749 0.30684948 -0.00000097
0.01576639 0.02302897 0.00001139
0.24575625 -0.21193413 -0.00000037
0.16075094 -0.36993673 -0.00000027
0.26697679 0.24242257 -0.00000077
-0.03052929 -0.53886732 -0.00000016
0.39113637 -0.52976661 -0.00000017
-0.18540630 0.04204274 -0.00000053
0.11587637 0.66322419 -0.00000077
-0.20398465 0.65697093 0.07465219
0.75143997 -0.74093781 -0.00000015
-0.66244025 0.15773024 0.02470383
-0.06140396 0.59532714 -0.00000087
0.10112876 -0.71363866 -0.00000005
-0.24676526 -0.66733092 -0.00000008
0.43911805 -0.47152380 -0.00000021
-0.62258604 0.25812446 0.09884825
-0.49618767 -0.37511559 -0.00000026
0.37105310 -0.54802343 -0.00000016
0.71489805 0.05040758 -0.00000183
0.04219403 0.06036991 -0.00000054
-0.22588271 0.40136506 -0.00000069
-0.68477215 0.20803291 0.11366097
0.30502909 0.15717466 -0.00000072
-0.02878861 -0.14364609 -0.00000041
0.15002315 -0.43027606 -0.00000023
-0.49871428 0.44731884 0.17884967
-0.77469601 -0.21551363 0.00000000
0.41975529 -0.67412271 -0.00000008
0.44273269 -0.05796914 -0.00000074
0.15800558 -0.10324962 -0.00000044
0.50629800 0.08614080 -0.00000123
0.27687180 0.50933076 -0.00000110
-0.02395460 0.67122622 -0.00000092
-0.07543552 0.60753013 -0.00000088
0.14180720 0.22666131 0.00000618
0.74058636 -0.76973830 -0.00000008
0.57885680 0.08729411 0.00000068
0.67189758 -0.37969237 -0.00000085
-0.71893344 -0.76403463 0.00000000
0.26510217 0.17673582 0.00000510
0.55142513 -0.71158043 -0.00000006
0.23574247 0.00882149 0.00000830
0.16519162 0.47875240 -0.00000090
-0.52851204 -0.20127992 -0.00000025
-0.45428822 -0.59287127 -0.00000013
0.10972241 0.01683675 -0.00000051
0.41934422 -0.44520442 -0.00000022
0.15978614 -0.61573303 -0.00000012
0.42667290 0.08182016 0.00000370
-0.20135578 -0.51749652 -0.00000018
-0.11247042 -0.16706478 -0.00000040
0.34416344 0.33484973 -0.00000119
-0.68817942 0.19779828 0.10529938
0.05275383 0.12958929 -0.00000058
0.26966896 0.28647122 -0.00000086
0.63394433 -0.60383358 -0.00000029
0.11533960 0.46841838 -0.00000079
0.77379917 -0.42975383 -0.00000093
0.05130240 -0.14539637 -0.00000041
0.35637588 -0.53829505 -0.00000016
-0.63464832 0.30001144 0.16492107
0.77120445 -0.17812954 -0.00000155
0.11156006 0.11355223 0.00000847
-0.68915567 -0.07421232 -0.00000010
-0.76492746 -0.17202490 -0.00000001
-0.44103525 -0.29231092 -0.00000032
0.04348037 0.59829308 0.00000162
-0.04444718 -0.65837994 -0.00000009
0.24449552 0.08865796 0.00000687
-0.55505868 -0.62272771 -0.00000011
-0.05159580 0.30109248 -0.00000069
-0.65748901 -0.32224896 -0.00000009
0.00169911 0.62721839 0.00000178
0.50709248 0.06760618 0.00000241
0.12794022 0.22011622 -0.00000064
-0.36452322 -0.05224724 -0.00000046
-0.02127736 0.10982385 -0.00000057
-0.32788274 -0.10924520 -0.00000043
0.52880042 0.26563694 -0.00000165
-0.52667742 -0.34243776 -0.00000023
-0.16968558 -0.22665582 -0.00000036
-0.13058140 -0.12057083 -0.00000042
-0.50652364 0.47625327 0.22385068
-0.22889632 0.20011335 -0.00000063
-0.17441321 -0.24920881 -0.00000034
-0.66985514 0.06930477 -0.00000015
-0.76118098 -0.62388994 0.00000000
0.25299905 0.41360348 0.00000108
0.24587176 -0.13448197 -0.00000042
0.18010706 0.16186593 -0.00000060
-0.32920982 -0.06381805 -0.00000046
-0.60168351 -0.76875805 -0.00000002
0.14713867 0.19480666 -0.00000062
0.23596429 0.01111958 0.00000826
-0.71975499 -0.59032840 0.00000000
0.39587688 -0.24796205 -0.00000035
0.56595883 0.05439410 0.00000152
0.24709328 0.35363421 -0.00000092
0.03800208 0.20488377 -0.00000063
-0.59773352 -0.72975986 -0.00000004
-0.48568145 -0.42604257 -0.00000023
0.47093907 0.25502959 -0.00000144
0.37113856 -0.76805732 -0.00000002
0.30904103 -0.12435374 -0.00000042
0.66327647 0.06110537 -0.00000047
-0.57530622 0.48412158 0.31772745
0.52058478 0.26408327 -0.00000138
0.00368955 -0.55955761 -0.00000015
0.23597835 0.12527353 -0.00000058
0.53094380 -0.41322417 -0.00000033
0.70344674 -0.71679580 -0.00000021
0.29458454 0.05987802 0.00000658
-0.56186481 0.52149614 0.34703913
-0.73870034 0.00707441 -0.00000007
-0.51345957 0.62039710 0.40888278
0.03237750 0.57955786 -0.00000086
0.41611108 0.10145545 -0.00000097
-0.12567611 0.70980766 0.04345600
-0.13777935 -0.69802859 -0.00000006
0.21850278 -0.13032615 -0.00000042
-0.59151086 0.32335446 0.14067823
0.39596949 0.34434041 -0.00000042
0.01200786 0.58911222 -0.00000087
0.79949388 0.00029814 -0.00000200
-0.27694967 0.34795567 -0.00000062
-0.34356002 0.66475150 0.25512361
0.16217523 -0.64082273 -0.00000010
0.48714724 0.17918867 -0.00000135
0.56361349 -0.61234856 -0.00000012
0.02126035 0.42758842 0.00000473
-0.48776811 0.48710051 0.21416513
-0.39596372 -0.34451755 -0.00000028
-0.25698048 -0.51727534 -0.00000018
-0.22415248 0.42242556 -0.00000069
-0.29855641 -0.61145758 -0.00000012
0.32386436 -0.08962577 -0.00000044
0.18104591 0.17636496 0.00000640
-0.30424972 0.08126792 -0.00000054
-0.18827483 0.66085358 0.06016715
-0.34088804 0.54686530 0.10747254
0.06670916 0.03197506 0.00001047
0.27360012 0.27658569 -0.00000085
-0.67091275 -0.13918595 -0.00000011
0.05515888 0.52206912 -0.00000083
-0.34440515 0.33237011 -0.00000055
-0.47655444 -0.60695416 -0.00000012
-0.50102696 -0.32034550 -0.00000026
0.09947159 0.65612417 -0.00000033
0.33737821 0.11804874 0.00000477
-0.33744046 -0.34575118 -0.00000028
-0.48997056 0.46056378 0.18436237
-0.68461610 -0.74876182 0.00000000
0.03389895 0.32303806 0.00000624
0.08107993 0.42837953 -0.00000077
0.53910120 -0.31164525 -0.00000056
-0.59269606 0.41444015 0.25368433
0.62772081 -0.09248312 -0.00000127
-0.76489903 -0.41203699 0.00000000
-0.20498573 0.61203797 0.02084792
0.48877837 0.28969571 -0.00000122
-0.51841098 0.21503458 -0.00000034
-0.27858519 -0.28999457 -0.00000032
0.14970306 0.07262221 -0.00000055
-0.46544446 -0.73020969 -0.00000004
-0.22679657 0.61284857 0.04855296
-0.78733678 -0.64499589 0.00000000
-0.37321903 -0.59083087 -0.00000013
0.17419744 0.36254028 0.00000348
0.30016413 0.32700950 -0.00000104
0.03818161 0.72106441 -0.00000097
0.15205124 -0.51378510 -0.00000018
-0.39293884 -0.21422091 -0.00000037
-0.40065571 -0.11752610 -0.00000040
0.77125750 -0.54067475 -0.00000065
0.11820933 0.08090556 -0.00000055
-0.67895757 0.12305879 0.00247016
0.15925378 -0.47105965 -0.00000021
0.67338902 -0.26297171 -0.00000108
-0.56234872 -0.13868307 -0.00000023
0.33493799 0.43499170 -0.00000136
0.17872761 -0.70013945 -0.00000006
-0.65472234 -0.14403450 -0.00000013
0.63733264 0.15088777 -0.00000159
0.59151767 0.07856645 -0.00000149
-0.29591176 -0.38890546 -0.00000026
0.06493114 0.48082348 -0.00000080
-0.54343010 0.27708870 0.02512990
0.07662932 0.71182605 -0.00000107
-0.45529776 0.54285591 0.24268305
-0.61279238 0.55278063 0.44772684
0.01378031 0.73146538 -0.00000096
-0.49823945 0.57835207 0.33874835
0.19970910 0.42462774 0.00000190
-0.27753518 0.16016762 -0.00000059
-0.37482768 0.60834536 0.22433575
0.18319297 0.27154759 0.00000482
-0.75490184 -0.64369485 0.00000000
-0.57809810 -0.43825017 -0.00000016
-0.46482083 0.07789421 -0.00000037
0.11425816 -0.10246770 -0.00000044
-0.18514104 -0.20877141 -0.00000037
-0.17840306 -0.34705760 -0.00000028
-0.01850511 -0.42133493 -0.00000024
-0.63412673 0.43169131 0.32555383
-0.45870220 0.42917340 0.10762279
0.57656320 -0.16606099 -0.00000096
-0.48914678 -0.05506917 -0.00000032
-0.51023103 0.34694413 0.07002356
0.18523323 0.15701347 -0.00000060
0.64898395 -0.62097718 -0.00000031
0.04931484 0.52607445 -0.00000083
0.40999064 -0.01611265 -0.00000072
0.02205089 -0.64487284 -0.00000010
0.40240897 0.13618564 -0.00000099
-0.77217501 -0.00712392 -0.00000003
0.48542894 0.23735191 -0.00000146
0.20937284 0.45324818 0.00000120
0.31789561 -0.38445761 -0.00000026
0.44931295 -0.76188762 -0.00000002
-0.14629947 -0.66008292 -0.00000009
-0.60760570 -0.59397455 -0.00000010
0.35340105 -0.38801928 -0.00000026
-0.58765394 0.55047512 0.41411536
-0.13609932 -0.41118162 -0.00000024
-0.22093783 0.41229384 -0.00000069
0.14524088 -0.52459835 -0.00000017
0.37460045 0.01178416 0.00000596
-0.59014833 0.39119001 0.22208909
-0.33946837 0.60475694 0.17663523
0.36758477 -0.14151866 -0.00000041
-0.56617633 -0.09417524 -0.00000023
0.53491520 0.03071067 0.00000254
-0.15536730 -0.08346365 -0.00000045
0.70665262 -0.04725719 -0.00000161
0.04997943 0.40363179 -0.00000075
0.16247996 -0.37246900 -0.00000027
-0.69554736 -0.10764000 -0.00000009
0.64629305 -0.21819265 -0.00000108
0.71846464 -0.54791425 -0.00000063
-0.32829836 0.57200399 0.12284151
0.07427333 0.00714267 -0.00000050
0.52755952 0.12187323 -0.00000137
0.50731901 -0.72143453 -0.00000005
-0.62433259 -0.50504669 -0.00000009
0.20239976 0.21272310 0.00000549
-0.53022646 0.55004398 0.34325406
-0.09578986 -0.41736454 -0.00000024
0.04594883 0.28275264 -0.00000068
-0.58742088 0.56421260 0.43065464
-0.43721726 -0.57941117 -0.00000014
-0.24296828 0.63131885 0.09097978
-0.32148562 0.30662521 -0.00000057
-0.26382927 -0.17573944 -0.00000039
0.68312067 -0.03650193 -0.00000155
-0.51607282 0.49552181 0.25914463
-0.57876646 -0.55435799 -0.00000013
0.43925962 0.15788123 0.00000209
-0.64010097 0.29582934 0.16647716
-0.61997982 0.05915706 -0.00000020
0.52823718 0.15636761 -0.00000144
-0.57775391 -0.56027636 -0.00000013
0.23976017 -0.10040323 -0.00000044
-0.54983827 -0.45127457 -0.00000018
0.14034068 0.22108249 0.00000629
0.27003146 -0.00932510 -0.00000049
-0.49985815 0.60398538 0.37212474
-0.13401538 0.27834143 -0.00000067
-0.78107210 -0.49294678 0.00000000
-0.66340223 0.05033330 -0.00000015
0.76818151 -0.49210900 -0.00000077
0.02068667 0.40329458 -0.00000075
0.38714723 -0.41697244 -0.00000024
0.76228244 -0.18845386 -0.00000151
-0.54778189 0.24252277 -0.00000031
0.35099239 -0.34808355 -0.00000028
0.01188716 -0.21980401 -0.00000036
0.14620272 0.52479951 -0.00000093
0.43452556 -0.58454561 -0.00000013
0.47096553 -0.27080998 -0.00000042
0.49845525 0.26078234 -0.00000089
-0.28011311 0.58271586 0.07694690
0.22996463 -0.72514971 -0.00000005
0.00638096 0.57635440 0.00000254
0.60851912 -0.57302074 -0.00000027
0.13849115 0.11480128 -0.00000057
0.52227034 -0.49414795 -0.00000019
0.33789726 0.32072568 0.00000112
-0.69048138 -0.78606921 0.00000000
0.79465320 -0.22694914 -0.00000143
-0.54760238 0.26761588 0.01863824
-0.01171114 0.52141636 -0.00000083
-0.32930551 0.64736117 0.21636718
0.34318673 -0.47245617 -0.00000020
-0.38275644 0.53123451 0.13960647
-0.23554630 -0.74886973 -0.00000003
-0.12016652 -0.45579438 -0.00000022
0.78022041 -0.63716970 -0.00000041
-0.41507333 0.57089725 0.22776200
0.05931760 0.73441409 -0.00000106
0.12864085 0.00829969 -0.00000051
-0.34454436 -0.19010099 -0.00000038
-0.15891968 -0.39068127 -0.00000026
0.42692273 -0.68038244 -0.00000007
0.08708991 0.35321120 -0.00000072
0.39615240 0.05028725 -0.00000081
-0.31383161 0.54725072 0.07480789
0.54840077 -0.57768136 -0.00000014
-0.23828276 -0.14217788 -0.00000041
0.40281151 -0.40419036 -0.00000025
-0.23986144 -0.65543789 -0.00000009
0.48105688 -0.01186750 -0.00000096
0.63845140 0.08988522 -0.00000166
-0.74108856 -0.46594807 0.00000000
-0.13284294 0.22767874 -0.00000064
-0.01772612 -0.66659498 -0.00000008
0.02467109 0.63570578 -0.00000090
-0.42225885 0.01163366 -0.00000041
-0.40623228 0.10528438 -0.00000044
-0.68494662 -0.27449230 -0.00000007
-0.63868669 -0.31259949 -0.00000011
0.05927771 0.10253453 -0.00000056
-0.40162009 0.21098278 -0.00000046
0.26343647 -0.66583122 -0.00000008
-0.09138861 0.33915643 -0.00000071
0.51329303 0.01029065 -0.00000110
-0.40666730 -0.76311125 -0.00000002
-0.48260102 0.59913708 0.34505152
-0.17630595 -0.12026947 -0.00000042
0.08371043 0.63334903 0.00000038
0.26626465 0.15695041 -0.00000060
0.54567260 -0.50929561 -0.00000019
0.15489765 0.42018078 0.00000283
-0.66877285 -0.05456290 -0.00000013
-0.23758358 -0.21486134 -0.00000037
0.22295894 0.27878845 -0.00000070
-0.59583105 0.04562297 -0.00000023
-0.57030707 0.54461358 0.38569128
-0.54613773 0.17901716 -0.00000030
0.69024323 -0.03229636 -0.00000159
-0.22558211 0.22631360 -0.00000064
0.71320647 -0.64713849 -0.00000038
-0.10954068 0.00852694 -0.00000051
-0.25202719 0.02062921 -0.00000051
-0.43065680 -0.18932947 -0.00000036
-0.11119256 -0.51368023 -0.00000018
-0.39274326 0.62600020 0.26789995
-0.06005225 -0.51708147 -0.00000018
0.31189652 0.37936058 -0.00000118
0.40798994 -0.56875171 -0.00000014
-0.54957906 -0.27199946 -0.00000022
-0.19838334 -0.51174144 -0.00000018
-0.55491567 0.10573535 -0.00000028
-0.49493867 -0.05700696 -0.00000032
-0.22542796 -0.23487481 -0.00000035
-0.43001284 0.56750572 0.24190518
0.73888715 0.00199884 -0.00000181
0.29835696 0.42783358 -0.00000005
-0.70722837 -0.19010081 -0.00000006
0.21317144 -0.04089271 -0.00000047
0.48769038 -0.48628499 -0.00000020
0.03565348 0.06791217 -0.00000054
-0.41444112 -0.34835619 -0.00000028
0.07200620 0.32825135 -0.00000071
0.39919881 0.26545621 0.00000093
0.00597592 0.49681861 0.00000384
-0.11791035 -0.63133173 -0.00000011
-0.18838619 -0.03523864 -0.00000048
-0.43807805 0.24205239 -0.00000043
-0.30402564 0.28279884 -0.00000058
0.51990279 -0.68233350 -0.00000007
-0.03090629 0.00515844 -0.00000050
-0.72260027 -0.12202746 -0.00000006
0.07694252 0.53458251 -0.00000083
0.51310062 0.13480393 -0.00000134
0.34983558 0.08980998 -0.00000073
-0.14754602 -0.62483052 -0.00000011
-0.16322398 -0.61351343 -0.00000012
0.75083627 -0.27226865 -0.00000131
-0.51632102 -0.06094235 -0.00000029
-0.10983662 0.69053777 0.00045675
0.63674396 -0.38439597 -0.00000073
-0.16563726 -0.70193229 -0.00000006
-0.61896666 0.03020330 -0.00000020
-0.64868475 -0.61684920 -0.00000005
-0.73779599 -0.53738212 0.00000000
-0.64591115 0.37402379 0.26935938
-0.33989266 -0.24394865 -0.00000035
-0.73739985 -0.20390941 -0.00000003
-0.68593511 0.31950389 0.25160608
-0.03136931 0.69725020 -0.00000094
0.52802951 -0.01142799 -0.00000111
0.76291719 -0.61599598 -0.00000046
0.28147633 0.39082774 0.00000094
-0.59403480 0.36632936 0.19640161
-0.14913664 0.74158847 0.11111173
0.00038341 -0.59943797 -0.00000013
-0.53804128 -0.11840553 -0.00000026
-0.36948894 0.60659137 0.21564906
-0.26809477 0.27363117 -0.00000062
0.01045003 -0.10008476 -0.00000044
-0.25024293 -0.10152746 -0.00000044
0.35783249 0.23381458 0.00000229
0.08283455 0.08010392 0.00000945
0.71699960 -0.52322406 -0.00000069
0.47391629 -0.76016390 -0.00000002
-0.10552534 0.73424006 0.04869975
0.19556906 0.28118461 -0.00000068
-0.31632138 -0.61160254 -0.00000012
-0.52965911 -0.22902070 -0.00000025
-0.51923344 0.03716315 -0.00000031
-0.24621107 0.26114623 -0.00000064
-0.35404846 -0.11135975 -0.00000043
-0.01432084 -0.47904138 -0.00000020
-0.37229729 0.63000979 0.24776979
-0.29775579 -0.48339516 -0.00000020
0.48246495 0.02462562 -0.00000103
-0.19639488 -0.53721438 -0.00000016
-0.34521055 -0.64894770 -0.00000009
-0.22156268 0.26319699 -0.00000066
-0.66000331 -0.20126085 -0.00000011
-0.66765789 -0.59047596 -0.00000003
0.10471730 0.32532127 -0.00000070
-0.03436874 0.70258675 -0.00000094
-0.67957712 -0.66348933 -0.00000001
-0.00504916 -0.03488816 -0.00000048
0.19143349 0.05798954 -0.00000054
0.08405454 0.07651486 0.00000949
0.13376006 0.30125370 0.00000509
-0.22086092 -0.58999176 -0.00000013
-0.72933572 -0.58455823 0.00000000
0.35050406 0.24558690 -0.00000104
0.27901964 -0.32482728 -0.00000030
0.22157785 -0.69021372 -0.00000007
0.04211371 0.43671956 0.00000427
-0.08156089 -0.45942632 -0.00000021
0.33795972 0.41425003 -0.00000056
0.19644544 -0.55926893 -0.00000015
0.06906675 0.25978633 -0.00000066
0.09554786 0.45620128 -0.00000079
-0.12850138 -0.09961150 -0.00000044
-0.70563439 -0.71416978 0.00000000
-0.54957680 -0.16214541 -0.00000024
0.19205417 -0.36467405 -0.00000027
-0.27843596 0.48423368 -0.00000065
0.35872875 0.14617122 -0.00000087
-0.18874806 0.63226797 0.02573734
-0.49256148 -0.63254113 -0.00000010
0.02249086 0.33630675 -0.00000071
0.27459028 0.31942298 -0.00000094
-0.12799746 -0.16065143 -0.00000040
0.69417757 -0.15266891 -0.00000136
0.21815045 0.00065578 -0.00000050
-0.49898435 0.14646137 -0.00000035
0.45422652 0.08558838 0.00000310
-0.24386061 0.04992978 -0.00000053
0.17929954 0.30174749 -0.00000069
0.61597163 -0.46977185 -0.00000049
-0.49342411 0.23486313 -0.00000037
-0.03034047 0.41129253 -0.00000076
-0.66181193 0.41255573 0.33602483
-0.70523433 -0.58695558 0.00000000
-0.67204954 -0.42697179 -0.00000006
0.29283638 0.38073636 0.00000090
-0.04246185 0.45159676 -0.00000078
0.22334805 0.33256522 -0.00000080
0.44217625 0.19520122 -0.00000124
0.47924989 -0.44333586 -0.00000022
0.59137961 -0.01634227 -0.00000130
-0.62776023 -0.51477276 -0.00000009
-0.05123078 0.13394044 -0.00000058
-0.06757942 0.44814411 -0.00000078
0.53969499 0.14741204 -0.00000145
-0.46175192 -0.36499570 -0.00000027
0.58432430 -0.48409821 -0.00000037
0.42941490 -0.04286101 -0.00000073
-0.40312937 -0.75554161 -0.00000003
-0.15495755 -0.53331084 -0.00000017
0.21619819 -0.15139557 -0.00000041
-0.74742374 -0.48168775 0.00000000
0.06319717 -0.08215731 -0.00000045
-0.28724777 0.65477079 0.17393251
0.15364250 -0.39250119 -0.00000025
0.29453912 0.13441258 0.00000529
0.03050007 0.40986006 -0.00000076
-0.73338565 -0.56442986 0.00000000
-0.40818364 0.19306637 -0.00000045
0.11165601 0.06274510 -0.00000054
-0.64419820 0.34070829 0.22645931
0.69396787 -0.77102092 -0.00000007
0.48014088 -0.39261274 -0.00000025
-0.28251653 0.11057243 -0.00000057
-0.15403823 -0.73040519 -0.00000004
-0.78669989 -0.38037273 0.00000000
-0.02426257 -0.79524007 -0.00000000
-0.58536364 -0.30756474 -0.00000017
0.18998924 -0.58285757 -0.00000014
-0.35944019 -0.39674283 -0.00000025
-0.38518841 0.57407570 0.19505374
0.51080802 0.22895719 -0.00000152
-0.44396561 0.56876607 0.26053718
0.64404180 -0.47863651 -0.00000057
0.15076868 0.50600960 -0.00000091
0.00533559 0.65356378 -0.00000091
0.76203591 -0.22720702 -0.00000143
-0.13806196 -0.03838098 -0.00000048
0.43366758 0.06833397 0.00000381
-0.61910804 -0.69071885 -0.00000007
0.27327742 0.43574286 0.00000029
0.72782155 -0.14561883 -0.00000148
-0.24924426 0.09122327 -0.00000056
-0.71583905 -0.26925022 -0.00000004
-0.61311163 -0.15663442 -0.00000017
0.02285545 0.65287466 -0.00000091
-0.34558836 -0.79633652 -0.00000000
-0.48227782 -0.63674972 -0.00000010
0.32608596 0.27700782 -0.00000102
-0.05074305 -0.13556224 -0.00000042
-0.63827816 0.40279655 0.29524989
0.16723642 0.10020560 -0.00000056
0.01324281 -0.71325269 -0.00000005
0.78586105 -0.63335952 -0.00000042
-0.77774957 -0.23452715 0.00000000
-0.28609225 0.05540528 -0.00000053
0.24532889 0.06060786 0.00000731
-0.55106172 0.01963281 -0.00000027
0.15547090 0.29282207 0.00000490
-0.52810495 -0.21169096 -0.00000025
-0.24801392 -0.19546525 -0.00000038
-0.23893578 0.54979265 -0.00000070
-0.01582473 -0.47477254 -0.00000020
0.45724657 0.05263032 -0.00000101
-0.12391253 -0.41134678 -0.00000024
-0.02085157 -0.51378206 -0.00000018
-0.26033820 0.12211301 -0.00000058
-0.33705552 0.38820260 -0.00000056
-0.10755913 -0.63437165 -0.00000010
-0.40355662 0.37789667 -0.00000049
-0.24078922 -0.35900363 -0.00000028
0.21225676 0.44694794 -0.00000099
-0.09578761 0.72882801 0.03014544
0.21283225 0.17261252 0.00000598
0.37813738 -0.26265016 -0.00000034
0.32739090 0.20150874 -0.00000088
0.62631410 -0.68235297 -0.00000011
-0.25050279 0.51706699 -0.00000068
0.04113458 0.44121641 0.00000421
0.64095784 -0.41702126 -0.00000068
0.59810948 0.16461169 -0.00000108
0.60342222 0.05639613 0.00000076
0.39857639 0.00460041 0.00000563
0.09753682 -0.63525822 -0.00000010
-0.25218271 0.23181034 -0.00000063
-0.25611221 0.55801335 0.01729873
-0.15609840 -0.76262944 -0.00000002
0.51708144 0.00552428 0.00000333
0.17930586 -0.12390069 -0.00000042
-0.20114852 -0.70523678 -0.00000006
0.05192333 0.56391964 -0.00000085
0.09252828 0.35206170 0.00000488
0.14741034 0.13768945 -0.00000059
0.58138707 -0.77982959 -0.00000001
-0.06478105 -0.03430237 -0.00000048
-0.25399461 0.43905805 -0.00000066
-0.30119386 0.57183849 0.08944328
-0.65920274 -0.42551289 -0.00000007
0.04090425 0.60834636 -0.00000088
-0.72577391 -0.52356695 0.00000000
0.54458645 0.04506928 0.00000210
0.10273616 0.22228383 -0.00000064
0.11917894 -0.06390406 -0.00000046
0.70490604 0.06062272 -0.00000126
0.08531795 0.38804225 -0.00000074
-0.54634044 0.35270480 0.12130286
0.50980557 -0.23777012 -0.00000061
0.21772415 -0.77501920 -0.00000002
-0.53254383 -0.75664414 -0.00000003
0.21082241 0.29521787 -0.00000069
-0.77653048 -0.28752259 0.00000000
-0.74291235 0.08519609 0.03442596
-0.58090899 0.54354985 0.39737301
-0.53672015 0.54501621 0.34504943
-0.72781140 0.02255136 -0.00000008
0.73337540 -0.72220688 -0.00000019
-0.34377560 0.39488989 -0.00000056
-0.31436698 -0.72330459 -0.00000005
0.53934980 -0.45728963 -0.00000027
0.77517690 -0.34583594 -0.00000114
-0.58261569 -0.76131227 -0.00000002
0.03140637 0.56646494 0.00000232
0.43476001 -0.53713174 -0.00000016
0.32793239 0.18320269 0.00000378
-0.64396526 0.07593076 -0.00000018
-0.49356497 0.56751793 0.31975446
-0.38850421 0.27616192 -0.00000049
0.34858831 0.09505405 -0.00000074
-0.67338461 0.10569788 -0.00000015
0.51297582 0.13428627 -0.00000134
-0.54066083 0.22594668 -0.00000032
0.41545701 -0.14436949 -0.00000049
-0.54590080 0.04089524 -0.00000028
-0.54503850 0.61360936 0.43924534
0.32540241 0.20694094 0.00000340
-0.08951633 -0.40304658 -0.00000025
-0.41918711 0.60863495 0.27901882
0.54762328 0.18850913 -0.00000156
0.58120715 -0.74934905 -0.00000003
-0.04285625 -0.16713700 -0.00000040
0.60862352 -0.10727771 -0.00000118
-0.12954770 0.07793392 -0.00000055
-0.69428556 -0.38942440 -0.00000004
0.03537709 -0.52842442 -0.00000017
0.41639157 -0.50537837 -0.00000018
0.18519529 0.54703202 -0.00000001
