ply
format ascii 1.0
element vertex 1374
property float x
property float y
property float z
end_header
0.04551413 0.64182470 -0.00000090
0.55156857 -0.76856967 -0.00000002
-0.29013991 -0.79253144 -0.00000000
-0.62603320 -0.19803042 -0.00000015
0.74325247 0.03137567 -0.00000097
-0.77709425 -0.35223179 0.00000000
0.41302871 0.01803600 -0.00000061
-0.21686435 -0.49401721 -0.00000019
0.13671475 0.62852594 -0.00000096
-0.12532325 -0.66738791 -0.00000008
-0.44893459 0.35661716 -0.00000044
-0.66606035 0.58320525 -0.00000017
0.26437778 -0.50031513 -0.00000019
-0.39578134 -0.47699365 -0.00000020
-0.41069505 0.50182561 -0.00000049
-0.15556965 0.61137275 -0.00000080
-0.22921873 -0.30341389 -0.00000031
0.28127649 0.44627128 -0.00000092
-0.68651321 -0.04384481 -0.00000011
-0.40952328 0.47952875 -0.00000049
0.71705636 0.02849203 -0.00000094
-0.75273586 -0.47069274 0.00000000
0.58684510 -0.78494159 -0.00000001
0.58518892 -0.68454096 -0.00000007
-0.19788408 -0.55830217 -0.00000015
0.47781338 -0.44179519 -0.00000022
0.25924922 0.32483691 -0.00000077
0.31892927 0.26708573 0.18685850
-0.20796016 0.73842384 -0.00000074
0.47325198 -0.27462296 -0.00000036
0.13435671 -0.76247180 -0.00000002
0.54260891 -0.78417596 -0.00000001
-0.07935458 -0.78559284 -0.00000001
-0.79497872 0.70946356 -0.00000001
0.01147674 -0.43650823 -0.00000023
-0.56177636 0.40606627 -0.00000030
-0.44513508 -0.61784618 -0.00000011
-0.22437817 0.00787447 -0.00000050
-0.58237141 0.57353815 -0.00000027
-0.10356818 0.11326195 -0.00000057
-0.60093627 0.75452874 -0.00000025
-0.61165990 -0.47251697 -0.00000011
-0.09381876 0.05193096 -0.00000053
-0.00614264 0.02881123 -0.00000052
-0.17647021 -0.61092832 -0.00000012
0.33431453 0.10330931 -0.00000061
0.68071663 -0.73558068 -0.00000008
-0.27255972 -0.40753183 -0.00000025
0.48348802 -0.55876818 -0.00000015
0.26030839 0.31683703 -0.00000076
-0.73045751 0.48712677 -0.00000009
-0.06786991 0.66770446 -0.00000090
-0.58509156 0.43020434 -0.00000027
0.56646006 -0.22241464 -0.00000051
0.32844824 -0.44701584 -0.00000022
0.42295334 0.24486232 0.11542685
0.34848936 0.25282470 0.17349875
0.72901698 -0.72638431 -0.00000009
-0.18610652 0.32037032 -0.00000070
0.28339985 0.21126654 0.26662713
0.11332139 0.48657303 0.17473766
-0.40216023 -0.49709842 -0.00000019
-0.07320454 0.64320137 -0.00000089
-0.40055285 -0.74965634 -0.00000003
-0.77217828 0.35681733 -0.00000003
0.09990076 -0.21571381 -0.00000037
-0.30756190 0.39237945 -0.00000060
0.20258729 0.44245685 -0.00000083
0.09972248 -0.46576597 -0.00000021
0.25015770 -0.56566973 -0.00000015
0.10819813 0.34809078 0.30013885
0.16707878 0.62537605 0.00658689
0.02108793 -0.32374686 -0.00000030
0.07551235 0.65429504 0.06129306
0.56239608 -0.60912954 -0.00000012
-0.60605720 0.51909493 -0.00000024
0.04342563 0.75123970 0.00465658
0.43275383 -0.56723817 -0.00000015
0.26526069 -0.11119554 -0.00000043
0.17424523 -0.62338469 -0.00000011
0.12564199 0.62953113 -0.00000095
0.15504153 0.21118336 -0.00000063
0.01352232 -0.43336978 -0.00000023
-0.64763491 -0.36262697 -0.00000010
-0.35354130 -0.54345157 -0.00000016
0.34244906 -0.45706021 -0.00000021
-0.66280669 0.01597115 -0.00000015
-0.14350111 -0.43927922 -0.00000023
-0.70604595 0.53036859 -0.00000012
0.65639362 0.06416353 0.06937085
-0.05344659 0.76540422 -0.00000093
-0.50008664 0.20126434 -0.00000036
-0.22641181 -0.79503269 -0.00000000
0.30810694 -0.71497084 -0.00000005
-0.30897484 0.10223113 -0.00000054
0.12184228 -0.47715922 -0.00000020
0.01976340 -0.57566768 -0.00000014
0.22955010 0.15049707 0.36671629
0.55492369 -0.25346805 -0.00000047
0.66443617 -0.06063811 -0.00000079
0.20172373 0.22160304 -0.00000064
-0.73489095 0.12735245 -0.00000008
-0.45624022 -0.52090639 -0.00000017
-0.78466989 0.25314413 -0.00000002
-0.03175609 0.71986184 -0.00000095
0.09856162 0.38406713 -0.00000074
0.33603761 0.44768897 0.01420874
-0.70374585 -0.47687353 -0.00000002
-0.73492562 0.78947348 -0.00000008
-0.50442839 0.15446922 -0.00000034
-0.18978744 -0.00323112 -0.00000050
-0.11989544 0.73106732 -0.00000085
-0.57472052 0.34672314 -0.00000028
0.25693493 0.35120036 0.16754211
0.48855618 -0.20238490 -0.00000045
0.08578276 -0.76396792 -0.00000002
0.42511806 0.24823825 -0.00000086
0.28738828 0.18243826 0.28831815
0.48205031 -0.04181157 -0.00000062
0.65474238 -0.44675785 -0.00000037
-0.74435382 0.43836420 -0.00000007
-0.40883569 -0.70525772 -0.00000006
0.07116978 -0.73862178 -0.00000004
-0.48868460 -0.25573166 -0.00000029
-0.56959207 -0.69604107 -0.00000006
-0.46213419 -0.33263720 -0.00000029
0.48374045 -0.29130123 -0.00000035
-0.03940003 -0.33394040 -0.00000029
0.38644964 0.14922076 0.23082145
0.41610438 -0.31781661 -0.00000030
-0.57354058 0.78074869 -0.00000028
0.49301953 0.11274030 -0.00000079
-0.73768462 -0.79588770 0.00000000
0.16042789 0.01709979 -0.00000051
-0.24039935 -0.59894024 -0.00000013
0.31468560 0.42508553 0.05259242
-0.63275451 -0.13513308 -0.00000015
-0.45633120 -0.47158962 -0.00000021
0.65934999 -0.41561214 -0.00000041
-0.05598912 0.71623994 -0.00000092
0.43335798 -0.45754159 -0.00000021
-0.21195000 0.52214868 -0.00000072
0.57835985 -0.37839247 -0.00000036
0.11237697 0.44221342 -0.00000078
-0.53812564 0.74313427 -0.00000033
0.11019120 0.25487258 -0.00000066
0.04553476 0.61571781 -0.00000088
-0.66268564 -0.57385664 -0.00000004
-0.21455345 -0.13359584 -0.00000042
0.04438516 0.09446885 -0.00000056
-0.05241666 0.40086571 -0.00000075
-0.54725027 -0.63295100 -0.00000010
0.03098133 0.10933020 -0.00000057
-0.58919504 0.68939972 -0.00000026
0.04920224 0.44212794 -0.00000078
0.40777047 -0.42695721 -0.00000023
-0.57728774 0.62015002 -0.00000028
0.32894539 -0.31825426 -0.00000030
0.20549940 0.37765652 -0.00000077
0.70108195 -0.31643928 -0.00000056
0.15913026 -0.33736043 -0.00000029
-0.18903870 -0.34618943 -0.00000028
0.07311792 0.33887941 -0.00000071
0.61368035 0.16434837 0.01918435
-0.07799601 -0.71376662 -0.00000005
-0.43278736 0.45187283 -0.00000046
0.16177797 -0.63312586 -0.00000010
-0.16400847 -0.34574715 -0.00000028
-0.40915126 0.51587358 -0.00000049
0.38202216 0.26030450 -0.00000083
-0.07750897 0.79888341 -0.00000090
0.33810096 0.31012188 0.13253610
-0.17560372 -0.31817818 -0.00000030
-0.09185121 0.53698573 -0.00000084
-0.33226347 0.19065490 -0.00000053
0.55381835 -0.30038078 -0.00000042
0.40732033 0.18082704 0.18499644
0.39582560 -0.11885500 -0.00000044
-0.52823544 0.47172824 -0.00000034
0.09716476 -0.04844606 -0.00000047
0.04448194 0.44474608 -0.00000078
0.07781548 0.44021667 -0.00000078
-0.20248805 0.57923214 -0.00000074
0.57389547 -0.35039643 -0.00000038
-0.57905642 0.06737505 -0.00000025
0.01833567 -0.46860610 -0.00000021
0.21545728 -0.53370630 -0.00000017
0.59829015 -0.63369128 -0.00000011
0.53467659 -0.61984167 -0.00000011
0.60808653 -0.16100323 -0.00000062
-0.24895179 0.67391063 -0.00000069
-0.75291629 0.67586478 -0.00000006
0.64410671 -0.75132383 -0.00000003
-0.35351132 0.53922557 -0.00000056
0.31054245 0.36840383 0.10570715
0.17741088 0.48250454 0.12232557
-0.49063825 -0.44834680 -0.00000022
-0.61942486 -0.36732417 -0.00000013
0.26247593 -0.22290156 -0.00000036
0.79335048 -0.55369049 -0.00000031
-0.07001657 -0.24353459 -0.00000035
0.66867597 0.11362831 -0.00000098
0.22221344 -0.07775858 -0.00000045
-0.77722099 -0.76958918 0.00000000
0.13132947 0.39168671 0.24187043
-0.03965657 0.39383717 -0.00000075
-0.22125104 -0.66137126 -0.00000009
0.77136526 -0.75994859 -0.00000005
0.59256826 -0.33645101 -0.00000042
0.12968942 0.37728908 0.25587508
0.54500554 -0.68537246 -0.00000007
0.53362807 0.04334719 -0.00000076
-0.05154708 0.55545594 -0.00000085
-0.53567383 -0.36272891 -0.00000022
0.25692006 0.15104636 0.34233637
-0.19935814 -0.63629719 -0.00000010
0.40236460 0.31769613 -0.00000091
0.31392293 -0.32434174 -0.00000030
0.17732028 0.33018622 0.25541422
0.64593323 0.04038267 0.09927169
0.63782987 -0.46878206 -0.00000033
0.10370354 0.61214417 0.07348326
-0.59362823 0.40018606 -0.00000026
0.13198762 0.07876746 -0.00000055
0.22303550 0.15579833 -0.00000060
0.35887270 0.30366180 0.12003858
0.00214299 0.76044147 -0.00000098
-0.15032545 -0.27598785 -0.00000033
-0.24524105 0.63855013 -0.00000069
0.48524558 -0.06681936 -0.00000059
-0.10479860 -0.22988434 -0.00000036
-0.10201835 -0.14113221 -0.00000041
-0.49808230 0.45271544 -0.00000038
0.51763620 -0.27178458 -0.00000041
-0.69365760 -0.55761224 -0.00000001
-0.09439929 -0.34645049 -0.00000028
-0.59738344 0.52783455 -0.00000025
-0.53990869 -0.48159713 -0.00000019
0.66258378 -0.20389896 -0.00000064
-0.08333961 -0.37556189 -0.00000027
-0.78050322 -0.66326243 0.00000000
-0.75927375 -0.79205199 0.00000000
-0.66483031 -0.29233277 -0.00000009
-0.09457901 -0.30473926 -0.00000031
-0.49982551 0.62938357 -0.00000038
-0.06551782 -0.58345741 -0.00000014
0.26191053 0.26997974 0.23412187
-0.52272719 -0.45544871 -0.00000021
-0.53055754 -0.54883480 -0.00000016
0.53172440 0.07361083 0.16998731
-0.73666025 0.15645581 -0.00000008
0.62679805 -0.35268650 -0.00000044
-0.03112448 0.25149660 -0.00000066
-0.10862594 -0.37257174 -0.00000027
0.18374285 0.57126783 0.03928464
-0.79517526 0.61726978 -0.00000001
-0.47528313 0.35632120 -0.00000041
0.49482254 -0.27500688 -0.00000038
0.17430447 -0.58080745 -0.00000014
0.59011357 0.07511864 0.11768283
0.37898107 -0.11752602 -0.00000043
-0.28097972 0.39258333 -0.00000063
0.05477528 0.69102058 -0.00000094
-0.19060020 0.59809244 -0.00000076
0.54531145 0.21385689 0.03565400
0.58377760 0.07117228 0.12666177
0.73713461 -0.30165444 -0.00000061
-0.31418181 -0.36591473 -0.00000027
0.03309297 0.16864073 -0.00000061
-0.50501068 0.40481765 -0.00000037
-0.10660075 0.73916782 -0.00000087
0.43683414 -0.58514651 -0.00000013
-0.63365101 -0.12206879 -0.00000016
-0.18998257 0.04749568 -0.00000053
-0.15615139 0.04639734 -0.00000053
-0.46119908 -0.27354546 -0.00000031
-0.54109976 -0.02317811 -0.00000027
-0.67767582 -0.28295514 -0.00000008
0.32956022 -0.31922690 -0.00000030
-0.10176723 -0.27454663 -0.00000033
-0.53943019 0.21053078 -0.00000032
-0.27702981 0.12833380 -0.00000058
-0.35213975 0.64039914 -0.00000056
-0.01368377 0.53883052 -0.00000084
-0.36118459 -0.15205198 -0.00000040
-0.17415831 0.74238841 -0.00000078
0.36917793 -0.46153095 -0.00000021
-0.37609535 -0.19880676 -0.00000038
-0.55610846 0.69020095 -0.00000030
-0.50905838 0.42034684 -0.00000036
-0.14720619 -0.48388205 -0.00000020
-0.30677682 -0.57860861 -0.00000014
0.63223848 0.15872676 -0.00000099
0.37692515 0.13952032 0.24760933
0.58978815 0.13855327 0.06257331
-0.31808022 0.63101613 -0.00000060
-0.17088469 -0.44897551 -0.00000022
0.12098745 0.25908543 -0.00000066
0.22740643 -0.10315382 -0.00000044
0.59927982 0.09629786 0.09118393
0.24865562 0.53024891 -0.00000098
-0.03145740 0.65229750 -0.00000091
-0.24748226 0.67724950 -0.00000069
-0.33581297 -0.49738997 -0.00000019
0.10622439 0.39023747 0.26505845
-0.06456755 -0.05535639 -0.00000047
0.02854813 -0.32812981 -0.00000029
0.69785391 -0.47013907 -0.00000039
0.52152890 -0.79143233 -0.00000001
-0.16721037 -0.35513521 -0.00000028
-0.21642062 0.01637223 -0.00000051
-0.57416032 -0.43033582 -0.00000016
0.69100189 -0.08345938 -0.00000079
-0.35272147 0.42051027 -0.00000055
-0.66788865 -0.41190880 -0.00000007
-0.59516285 -0.63485716 -0.00000010
0.03869035 0.69864822 0.05471641
0.74455690 -0.62322133 -0.00000022
0.07291782 0.21829283 -0.00000064
-0.70757973 -0.00286764 -0.00000010
0.25539154 0.17114154 -0.00000061
0.11417122 0.50235804 0.16021155
0.00723184 -0.40127931 -0.00000025
-0.64667353 -0.03646171 -0.00000016
0.15239575 0.57300237 -0.00000092
-0.26444735 -0.37694464 -0.00000026
-0.47744948 0.77226060 -0.00000040
0.60176130 0.04019781 -0.00000083
-0.00600717 -0.22403490 -0.00000036
0.14963345 0.57297136 0.06758275
0.52541523 -0.50740543 -0.00000018
-0.23117342 -0.10549347 -0.00000043
-0.00987272 -0.72082366 -0.00000005
0.18715865 -0.51347034 -0.00000018
0.28382623 0.25447477 -0.00000072
0.07584231 -0.59756381 -0.00000013
-0.34382358 -0.43661300 -0.00000023
0.29653400 0.05468913 -0.00000053
0.23268192 -0.50745785 -0.00000018
-0.48138816 -0.22732024 -0.00000030
-0.18091671 0.07172076 -0.00000054
-0.07286864 -0.35023748 -0.00000028
0.64309167 -0.12343381 -0.00000070
0.12306270 0.10401234 -0.00000057
-0.22458089 0.22915840 -0.00000064
0.12726863 0.51768755 0.13538825
-0.74518979 -0.44504610 0.00000000
-0.67962542 0.22842283 -0.00000015
0.69497534 -0.29840882 -0.00000057
0.50894602 0.06554682 -0.00000076
0.71318537 -0.03482758 -0.00000087
-0.42386128 -0.19928757 -0.00000036
-0.60996768 -0.67966087 -0.00000008
0.44592010 -0.50338119 -0.00000019
-0.72061401 0.58555067 -0.00000010
-0.60501651 -0.25369484 -0.00000016
-0.60195623 0.33312311 -0.00000025
0.16758671 0.52266535 0.09583449
0.08763534 0.64726212 0.05684829
0.46885654 -0.69417135 -0.00000007
0.60281062 -0.10563269 -0.00000068
0.46466167 -0.31502329 -0.00000031
0.38950833 0.19581698 0.18746077
-0.36522338 -0.53933198 -0.00000016
-0.04243628 -0.67885758 -0.00000008
-0.14611634 -0.17137063 -0.00000039
-0.40482611 -0.45326548 -0.00000022
0.67146704 0.07099480 0.05024278
-0.33805614 -0.25207792 -0.00000034
-0.53342088 0.13152759 -0.00000031
-0.24746161 0.15203472 -0.00000060
-0.20855327 -0.56082471 -0.00000015
-0.12036169 -0.30546298 -0.00000031
0.05179174 0.47814378 -0.00000080
0.39628950 -0.13049708 -0.00000043
0.69037782 0.08256181 -0.00000097
0.13891323 0.42405343 0.20698436
0.46581352 -0.71036199 -0.00000006
-0.03801074 -0.22675050 -0.00000036
0.26499089 0.33403704 0.17549500
-0.24872567 -0.14956786 -0.00000041
0.48921322 -0.66402330 -0.00000008
0.73516288 -0.03254157 -0.00000090
-0.72699399 0.55610688 -0.00000009
-0.54420368 0.35605480 -0.00000032
0.75649358 0.03341776 -0.00000099
0.29911620 0.02882484 -0.00000052
0.67484139 -0.22306801 -0.00000063
0.49659408 0.29758604 -0.00000099
-0.18329195 0.73101700 -0.00000077
-0.45088680 0.57243716 -0.00000044
-0.48724936 -0.73077034 -0.00000004
-0.08302201 0.52520079 -0.00000083
-0.47257047 -0.15954145 -0.00000032
0.71192226 0.08362593 0.00388564
-0.35864102 0.59633319 -0.00000055
-0.60053713 -0.76503854 -0.00000002
0.70776027 -0.29312247 -0.00000059
0.56061088 -0.55998082 -0.00000015
-0.05132255 -0.61289661 -0.00000012
0.17583353 0.43228516 0.16755623
-0.49762543 0.45712814 -0.00000038
-0.44229893 0.58690336 -0.00000045
-0.32009147 -0.04341281 -0.00000047
-0.13559861 0.67397408 -0.00000083
-0.18703874 0.68458361 -0.00000077
-0.49824856 -0.47440053 -0.00000020
0.29187289 -0.36340496 -0.00000027
-0.19512820 -0.28554342 -0.00000032
-0.28310707 0.73399566 -0.00000065
-0.38099134 0.32985765 -0.00000051
-0.72621462 -0.28477017 -0.00000003
0.51030156 0.25796979 -0.00000097
0.13498865 0.50875616 -0.00000083
-0.52073308 -0.32663832 -0.00000024
0.24727946 0.48102572 0.06260496
0.76721519 -0.19555154 -0.00000076
0.46990943 -0.19887436 -0.00000044
0.16664678 0.39957440 0.20414251
0.40497560 -0.44200634 -0.00000022
0.30072945 0.15304607 0.30233451
0.56464248 -0.16745860 -0.00000057
0.20711418 0.17250219 0.36709238
0.68660187 -0.75714541 -0.00000005
-0.29581964 -0.67877736 -0.00000008
0.67111944 -0.59292426 -0.00000023
-0.22868603 0.42854935 -0.00000069
0.69483337 0.04926390 0.04881467
-0.42837402 -0.27735750 -0.00000033
-0.76035848 0.33303629 -0.00000005
-0.74310736 -0.09525647 -0.00000004
0.08512628 0.47021514 0.21364272
0.33603941 -0.67559124 -0.00000008
-0.73456917 -0.31821221 -0.00000001
0.27198654 0.41302825 0.10040788
0.41021956 -0.58162341 -0.00000014
0.24777727 0.10286145 -0.00000056
-0.29515978 -0.33084237 -0.00000029
0.09708412 -0.10919223 -0.00000043
0.02720115 -0.29593771 -0.00000032
-0.19392490 0.66224645 -0.00000076
-0.05994416 -0.17765977 -0.00000039
-0.18578141 0.68617084 -0.00000077
0.27323533 0.31892006 0.18149637
0.40183990 0.13437517 0.23034582
-0.43357344 0.31233995 -0.00000045
-0.40183917 0.64199803 -0.00000050
-0.22066520 -0.57726160 -0.00000014
0.45482863 0.33485062 0.00901063
0.66164477 -0.00037509 -0.00000085
0.66705811 -0.76353350 -0.00000004
-0.05593169 0.09600177 -0.00000056
0.04396678 -0.43799709 -0.00000023
-0.56882612 -0.08198052 -0.00000023
0.30120742 -0.27343784 -0.00000033
0.52493400 -0.20519213 -0.00000049
-0.72543484 0.55436313 -0.00000009
0.45710855 -0.09595012 -0.00000053
0.58532356 -0.09069377 -0.00000067
-0.46441713 0.75688569 -0.00000042
0.40526308 0.30976928 0.07419532
0.00715072 -0.12152592 -0.00000042
-0.78908480 0.69758815 -0.00000001
0.14966164 0.04073788 -0.00000053
0.14695865 0.25894462 0.34413748
-0.73554525 -0.45642156 0.00000000
-0.33653178 0.13789056 -0.00000052
-0.14887539 0.64259834 -0.00000081
-0.75123230 0.75350841 -0.00000006
0.22269505 0.18123222 -0.00000061
0.12861662 0.48164888 -0.00000080
0.41059215 -0.52190242 -0.00000017
-0.10933149 0.02047277 -0.00000051
-0.28516699 -0.61072301 -0.00000012
0.28253553 0.20151410 0.27589805
-0.14248578 0.20964549 -0.00000063
-0.36371430 0.71410135 -0.00000055
-0.66616371 -0.72449608 -0.00000001
-0.15122736 -0.51065683 -0.00000018
0.03079638 0.72752403 -0.00000096
-0.27891863 -0.04925458 -0.00000047
0.14173850 0.52733712 0.11432640
-0.25274588 0.20541272 -0.00000062
-0.24905595 0.68803909 -0.00000069
-0.14433386 0.53198223 -0.00000080
0.72719673 -0.70846848 -0.00000011
0.16384482 0.40196787 0.20449922
0.34496694 -0.33926803 -0.00000029
-0.78771377 0.65951010 -0.00000002
-0.63907988 -0.70855196 -0.00000004
0.39708042 -0.66888918 -0.00000008
-0.46692296 -0.27374550 -0.00000031
0.06233857 0.34555897 -0.00000072
-0.15326024 -0.40335491 -0.00000025
0.21114602 -0.39147739 -0.00000026
-0.12481075 0.48567085 -0.00000080
-0.54514650 -0.59837225 -0.00000013
0.48246305 0.22222503 0.08322837
-0.31140937 -0.03962592 -0.00000048
0.26722319 0.16412664 0.32191723
0.44768370 -0.01274687 -0.00000061
-0.26182902 -0.08312297 -0.00000045
0.60791159 -0.31428928 -0.00000046
-0.74154386 -0.66485162 0.00000000
-0.17653085 0.72143338 -0.00000078
0.48924411 -0.14966564 -0.00000051
-0.53518189 -0.45578125 -0.00000020
-0.03079378 -0.79030051 -0.00000001
-0.51605266 -0.66089453 -0.00000009
0.28303729 0.42421747 0.08098703
0.17086771 0.15981868 0.40981953
0.21655509 0.09050757 -0.00000056
0.02964890 -0.49477025 -0.00000019
-0.36773102 0.09437912 -0.00000048
-0.44480707 0.14185480 -0.00000040
0.42058937 -0.43509191 -0.00000023
-0.13520206 0.70168445 -0.00000083
-0.23979052 -0.06964478 -0.00000046
0.39352941 0.12462071 0.24612084
-0.00089702 -0.25470344 -0.00000034
0.16298631 0.25886865 -0.00000066
-0.47798694 0.25822756 -0.00000039
-0.23998251 0.47181628 -0.00000068
-0.72128649 0.79791069 -0.00000010
-0.23655120 -0.71631128 -0.00000005
0.70851347 -0.57790780 -0.00000028
0.29470058 -0.28366714 -0.00000032
-0.01361262 0.38326175 -0.00000074
-0.32630266 0.23100398 -0.00000055
0.29677259 0.18671098 0.27639241
0.15829423 -0.53499488 -0.00000017
0.54423304 -0.03346915 -0.00000069
0.74164117 -0.78514407 -0.00000002
-0.33310777 -0.44181385 -0.00000022
-0.74319597 0.34820779 -0.00000007
-0.20197380 -0.04234443 -0.00000047
0.56292281 -0.38201339 -0.00000034
0.17983655 0.18550288 0.37955935
0.74480352 -0.33672793 -0.00000058
-0.06306105 -0.70973384 -0.00000006
0.27644732 0.00821823 -0.00000051
-0.45769829 0.40262141 -0.00000043
0.51743536 -0.13980224 -0.00000055
0.07314486 0.67769467 0.04292705
0.03055556 -0.34295713 -0.00000029
-0.58825511 0.35524539 -0.00000026
-0.20724247 -0.31463681 -0.00000030
0.17765901 0.01332883 -0.00000051
-0.29433264 -0.76370864 -0.00000002
-0.42461261 -0.64729571 -0.00000010
-0.17113143 0.19167895 -0.00000062
-0.53386513 -0.68566950 -0.00000007
-0.64442494 0.67095657 -0.00000019
0.49495609 -0.66117403 -0.00000009
0.23453374 0.27790190 0.25111019
-0.34678974 -0.51519604 -0.00000018
0.28656845 -0.53685010 -0.00000016
-0.41966725 -0.06150734 -0.00000039
-0.27351533 0.06855230 -0.00000054
-0.71335883 -0.15440666 -0.00000006
0.20446129 -0.23938484 -0.00000035
-0.19758120 0.48096691 -0.00000073
-0.62790786 -0.21255384 -0.00000014
0.29329983 -0.27173756 -0.00000033
0.32773803 0.04207938 -0.00000054
0.39389388 0.12084098 0.24910317
0.23394026 0.29978961 -0.00000072
-0.04218506 -0.04015503 -0.00000047
-0.45354790 0.14557713 -0.00000040
0.44503216 -0.21432504 -0.00000039
0.46745898 -0.16946902 -0.00000046
-0.14036429 0.78374152 -0.00000082
-0.13759342 -0.65007297 -0.00000009
-0.61051016 -0.56007754 -0.00000010
0.59978001 0.04807694 0.13285561
0.72892959 -0.13705176 -0.00000078
0.07047333 -0.69568978 -0.00000007
0.45214160 0.02733740 -0.00000066
-0.72528117 -0.40789839 -0.00000001
0.43528772 0.22477839 -0.00000085
0.51357895 -0.51522025 -0.00000018
0.65162027 -0.69253307 -0.00000010
0.03662955 -0.34754082 -0.00000028
0.66256798 0.07764338 0.05220799
0.01594587 0.23556949 -0.00000065
-0.21990421 -0.06911638 -0.00000046
-0.29802982 -0.44755317 -0.00000022
-0.75009530 -0.22637548 -0.00000001
-0.18070258 -0.38736333 -0.00000026
-0.35469808 0.06845391 -0.00000049
0.14757778 0.52497778 0.11128764
0.22501619 -0.69596235 -0.00000007
-0.39482154 0.76709466 -0.00000051
-0.23406892 -0.27825116 -0.00000033
0.14892127 -0.22277942 -0.00000036
-0.06935753 -0.13112022 -0.00000042
0.43569295 0.11515787 -0.00000073
-0.69489604 0.60490124 -0.00000013
0.02876262 0.60159118 -0.00000088
0.11143758 0.05546600 -0.00000053
0.36174253 0.01815604 -0.00000055
0.48371782 0.04015447 -0.00000071
-0.71849947 -0.01000546 -0.00000009
-0.10954612 0.24219265 -0.00000065
0.26682364 0.23438540 0.26091379
0.14108559 -0.77646345 -0.00000001
-0.12846474 0.10839041 -0.00000057
-0.10468358 -0.13080926 -0.00000042
0.13693192 0.42498768 0.20789867
-0.18514584 -0.54053661 -0.00000016
0.53772992 -0.13527450 -0.00000058
0.10191106 0.63404342 0.05592527
-0.57306919 0.74471371 -0.00000028
0.26562906 0.34929368 0.16161509
0.31430600 0.37989642 -0.00000089
-0.59487768 0.04737300 -0.00000023
-0.57655160 -0.63305717 -0.00000010
-0.14048753 0.25375122 -0.00000066
0.02503687 -0.38540408 -0.00000026
-0.43789887 0.13400742 -0.00000041
0.23981096 -0.36353547 -0.00000027
0.43938709 0.35846125 -0.00000100
0.31407268 -0.08141824 -0.00000045
0.25829033 0.49238795 -0.00000095
0.08166754 -0.73597239 -0.00000004
-0.58799458 -0.08916863 -0.00000021
-0.51529758 -0.78781379 -0.00000001
-0.25953388 -0.27644039 -0.00000033
-0.16843830 0.00631739 -0.00000050
-0.22997902 0.71747115 -0.00000071
0.31606683 0.18068958 -0.00000068
-0.24098425 0.28781185 -0.00000065
0.53942790 0.19282945 0.05915376
0.00049129 0.25008327 -0.00000066
-0.79128676 -0.41398420 0.00000000
-0.21901912 0.60483494 -0.00000073
-0.35116493 -0.52261698 -0.00000017
-0.49792247 -0.12939185 -0.00000030
-0.21217162 -0.37043074 -0.00000027
0.67859342 0.11914530 -0.00000100
0.53580643 -0.14648532 -0.00000056
0.63542755 -0.76044929 -0.00000002
-0.33310576 -0.33925851 -0.00000029
0.04877269 0.22328380 -0.00000064
-0.42484101 0.33471947 -0.00000046
0.51917939 -0.67713457 -0.00000008
-0.16197876 0.56957142 -0.00000078
0.07542158 -0.00665472 -0.00000050
-0.40702178 -0.18136670 -0.00000039
-0.39335920 -0.53349133 -0.00000017
0.36828114 -0.13356735 -0.00000042
-0.54031433 -0.51730293 -0.00000018
0.05266282 -0.73214743 -0.00000004
-0.45835061 0.03178275 -0.00000037
-0.63510662 0.56142837 -0.00000021
0.03412080 -0.43785344 -0.00000023
-0.07421815 -0.30964761 -0.00000031
0.06319206 -0.27272516 -0.00000033
0.24132615 -0.34907169 -0.00000028
-0.60345726 -0.22667285 -0.00000017
0.68089363 0.10153114 0.01534554
0.02637398 -0.08950273 -0.00000044
0.17835232 0.54742320 0.06481395
-0.24453366 -0.69864806 -0.00000006
-0.27010556 0.30692489 -0.00000062
-0.05120147 0.63417402 -0.00000090
0.02495644 -0.13014042 -0.00000042
-0.39641140 0.61717108 -0.00000050
-0.48073750 -0.29282823 -0.00000029
0.16575853 -0.03053805 -0.00000048
0.08401145 0.48246552 0.20391877
-0.59762169 0.25805793 -0.00000025
0.20125841 -0.27948807 -0.00000033
-0.51991835 0.53330093 -0.00000035
0.64655643 -0.37314080 -0.00000044
0.31027948 0.47954679 -0.00000099
-0.44022320 -0.12313639 -0.00000036
0.12721320 0.60015454 -0.00000092
0.50102742 -0.42057799 -0.00000024
-0.63921555 0.18582496 -0.00000020
0.41868995 -0.20116051 -0.00000038
0.04576560 0.72070645 0.02927609
0.72962311 -0.67973622 -0.00000015
0.51081966 -0.75248719 -0.00000003
-0.63703173 0.24847305 -0.00000020
-0.36682758 0.70673532 -0.00000054
0.68441634 -0.51641641 -0.00000033
-0.77203773 -0.22859050 0.00000000
-0.10875434 -0.63268171 -0.00000010
0.67150730 -0.30261777 -0.00000054
0.30716279 -0.03918184 -0.00000048
-0.43981970 -0.00042865 -0.00000038
-0.12945573 0.76987677 -0.00000084
-0.12105832 -0.42549513 -0.00000023
0.22729157 0.17150844 0.35034066
-0.11007653 -0.57772949 -0.00000014
0.61772123 0.05233435 -0.00000086
-0.24264247 -0.02725315 -0.00000048
0.48872371 0.30638634 -0.00000099
0.38086804 0.33284067 -0.00000091
-0.40525343 -0.38896305 -0.00000026
-0.57881674 0.36473863 -0.00000028
-0.22596058 0.53778296 -0.00000071
-0.35737035 0.77686101 -0.00000055
-0.08690765 0.10707804 -0.00000057
-0.46167644 -0.47515295 -0.00000020
0.26844266 0.06180925 -0.00000054
0.17546792 0.35023777 -0.00000072
0.43522344 0.32100828 0.03821837
-0.62564176 0.16079197 -0.00000022
-0.71661635 0.28526158 -0.00000010
0.17867975 -0.53491143 -0.00000017
0.42228385 -0.33286172 -0.00000029
0.45061550 -0.37675649 -0.00000026
0.08864099 0.50794779 0.17762414
0.17174767 0.44602779 -0.00000081
-0.36041635 0.50919081 -0.00000055
0.20386895 0.30485949 -0.00000069
0.64406329 -0.46966168 -0.00000033
0.01636237 0.00160766 -0.00000050
-0.65487373 0.21913749 -0.00000018
0.18274140 0.38034919 -0.00000075
0.08407992 -0.20595015 -0.00000037
-0.16584070 0.15468933 -0.00000060
0.54778124 0.13836718 0.09941795
0.11532964 0.66355231 0.01843928
0.22261324 0.15935710 -0.00000060
0.20474009 0.46370968 -0.00000086
-0.75607173 0.43944938 -0.00000005
-0.23480430 0.30530981 -0.00000066
0.64552511 -0.29695968 -0.00000052
-0.18118712 0.09217162 -0.00000056
-0.24334871 0.19619940 -0.00000062
-0.69669447 -0.14259086 -0.00000008
-0.05278614 -0.37991209 -0.00000026
0.00111721 -0.51792241 -0.00000018
-0.62689732 0.51945253 -0.00000022
0.56976166 -0.28742252 -0.00000045
0.53984496 0.10671042 0.13399220
-0.34961557 -0.10277875 -0.00000044
0.17859583 -0.58025383 -0.00000014
0.67583991 -0.17728423 -0.00000068
-0.74155573 -0.48276806 0.00000000
0.19965023 0.31076181 0.25287711
0.61555020 -0.04522639 -0.00000075
0.49743316 -0.72943513 -0.00000004
0.68631698 -0.12957297 -0.00000074
0.15020962 0.27100465 0.33076741
-0.10302790 0.54335000 -0.00000084
-0.27042207 0.28723111 -0.00000062
-0.14007217 0.42213950 -0.00000076
-0.32144853 -0.59363639 -0.00000013
-0.24478041 -0.12446130 -0.00000042
0.29929660 -0.33993549 -0.00000029
0.10833892 0.50249088 0.16518848
0.05063380 0.53972239 -0.00000084
0.51844158 -0.30571585 -0.00000037
0.16544988 0.62291954 0.01015443
-0.37083217 -0.09829538 -0.00000044
0.46462802 -0.16850182 -0.00000046
-0.13228275 -0.44552895 -0.00000022
-0.06266961 -0.55937485 -0.00000015
0.10012523 0.62753454 -0.00000092
-0.23089609 0.65440842 -0.00000071
0.08855496 -0.09450579 -0.00000044
-0.28695269 0.40419111 -0.00000062
-0.39598495 0.15649366 -0.00000046
-0.77480965 0.45038626 -0.00000003
0.40247527 0.25384238 -0.00000085
-0.77322705 0.25187378 -0.00000003
0.05511137 0.23690823 -0.00000065
-0.07172550 0.27315548 -0.00000067
0.44310622 0.15487522 0.17640893
-0.44463793 0.11023517 -0.00000040
0.03947427 0.31085712 -0.00000069
0.64631244 -0.36154001 -0.00000045
-0.20508707 0.54504648 -0.00000073
0.28474612 -0.37190248 -0.00000027
0.08521329 0.41703988 -0.00000076
-0.13022354 -0.72157415 -0.00000005
0.16257847 -0.04989835 -0.00000047
-0.21266878 0.70741281 -0.00000073
-0.71989369 -0.75736886 0.00000000
-0.15604668 0.17308491 -0.00000061
0.62431104 0.03667851 -0.00000085
0.30305338 -0.00107590 -0.00000050
0.26187797 -0.48146620 -0.00000020
-0.49431627 -0.53694471 -0.00000016
0.73883257 0.03070599 -0.00000097
0.18945610 0.30184432 -0.00000069
0.11732586 0.65604020 -0.00000097
0.75155332 -0.46995654 -0.00000041
-0.48486495 0.37145621 -0.00000039
-0.52091835 0.22277128 -0.00000034
-0.07328619 0.65065488 -0.00000089
-0.26834684 0.76102750 -0.00000066
-0.30135761 -0.50535332 -0.00000018
-0.03248552 0.58561481 -0.00000087
-0.43946513 -0.33216165 -0.00000029
0.64526010 0.14186750 -0.00000099
0.02739376 -0.63666279 -0.00000010
-0.55346348 -0.48977925 -0.00000017
0.07469439 -0.08684271 -0.00000045
0.23960344 0.24924884 0.27170401
0.57005730 -0.31938080 -0.00000041
0.19667923 0.49572141 0.09395826
-0.19756449 -0.12550972 -0.00000042
-0.57590152 -0.20361953 -0.00000020
-0.72786514 0.18243620 -0.00000009
0.41359627 -0.68762522 -0.00000007
0.23572812 0.19758278 -0.00000062
-0.23853967 -0.24111638 -0.00000035
0.49457804 -0.24968050 -0.00000041
0.67574796 -0.34161098 -0.00000050
-0.09940890 0.50106106 -0.00000081
0.62723936 -0.44737364 -0.00000034
0.17665346 0.53457299 0.07751880
-0.50696687 0.36179633 -0.00000037
0.00165313 0.11630654 -0.00000057
0.59367809 -0.02298589 -0.00000076
-0.74542474 0.67879341 -0.00000007
0.66108233 -0.26054528 -0.00000057
0.75660745 -0.66923940 -0.00000016
0.15440603 0.29159395 -0.00000068
0.02275649 -0.12182963 -0.00000042
0.53437720 0.00464085 -0.00000072
0.68171720 0.11676480 0.00132371
-0.68003192 -0.05056185 -0.00000012
-0.73091448 0.37111911 -0.00000009
-0.68038244 0.22850889 -0.00000015
0.22428784 -0.78421227 -0.00000001
-0.41067025 0.67811732 -0.00000049
-0.64795539 -0.11069865 -0.00000014
-0.07301214 -0.38495081 -0.00000026
0.00324325 0.55998335 -0.00000085
0.12775659 0.36255689 0.27042753
0.10410475 -0.71540748 -0.00000005
-0.02759765 -0.46422855 -0.00000021
0.26107707 0.14243257 -0.00000059
0.13604519 -0.46020662 -0.00000021
-0.04048066 -0.10832342 -0.00000043
0.68194151 -0.28325521 -0.00000057
0.26745015 0.22518334 -0.00000067
0.16860534 -0.34742003 -0.00000028
-0.66480258 -0.75698390 -0.00000001
-0.31459228 -0.68843660 -0.00000007
0.48999617 0.26426599 0.03993827
0.23726231 -0.38704775 -0.00000026
0.14163824 0.30926024 -0.00000069
0.12833406 -0.43767003 -0.00000023
0.00450199 -0.40591164 -0.00000025
-0.16650969 -0.02205072 -0.00000049
-0.28511670 -0.45947667 -0.00000021
0.23667700 0.17307595 0.34077622
-0.54023296 0.25937972 -0.00000032
-0.72926557 0.23029914 -0.00000009
-0.70108718 0.33571006 -0.00000012
-0.71094529 0.07975700 -0.00000011
-0.31335812 -0.56037544 -0.00000015
-0.44079686 -0.30494932 -0.00000031
-0.36530036 0.31763743 -0.00000052
-0.52760936 0.16751760 -0.00000032
-0.47472247 0.01711587 -0.00000035
0.73024503 -0.29802170 -0.00000061
-0.58891371 0.64915192 -0.00000026
-0.66784046 0.10075694 -0.00000016
-0.06749225 0.60340107 -0.00000088
0.22724581 0.23223427 0.29735276
-0.05029241 0.46066252 -0.00000079
-0.62782736 0.78269926 -0.00000022
-0.54195952 0.63338345 -0.00000032
0.13588055 0.37684252 -0.00000074
-0.70189727 0.08081158 -0.00000012
0.27381524 0.16949391 -0.00000062
0.05864488 0.27493272 -0.00000067
-0.03136579 -0.33167149 -0.00000029
0.25581506 0.40641430 0.12030504
-0.63440746 -0.65831395 -0.00000006
-0.48659598 0.58966696 -0.00000039
0.31107934 0.19491467 0.25673560
0.64557257 0.08139530 -0.00000092
-0.25537876 0.41423894 -0.00000066
-0.04448788 -0.55051362 -0.00000016
0.07777167 -0.40754764 -0.00000025
-0.43187572 0.52671096 -0.00000046
-0.78884165 0.09275377 -0.00000001
0.67809719 -0.08857564 -0.00000078
0.09303469 -0.67821070 -0.00000008
0.28518482 -0.40694346 -0.00000025
0.27891178 0.51525264 -0.00000099
0.66848028 -0.58718112 -0.00000023
-0.70388675 0.63812336 -0.00000012
0.39665917 0.34450367 0.05137712
0.24094517 0.00787650 -0.00000050
-0.65893991 0.63116669 -0.00000018
-0.55185747 -0.41893639 -0.00000019
-0.13087417 0.04507647 -0.00000053
-0.50193249 -0.44304520 -0.00000022
-0.13969113 -0.52754356 -0.00000017
-0.75122286 0.06912181 -0.00000006
-0.56032799 -0.35093785 -0.00000019
0.27557064 -0.11660381 -0.00000043
0.28224389 -0.71891983 -0.00000005
-0.43362111 0.29829152 -0.00000045
0.35993974 0.09257599 -0.00000063
0.13972962 0.61658464 0.03814629
-0.57613404 -0.58233387 -0.00000013
-0.33977148 -0.28596628 -0.00000032
0.43872829 0.18244794 0.15615430
-0.72170955 -0.43692325 -0.00000000
0.50878687 -0.54396555 -0.00000016
0.15651077 -0.14812470 -0.00000041
-0.75475163 0.71562171 -0.00000006
0.23068546 0.37089637 -0.00000079
0.48992686 -0.46015538 -0.00000021
-0.41908599 0.13315212 -0.00000043
-0.61690923 -0.12877585 -0.00000017
-0.41460169 0.12140446 -0.00000043
-0.57129033 0.34260897 -0.00000029
0.22490640 0.23674011 -0.00000065
-0.11887199 0.58425224 -0.00000083
-0.30666383 0.79687219 -0.00000062
0.77827527 -0.10679485 -0.00000086
-0.03318264 -0.35710587 -0.00000028
0.73317257 -0.06806182 -0.00000086
0.30165197 0.43642369 0.05407297
-0.68906876 0.20024289 -0.00000014
-0.03244115 -0.27392853 -0.00000033
-0.66059348 -0.45648310 -0.00000007
0.67395156 -0.48050750 -0.00000035
0.65611270 -0.13990614 -0.00000070
-0.51157775 0.54474962 -0.00000036
-0.54138984 -0.17265816 -0.00000024
0.05352427 -0.54209607 -0.00000016
-0.17223881 -0.54988824 -0.00000016
-0.10102341 -0.46414694 -0.00000021
-0.56385082 0.74884604 -0.00000030
-0.75978527 0.78112832 -0.00000005
0.38307059 -0.37267584 -0.00000027
0.39456239 -0.65155048 -0.00000009
-0.36939928 0.69329474 -0.00000054
-0.36770460 0.56853948 -0.00000054
0.29474125 0.13707889 -0.00000061
0.52127758 -0.76788294 -0.00000002
0.11358606 0.05683602 -0.00000054
-0.39874071 -0.20376505 -0.00000037
0.29328431 -0.11048090 -0.00000043
0.09924159 -0.21188657 -0.00000037
0.09740803 0.68809416 0.01265822
0.04011451 0.28531126 -0.00000068
-0.56587622 0.23011929 -0.00000029
-0.42906984 0.27251970 -0.00000045
0.19281854 0.26450061 -0.00000067
0.13726804 0.23024667 0.37765963
0.01475164 0.15919455 -0.00000060
0.21025785 0.16920836 -0.00000061
0.55235976 -0.67507110 -0.00000008
-0.58136652 0.15814018 -0.00000026
0.41680184 -0.23379356 -0.00000035
0.07122658 0.16406359 -0.00000060
-0.73208114 0.36962793 -0.00000008
-0.35292978 -0.02050279 -0.00000047
-0.68213783 0.39413286 -0.00000015
-0.11407040 0.20430936 -0.00000063
-0.38005881 0.03468690 -0.00000045
-0.37574364 -0.55580445 -0.00000015
0.36730005 0.33490579 0.08539596
0.60598807 -0.69678563 -0.00000006
0.01424519 0.75467435 0.02713872
-0.65694715 0.39780984 -0.00000018
-0.74680179 -0.04058679 -0.00000005
-0.60232819 0.06009945 -0.00000022
0.26347747 -0.06903720 -0.00000046
0.28124826 0.29488842 0.19548449
0.78044695 -0.55417192 -0.00000031
-0.44931351 -0.71186256 -0.00000006
0.11708694 -0.05324653 -0.00000047
0.62092061 -0.34014134 -0.00000045
0.31389492 0.14555895 0.29737604
-0.21995045 0.71120728 -0.00000073
0.48926853 -0.17217406 -0.00000048
-0.73897890 -0.50986843 0.00000000
0.46263349 0.25111277 0.07531839
0.63116053 0.13767217 0.02721469
-0.44380165 -0.19096544 -0.00000035
0.22215997 0.50355782 0.06486437
-0.51911149 -0.08015397 -0.00000029
0.47772713 0.26460858 -0.00000094
-0.26892582 0.66970987 -0.00000066
-0.54627989 0.00685473 -0.00000027
0.29886048 0.18299575 -0.00000066
0.68589130 -0.70999852 -0.00000011
0.18679194 0.17198054 -0.00000061
0.67646361 -0.51344748 -0.00000032
0.09355980 0.44488621 0.22839641
0.30801465 0.16333414 -0.00000065
0.07150551 0.10297142 -0.00000056
0.60918826 -0.03719193 -0.00000076
0.28402471 -0.32390635 -0.00000030
-0.70747029 0.59778206 -0.00000012
-0.30974056 0.26644008 -0.00000057
-0.33639713 0.40475779 -0.00000057
-0.33248842 -0.15272881 -0.00000040
0.41254746 0.22522243 -0.00000083
0.58435039 -0.29939393 -0.00000045
-0.24183189 0.51761646 -0.00000069
-0.48805023 0.53286897 -0.00000039
-0.01921653 0.32006046 -0.00000070
0.32788349 0.17458657 -0.00000068
-0.45240521 -0.65702039 -0.00000009
0.20425471 0.43953913 0.13640361
-0.20102492 0.75254257 -0.00000075
0.04379511 0.39051635 -0.00000074
-0.00846270 -0.65393352 -0.00000009
-0.26392192 0.68445935 -0.00000067
-0.22377087 0.46571128 -0.00000070
-0.26260866 0.04566720 -0.00000053
0.33193226 0.14554242 -0.00000066
-0.61443208 -0.16273366 -0.00000017
-0.17764496 -0.76124746 -0.00000002
-0.58731723 0.79795365 -0.00000027
0.04800306 -0.27815201 -0.00000033
0.30044282 0.05388039 -0.00000053
0.06578732 -0.33745913 -0.00000029
0.20884282 0.14876266 -0.00000059
-0.13237151 -0.40248191 -0.00000025
0.59934257 0.10801554 0.08089678
-0.51229008 0.64032105 -0.00000036
0.21439727 0.44315660 0.12438787
0.49897254 0.12645369 0.15244303
0.60672658 0.08839356 0.09158348
0.69344865 -0.33174749 -0.00000053
0.75691001 -0.40265460 -0.00000050
-0.66184765 0.63713857 -0.00000017
-0.11757443 -0.26235068 -0.00000034
-0.25992063 -0.75309915 -0.00000003
0.10174968 0.03341662 -0.00000052
0.02376440 -0.53271634 -0.00000017
0.53703243 -0.61857375 -0.00000011
0.25762602 -0.23120980 -0.00000036
-0.79061257 -0.60687027 0.00000000
-0.66278005 -0.35540766 -0.00000008
0.37546042 -0.13658623 -0.00000041
-0.17225248 0.27350087 -0.00000067
-0.53977026 0.15639760 -0.00000031
-0.55230759 -0.63009494 -0.00000011
-0.13253333 0.37886298 -0.00000074
0.64220321 -0.72122633 -0.00000006
-0.72574373 0.24508672 -0.00000009
-0.37670131 0.65235897 -0.00000053
0.54671722 -0.28299081 -0.00000043
0.53981272 0.20038321 0.05222147
0.25102041 0.14110724 0.35616730
-0.27440168 0.21214248 -0.00000060
0.16840231 0.33647531 -0.00000071
0.13618974 0.56709740 0.08445172
-0.78392775 -0.70672163 0.00000000
-0.38628019 -0.60793846 -0.00000012
0.09951892 -0.71844799 -0.00000005
-0.24025829 -0.53876040 -0.00000016
0.07567791 -0.32724093 -0.00000030
-0.03613507 0.06205812 -0.00000054
0.20509603 0.15346850 0.38547555
-0.53894711 0.12498942 -0.00000030
0.33493433 0.43058256 -0.00000096
-0.00217117 0.74919421 -0.00000097
-0.36918839 -0.42976932 -0.00000023
0.61168546 -0.69561388 -0.00000007
0.73214258 0.02330191 -0.00000095
0.11898136 -0.07562080 -0.00000045
-0.65062197 0.18996302 -0.00000019
0.30165591 0.25601011 0.21161379
0.44950562 -0.55760227 -0.00000015
0.35660776 -0.61574354 -0.00000012
-0.75483682 -0.42851896 0.00000000
-0.17003052 0.31312543 -0.00000070
-0.29163107 -0.63761219 -0.00000010
-0.71197052 0.63623975 -0.00000011
-0.21097642 -0.66819878 -0.00000008
-0.54155774 -0.22869447 -0.00000023
-0.74572305 0.26688469 -0.00000007
-0.63406196 0.31975585 -0.00000021
-0.24478512 -0.06012598 -0.00000046
0.06351563 -0.14503301 -0.00000041
0.11408963 -0.10922829 -0.00000043
-0.76440080 0.11135742 -0.00000004
-0.34545200 -0.40116119 -0.00000025
-0.50881148 0.01931939 -0.00000031
0.16001849 -0.58057563 -0.00000014
0.06362374 -0.31325256 -0.00000030
0.44939627 0.22631826 0.10852925
0.28667207 0.21934586 -0.00000069
-0.67446578 0.04684412 -0.00000014
0.58600190 -0.08821651 -0.00000068
-0.51722715 -0.36888114 -0.00000023
0.18593900 0.04745149 -0.00000053
-0.76160705 0.04420289 -0.00000005
0.14276037 0.47201541 -0.00000080
0.48088295 0.21578284 0.09023375
0.49987275 -0.24603718 -0.00000042
-0.20942856 0.22819670 -0.00000064
0.19930844 -0.53435424 -0.00000017
0.11946085 0.36676869 0.27399373
0.36409312 -0.79812924 -0.00000000
-0.36593164 -0.45609603 -0.00000021
0.34950040 0.33348490 0.10218011
-0.30611101 0.76414410 -0.00000062
-0.61884842 0.21621427 -0.00000023
0.10693809 0.68461396 -0.00000099
0.18944723 -0.51634992 -0.00000018
0.27441359 0.41825488 0.09372438
-0.26374108 0.32039800 -0.00000063
-0.04756485 0.08474207 -0.00000055
0.64427874 -0.18951010 -0.00000063
-0.26310934 -0.11729061 -0.00000043
-0.24312191 -0.28175201 -0.00000032
-0.35964020 -0.40457460 -0.00000025
-0.29020427 -0.34911007 -0.00000028
-0.36743520 -0.03760611 -0.00000045
0.56330390 0.06845677 -0.00000082
0.17759154 0.36263835 0.22683905
0.02470206 0.49619000 -0.00000081
-0.22590958 -0.37132978 -0.00000027
0.35158857 0.29139463 0.13711157
0.06009460 0.54515656 0.17005972
0.32920141 0.42015178 -0.00000095
-0.45418393 -0.63557426 -0.00000010
-0.06980606 0.56115014 -0.00000085
-0.53314941 -0.11306771 -0.00000026
0.67813581 -0.58554323 -0.00000025
0.00372650 -0.33982585 -0.00000029
0.47039394 0.32593197 0.00320651
0.44842651 0.19476704 -0.00000083
-0.10523309 -0.53280480 -0.00000017
0.05430657 0.11454272 -0.00000057
-0.52003725 0.69562465 -0.00000035
0.22059793 -0.61627536 -0.00000011
-0.35688125 -0.01497510 -0.00000047
-0.21761129 -0.17690224 -0.00000039
0.50330784 -0.64714652 -0.00000010
0.10036437 -0.57310551 -0.00000014
-0.37330884 0.47283830 -0.00000053
-0.00868992 -0.09256178 -0.00000044
0.79027779 -0.29725853 -0.00000063
-0.28992777 -0.15677883 -0.00000040
-0.51421138 -0.72296684 -0.00000005
-0.76822217 0.06079004 -0.00000004
-0.34503381 -0.25450606 -0.00000034
0.35941118 -0.11303793 -0.00000043
-0.03279479 0.68049661 -0.00000093
0.35902248 0.39588244 0.03937699
0.35676002 -0.49447173 -0.00000019
0.22326867 0.56546058 -0.00000099
-0.01820482 -0.76061348 -0.00000002
0.01493189 -0.58578301 -0.00000013
0.14408171 -0.12397748 -0.00000042
-0.17672850 -0.72294049 -0.00000005
0.66003911 -0.12442826 -0.00000072
0.59663217 0.11735736 0.07510596
0.16010799 -0.23907961 -0.00000035
0.20120934 0.25416473 0.30093814
-0.23902801 0.13431049 -0.00000058
0.21507244 0.03114411 -0.00000052
0.17238855 0.36401433 0.23018090
0.53480456 -0.61306713 -0.00000012
0.22494564 -0.18174785 -0.00000039
-0.45970566 0.39184634 -0.00000043
-0.26759837 -0.39720570 -0.00000025
-0.48593048 0.46329293 -0.00000039
0.66079522 0.01868675 -0.00000087
-0.60153628 0.61188149 -0.00000025
-0.11137358 0.77909298 -0.00000086
0.37670698 0.39782385 0.02223884
-0.58085689 -0.17568875 -0.00000020
-0.64575067 -0.29226435 -0.00000011
-0.51833964 0.21900394 -0.00000034
0.44255867 -0.73916937 -0.00000004
0.14729947 -0.35699694 -0.00000028
-0.13380090 -0.50977813 -0.00000018
-0.26420390 0.27478356 -0.00000062
0.11148804 -0.25323324 -0.00000034
-0.60146772 -0.12515698 -0.00000019
-0.73049775 0.38006517 -0.00000009
-0.17552863 0.21476967 -0.00000063
0.05067905 -0.75540592 -0.00000003
-0.18069224 -0.34201461 -0.00000029
0.40670750 0.32107782 0.06305892
0.57203887 -0.33154824 -0.00000040
-0.09407666 -0.23733473 -0.00000035
0.18873171 -0.06712834 -0.00000046
-0.18100448 -0.77303544 -0.00000002
0.26628566 -0.10483385 -0.00000043
0.01772928 -0.19151076 -0.00000038
-0.58411568 -0.43720450 -0.00000015
0.29239082 -0.56168033 -0.00000015
0.12046510 -0.12364299 -0.00000042
0.22802198 0.17533378 -0.00000061
0.11185044 -0.72833893 -0.00000004
0.62533487 -0.20933822 -0.00000059
0.41137255 0.25986838 -0.00000086
-0.43900026 -0.16498276 -0.00000035
0.16074468 0.23960485 0.34898726
-0.53773016 -0.25445260 -0.00000023
0.47468223 -0.59573160 -0.00000013
0.11346659 0.10162065 -0.00000056
-0.76366138 0.04986815 -0.00000005
0.16674345 -0.59128838 -0.00000013
-0.19566093 -0.20855237 -0.00000037
0.50876242 0.15605749 0.11804286
0.34444060 -0.19649357 -0.00000038
0.66025969 -0.24725130 -0.00000059
-0.28879506 0.14210586 -0.00000057
-0.61554015 -0.11582699 -0.00000018
-0.61713648 0.61938458 -0.00000023
-0.36523994 -0.28766969 -0.00000032
-0.31612563 0.12562973 -0.00000054
0.17571729 -0.09145857 -0.00000044
-0.07849809 -0.75901245 -0.00000003
-0.57716800 0.77536287 -0.00000028
0.53494592 -0.22363289 -0.00000048
0.22824583 0.37263457 0.17387719
0.33555821 -0.41900994 -0.00000024
-0.63323763 0.35792437 -0.00000021
0.05298104 0.65260810 -0.00000091
0.00526029 0.48780543 -0.00000080
-0.63589647 0.37951259 -0.00000021
-0.77065095 0.14348833 -0.00000004
0.48221550 0.24011479 0.06782248
-0.60486827 0.42729197 -0.00000024
0.39703454 -0.13312417 -0.00000043
0.50168440 -0.69147933 -0.00000007
-0.61520994 -0.79419087 -0.00000000
0.20569630 -0.49653919 -0.00000019
0.39893050 -0.46421647 -0.00000021
-0.68766532 -0.45264947 -0.00000004
0.07251481 0.39247165 -0.00000075
0.12345885 -0.44410522 -0.00000022
-0.71354750 0.62986545 -0.00000011
-0.29823143 0.09417243 -0.00000055
-0.32663908 0.22624744 -0.00000055
-0.21904040 -0.64507468 -0.00000010
-0.63617724 -0.33584029 -0.00000011
-0.24913096 -0.02034363 -0.00000049
-0.59274757 0.64343218 -0.00000026
0.21938968 0.39455401 -0.00000080
0.39027685 -0.55742062 -0.00000015
0.73820297 -0.14813073 -0.00000078
-0.00371280 -0.59375582 -0.00000013
0.40616068 0.36653262 0.02384345
-0.09077260 0.04406168 -0.00000053
-0.63301753 0.51533956 -0.00000021
0.47718878 0.12753599 -0.00000079
0.31250422 -0.45943476 -0.00000021
0.35453688 -0.55486362 -0.00000015
-0.10839964 0.03695872 -0.00000052
-0.33607855 0.21648393 -0.00000053
-0.04112696 -0.25336536 -0.00000034
0.26342683 0.27355107 -0.00000072
0.20986588 0.07133206 -0.00000054
-0.21904082 0.65686591 -0.00000073
0.49439339 0.20282300 0.08975294
-0.66071046 -0.62039365 -0.00000004
-0.26599113 0.07819133 -0.00000055
-0.34383732 0.68408735 -0.00000057
-0.27724823 -0.18783218 -0.00000038
-0.00005753 0.01380687 -0.00000051
-0.20459497 -0.39991812 -0.00000025
0.46591998 0.25477651 -0.00000092
0.71754232 -0.15039641 -0.00000075
0.01759029 -0.61840932 -0.00000011
0.61473764 -0.73052523 -0.00000004
0.34344146 0.38578241 0.06180272
0.39237109 0.24830728 -0.00000083
-0.40610685 -0.71300834 -0.00000005
0.35434554 -0.53288657 -0.00000017
-0.47947111 0.20214459 -0.00000038
0.51915482 0.17410381 0.09320903
0.08264238 -0.02992167 -0.00000048
-0.48411515 0.60765090 -0.00000039
0.21313123 0.13691160 0.39291702
0.07813217 0.10961823 -0.00000057
0.12160871 0.31887819 -0.00000070
0.03136435 -0.48322241 -0.00000020
-0.38189182 -0.77515250 -0.00000002
0.17513546 0.04594454 -0.00000053
-0.12364355 -0.54371286 -0.00000016
0.36083995 -0.78195357 -0.00000001
-0.00231156 -0.40111945 -0.00000025
0.04814570 0.46473854 -0.00000079
0.56646182 -0.69676216 -0.00000006
0.14618362 0.16161873 0.42980254
0.01291135 -0.26365244 -0.00000034
0.28638119 0.28494984 0.19968097
-0.69480435 0.54485227 -0.00000013
0.18727828 0.49994997 -0.00000088
0.33384811 0.28488414 -0.00000081
0.40171068 -0.14502410 -0.00000042
-0.19936518 0.34410059 -0.00000070
0.11747563 0.37299570 -0.00000073
0.55541946 0.21160363 0.02879491
0.36892260 0.38445912 -0.00000095
0.39254621 0.13362368 0.23911768
-0.18297761 -0.22329040 -0.00000036
-0.40169791 -0.02538398 -0.00000042
-0.23723869 -0.23371546 -0.00000035
-0.60302725 -0.30780363 -0.00000015
-0.29727686 -0.75435793 -0.00000003
-0.43415013 -0.21843219 -0.00000035
-0.25342053 -0.03577659 -0.00000048
-0.67571535 -0.74194090 0.00000000
0.07735972 0.13882946 -0.00000059
-0.21662885 0.62960751 -0.00000073
-0.59174298 -0.70874601 -0.00000006
-0.78325998 0.79893320 -0.00000002
0.50100754 -0.07297298 -0.00000060
-0.52709181 0.70827524 -0.00000034
0.02343047 -0.02214867 -0.00000049
-0.19806934 -0.54603224 -0.00000016
-0.34746877 -0.52210233 -0.00000017
-0.14094203 0.66548255 -0.00000082
0.48786238 -0.05357649 -0.00000061
-0.67606028 0.78367097 -0.00000015
-0.69358825 -0.19448674 -0.00000008
-0.51001469 0.61711611 -0.00000036
0.60362962 0.12830795 -0.00000093
-0.48300464 0.12032232 -0.00000036
0.24517679 0.51018518 -0.00000095
0.45291666 0.27962847 0.05890246
0.33717718 0.37006247 0.08100023
0.14311505 -0.47265760 -0.00000020
0.20228716 0.06245664 -0.00000054
-0.31407956 0.62234895 -0.00000061
0.35190730 0.34690211 0.08836186
-0.75516733 -0.09797951 -0.00000003
0.62963052 -0.43611173 -0.00000035
-0.30470210 0.12040415 -0.00000055
0.17885890 0.39059160 0.20132263
-0.10489234 0.35859967 -0.00000072
0.23911829 0.13191695 -0.00000058
0.33902415 -0.30986072 -0.00000031
0.19224509 0.52523034 0.07206194
-0.19615021 -0.41491042 -0.00000024
0.08903790 0.59091880 0.10482444
0.01569074 -0.33855640 -0.00000029
0.18337326 0.11730806 -0.00000057
0.70543178 -0.50210272 -0.00000036
0.03342962 -0.56656843 -0.00000015
-0.23614922 -0.78174292 -0.00000001
0.71776163 -0.30329066 -0.00000059
-0.75219549 0.33866997 -0.00000006
-0.23433466 -0.79134141 -0.00000001
-0.62141476 0.61960263 -0.00000022
-0.08461678 -0.16137042 -0.00000040
0.72457856 -0.18605269 -0.00000072
0.01610780 -0.07673567 -0.00000045
-0.03321636 -0.75188456 -0.00000003
-0.71172318 0.08792364 -0.00000011
-0.27039234 0.21263692 -0.00000060
0.19641356 0.02313842 -0.00000051
-0.46982271 -0.16480896 -0.00000032
-0.44616395 -0.57161783 -0.00000014
0.49832734 0.30137474 -0.00000100
-0.47133006 -0.72942776 -0.00000004
-0.10477999 0.30300253 -0.00000069
0.09897942 0.44743048 -0.00000078
-0.65420257 0.37919772 -0.00000018
-0.18082105 -0.38438583 -0.00000026
-0.73559432 0.61805286 -0.00000008
0.04329604 -0.68144977 -0.00000007
0.13663898 0.65027175 -0.00000099
-0.30942859 0.66960074 -0.00000061
-0.54553958 0.18989289 -0.00000031
0.37748147 0.26341784 -0.00000083
0.12622511 0.64746070 -0.00000097
