ply
format ascii 1.0
element vertex 1406
property float x
property float y
property float z
end_header
0.75220632 -0.14789206 0.00000000
-0.45907081 0.67756212 0.00000000
0.18133382 0.57209152 0.00000000
0.13623772 -0.20857638 0.00000000
-0.29881890 -0.28958510 0.00000000
-0.73220856 0.12784240 0.00000000
0.50356230 -0.37267697 0.00000000
-0.45834178 0.61333007 0.00000000
0.35420475 -0.67562422 0.00000000
0.32051704 0.48525477 0.00531966
0.01293059 -0.54988357 0.00000000
0.33614711 0.15140607 0.00000000
-0.52376452 0.07159900 0.00000000
-0.25409341 0.10557291 0.00000000
0.20966432 -0.79767316 0.00000000
-0.75326438 -0.38480979 0.00000000
-0.12027685 0.37359638 0.00000000
0.65873444 0.35823101 0.19993544
-0.59079431 0.06802938 0.00000000
-0.20496474 -0.78424250 0.00000000
-0.45089003 -0.62828916 0.00000000
-0.15239317 -0.05446771 0.00000000
-0.10187241 -0.00540481 0.00000000
0.17170059 0.75822290 0.11972638
-0.67466062 -0.33908995 0.00000000
-0.31111319 0.78176136 0.00000000
0.55039770 -0.41016906 0.00000000
-0.35820643 0.76918010 0.00000000
0.49486028 0.58225111 0.25536076
0.18681679 0.63585739 0.02089526
0.48803675 0.01505786 0.00000000
-0.70584572 0.00584933 0.00000000
-0.13493616 -0.33550354 0.00000000
0.00207143 0.18629514 0.00000000
0.21769795 0.62028253 0.03500007
0.44585612 -0.74986353 0.00000000
0.47960310 -0.07881638 0.00000000
-0.02878182 -0.39048105 0.00000000
0.45261655 0.21892693 0.00000000
-0.24832682 0.17997685 0.00000000
0.70859669 0.14305130 0.04759474
0.66018162 0.54924641 0.37729156
0.67491328 0.20005014 0.06908000
-0.49584806 -0.46315899 0.00000000
-0.19923408 -0.19828956 0.00000000
0.21567501 -0.77969161 0.00000000
-0.67522285 -0.76705981 0.00000000
-0.69756942 -0.20492396 0.00000000
0.05961127 -0.45024599 0.00000000
-0.64479425 -0.00435911 0.00000000
0.64773615 -0.19282575 0.00000000
0.69504407 -0.56208080 0.00000000
0.65666059 0.56815327 0.39146980
-0.78003294 -0.74012883 0.00000000
-0.09317214 -0.15609163 0.00000000
0.48515531 0.49119168 0.16250537
-0.70288846 -0.37713898 0.00000000
0.64245468 0.35555896 0.18247127
-0.57172209 -0.11361032 0.00000000
-0.41397664 0.45740490 0.00000000
0.73771849 -0.01668890 0.00000000
0.52633451 -0.38919228 0.00000000
0.61549965 0.44145040 0.23678148
-0.39946617 0.69818575 0.00000000
0.67558710 0.12882264 0.00406450
-0.54038772 0.55713135 0.00000000
-0.73076872 0.78491629 0.00000000
0.27172338 0.72886422 0.18484388
-0.35335293 -0.75978618 0.00000000
0.47153505 -0.66154390 0.00000000
0.09923896 0.62470784 0.00000000
0.40020285 0.69730265 0.27415444
-0.50743376 -0.44641860 0.00000000
-0.61324516 0.23574854 0.00000000
0.55746462 0.50300104 0.24002133
-0.39365002 0.37370770 0.00000000
0.72350341 0.13744486 0.05616498
-0.09850878 -0.55754547 0.00000000
0.30582749 0.61012665 0.10685312
-0.24699417 0.22111922 0.00000000
0.77107855 0.04228628 0.01231665
0.30967966 0.54545491 0.05080764
0.58412408 -0.21375902 0.00000000
-0.31473287 0.02765507 0.00000000
-0.30164239 0.10490798 0.00000000
-0.66446605 -0.17152812 0.00000000
-0.31494582 -0.56765069 0.00000000
-0.73207605 -0.42039688 0.00000000
-0.19639472 -0.48177860 0.00000000
0.65768809 0.53046208 0.35768378
-0.44491718 0.27938337 0.00000000
-0.77216730 0.49288305 0.00000000
0.27884789 -0.27457558 0.00000000
-0.30502458 -0.79243573 0.00000000
0.75189325 -0.15097716 0.00000000
-0.20216905 -0.08638529 0.00000000
-0.02377823 0.05712516 0.00000000
0.33379633 0.11898682 0.00000000
-0.07517677 -0.63775210 0.00000000
-0.79876116 -0.30620100 0.00000000
0.48293361 -0.64516687 0.00000000
0.38316876 -0.70173280 0.00000000
0.01335352 -0.74131596 0.00000000
0.25478548 0.45843747 0.00000000
0.35559625 -0.04586589 0.00000000
0.24615447 0.16391176 0.00000000
-0.28448284 -0.42181910 0.00000000
0.51231881 0.46467836 0.16310451
-0.56332142 0.20151029 0.00000000
0.50171763 -0.12940494 0.00000000
-0.33983823 -0.68477738 0.00000000
0.46125409 0.25638285 0.00000000
0.63426500 0.63100924 0.42875457
-0.38839796 0.14556568 0.00000000
0.61892248 0.22300868 0.03864064
0.58446600 -0.10248936 0.00000000
0.27480258 -0.41265241 0.00000000
-0.52181421 -0.64140598 0.00000000
-0.32978871 0.52477365 0.00000000
-0.09885643 -0.40875936 0.00000000
-0.44018185 -0.18681505 0.00000000
-0.19293645 0.02141494 0.00000000
0.31412578 0.56239112 0.07051154
0.63828677 0.34243209 0.16653407
0.08913154 0.20333312 0.00000000
-0.23087959 0.41385955 0.00000000
-0.22279803 -0.01533648 0.00000000
-0.74091802 -0.47805609 0.00000000
-0.14205379 -0.60177594 0.00000000
-0.53090065 0.55627286 0.00000000
0.66434253 0.51602928 0.35051591
-0.56695550 0.37165014 0.00000000
-0.16570251 -0.26918254 0.00000000
-0.20502034 -0.61009801 0.00000000
0.43696845 -0.65846144 0.00000000
-0.46180576 -0.54316794 0.00000000
0.08817013 0.27923468 0.00000000
-0.27351430 -0.00082423 0.00000000
-0.09096627 -0.35631281 0.00000000
0.25359910 0.36046651 0.00000000
0.12387932 -0.08393539 0.00000000
-0.18041034 -0.67726935 0.00000000
-0.33523864 -0.64965532 0.00000000
-0.39069939 -0.73898493 0.00000000
-0.21597518 0.70492145 0.00000000
0.17726087 0.47234450 0.00000000
-0.03809994 -0.65779536 0.00000000
-0.40841148 0.31922691 0.00000000
0.61009140 -0.35870699 0.00000000
-0.11755064 0.07299315 0.00000000
-0.53878890 -0.51409099 0.00000000
0.59847189 -0.28971972 0.00000000
-0.03562362 0.59106780 0.00000000
-0.25963975 0.64198091 0.00000000
-0.20213950 -0.11743116 0.00000000
-0.46285976 0.12365861 0.00000000
-0.78429815 0.17844822 0.00000000
-0.54262705 0.28372137 0.00000000
-0.22698218 -0.26473634 0.00000000
-0.54692780 -0.04033114 0.00000000
-0.07133420 -0.60014720 0.00000000
-0.01882988 0.19380429 0.00000000
-0.33997884 -0.16138131 0.00000000
-0.30430411 0.21133802 0.00000000
-0.78434919 0.11958147 0.00000000
0.18302350 0.18818417 0.00000000
-0.48503383 -0.12926747 0.00000000
0.51001182 -0.04678004 0.00000000
-0.56675292 0.37035101 0.00000000
-0.24600210 0.53058809 0.00000000
0.04056330 -0.60517490 0.00000000
-0.14113820 -0.65945530 0.00000000
0.26000108 0.28964119 0.00000000
0.50939806 0.42481693 0.12368057
0.55899048 -0.28399628 0.00000000
0.09187790 -0.39368271 0.00000000
-0.67689991 0.25167177 0.00000000
0.64564191 -0.39183506 0.00000000
-0.13331173 -0.52066912 0.00000000
-0.63967741 0.14726364 0.00000000
0.62738999 0.59444399 0.38872389
0.39118106 -0.26797384 0.00000000
-0.32251068 0.23535725 0.00000000
0.69133635 0.06009080 0.00000000
0.17867222 0.49657264 0.00000000
0.35896105 -0.42750247 0.00000000
0.54495719 0.33699968 0.07552450
-0.44691064 -0.14550736 0.00000000
0.49816628 -0.61113585 0.00000000
0.20292595 -0.61617116 0.00000000
0.63375126 0.34063158 0.16069540
0.20492334 0.42042669 0.00000000
-0.75347655 0.36769565 0.00000000
-0.61017870 -0.56495537 0.00000000
-0.64565538 0.71936930 0.00000000
-0.15413507 0.20810646 0.00000000
-0.71016243 -0.10662134 0.00000000
-0.35433968 0.53531473 0.00000000
0.37902568 0.45080804 0.02749279
0.08997647 0.31219764 0.00000000
0.34607640 -0.72636994 0.00000000
0.37008278 -0.47830760 0.00000000
0.10399817 0.63590927 0.00000000
-0.03265254 -0.50559035 0.00000000
0.65615303 -0.12343016 0.00000000
-0.22449147 0.75825163 0.00000000
0.33726913 -0.19298451 0.00000000
0.64393549 -0.00804854 0.00000000
-0.01600831 -0.14347617 0.00000000
-0.51430492 0.70166400 0.00000000
-0.36089243 0.46751935 0.00000000
0.69092754 -0.44551131 0.00000000
-0.31213791 -0.45149728 0.00000000
0.50547610 0.67686503 0.35233115
-0.73410742 0.35098670 0.00000000
0.30114568 -0.76868593 0.00000000
0.65336433 0.42627195 0.25768699
-0.53591280 -0.53897227 0.00000000
-0.46518762 -0.33268839 0.00000000
-0.37770537 -0.50652683 0.00000000
-0.50101953 -0.00987191 0.00000000
-0.63683567 0.28703613 0.00000000
0.37499962 0.04388565 0.00000000
0.32588885 -0.12428725 0.00000000
-0.45266791 0.54674687 0.00000000
-0.28971742 -0.36223093 0.00000000
-0.11672196 0.13925538 0.00000000
0.20763669 0.35880068 0.00000000
-0.71465012 0.42922506 0.00000000
-0.00548786 0.55995168 0.00000000
0.34455489 0.51472601 0.05462850
0.32526296 0.66275862 0.17326398
-0.18179061 -0.36851276 0.00000000
0.06054880 -0.03479935 0.00000000
-0.47779608 0.62140632 0.00000000
-0.57116106 0.68709694 0.00000000
-0.48275753 -0.20463927 0.00000000
0.06300702 -0.14193408 0.00000000
-0.74555832 -0.65350290 0.00000000
0.04461341 -0.35815232 0.00000000
0.14409779 0.71169419 0.05141345
0.42364141 0.13028548 0.00000000
-0.50692100 0.14834696 0.00000000
-0.29653521 -0.46860762 0.00000000
0.16101060 -0.54367676 0.00000000
-0.04785728 -0.00524500 0.00000000
0.19463362 0.68027021 0.06902509
-0.47823505 0.27037391 0.00000000
0.57383998 0.29282604 0.06143392
-0.25791584 0.63460484 0.00000000
0.19018601 0.63177124 0.02023460
-0.25845619 -0.33242005 0.00000000
0.10593839 0.14305849 0.00000000
0.39665308 -0.70313061 0.00000000
-0.78378184 0.31487144 0.00000000
-0.77570739 -0.42967451 0.00000000
0.26607645 0.41515589 0.00000000
-0.69660859 0.18489513 0.00000000
0.27319995 -0.42615991 0.00000000
0.11967545 0.41311981 0.00000000
-0.05458164 0.26239359 0.00000000
0.68776817 -0.16861692 0.00000000
-0.28213411 0.47523159 0.00000000
-0.72414407 0.15616228 0.00000000
0.72061765 0.15140112 0.06636650
0.62061539 0.24055045 0.05636548
-0.57788461 -0.05407094 0.00000000
0.19343695 -0.07834026 0.00000000
-0.51523029 -0.62938392 0.00000000
-0.52571443 -0.13462690 0.00000000
0.40882366 -0.60367591 0.00000000
0.28077606 -0.19787931 0.00000000
0.15981843 -0.02693608 0.00000000
-0.17501193 -0.38985615 0.00000000
-0.41895015 0.01704951 0.00000000
0.76731949 -0.08155932 0.00000000
0.45376445 -0.56791035 0.00000000
0.27482955 0.43545788 0.00000000
-0.53847011 0.68140480 0.00000000
-0.30418856 -0.27399937 0.00000000
0.01502870 -0.17508219 0.00000000
-0.10871406 -0.01885566 0.00000000
-0.08528366 0.71422840 0.00000000
-0.35233090 0.37226323 0.00000000
-0.61590746 -0.35865980 0.00000000
0.04068126 -0.43065443 0.00000000
-0.07698602 0.01654373 0.00000000
0.26989090 0.49863824 0.00000000
0.27667333 0.21426708 0.00000000
-0.76040356 -0.62776976 0.00000000
0.36709699 0.64304350 0.19364669
-0.74295100 0.04738084 0.00000000
-0.24815951 -0.77811442 0.00000000
-0.41020342 0.03693247 0.00000000
-0.53471610 0.00246458 0.00000000
-0.55660766 -0.57732401 0.00000000
-0.32829282 0.07558058 0.00000000
-0.60668377 -0.72297712 0.00000000
0.39198955 0.64816340 0.22130344
0.29525140 -0.53033239 0.00000000
-0.13154723 0.62755945 0.00000000
0.52922064 -0.34600786 0.00000000
0.66632721 0.32374446 0.17515272
-0.49595988 -0.40750281 0.00000000
0.26869181 -0.13574616 0.00000000
-0.22634763 -0.06546676 0.00000000
-0.61510106 0.29464457 0.00000000
-0.60986631 0.25023672 0.00000000
0.38324287 0.58464925 0.15471428
-0.20956098 0.62008765 0.00000000
-0.03489135 0.66178150 0.00000000
0.28533581 -0.42770255 0.00000000
-0.02412430 -0.21866873 0.00000000
0.64088546 -0.24219104 0.00000000
-0.58710441 0.45791136 0.00000000
-0.02651450 0.03163895 0.00000000
-0.54540100 0.21539383 0.00000000
0.25141825 -0.30026101 0.00000000
0.15425968 0.02799262 0.00000000
-0.47095846 0.54226617 0.00000000
0.50259626 -0.55386205 0.00000000
0.21000437 0.42767946 0.00000000
-0.24978694 0.05197752 0.00000000
-0.33423369 0.33407120 0.00000000
-0.09282995 -0.02063117 0.00000000
0.49759719 -0.54188889 0.00000000
0.17164206 -0.13240459 0.00000000
0.62871351 -0.72711379 0.00000000
0.75297552 -0.27365123 0.00000000
0.21831468 -0.16765459 0.00000000
0.22405180 0.59476414 0.01733987
0.07447059 -0.77038559 0.00000000
0.61063882 0.07993229 0.00000000
-0.19196076 -0.04900500 0.00000000
0.08466827 -0.47996772 0.00000000
0.65842694 0.22128920 0.07345965
0.28171145 -0.37532419 0.00000000
-0.45186867 0.37641811 0.00000000
-0.66798350 -0.39234760 0.00000000
0.16891653 0.31548356 0.00000000
-0.44514765 0.41589760 0.00000000
-0.66706041 0.79016286 0.00000000
0.10997230 0.18788947 0.00000000
-0.69252468 0.15173655 0.00000000
0.31844278 -0.79831096 0.00000000
-0.63338996 0.24434209 0.00000000
-0.10564835 -0.54090774 0.00000000
-0.62718997 0.03628296 0.00000000
-0.19893022 -0.05756237 0.00000000
-0.66533281 -0.40464794 0.00000000
-0.51954578 -0.37424670 0.00000000
-0.00560173 0.69362715 0.00000000
-0.11806778 0.54145003 0.00000000
-0.00601118 -0.68650443 0.00000000
0.73827101 0.15423653 0.08524698
-0.52122778 0.03556918 0.00000000
-0.27562541 -0.79639253 0.00000000
0.30922843 -0.51751702 0.00000000
0.23905127 0.26855063 0.00000000
-0.38495921 0.51908724 0.00000000
-0.55272719 -0.62032818 0.00000000
-0.03711031 -0.01556146 0.00000000
-0.49764541 0.25505676 0.00000000
0.66394713 0.39421902 0.23790206
0.60520643 -0.40592515 0.00000000
0.68116318 0.38165218 0.24218632
0.33757523 0.08133377 0.00000000
-0.46550233 0.01013728 0.00000000
0.18983368 0.33124002 0.00000000
-0.77281253 0.66030294 0.00000000
0.66169569 0.31188741 0.15995843
-0.24882172 0.47462935 0.00000000
0.78366416 -0.41116336 0.00000000
0.72856397 -0.04291888 0.00000000
-0.65511543 -0.20774964 0.00000000
-0.41348287 0.62463919 0.00000000
-0.30827781 -0.09883748 0.00000000
0.65337035 0.37587386 0.21125037
0.47808460 0.41273335 0.08369002
-0.21190787 0.13203063 0.00000000
0.55340073 -0.12523179 0.00000000
0.57942427 0.48560268 0.24422454
0.62696213 0.50272283 0.30380751
0.11704073 0.68888823 0.00546447
-0.62278071 0.32228188 0.00000000
0.07555043 -0.73840189 0.00000000
-0.15811998 0.16818527 0.00000000
-0.48200687 0.79941207 0.00000000
-0.49973465 0.21389240 0.00000000
-0.40448822 0.13611177 0.00000000
0.42333391 -0.61326885 0.00000000
-0.00199276 0.54010506 0.00000000
-0.73912216 0.14161268 0.00000000
-0.07255975 -0.37237023 0.00000000
0.55155311 0.65487785 0.37453007
0.37851887 0.62229235 0.18504962
-0.66243736 -0.64874735 0.00000000
0.23213239 0.46167550 0.00000000
-0.73537474 0.18598919 0.00000000
-0.50948901 -0.25760718 0.00000000
0.60186051 0.28592608 0.08089661
-0.73172194 -0.56142643 0.00000000
-0.51889115 0.74933707 0.00000000
0.11607484 0.62712485 0.00000000
-0.55355162 -0.06934564 0.00000000
0.24229171 0.55842583 0.00066212
0.61691620 0.37980726 0.18128237
-0.39216854 0.02443299 0.00000000
-0.53276492 0.68722494 0.00000000
0.31731917 0.13035416 0.00000000
-0.36075152 -0.60846368 0.00000000
-0.38280000 -0.00617518 0.00000000
-0.58556062 0.79451643 0.00000000
-0.16849449 0.08834402 0.00000000
0.22594140 -0.76559790 0.00000000
0.35677876 -0.57429583 0.00000000
-0.58565005 -0.17022039 0.00000000
0.48547628 -0.30771216 0.00000000
0.77421502 -0.29344271 0.00000000
-0.73780036 -0.16139503 0.00000000
-0.35556717 -0.35935606 0.00000000
0.26807160 -0.39202402 0.00000000
-0.77873582 -0.02497989 0.00000000
-0.38369356 -0.66673902 0.00000000
0.20921331 0.61128372 0.01888901
0.30627740 0.39037052 0.00000000
-0.15741887 0.03750185 0.00000000
0.25039391 0.37251017 0.00000000
0.70402645 -0.29509452 0.00000000
0.19365939 -0.22443254 0.00000000
0.15594635 -0.05388270 0.00000000
-0.16460953 0.26841569 0.00000000
-0.43468545 0.67969053 0.00000000
0.62655604 -0.12360612 0.00000000
-0.35159729 0.28707066 0.00000000
0.42922407 0.39047951 0.01815784
0.55253646 -0.63794500 0.00000000
0.65179569 0.10467061 0.00000000
0.27829497 0.38638042 0.00000000
-0.53365722 0.33409169 0.00000000
-0.15342310 -0.53255045 0.00000000
-0.51979318 -0.77883640 0.00000000
-0.56894387 -0.76889162 0.00000000
-0.21105673 0.07586011 0.00000000
0.40943179 -0.50837796 0.00000000
-0.11126689 0.39487523 0.00000000
0.59691306 0.26164429 0.05396175
0.22226738 -0.57141133 0.00000000
-0.45957047 -0.45248311 0.00000000
-0.69116177 0.04567815 0.00000000
0.12703312 -0.06586774 0.00000000
-0.63007157 0.46052586 0.00000000
0.62900724 -0.62428448 0.00000000
0.07295377 -0.36149952 0.00000000
-0.77521194 -0.38975112 0.00000000
-0.70011045 -0.45199933 0.00000000
0.25624851 0.52021468 0.00000000
0.20059741 -0.58703705 0.00000000
0.28097894 0.56142013 0.03907182
-0.64003119 -0.51396071 0.00000000
0.54052740 -0.42248083 0.00000000
0.14620632 0.68407788 0.02790792
0.36644308 -0.10649783 0.00000000
-0.46065727 0.27432637 0.00000000
-0.67264872 0.52432951 0.00000000
0.13972020 -0.01316932 0.00000000
0.08597275 -0.53106000 0.00000000
0.16307789 0.19369075 0.00000000
0.47619637 -0.36342387 0.00000000
0.24043686 0.33869971 0.00000000
0.56325693 -0.44214143 0.00000000
-0.69485829 0.43615938 0.00000000
-0.36345864 -0.67844006 0.00000000
0.38956719 0.54345205 0.12257867
0.37025922 0.29709235 0.00000000
-0.18487955 -0.76885570 0.00000000
-0.23264072 -0.77446027 0.00000000
0.26157167 -0.61445448 0.00000000
0.43241084 -0.78831891 0.00000000
0.18696305 -0.43087219 0.00000000
-0.50756115 0.43798929 0.00000000
0.00088121 0.53420221 0.00000000
-0.74060514 0.30251239 0.00000000
-0.76488637 0.11226945 0.00000000
-0.49615386 -0.37135927 0.00000000
-0.63914841 -0.45864437 0.00000000
0.36308115 -0.60515442 0.00000000
0.19368571 0.66017019 0.04962933
0.18702933 -0.46410903 0.00000000
-0.64056473 -0.38881552 0.00000000
0.50328623 0.17128116 0.00000000
0.48783015 0.61746483 0.28133229
-0.79557051 -0.44890228 0.00000000
-0.70671456 -0.17952775 0.00000000
0.29701030 0.18315797 0.00000000
0.25503390 -0.64492132 0.00000000
-0.05448396 -0.65995502 0.00000000
-0.54645911 -0.04596538 0.00000000
-0.68601938 0.21939072 0.00000000
-0.30455767 -0.09278369 0.00000000
-0.52190522 0.34000704 0.00000000
-0.38248752 -0.76821593 0.00000000
-0.56515587 -0.56436410 0.00000000
-0.36129706 -0.78626893 0.00000000
0.58371505 -0.66397233 0.00000000
-0.61676824 0.02775852 0.00000000
-0.55097428 -0.02585454 0.00000000
-0.27294874 0.25495995 0.00000000
-0.49709353 -0.79193282 0.00000000
0.46273821 -0.37174676 0.00000000
-0.16302155 -0.49242368 0.00000000
0.39465099 -0.17692777 0.00000000
-0.08005231 -0.13116145 0.00000000
0.38112396 -0.74137956 0.00000000
0.27184953 0.72491370 0.18131967
-0.15319451 0.23113807 0.00000000
-0.42463303 0.48219130 0.00000000
-0.06063321 -0.29512882 0.00000000
-0.19079349 -0.29681212 0.00000000
-0.19114115 -0.70022483 0.00000000
-0.38212178 0.16244116 0.00000000
-0.22073869 0.43400105 0.00000000
0.01699912 -0.78616477 0.00000000
-0.36611945 -0.48728208 0.00000000
-0.17141791 0.53234585 0.00000000
0.42650105 -0.34796793 0.00000000
0.25738168 -0.62369741 0.00000000
0.39201967 -0.53158351 0.00000000
0.43820070 -0.41196064 0.00000000
-0.37099291 -0.43266332 0.00000000
-0.70725473 -0.04072714 0.00000000
0.43273544 -0.79313966 0.00000000
-0.63365438 -0.13438658 0.00000000
-0.03751793 -0.45839543 0.00000000
-0.18897187 -0.52289431 0.00000000
-0.69946401 -0.39342716 0.00000000
-0.21074041 -0.25003170 0.00000000
0.62452497 -0.30344934 0.00000000
-0.59804519 -0.62647035 0.00000000
-0.21264508 0.66158201 0.00000000
0.02876180 -0.75728880 0.00000000
-0.26027471 -0.22238567 0.00000000
0.23506617 -0.73706944 0.00000000
0.42294261 0.43165987 0.05031732
0.04220115 -0.26385662 0.00000000
0.68567913 -0.25549131 0.00000000
0.50534703 0.63796738 0.31636757
-0.22542597 -0.70690634 0.00000000
-0.06332072 0.36054211 0.00000000
0.70202344 -0.31807275 0.00000000
0.13636393 0.10451648 0.00000000
-0.64231777 0.05132214 0.00000000
-0.50374375 0.25430940 0.00000000
-0.67230186 0.28899758 0.00000000
0.56151545 0.61624556 0.34811034
-0.03211625 -0.78414207 0.00000000
0.08284307 0.66787751 0.00000000
-0.74872810 0.40023337 0.00000000
0.60777455 -0.32425956 0.00000000
0.15874752 0.17112493 0.00000000
0.19953139 0.61744404 0.01564384
-0.01825132 -0.03331226 0.00000000
0.34011829 0.42559794 0.00000000
-0.05688276 -0.63357584 0.00000000
-0.40757437 -0.26853662 0.00000000
-0.35329610 0.61734493 0.00000000
-0.74877817 0.75214968 0.00000000
0.79453510 -0.28147739 0.00000000
-0.12656553 0.35778781 0.00000000
-0.75123879 0.70413411 0.00000000
-0.52806403 -0.35780271 0.00000000
-0.70297730 0.39170951 0.00000000
0.07729046 0.55614442 0.00000000
0.11713764 0.77054779 0.08080370
-0.13870958 -0.74036959 0.00000000
0.55262088 0.53190780 0.26219570
0.71275004 -0.20507872 0.00000000
0.52700659 -0.71377124 0.00000000
-0.54395949 0.54710225 0.00000000
-0.64697175 -0.40998508 0.00000000
-0.72980571 0.78493287 0.00000000
-0.13064939 -0.23688193 0.00000000
-0.41522357 -0.49439963 0.00000000
-0.12372849 -0.21971494 0.00000000
0.45347674 0.43141135 0.07822562
-0.68071730 0.04054328 0.00000000
-0.41118748 0.19766857 0.00000000
0.18331083 0.51917032 0.00000000
0.64571184 -0.32511777 0.00000000
0.48660482 0.25032712 0.00000000
0.49443578 0.04230562 0.00000000
0.69780176 0.29626391 0.17883321
0.23751026 -0.30134495 0.00000000
-0.65952917 -0.77537822 0.00000000
0.46769475 -0.77026698 0.00000000
0.54999853 0.09220148 0.00000000
0.34247845 0.50887412 0.04732252
-0.36180291 -0.20278469 0.00000000
0.15940593 0.67544281 0.03211417
0.54872637 0.20619326 0.00000000
0.56122480 -0.21282890 0.00000000
-0.46816703 -0.61274086 0.00000000
0.42152248 -0.49584548 0.00000000
-0.60337434 -0.20786318 0.00000000
-0.60924615 -0.56254964 0.00000000
-0.56582637 -0.01341398 0.00000000
-0.73095281 -0.00546338 0.00000000
-0.26621498 0.34648887 0.00000000
-0.57066921 0.14690627 0.00000000
0.60443093 0.20655858 0.01012779
-0.67681044 0.54846220 0.00000000
-0.19213377 0.03806163 0.00000000
-0.64871675 -0.32163496 0.00000000
-0.13606255 0.66602967 0.00000000
0.11226323 0.35872052 0.00000000
-0.00828387 -0.62224551 0.00000000
0.45241217 0.50990086 0.14957302
-0.17522353 0.45177570 0.00000000
-0.03683436 0.61459181 0.00000000
-0.77560958 0.27121146 0.00000000
-0.37986095 -0.58515502 0.00000000
-0.04711606 -0.58719082 0.00000000
-0.29617158 -0.46312275 0.00000000
0.70400754 0.02928863 0.00000000
0.54925466 0.41761803 0.15377477
-0.15210134 0.31039355 0.00000000
-0.32398164 -0.43376847 0.00000000
-0.45428944 -0.03964175 0.00000000
-0.39088137 0.76162322 0.00000000
-0.24547283 0.38492891 0.00000000
-0.68647722 0.10671869 0.00000000
0.56329936 0.43771247 0.18523412
-0.49891938 -0.60521151 0.00000000
-0.12620467 -0.05802862 0.00000000
0.46447092 -0.28166578 0.00000000
0.77388204 -0.13639686 0.00000000
0.52841461 0.67119487 0.36824406
-0.01454570 0.45116534 0.00000000
-0.70738254 -0.24595431 0.00000000
0.74734049 -0.25576724 0.00000000
-0.20425703 0.29091826 0.00000000
-0.68993535 -0.18553224 0.00000000
0.20247958 -0.42487933 0.00000000
-0.48829702 -0.48911220 0.00000000
0.57139315 -0.22919314 0.00000000
0.78251727 0.06058521 0.03972001
0.39548288 -0.07474284 0.00000000
0.66244725 0.28291542 0.13395320
0.70554498 -0.18363089 0.00000000
-0.15131266 0.75751093 0.00000000
0.65442748 0.18946118 0.04044448
0.39069566 -0.50712406 0.00000000
-0.69614363 -0.37304958 0.00000000
0.59337719 -0.11833367 0.00000000
-0.53068521 -0.52074929 0.00000000
0.75009491 -0.15146004 0.00000000
0.54353883 0.58416362 0.30198085
-0.47648513 -0.02967574 0.00000000
-0.46864906 -0.04996334 0.00000000
0.70691834 0.27587891 0.16844931
0.59243587 -0.50948740 0.00000000
-0.47927824 0.53265900 0.00000000
0.23337256 -0.43126445 0.00000000
-0.18338840 -0.47542956 0.00000000
0.09658625 0.63056849 0.00000000
0.59359734 -0.63430632 0.00000000
-0.15826915 -0.62821050 0.00000000
0.39824917 -0.30825369 0.00000000
0.74238507 -0.15354522 0.00000000
-0.76882120 -0.68055887 0.00000000
0.21976088 0.50483660 0.00000000
-0.32135648 -0.72885494 0.00000000
-0.75704069 -0.44411238 0.00000000
-0.69368837 0.79417981 0.00000000
-0.31067759 -0.41914315 0.00000000
0.26030025 -0.45310600 0.00000000
0.14765382 0.44210538 0.00000000
0.04186864 0.18175381 0.00000000
-0.54743665 -0.59861230 0.00000000
0.18169144 -0.21071494 0.00000000
-0.60433005 0.60392319 0.00000000
0.48142286 -0.60914695 0.00000000
0.01953780 -0.73412526 0.00000000
-0.61582212 -0.64947894 0.00000000
0.17330005 -0.34872485 0.00000000
-0.33142649 -0.26915528 0.00000000
-0.75630587 0.65892024 0.00000000
-0.14487902 -0.73641926 0.00000000
-0.23728952 0.45901466 0.00000000
-0.11948510 -0.37221656 0.00000000
-0.54536001 -0.39160582 0.00000000
0.59729460 0.64754376 0.40992278
0.55459204 -0.24094919 0.00000000
-0.24517363 0.24478515 0.00000000
0.22434255 0.62751279 0.04778582
-0.37487773 -0.31073238 0.00000000
0.11291619 0.23984827 0.00000000
0.27510876 -0.18236156 0.00000000
-0.04128993 0.18225916 0.00000000
0.09781158 0.76226417 0.05536112
-0.29356519 0.79065489 0.00000000
0.16388490 0.22628550 0.00000000
-0.62222396 0.25373075 0.00000000
0.49246943 0.22315496 0.00000000
0.11990316 0.55639432 0.00000000
0.67763828 -0.39117362 0.00000000
-0.60018467 0.51733886 0.00000000
0.54679560 -0.25003561 0.00000000
-0.00011103 -0.72686771 0.00000000
-0.68377448 0.48451096 0.00000000
0.68883756 -0.16356457 0.00000000
0.69822200 -0.20720307 0.00000000
0.54947972 0.14702769 0.00000000
0.42154741 -0.14255646 0.00000000
-0.27177789 -0.29757344 0.00000000
-0.23381514 0.20170053 0.00000000
-0.03252475 0.36362715 0.00000000
-0.43123451 -0.29371991 0.00000000
-0.04856277 0.33310208 0.00000000
-0.78398380 -0.41399222 0.00000000
-0.08781804 -0.35505087 0.00000000
-0.52987299 -0.18982601 0.00000000
0.37362041 -0.54218042 0.00000000
0.26843844 0.56069274 0.02684541
-0.76201580 0.27393667 0.00000000
-0.25554575 0.29358832 0.00000000
0.71484732 0.10726675 0.02037912
-0.31521585 0.14225125 0.00000000
0.56374561 -0.73392357 0.00000000
-0.65703765 0.76554194 0.00000000
0.40547845 -0.03157003 0.00000000
0.10059900 0.22186927 0.00000000
0.34288653 0.49897931 0.03858045
-0.19088169 0.06728685 0.00000000
-0.30386814 0.24372867 0.00000000
-0.01468169 -0.49764815 0.00000000
0.37019218 -0.01606157 0.00000000
-0.73744019 -0.55910687 0.00000000
-0.09621931 0.42586761 0.00000000
-0.23259321 -0.59046604 0.00000000
-0.50260067 0.24697698 0.00000000
-0.19208075 0.62817445 0.00000000
-0.12673669 0.37312087 0.00000000
0.02735721 -0.47994927 0.00000000
-0.12523501 0.74124934 0.00000000
0.63753361 -0.28307239 0.00000000
-0.36703112 0.10045503 0.00000000
0.60924714 -0.48963396 0.00000000
-0.63839154 -0.15538075 0.00000000
0.41498921 0.36348760 0.00000000
0.65885980 -0.67064907 0.00000000
0.20773049 -0.71092338 0.00000000
0.65442376 0.18039736 0.03208871
-0.59529634 -0.26728217 0.00000000
-0.49084602 0.11383117 0.00000000
0.14450412 -0.49659274 0.00000000
-0.45433166 -0.02216137 0.00000000
0.51337666 -0.20682425 0.00000000
0.64356428 0.62083510 0.42794835
0.14223795 0.46536063 0.00000000
-0.12717824 -0.64579044 0.00000000
-0.68900448 0.50514921 0.00000000
0.39462633 -0.43995758 0.00000000
-0.67622194 -0.59500143 0.00000000
0.11976769 0.27903887 0.00000000
-0.65593820 -0.07429781 0.00000000
-0.38380817 0.43093839 0.00000000
-0.54259431 0.74924499 0.00000000
0.60201073 0.41743297 0.20221917
-0.56625929 -0.19004387 0.00000000
0.41718973 -0.78614137 0.00000000
0.20766024 0.60213105 0.00902362
-0.50205157 -0.68403709 0.00000000
0.29968296 0.11474928 0.00000000
-0.04451789 0.15094208 0.00000000
-0.02685207 0.35465950 0.00000000
0.03313092 0.44333023 0.00000000
-0.64962962 0.03294819 0.00000000
0.13301172 -0.35807419 0.00000000
0.03423278 0.24475525 0.00000000
-0.18235292 0.55989992 0.00000000
-0.35438625 0.37455694 0.00000000
-0.11625831 -0.39625236 0.00000000
-0.25011359 0.77170167 0.00000000
0.49914437 -0.04970881 0.00000000
-0.39343252 -0.02993320 0.00000000
0.69291120 0.11125473 0.00383982
0.15651092 -0.50850489 0.00000000
-0.13169416 -0.79534563 0.00000000
-0.33797537 0.10301791 0.00000000
0.16529243 0.55756038 0.00000000
-0.37010075 0.09416162 0.00000000
0.27559259 -0.54817339 0.00000000
-0.49332726 -0.49773125 0.00000000
-0.51684469 -0.19841943 0.00000000
0.37714244 0.50683378 0.07738533
0.22893416 -0.26634216 0.00000000
0.61989906 -0.68650596 0.00000000
0.03683667 -0.67456816 0.00000000
0.27371611 0.13086201 0.00000000
-0.45581151 -0.76671130 0.00000000
0.36982589 0.51336178 0.07665869
-0.09345426 0.40461628 0.00000000
-0.77372303 0.52328961 0.00000000
0.16707208 -0.78616935 0.00000000
0.28547554 0.09940506 0.00000000
0.34692073 -0.27170736 0.00000000
0.53289481 0.06580455 0.00000000
0.65976454 -0.43095546 0.00000000
-0.09106771 -0.78456291 0.00000000
-0.51915323 0.09814876 0.00000000
0.33820059 0.53009762 0.06293798
0.66302961 -0.31695527 0.00000000
0.58136122 -0.09547472 0.00000000
-0.03448644 0.49734670 0.00000000
0.42746332 0.25345103 0.00000000
0.18179609 -0.16839502 0.00000000
-0.15544366 -0.38704390 0.00000000
0.08338099 0.36862829 0.00000000
-0.69649267 0.62281078 0.00000000
0.36661096 0.45704350 0.02179859
-0.34156057 0.19633160 0.00000000
0.52949229 -0.07910311 0.00000000
-0.68776691 -0.11407821 0.00000000
-0.49656959 -0.36757803 0.00000000
0.04430895 0.41976359 0.00000000
-0.40575805 -0.49958556 0.00000000
0.62622458 0.53007687 0.32833492
0.51657169 -0.45909535 0.00000000
-0.04151981 0.59024727 0.00000000
-0.16711179 0.68495557 0.00000000
0.27389637 0.55302243 0.02480670
0.11406192 -0.09147378 0.00000000
-0.68888657 -0.25054191 0.00000000
0.68855770 0.11223088 0.00072760
-0.67326995 0.19869165 0.00000000
-0.11954330 0.46087059 0.00000000
-0.43963141 0.76050322 0.00000000
-0.70947905 0.74146267 0.00000000
0.04356669 0.71258612 0.00000000
-0.65968737 0.35069115 0.00000000
-0.30961885 0.19865339 0.00000000
-0.24784863 -0.06361554 0.00000000
0.39995448 -0.06851253 0.00000000
0.52871775 0.45492896 0.16923209
0.61367965 -0.25813026 0.00000000
0.64866278 0.24184741 0.08340641
-0.73730627 -0.40926528 0.00000000
0.38581481 -0.18725121 0.00000000
-0.10728023 0.46826893 0.00000000
0.15154112 0.66546610 0.01567313
-0.74664758 0.60770959 0.00000000
0.56758211 -0.21626899 0.00000000
-0.43294608 -0.58637661 0.00000000
-0.33207581 -0.78935306 0.00000000
-0.51194757 0.65695046 0.00000000
0.34538850 -0.37064684 0.00000000
0.57530917 -0.25639400 0.00000000
-0.67304519 0.44386073 0.00000000
-0.75197708 0.28941606 0.00000000
0.70571280 -0.12624176 0.00000000
0.51988208 -0.21647134 0.00000000
-0.20149515 -0.41595820 0.00000000
0.57341068 0.07354189 0.00000000
-0.56139847 -0.49976013 0.00000000
-0.38433558 -0.45479210 0.00000000
-0.38260196 0.20277380 0.00000000
-0.21452722 -0.19983303 0.00000000
0.55430415 -0.12695412 0.00000000
-0.78527629 -0.43090184 0.00000000
0.05229360 0.77370294 0.02395686
0.34679176 -0.49132487 0.00000000
-0.49601759 -0.37202249 0.00000000
-0.01473504 -0.31110748 0.00000000
0.21212289 0.57509175 0.00000000
-0.23292669 -0.52880923 0.00000000
0.15911556 -0.23070368 0.00000000
-0.20091574 -0.25884359 0.00000000
0.07059729 0.33215037 0.00000000
-0.56439581 0.79000511 0.00000000
-0.50816164 -0.46452639 0.00000000
0.19493733 0.61563881 0.00974687
-0.22444859 -0.12476377 0.00000000
-0.00551995 -0.58901032 0.00000000
-0.62607259 -0.76902308 0.00000000
0.44239807 -0.53325309 0.00000000
-0.63976992 0.14116766 0.00000000
-0.40132207 -0.58013394 0.00000000
0.01851381 0.60649583 0.00000000
0.71094202 0.20706643 0.10874618
0.52398921 -0.49884275 0.00000000
0.06617046 0.10184230 0.00000000
-0.28270915 0.58334238 0.00000000
-0.10527680 0.78559137 0.00000000
-0.61244354 -0.10142025 0.00000000
-0.74615005 0.38176032 0.00000000
0.69047753 -0.65909533 0.00000000
-0.42314442 0.16838623 0.00000000
-0.05655182 -0.24621211 0.00000000
-0.08708008 -0.44904199 0.00000000
0.65918068 -0.25801723 0.00000000
0.42623592 -0.26077810 0.00000000
-0.09480589 -0.59788109 0.00000000
0.36639338 0.20070685 0.00000000
0.43601641 0.62812800 0.24341171
-0.60822330 -0.02119110 0.00000000
-0.60260387 -0.70524505 0.00000000
-0.72273046 -0.06316108 0.00000000
-0.31436388 -0.38964009 0.00000000
0.22012860 -0.72560708 0.00000000
0.04940940 0.76181861 0.01034757
0.62285303 0.30046397 0.11363802
-0.79151936 0.75421905 0.00000000
0.28300333 -0.75340270 0.00000000
-0.27750193 0.20728638 0.00000000
0.01898291 0.12962546 0.00000000
0.34187358 -0.16016418 0.00000000
0.45116407 -0.59664780 0.00000000
0.08784541 -0.63214431 0.00000000
0.66623728 -0.56460277 0.00000000
-0.79587317 -0.65944062 0.00000000
0.56959426 0.53919406 0.28455119
0.58818190 -0.16507898 0.00000000
0.66037677 -0.04492152 0.00000000
-0.26173097 -0.58813572 0.00000000
-0.52370662 0.63791336 0.00000000
-0.21839527 -0.60179230 0.00000000
-0.39176023 0.08853691 0.00000000
0.26722268 0.73399950 0.18542866
0.75132373 -0.21289314 0.00000000
0.02142791 -0.04833788 0.00000000
0.33647617 -0.38048059 0.00000000
-0.07651834 -0.76824496 0.00000000
0.10662419 0.67462862 0.00000000
-0.26824802 -0.78584024 0.00000000
0.16000600 0.44193228 0.00000000
0.62139721 0.05429655 0.00000000
0.62785461 -0.22700933 0.00000000
-0.49411527 -0.65721109 0.00000000
0.66128909 -0.46896533 0.00000000
0.14874120 -0.44633753 0.00000000
0.53587000 0.20526134 0.00000000
0.56594061 -0.69028637 0.00000000
-0.72429986 0.59582925 0.00000000
-0.14430609 -0.35758941 0.00000000
-0.23847827 -0.56714839 0.00000000
-0.64254001 0.53441105 0.00000000
0.15656664 0.35957614 0.00000000
-0.73355566 -0.16527226 0.00000000
-0.76731132 -0.28279663 0.00000000
0.46027877 -0.60491930 0.00000000
0.46935443 0.66215924 0.30549316
-0.76388036 -0.11639983 0.00000000
-0.06252406 0.70140728 0.00000000
-0.73085103 0.41430610 0.00000000
-0.14455579 -0.73166962 0.00000000
-0.52858453 -0.00864421 0.00000000
-0.49191833 0.52107612 0.00000000
-0.49819750 0.17687946 0.00000000
-0.05602472 -0.70786021 0.00000000
-0.72521945 0.60443073 0.00000000
-0.44221285 -0.55305132 0.00000000
-0.49852640 -0.51306214 0.00000000
0.66350571 -0.10211130 0.00000000
0.14835054 -0.40036440 0.00000000
0.60912329 0.13149226 0.00000000
0.44917305 -0.61679583 0.00000000
-0.53158467 -0.77015971 0.00000000
0.63168532 0.35096067 0.16830992
0.03751052 -0.72143907 0.00000000
0.68328651 -0.26283612 0.00000000
0.20278240 -0.56705093 0.00000000
0.31882258 -0.44756793 0.00000000
0.62643035 0.60232757 0.39510438
0.21598566 0.28858358 0.00000000
0.53017846 0.57950215 0.28537355
0.23457531 -0.52059782 0.00000000
0.16204306 0.02876576 0.00000000
0.25264162 0.63781990 0.08336157
-0.17553568 -0.30690520 0.00000000
0.27991458 -0.58769387 0.00000000
0.47921528 0.49766666 0.16299833
0.39618205 0.65633096 0.23269335
0.05594154 -0.51746208 0.00000000
0.10315145 0.76642359 0.06411480
0.27880904 -0.04043055 0.00000000
0.28872257 -0.14759478 0.00000000
0.39609698 0.09679086 0.00000000
-0.30184286 -0.78947972 0.00000000
-0.39256435 0.11151098 0.00000000
0.35084341 -0.79029243 0.00000000
0.23945369 -0.58656010 0.00000000
0.05772570 0.38508408 0.00000000
-0.20530156 -0.58002152 0.00000000
0.70075260 0.30946334 0.19371574
0.06630458 -0.61191880 0.00000000
-0.10467469 0.12973117 0.00000000
-0.32068850 -0.09719437 0.00000000
-0.33582503 -0.35520152 0.00000000
0.21669948 0.62584138 0.03920249
-0.58497259 0.58959216 0.00000000
-0.03882518 0.47986206 0.00000000
-0.62374404 0.34655739 0.00000000
-0.29506656 0.01787473 0.00000000
0.51665872 -0.01253736 0.00000000
0.22105110 0.20498584 0.00000000
-0.55067874 -0.03881443 0.00000000
-0.69560920 0.11300626 0.00000000
-0.13457576 -0.02448450 0.00000000
-0.63958678 -0.79768815 0.00000000
0.61424829 0.37112499 0.17082314
-0.61757885 0.55789394 0.00000000
0.29063098 0.42395564 0.00000000
0.79895626 -0.44638747 0.00000000
-0.10131383 -0.19277016 0.00000000
0.01573328 -0.37850562 0.00000000
0.26811004 0.29052933 0.00000000
-0.20709011 -0.28011293 0.00000000
0.60957533 0.61862496 0.39459057
0.03982216 -0.49263082 0.00000000
0.30890238 0.60848610 0.10817487
0.30773517 -0.41587556 0.00000000
0.78112684 -0.54010102 0.00000000
0.39986390 -0.22745448 0.00000000
-0.30657340 -0.39077592 0.00000000
-0.77552901 0.38905161 0.00000000
-0.35520823 -0.03622424 0.00000000
0.66754654 -0.61403022 0.00000000
-0.27817318 0.00793224 0.00000000
0.68874326 0.19277029 0.07511598
-0.45560699 -0.59192918 0.00000000
0.37733863 0.09103216 0.00000000
0.16060461 0.26381690 0.00000000
-0.11078486 0.66121839 0.00000000
-0.35788284 -0.02759297 0.00000000
0.34831902 -0.51156313 0.00000000
0.57700726 -0.55506769 0.00000000
0.36443405 0.61652027 0.16675130
0.42238055 -0.78217839 0.00000000
-0.79950720 0.08983764 0.00000000
0.76224410 -0.14949332 0.00000000
-0.19454704 -0.48066465 0.00000000
0.49560991 -0.09032344 0.00000000
-0.62039688 0.39933306 0.00000000
0.63760255 0.05223465 0.00000000
0.24619331 -0.51654169 0.00000000
-0.68637422 -0.67776836 0.00000000
0.28394279 0.57874417 0.05776719
0.12436792 0.41556798 0.00000000
-0.51184475 -0.45322766 0.00000000
-0.28519440 0.28679560 0.00000000
-0.62898796 0.72893836 0.00000000
-0.12212261 -0.25901563 0.00000000
-0.47729348 -0.06829576 0.00000000
0.61397894 0.56382428 0.34814907
-0.00532432 0.59289340 0.00000000
-0.23064304 -0.21273393 0.00000000
-0.63840234 -0.21791760 0.00000000
-0.04495185 -0.10006477 0.00000000
-0.24891334 -0.24752623 0.00000000
-0.50098047 -0.34541456 0.00000000
0.47946158 0.49559154 0.16131306
-0.49353636 0.59745416 0.00000000
0.27227894 0.17226090 0.00000000
0.58616312 -0.55435395 0.00000000
-0.56171338 -0.00135113 0.00000000
0.16796163 0.60121548 0.00000000
0.07180414 -0.04532077 0.00000000
-0.79666790 0.57124629 0.00000000
-0.42581216 -0.62138937 0.00000000
-0.43766364 0.34391860 0.00000000
-0.57946633 -0.43019125 0.00000000
0.24164282 0.67245720 0.10514467
-0.03691471 0.01971198 0.00000000
0.53877664 0.56978347 0.28434098
-0.71859955 0.26620507 0.00000000
-0.65362966 -0.26455620 0.00000000
0.63941074 0.26678847 0.09786391
0.63386696 -0.17090601 0.00000000
0.52655976 0.42276880 0.13760778
-0.28579568 -0.28476305 0.00000000
-0.14879547 0.08029404 0.00000000
-0.73560025 0.66241220 0.00000000
0.59475861 -0.70157932 0.00000000
-0.55915986 0.30257673 0.00000000
-0.29981277 0.18872918 0.00000000
-0.73604264 0.43037119 0.00000000
0.54174713 0.36159784 0.09523372
0.45669943 0.45405357 0.10206024
0.29775676 0.06542981 0.00000000
-0.21601655 -0.40230482 0.00000000
0.59450008 0.48306468 0.25577824
0.41129299 -0.74820198 0.00000000
-0.66639214 0.76658011 0.00000000
-0.42923521 -0.51969007 0.00000000
-0.33143591 0.35876718 0.00000000
0.42175077 -0.23572550 0.00000000
0.43912610 0.59869225 0.21915193
0.22405347 0.06116588 0.00000000
-0.27206725 -0.79844742 0.00000000
0.39064516 -0.10279176 0.00000000
0.18664429 -0.32572088 0.00000000
0.44351567 0.35762352 0.00105068
-0.76330145 0.17028867 0.00000000
0.09978003 0.30438356 0.00000000
0.70953248 -0.01847028 0.00000000
0.71369404 0.04442210 0.00000000
0.27996234 -0.67550093 0.00000000
-0.09041993 0.50058703 0.00000000
-0.37363310 -0.08873254 0.00000000
0.46872281 0.35874865 0.02531597
0.48572322 -0.08022297 0.00000000
-0.55500770 -0.15247600 0.00000000
0.20780126 -0.11902245 0.00000000
-0.36029288 -0.28283851 0.00000000
-0.79268989 -0.54465924 0.00000000
-0.29887621 -0.57315536 0.00000000
-0.78581827 0.24914949 0.00000000
0.07517334 -0.08767644 0.00000000
-0.69432320 0.76043402 0.00000000
-0.02534126 0.10258231 0.00000000
0.70447867 0.32377402 0.21033668
-0.10163805 -0.33079919 0.00000000
-0.59428799 0.44081748 0.00000000
0.47464387 0.55272074 0.20951858
-0.04953125 0.33287561 0.00000000
0.17376859 -0.40204604 0.00000000
-0.15442987 -0.04834407 0.00000000
-0.75428954 -0.18634459 0.00000000
-0.00903883 0.51309731 0.00000000
-0.44988197 -0.12544542 0.00000000
0.10502497 0.14628970 0.00000000
-0.33415836 -0.41845308 0.00000000
-0.57390888 0.06838533 0.00000000
-0.71903127 -0.15711770 0.00000000
0.28338735 -0.71499995 0.00000000
-0.39367430 -0.59242073 0.00000000
0.11856848 -0.16278371 0.00000000
-0.60826194 0.62828078 0.00000000
0.20755219 0.64908553 0.05219280
0.07829359 0.69146256 0.00000000
-0.14020907 0.27055908 0.00000000
0.52143667 -0.20503053 0.00000000
0.54624204 0.20788541 0.00000000
-0.13803017 0.18586954 0.00000000
-0.05776410 -0.63466286 0.00000000
0.24914871 -0.05308634 0.00000000
0.01849069 -0.01525862 0.00000000
-0.61076588 -0.16367353 0.00000000
-0.21852498 -0.53064055 0.00000000
-0.54430273 0.00582438 0.00000000
-0.30774463 -0.62241326 0.00000000
-0.54313155 -0.18463458 0.00000000
-0.02287709 0.77918313 0.00000000
0.15475488 -0.71582040 0.00000000
-0.20480896 0.35781259 0.00000000
0.78640390 -0.72234191 0.00000000
0.59490720 -0.73799610 0.00000000
-0.26385417 -0.04921014 0.00000000
0.17991799 0.69515538 0.06918134
-0.36429809 -0.58389743 0.00000000
-0.67865279 0.63787422 0.00000000
0.66195213 0.10196931 0.00000000
0.54482835 0.36199633 0.09844028
-0.78557007 0.15157880 0.00000000
-0.19579195 -0.17752109 0.00000000
0.22668907 0.29328661 0.00000000
0.38077988 -0.76130523 0.00000000
-0.35084205 -0.50753109 0.00000000
-0.43033386 -0.34871656 0.00000000
0.39071588 0.53217020 0.11324092
-0.27255065 -0.42278380 0.00000000
-0.22768108 -0.27304926 0.00000000
-0.04656392 -0.37857111 0.00000000
-0.76330946 -0.09714511 0.00000000
-0.33647821 0.54990148 0.00000000
-0.64131140 0.39658997 0.00000000
-0.00738309 0.59042908 0.00000000
-0.30340603 -0.73309705 0.00000000
-0.60975496 0.53442417 0.00000000
0.11120194 -0.33140888 0.00000000
0.20071349 -0.60006801 0.00000000
-0.13329202 0.51842174 0.00000000
0.30446524 -0.73785270 0.00000000
-0.14740174 0.69364842 0.00000000
-0.55119075 0.54885204 0.00000000
-0.61098708 -0.07925931 0.00000000
-0.40017394 0.31913112 0.00000000
-0.69628705 -0.58222202 0.00000000
0.71677548 0.22340646 0.12917913
-0.45484450 -0.32944088 0.00000000
0.40440248 -0.15291699 0.00000000
0.24473230 -0.59982529 0.00000000
-0.32867230 -0.77364200 0.00000000
0.52541093 -0.45610052 0.00000000
0.32115057 0.70063342 0.20437644
-0.22182822 -0.65711746 0.00000000
-0.45298730 -0.12683475 0.00000000
-0.48749587 -0.24868011 0.00000000
0.68567824 -0.29717455 0.00000000
-0.55883341 -0.23371565 0.00000000
0.40409302 -0.53119749 0.00000000
-0.50047641 0.00530987 0.00000000
0.60153259 0.02181753 0.00000000
0.29058640 -0.05093474 0.00000000
0.37773851 0.27015770 0.00000000
0.61895618 -0.45227640 0.00000000
-0.16664169 0.23866527 0.00000000
-0.19870814 0.18713360 0.00000000
-0.09954334 -0.66310624 0.00000000
0.59631893 0.21074812 0.00651322
0.17269022 -0.61157224 0.00000000
0.11461242 0.18077324 0.00000000
-0.18102797 -0.47504928 0.00000000
-0.23513517 0.05973720 0.00000000
0.56444100 -0.50912863 0.00000000
0.40667813 -0.34146223 0.00000000
0.12435825 0.65406205 0.00000000
-0.54998603 -0.62968238 0.00000000
0.21754327 0.21066636 0.00000000
0.03047722 -0.50476954 0.00000000
0.58510838 0.34132886 0.11651334
-0.76019150 0.65314401 0.00000000
-0.17293843 0.41535175 0.00000000
-0.47732870 -0.74531761 0.00000000
-0.75072963 -0.32619126 0.00000000
-0.15642922 0.08563114 0.00000000
-0.35220910 -0.12253974 0.00000000
-0.10230356 -0.37654011 0.00000000
0.24122407 0.65068496 0.08469545
-0.14719226 -0.77968917 0.00000000
0.58598333 0.36345941 0.13771300
-0.36138911 -0.71339640 0.00000000
0.34204414 0.70097828 0.22394784
-0.25638205 0.09961106 0.00000000
0.77079641 -0.08923374 0.00000000
-0.08034893 0.63506203 0.00000000
-0.12063295 0.22974964 0.00000000
0.41182539 0.19941958 0.00000000
0.67218956 -0.75599619 0.00000000
-0.74098645 0.25858834 0.00000000
-0.42103262 0.40908366 0.00000000
0.38074840 0.67398841 0.23474267
-0.34865214 -0.19030675 0.00000000
-0.44691852 -0.28445411 0.00000000
-0.24667110 -0.06919170 0.00000000
-0.67045728 -0.51830572 0.00000000
-0.72369107 0.00639083 0.00000000
-0.31623383 -0.66685113 0.00000000
-0.05574477 -0.04848241 0.00000000
-0.54211185 -0.55914577 0.00000000
0.53821440 0.55135202 0.26683808
-0.18579702 -0.78577771 0.00000000
-0.41213175 -0.77483623 0.00000000
-0.61660099 0.23158292 0.00000000
-0.37398135 0.51655781 0.00000000
-0.59568022 -0.02831464 0.00000000
0.27781150 -0.19274801 0.00000000
0.58201472 0.31891257 0.09300582
0.67833938 0.42178723 0.27656899
0.65991392 -0.05334948 0.00000000
0.79799425 -0.67269955 0.00000000
0.19278339 -0.52156515 0.00000000
-0.34458700 -0.01998215 0.00000000
0.56098271 0.36462886 0.11575248
-0.34313599 -0.73652122 0.00000000
0.64590736 -0.19837868 0.00000000
0.50763693 -0.29465588 0.00000000
0.22151243 -0.22245614 0.00000000
0.40658790 0.27922024 0.00000000
-0.01317644 -0.67517863 0.00000000
-0.33470300 -0.37810395 0.00000000
0.47563902 0.04547670 0.00000000
0.37841590 0.34976523 0.00000000
-0.08670115 -0.36599512 0.00000000
0.18166481 -0.02213209 0.00000000
-0.36233944 -0.52081476 0.00000000
-0.78442958 -0.45856923 0.00000000
-0.74300088 -0.29687273 0.00000000
0.50596024 -0.03980932 0.00000000
0.26976144 0.09504010 0.00000000
0.21721314 0.30976663 0.00000000
-0.22231724 0.31438898 0.00000000
0.71190190 -0.47537426 0.00000000
-0.76426679 -0.71304538 0.00000000
-0.26864049 0.10328974 0.00000000
-0.48724652 0.06384757 0.00000000
-0.31487561 0.47284445 0.00000000
0.26308950 -0.39379092 0.00000000
-0.20269394 0.04526937 0.00000000
0.21006531 0.16087065 0.00000000
0.62061968 0.23646459 0.05260429
0.51148478 0.65227972 0.33521254
0.06592567 -0.19814981 0.00000000
0.31265445 0.52221345 0.03213182
-0.10513878 0.02713049 0.00000000
0.08064034 -0.31494361 0.00000000
-0.31071842 -0.11721444 0.00000000
0.48436153 -0.04570648 0.00000000
0.61147316 -0.17394577 0.00000000
0.25502825 -0.08825627 0.00000000
-0.06602620 -0.16474050 0.00000000
-0.16392279 -0.02331441 0.00000000
-0.49294338 0.61229381 0.00000000
0.12436253 -0.51095334 0.00000000
-0.55789601 0.70913170 0.00000000
0.52140925 -0.32749124 0.00000000
-0.11828613 -0.21781084 0.00000000
-0.52502807 -0.17799063 0.00000000
-0.05315571 -0.13624645 0.00000000
-0.63496635 -0.10954909 0.00000000
-0.65798239 0.43538421 0.00000000
-0.16627861 -0.30162053 0.00000000
-0.32301293 0.29924842 0.00000000
-0.07213284 0.04657328 0.00000000
-0.62151032 0.32615928 0.00000000
-0.08535909 0.31711159 0.00000000
0.01531698 0.68087150 0.00000000
-0.63814726 0.20085921 0.00000000
0.41435526 -0.27012311 0.00000000
0.38929308 0.28888719 0.00000000
-0.65821886 -0.37004746 0.00000000
0.63810798 0.25112868 0.08223285
0.43491358 -0.70426002 0.00000000
-0.75142307 0.50704751 0.00000000
0.03020853 -0.65404936 0.00000000
0.69252409 0.36800118 0.24007599
0.07464249 0.28397908 0.00000000
0.51647488 0.55024025 0.24578041
-0.01658954 -0.44036474 0.00000000
0.19705462 -0.36162495 0.00000000
-0.02764394 0.45514104 0.00000000
-0.11855157 -0.13831149 0.00000000
-0.44954393 -0.36444372 0.00000000
0.13111456 0.59253456 0.00000000
-0.02960235 -0.12206807 0.00000000
-0.46285951 -0.11454518 0.00000000
-0.77939538 -0.63022575 0.00000000
-0.21373017 -0.02988161 0.00000000
0.54373629 0.28290687 0.02455269
-0.21557836 0.65868257 0.00000000
0.48558937 -0.29312704 0.00000000
0.66794599 -0.26941511 0.00000000
0.29346988 -0.27555255 0.00000000
-0.10322380 0.22121765 0.00000000
0.18513093 0.66927416 0.05013541
-0.29748176 -0.69651630 0.00000000
0.65115643 0.48319168 0.30810458
-0.24293172 -0.61783966 0.00000000
-0.76027877 -0.34576212 0.00000000
0.53818716 0.13248706 0.00000000
-0.14988947 0.14973516 0.00000000
-0.16954847 0.60114293 0.00000000
0.69139048 0.34561176 0.21839943
0.15831769 0.16103682 0.00000000
-0.22521712 -0.33177913 0.00000000
0.11787785 -0.17951900 0.00000000
0.38494389 0.49515230 0.07380987
0.15800545 0.50674256 0.00000000
-0.18319388 0.46508874 0.00000000
-0.43043185 0.14660810 0.00000000
0.40484286 0.48006742 0.07824607
-0.55757143 -0.29061785 0.00000000
0.61830281 -0.00922536 0.00000000
-0.23498277 0.70875168 0.00000000
-0.75100927 0.36196614 0.00000000
-0.75015088 -0.64228948 0.00000000
0.09962668 0.72867313 0.02607930
-0.36757119 0.63436181 0.00000000
0.65667552 0.35981160 0.19949466
0.63835929 0.04169981 0.00000000
-0.21710604 0.41157282 0.00000000
-0.40843129 -0.39301956 0.00000000
-0.63878178 -0.05672420 0.00000000
0.19797663 -0.44125746 0.00000000
-0.22939118 -0.29312625 0.00000000
0.34349041 0.09301977 0.00000000
-0.63687963 -0.31147012 0.00000000
0.39820293 -0.33133419 0.00000000
-0.00948678 0.38497701 0.00000000
0.51504241 -0.57721097 0.00000000
0.51491330 0.45319248 0.15491106
-0.31432215 -0.77645067 0.00000000
0.64764234 0.42380551 0.25014127
0.32674956 0.43835859 0.00000000
-0.46370071 -0.43730543 0.00000000
0.61677384 0.29142404 0.09970569
-0.70928985 0.79989234 0.00000000
0.60881268 0.37674409 0.17099222
-0.67284785 -0.76624014 0.00000000
-0.43823190 -0.46887204 0.00000000
0.47761630 0.20093411 0.00000000
-0.10294776 0.16910043 0.00000000
-0.66671700 0.17244412 0.00000000
-0.24359921 -0.30599855 0.00000000
0.69299122 -0.29251997 0.00000000
0.75104408 -0.07532631 0.00000000
0.37726085 -0.01116322 0.00000000
0.19664692 -0.04756357 0.00000000
-0.40552692 0.33664750 0.00000000
0.57921343 0.53975900 0.29393593
0.60133113 0.49139868 0.26975298
0.27107671 0.10933619 0.00000000
-0.13076026 -0.04443363 0.00000000
-0.47010937 -0.75086816 0.00000000
-0.79622082 -0.76723172 0.00000000
