ply
format ascii 1.0
element vertex 1382
property float x
property float y
property float z
end_header
-0.05458928 -0.11570330 0.00000178
-0.56793065 -0.39367721 0.03764547
-0.31917131 -0.45918983 0.00000353
-0.32345396 -0.76645941 0.00000006
-0.56314401 -0.09698263 -0.00000011
-0.64794941 -0.72527422 0.00828384
-0.19807900 -0.63287170 0.00000211
-0.40761882 0.10592510 0.06152065
-0.72038950 -0.49074640 -0.00000077
-0.16032464 -0.55548705 0.00000046
-0.32943790 0.37956930 0.00000105
-0.41404614 0.13152824 0.00000072
-0.34889494 0.41455381 0.00000086
-0.14040150 -0.29198951 0.00000222
-0.33956405 0.22122568 0.00000117
-0.22320676 0.42027307 0.00000180
-0.71530681 0.01494453 -0.00000057
-0.56672430 -0.07659881 0.10429009
-0.11657414 -0.34145403 0.00000192
-0.62512353 0.05333052 0.16175956
-0.35336380 -0.20971687 0.00000111
-0.02496666 -0.01340290 0.00000147
-0.59543608 0.06251396 0.14850474
-0.70758011 -0.32682855 -0.00000091
-0.25077937 0.04391161 -0.00000437
-0.46243658 -0.03303430 0.06012179
-0.25618626 0.07882330 0.00000165
-0.01560977 0.06108432 0.00001108
-0.01942755 -0.51889704 0.00000053
-0.12830773 0.49014172 0.00000242
-0.03170388 0.54365158 -0.00000095
-0.22748064 0.42576972 0.00000176
-0.07535612 -0.53840957 0.00000049
-0.52084614 0.02321856 0.10196475
-0.08560545 -0.63487731 0.00000108
-0.28869446 0.01552097 0.00000747
-0.30134211 -0.33862507 0.00000359
-0.62848784 0.14002913 -0.00000052
-0.43716007 -0.51085967 0.00000450
-0.01965739 0.30214667 0.00000224
-0.01896304 -0.79996793 0.00000000
-0.23583347 0.24058623 0.00211334
-0.51687957 -0.76425730 0.00000475
-0.24916723 -0.13004027 0.00000126
-0.37677870 0.11915177 0.00000458
-0.08567186 -0.61340217 0.00000035
-0.28455174 0.22560357 0.02388552
-0.01757717 -0.55977445 0.00000061
-0.59905224 -0.35836922 -0.00000006
-0.56245179 0.05366911 0.12973595
-0.36320141 0.24190729 0.00000325
-0.37666306 -0.48092558 0.00000401
-0.38413681 -0.20018927 0.00000112
-0.76183606 -0.62492060 0.08789815
-0.20344720 0.29029372 0.00000566
-0.08422527 0.24055556 -0.00000520
-0.07759854 0.18596753 0.00000255
-0.47435786 -0.71597756 0.00000445
-0.18002218 0.59388709 0.04847645
-0.27093197 -0.55011444 0.00000047
-0.19719998 -0.36547508 0.00000260
-0.34055823 0.36545149 0.08223478
-0.32551891 -0.54682732 0.00000047
-0.10244044 0.04842395 0.00000159
-0.01864527 0.51013064 0.00000263
-0.63050676 0.08640824 0.17153451
-0.65581571 -0.12973225 -0.00000077
-0.17680539 -0.48683075 0.00000219
-0.09926072 -0.37168807 0.00000080
-0.01484657 -0.26559986 0.00000100
-0.64910078 0.04243839 0.17172893
-0.20554868 -0.70584038 0.00000018
-0.50910647 0.13971129 0.00000000
-0.28449584 0.34122054 0.00000143
-0.09658212 -0.58557039 0.00000040
-0.21044106 0.07989074 0.00000793
-0.07285895 -0.71053459 0.00000083
-0.52060062 0.08068325 0.11403293
-0.19182991 0.34111628 0.00089844
-0.18155787 0.43831002 0.00000420
-0.73562365 -0.39032503 -0.00000102
-0.04143241 -0.65008727 0.00000066
-0.28030795 -0.20101254 0.00000366
-0.19191739 0.09052401 0.00000341
-0.52562594 0.14692444 0.00000137
-0.62328300 -0.44260359 -0.00000014
-0.33222205 0.29507184 0.00000113
-0.58321365 -0.53536889 0.01541516
-0.49069820 -0.11093970 0.05806942
-0.01326711 -0.02790342 0.00000145
-0.33128400 -0.66433399 0.00000025
-0.63468773 0.07802578 -0.00000086
-0.51337927 -0.35188190 0.00000057
-0.16401139 0.25293446 0.00000346
-0.25978682 -0.33815783 0.00000087
-0.12838298 0.07030622 -0.00000719
-0.53010318 -0.06087479 0.00000009
-0.02567452 -0.33107375 0.00000088
-0.30332261 0.06603283 0.00000437
-0.79178938 -0.14534949 -0.00000164
-0.18866061 -0.36785970 0.00000081
-0.00961426 -0.20898443 0.00000111
-0.28312999 0.19810538 0.01732414
-0.05046866 0.41352178 0.00000659
-0.65329548 -0.06164598 -0.00000083
-0.26665910 -0.71928499 0.00000257
-0.10471144 -0.70903746 0.00000017
-0.36447081 0.06805993 0.03138892
-0.72018574 -0.76695155 0.03643801
-0.24003999 0.31040086 0.01907756
-0.02059569 -0.61839191 0.00000034
-0.04291238 -0.33594375 0.00000126
-0.75468800 -0.22214239 0.16967918
-0.09354003 -0.45012168 0.00000150
-0.50313226 -0.01063244 0.08571575
-0.32598809 -0.12639431 0.00000421
-0.21811423 -0.62660079 0.00000033
-0.02443678 0.33992933 0.00000781
-0.69273263 0.00067705 -0.00000120
-0.35824366 -0.50646935 0.00000055
-0.10933517 0.40696329 0.00000577
-0.51806599 0.15019870 0.00000147
-0.58129833 -0.39171054 0.04490876
-0.24110699 -0.14187026 0.00000342
-0.48863599 -0.57823144 0.00000042
-0.16732895 -0.14641252 0.00000123
-0.16075660 -0.30162918 0.00000239
-0.55778899 0.11269443 -0.00000033
-0.26273690 -0.69930384 0.00000257
-0.28047619 -0.49139623 0.00000058
-0.00494892 0.55231698 0.00000258
-0.31274322 0.32860272 0.06017285
-0.46937520 -0.51943213 0.00000053
-0.37654926 0.14651134 0.05421850
-0.30274378 0.09908094 0.00000627
-0.35089570 -0.18940034 0.00000114
-0.38955938 -0.75955971 0.00000360
-0.29336163 -0.70254527 0.00000018
-0.25525960 0.05396350 0.00000160
-0.16447163 0.08413723 0.00000315
-0.03714369 0.30985716 -0.00000518
-0.41573798 -0.50122687 0.00000432
-0.07823893 0.29735398 0.00000277
-0.06621598 -0.27761797 0.00000158
-0.26881277 -0.30639354 0.00000336
-0.53485465 0.25069246 -0.00000033
-0.27184711 -0.04920167 0.00000387
-0.09432657 0.07580244 0.00000972
-0.23210637 0.23585266 0.00000404
-0.12897857 -0.12671805 0.00000243
-0.23970529 0.27793550 0.00000516
-0.31863260 -0.02990125 0.00000144
-0.53810162 -0.56350357 0.00000532
-0.13875503 -0.51127046 0.00000180
-0.36708251 0.26797991 0.00000091
-0.07464064 0.26529081 0.00000200
-0.04097214 0.15643332 0.00000216
-0.03602244 0.22739339 0.00000225
-0.15241022 -0.39080224 0.00000215
-0.16380563 -0.15081063 0.00000270
-0.48855079 0.11289411 0.00000252
-0.32642536 -0.02976586 0.00000144
-0.26664688 -0.07650512 0.00000377
-0.16715226 0.13513070 0.00000327
-0.50702037 0.11826755 0.00000004
-0.03240460 0.20515554 0.00000188
-0.12971189 -0.73454083 0.00000012
-0.46319277 -0.59801941 0.00000457
-0.10616049 -0.18170750 0.00000212
-0.29583398 0.18780393 0.02164508
-0.12525701 0.14028953 0.00000853
-0.57820081 0.06184197 0.13953339
-0.13082226 0.53970431 0.00000386
-0.74928379 -0.26077617 0.15871602
-0.06779437 0.03955803 0.00001053
-0.28258017 -0.56048250 0.00000045
-0.05857619 0.69144287 0.00000269
-0.05380948 -0.42369330 0.00000119
-0.75759612 -0.54534690 -0.00000064
-0.10165593 -0.34820612 0.00000085
-0.13595956 0.55345071 0.00000358
-0.40251954 -0.60009030 0.00000402
-0.18049332 0.09384008 0.00000331
-0.25888140 0.51819931 0.00000168
-0.47159671 0.03814839 0.00000041
-0.52951890 0.12936285 -0.00000014
-0.70629759 -0.77917416 0.02673249
-0.35171633 0.29448484 0.00000279
-0.49935534 -0.52862350 0.00000503
-0.70944462 -0.51232093 -0.00000070
-0.68991598 -0.62351838 0.05136221
-0.56906624 -0.05965972 -0.00000020
-0.28451162 -0.68824689 0.00000279
-0.03125571 0.75247029 0.00592818
-0.20622116 0.41941845 0.02488088
-0.71619601 -0.41401751 -0.00000087
-0.53361367 0.17449335 0.14059675
-0.20055400 0.17844246 0.00000183
-0.35218798 0.26082958 0.06599717
-0.53312300 -0.46254850 0.00000056
-0.34817901 -0.10755093 0.00000130
-0.77278793 -0.64222421 -0.00000039
-0.20363820 -0.10492665 0.00000130
-0.64462017 -0.50216973 -0.00000023
-0.57667305 -0.45296985 0.00000022
-0.44723241 0.14559127 0.00000289
-0.27950089 -0.31013869 0.00000092
-0.24552671 0.38226287 0.00000168
-0.14735256 -0.44581670 0.00000066
-0.05970237 0.67129461 0.00327568
-0.56227149 0.07905930 0.13502772
-0.58558986 -0.63222948 0.00000562
-0.70753525 -0.16641307 0.15735227
-0.10448032 0.07829656 0.00000954
-0.36657438 -0.36434672 0.00000414
-0.36203545 -0.64618303 0.00000357
-0.32698716 -0.33980255 0.00000382
-0.38338108 -0.57307094 0.00000043
-0.60457699 -0.51038345 0.03165635
-0.63311352 -0.27484014 0.09623723
-0.56185537 -0.73907977 0.00000011
-0.06946949 0.11839699 0.00000172
-0.20946307 0.36953506 0.00000196
-0.16577421 -0.02282717 0.00000146
-0.17301657 -0.48737252 0.00000059
-0.51367339 -0.79016882 0.00000467
-0.21978780 -0.58159519 0.00000041
-0.04994219 0.03364809 0.00000156
-0.21162169 0.31676887 0.00000201
-0.45736191 -0.00163467 0.06418372
-0.06603927 -0.72017681 0.00000075
-0.32908959 -0.71597612 0.00000314
-0.01269626 0.44782002 0.00000245
-0.50329086 -0.41827585 0.00000072
-0.59096974 0.00941184 0.13495004
-0.03834099 0.42344298 -0.00000302
-0.69310323 -0.79151015 -0.00000002
-0.42128159 0.20388588 0.08930057
-0.53292704 -0.29106420 0.00000035
-0.27481148 0.40772345 0.05752889
-0.04027165 0.44999772 -0.00000247
-0.45442643 -0.49543475 0.00000057
-0.07859092 0.58237948 0.00000259
-0.00961147 -0.45746377 0.00000073
-0.16369744 0.62840752 0.00000199
-0.16268461 0.16855313 0.00000182
-0.26111113 0.46894663 0.00000227
-0.26034041 0.23333962 0.00000175
-0.36951097 -0.34996051 0.00000084
-0.41494042 -0.28395115 0.00000472
-0.16309471 0.04030525 0.00000158
-0.03603500 0.52365836 0.00000248
-0.33374509 -0.42975961 0.00000069
-0.46652120 -0.71357565 0.00000016
-0.69067243 -0.28610562 -0.00000083
-0.44788284 -0.16685136 0.02428141
-0.11351741 0.41824226 0.00000331
-0.05202011 -0.43752177 0.00000115
-0.02825210 -0.77545272 0.00000005
-0.09975849 -0.18349656 0.00000116
-0.40024925 -0.33350064 0.00000087
-0.29661348 -0.59162697 0.00000039
-0.30536614 0.17758846 0.00000148
-0.53768282 0.02200736 0.11033084
-0.55587774 -0.14068644 0.08514012
-0.26415134 -0.18038496 0.00000355
-0.47234019 -0.10948368 0.00000058
-0.04583584 -0.12276211 0.00000127
-0.39860396 -0.75212155 0.00000009
-0.29011603 -0.26161855 0.00000101
-0.10815241 0.42504248 -0.00000109
-0.58026789 -0.47225011 0.02729603
-0.60560526 -0.04975964 -0.00000049
-0.79457261 -0.71058157 -0.00000022
-0.37672001 -0.63790699 0.00000030
-0.00862959 0.51254939 -0.00000216
-0.29688678 0.46035947 0.00000120
-0.36604823 -0.73449935 0.00000012
-0.18783343 -0.19031748 0.00000284
-0.04045083 -0.26534232 0.00000100
-0.64122356 -0.36149044 0.08200940
-0.09075130 0.19113771 0.00000186
-0.28188273 0.09456373 -0.00000257
-0.13140183 -0.69582996 0.00000138
-0.56775959 -0.16098530 0.08691924
-0.49398817 -0.38893679 0.00000076
-0.60309943 -0.69515088 0.00000020
-0.44433828 -0.05445695 0.04630853
-0.58220956 -0.03528782 -0.00000033
-0.14810533 0.42984134 0.00000008
-0.14821004 0.46758231 0.00539113
-0.01940699 -0.59578041 0.00000038
-0.12758903 0.31565445 0.00000209
-0.30238256 -0.57804765 0.00000042
-0.21260259 0.22967308 0.00000193
-0.05506643 -0.62834142 0.00000082
-0.07543127 -0.62253368 0.00000102
-0.46419537 0.05331893 0.07933638
-0.36402207 -0.41259195 0.00000402
-0.42788379 0.33682794 0.00000078
-0.02146390 0.75030633 0.00000323
-0.17726951 -0.10194884 0.00000291
-0.05248741 -0.71849361 0.00000015
-0.68351516 0.08853833 -0.00000124
-0.28455841 -0.54018536 0.00000306
-0.11196625 0.37454192 0.00000322
-0.55801135 0.03649339 -0.00000024
-0.17587354 0.15421408 0.00000179
-0.31806667 -0.34043820 0.00000086
-0.36763968 0.09786539 0.03933512
-0.26946729 0.17903429 0.00000587
-0.68961538 0.10356252 -0.00000130
-0.47012602 0.03753273 0.07902477
-0.34717631 -0.67971740 0.00000023
-0.04364586 0.27842957 0.00000202
-0.34027943 0.02911033 0.00000645
-0.22873606 0.41095812 0.03461722
-0.41835084 -0.77846455 0.00000004
-0.21155305 -0.67099713 0.00000216
-0.52835257 0.22052126 0.00000036
-0.46407398 -0.20294613 0.02491665
-0.71868976 -0.44546234 -0.00000085
-0.42318392 0.27519710 0.10540471
-0.36121377 0.11378407 0.03942120
-0.00811632 -0.17740850 0.00000124
-0.12966955 -0.23773866 0.00000223
-0.18614817 0.44446920 0.00000204
-0.16818467 0.39225694 -0.00000008
-0.14602680 -0.68626363 0.00000154
-0.40719940 -0.74671063 0.00000379
-0.48665286 0.12521805 0.00000240
-0.44305486 -0.00136347 0.00000067
-0.62469686 -0.50576693 0.04293981
-0.14566139 -0.04226633 0.00000142
-0.35079714 -0.30486795 0.00000410
-0.62002872 -0.03529862 -0.00000061
-0.18618353 -0.64502319 0.00000198
-0.02080456 0.69326006 0.00000389
-0.02717054 0.42749353 0.00000230
-0.42056133 -0.73963834 0.00000011
-0.72462036 -0.33446203 0.13045373
-0.13613210 0.15063737 0.00000178
-0.05166499 0.73751177 0.01320727
-0.09439490 0.04569106 0.00000159
-0.37712977 -0.32013842 0.00000090
-0.18356405 0.22868330 0.00000359
-0.45830517 0.13021026 0.00000288
-0.13432824 0.14076532 0.00000176
-0.25628328 0.20081492 0.00000584
-0.67643051 -0.24998555 -0.00000077
-0.38481074 0.35365434 0.10239562
-0.41749146 -0.06365392 0.03060829
-0.61728361 -0.09603960 -0.00000052
-0.45331899 0.09305828 0.08220058
-0.28359267 0.32832864 0.00000146
-0.18333684 -0.66469931 0.00000191
-0.23915409 0.05492768 0.00000160
-0.47539534 -0.39845889 0.00000506
-0.40838720 -0.56858807 0.00000043
-0.29073433 -0.75368864 0.00000009
-0.02123885 0.68745250 0.00000147
-0.00735769 0.61221944 -0.00000032
-0.45450902 -0.22860512 0.01457498
-0.27757104 0.00867633 0.00000152
-0.13059884 0.14956830 0.00000178
-0.12295915 -0.13372366 0.00000236
-0.11758760 0.49387996 0.00000045
-0.76117926 -0.63487680 -0.00000041
-0.26076823 0.42833623 0.05470954
-0.12011197 0.51675940 0.00143026
-0.49061128 0.19195938 0.00000145
-0.17061287 0.04893360 0.00000159
-0.14115264 -0.28421795 0.00000224
-0.33090071 0.36323122 0.07681642
-0.09359151 0.18081623 -0.00000607
-0.27045294 0.33959846 0.00000377
-0.15339688 0.49982269 0.01488673
-0.59004199 -0.75560133 0.00000543
-0.58976168 -0.50014021 0.02624178
-0.26530095 0.36946879 0.00000348
-0.61052400 0.01371013 0.00000146
-0.08035859 -0.59767816 0.00000038
-0.05191178 0.50779645 0.00000292
-0.54372274 -0.51586751 0.00000546
-0.27182685 0.09019453 -0.00000293
-0.19782792 -0.07651992 0.00000136
-0.57326533 -0.62504132 0.00000033
-0.65463464 0.12897143 -0.00000088
-0.20395933 0.30328708 0.00000551
-0.45790246 -0.11722151 0.00000070
-0.03367259 -0.25386557 0.00000133
-0.48138788 -0.69159034 0.00000456
-0.04922365 -0.49456773 0.00000102
-0.38721933 0.23242110 0.07791172
-0.56106784 -0.36701831 0.03978597
-0.58856157 0.02571131 0.00000173
-0.55401316 0.12425450 0.00000111
-0.31319167 -0.65220513 0.00000311
-0.65812081 -0.41008747 -0.00000044
-0.27183613 0.37993144 0.00000322
-0.54418942 0.13454397 0.13753793
-0.55689675 0.02584835 -0.00000022
-0.76270927 -0.53924052 -0.00000065
-0.69683134 -0.18884378 0.14711213
-0.64646949 -0.26002958 -0.00000054
-0.08994882 0.22279667 -0.00000538
-0.06226685 0.47253425 -0.00000145
-0.12668692 0.12221608 -0.00000627
-0.51062352 0.17599848 -0.00000005
-0.73121880 -0.38778211 -0.00000101
-0.18484614 -0.32263514 0.00000257
-0.38077274 -0.01642660 0.02182165
-0.46647980 0.23218702 0.11845437
-0.49412429 0.17707201 0.00000158
-0.28321982 0.40774728 0.06184188
-0.73111452 -0.74926307 0.04578740
-0.71439087 -0.52943147 0.08385564
-0.00643325 0.74257443 0.00000355
-0.06884418 0.53765815 0.00000313
-0.33807796 -0.48974120 0.00000364
-0.31946223 -0.65894488 0.00000026
-0.22289880 0.30532670 0.00000513
-0.08612170 0.46977747 0.00000316
-0.77244487 -0.64976961 0.08806014
-0.05821409 0.69181090 0.00686681
-0.46150889 0.24426304 0.00000134
-0.33679250 -0.45028585 0.00000066
-0.00610843 -0.77629298 0.00000010
-0.06465541 -0.28311965 0.00000155
-0.07143540 0.41719572 0.00000228
-0.30799411 -0.24600128 0.00000104
-0.56360108 -0.49611948 0.01369686
-0.44565965 0.02735777 0.06434077
-0.24355801 -0.77297743 0.00000005
-0.54981632 0.04643708 -0.00000019
-0.15162753 0.16903769 -0.00000471
-0.13103994 -0.10113795 0.00000131
-0.73239355 -0.62795487 0.07217570
-0.09654582 -0.23965193 0.00000105
-0.33459487 -0.68032181 0.00000022
-0.69307409 -0.17969337 0.14712899
-0.01851487 0.40673641 0.00000714
-0.28544510 0.06275509 0.00000162
-0.34354948 -0.51461815 0.00000365
-0.17335354 0.37093357 0.00000521
-0.04553068 0.68738504 0.00000320
-0.54425908 -0.10473900 0.08681536
-0.59235894 -0.45718096 0.03668496
-0.10077356 0.40028517 0.00000598
-0.13617420 -0.12862469 0.00000126
-0.40901939 0.10311402 0.00000417
-0.69154475 0.08375812 -0.00000100
-0.64092316 -0.41475556 0.07055633
-0.10051272 -0.22468100 0.00000199
-0.21330253 0.16799351 0.00000689
-0.33667733 0.19057695 0.04314629
-0.09067417 0.44615416 0.00000561
-0.16707247 -0.00963166 0.00000299
-0.59144276 -0.09499988 0.11304590
-0.58062600 -0.10179130 0.10606555
-0.19644115 0.11607143 0.00000350
-0.12498330 0.65523001 0.03330190
-0.05619284 -0.22767761 0.00000158
-0.65718429 -0.19016930 0.12652618
-0.23197608 0.09671297 0.00000168
-0.33139197 -0.77897126 0.00000004
-0.01640076 0.73066766 0.00000287
-0.46821912 -0.06387036 0.05654194
-0.23041019 -0.51608798 0.00000262
-0.15636830 -0.24202184 0.00000246
-0.44911226 -0.09266278 0.04064880
-0.74990000 -0.61313332 -0.00000047
-0.40157898 -0.03872372 0.00000102
-0.21386720 -0.08188071 0.00000135
-0.76515385 -0.40007848 -0.00000100
-0.72951501 -0.21773751 0.15772141
-0.20609661 -0.09507761 0.00000132
-0.25634375 -0.64529262 0.00000261
-0.35082741 0.04994107 0.02056420
-0.57930793 0.09566760 0.14727654
-0.11898961 0.51256783 0.00000354
-0.14826434 -0.38229753 0.00000213
-0.46208996 -0.53501975 0.00000468
-0.55088139 -0.43125590 0.00000039
-0.12052142 0.38775093 -0.00000146
-0.36485258 0.28216798 0.07700756
-0.31016892 0.30693143 0.00000343
-0.29676421 -0.61917296 0.00000303
-0.32579400 -0.63653975 0.00000326
-0.56544282 -0.05908905 0.10734817
-0.01307163 0.04938330 0.00001125
-0.26171691 0.43627815 0.00000269
-0.74712593 -0.75110644 -0.00000012
-0.07022184 0.25740326 0.00000262
-0.60289758 -0.03416757 -0.00000049
-0.12977566 0.21681197 0.00000760
-0.29270306 0.46135034 0.00000123
-0.43989994 -0.63768670 0.00000429
-0.09535244 -0.77401997 0.00000005
-0.76440220 -0.73540102 0.06577604
-0.11952012 -0.65861692 0.00000027
-0.06983426 0.59299283 0.00000428
-0.35513329 0.41575999 0.00000082
-0.69719540 0.02550006 -0.00000126
-0.33736724 0.14696884 0.00000498
-0.53596562 -0.12630158 0.07799385
-0.23039001 0.01612452 0.00000362
-0.02778021 0.57580165 0.00000510
-0.31407106 -0.24769690 0.00000388
-0.03295438 0.71124210 0.00000223
-0.08385573 0.08521571 0.00000978
-0.14564219 0.57757532 0.02740790
-0.09895173 0.49939208 0.00000005
-0.16987917 0.62260343 0.00000204
-0.52058418 -0.25619825 0.04256121
-0.00102596 -0.22897750 0.00000107
-0.41513991 0.10077342 0.06428424
-0.25662564 0.29988149 0.00000455
-0.35857822 -0.58648791 0.00000040
-0.11585272 0.55978124 0.00837595
-0.68558382 -0.34827560 -0.00000072
-0.56442297 -0.67919936 0.00000023
-0.51675087 -0.78364782 0.00000471
-0.68343983 -0.18814028 0.14040306
-0.70268402 -0.52255445 0.07931889
-0.19957980 -0.59732339 0.00000219
-0.76569558 -0.22104624 -0.00000145
-0.03279088 0.69233996 0.00000280
-0.40530002 -0.27749089 0.00000098
-0.59564330 -0.77077214 0.00000005
-0.07826022 0.55270562 0.00000324
-0.56757872 -0.63654220 0.00000031
-0.05534156 0.11522885 0.00000172
-0.04276441 -0.68116433 0.00000061
-0.71295269 -0.32772095 0.12590821
-0.42981707 0.03459204 0.05775633
-0.19883068 -0.16727348 0.00000299
-0.75884022 -0.43004346 0.12770339
-0.15531414 0.13310085 0.00000316
-0.02575831 0.57884877 0.00000259
-0.09712062 0.47576860 0.00000327
-0.67635129 -0.69208934 0.02986910
-0.00911446 -0.78971890 0.00000010
-0.37546536 0.02804764 0.02853125
-0.36601073 -0.15990826 0.00000451
-0.08989919 0.61630402 0.00707654
-0.29044249 0.24584496 0.03119624
-0.57740244 0.20604412 -0.00000059
-0.38220497 -0.62549594 0.00000033
-0.49779129 0.11590494 0.10982046
-0.26344579 -0.27154655 0.00000338
-0.15205939 0.32767797 0.00000211
-0.75934463 -0.36958420 -0.00000108
-0.44636034 0.19022702 0.00000041
-0.76658280 -0.32061186 -0.00000120
-0.15131725 0.35807642 0.00000569
-0.03020581 -0.03258543 0.00000171
-0.63965758 -0.20304946 -0.00000056
-0.47840161 0.04934155 0.08576843
-0.46286395 -0.63015051 0.00000451
-0.34186195 0.10209105 0.02703532
-0.05859402 0.28929707 0.00000204
-0.66043590 -0.21083846 0.12380686
-0.45389938 0.24379260 0.11447227
-0.64814688 0.04725837 0.00000030
-0.26292497 -0.10499679 0.00000368
-0.61258469 -0.50897286 0.00000002
-0.08643227 0.19676908 0.00000187
-0.45874279 0.06446071 0.00000047
-0.34309043 0.09387998 0.02591651
-0.48673976 0.02839906 0.00000365
-0.12044240 -0.24045744 0.00000105
-0.20251972 0.21696865 0.00000650
-0.54420437 0.20237070 0.00000029
-0.71649127 -0.28450726 -0.00000103
-0.11625309 0.18425939 0.00000817
-0.13777872 -0.19801203 0.00000238
-0.16647174 -0.00159011 0.00000150
-0.21211625 0.00609751 0.00000873
-0.63000490 -0.07437270 0.13717072
-0.06605389 0.13735347 0.00000946
-0.29704674 0.34725027 0.00000133
-0.14056813 0.30292483 0.00000647
-0.26390547 -0.17427351 0.00000356
-0.43670628 -0.76837210 0.00000006
-0.21607948 0.25583502 -0.00000133
-0.64816739 -0.07665823 -0.00000077
-0.34159847 0.08327233 0.02290198
-0.31618239 -0.64121890 0.00000030
-0.71538480 -0.37671883 0.11675980
-0.05547077 0.49650258 0.00000558
-0.11415727 -0.50917690 0.00000055
-0.19703360 -0.30217533 0.00000093
-0.61795314 0.07556878 0.16280503
-0.35829040 0.11386292 0.03794069
-0.71137570 -0.31257880 -0.00000096
-0.34602379 -0.04242265 0.00000142
-0.56042876 -0.79689772 0.00000508
-0.22148615 -0.59587450 0.00000038
-0.34387164 -0.62318641 0.00000033
-0.08452799 0.56965741 0.00000257
-0.60163111 -0.58556680 0.00000020
-0.08178019 0.06235612 0.00000162
-0.60950832 -0.49859600 0.00000003
-0.50040492 0.01263579 0.00000022
-0.44637290 0.05556007 0.00000407
-0.14784516 -0.32539442 0.00000223
-0.06796872 0.30619435 0.00000753
-0.56063369 0.09696860 0.00000134
-0.51721155 0.02296427 0.10004931
-0.40477916 0.39285511 0.00000050
-0.63205292 -0.49175751 -0.00000015
-0.39954326 -0.71877573 0.00000377
-0.23095800 -0.77697374 0.00000004
-0.06886708 0.50579473 0.00000245
-0.51036966 0.14823587 0.12312333
-0.10592509 -0.33649671 0.00000087
-0.27135605 -0.44653616 0.00000066
-0.55401318 -0.45207733 0.01812928
-0.46918943 0.11591809 0.09517457
-0.06475227 0.11761695 0.00000172
-0.09116137 0.56812381 0.00000339
-0.49110571 0.19839927 0.12389759
-0.53322183 0.00148651 0.10369260
-0.09168885 -0.65380180 0.00000027
-0.51046299 -0.14581946 0.00000034
-0.51344329 0.12198333 0.11912630
-0.01052058 -0.36957400 0.00000090
-0.10635195 -0.16207918 0.00000120
-0.12954733 0.39340516 0.00000224
-0.09946546 0.21844481 -0.00000520
-0.34309803 -0.46853407 0.00000373
-0.37256089 -0.26964891 0.00000099
-0.25684534 0.08638277 0.00000715
-0.72566943 -0.75629976 -0.00000011
-0.36278199 -0.54194259 0.00000048
-0.23650285 0.23113200 0.00000193
-0.69268971 -0.33953535 -0.00000078
-0.01012862 0.17723926 0.00000985
-0.50646061 0.11794277 0.00000005
-0.27981551 -0.69214790 0.00000020
-0.05799295 -0.11544031 0.00000128
-0.40476683 0.14499581 0.06834884
-0.71609437 -0.74432263 -0.00000014
-0.33840222 0.23105011 0.00000387
-0.26598807 0.44304602 0.06050360
-0.03937736 0.74811440 0.00000292
-0.39070651 -0.65572555 0.00000381
-0.14674778 0.00263314 -0.00000796
-0.58021076 0.15390831 0.16009472
-0.04976193 0.28649841 -0.00000528
-0.54640875 -0.32027761 0.04219368
-0.11615611 -0.34197887 0.00000191
-0.48207785 0.03423401 0.00000366
-0.26320488 0.22294989 0.01238469
-0.49061112 0.26831615 -0.00000002
-0.27785374 0.37179436 0.05146694
-0.73123613 -0.42642740 0.11433322
-0.32392514 -0.25142438 0.00000396
-0.07978657 0.16116305 0.00000252
-0.34724662 -0.53623641 0.00000049
-0.48030973 -0.70283335 0.00000018
-0.29703114 -0.39587882 0.00000076
-0.34103884 -0.11142528 0.00000129
-0.10886224 0.63094760 0.00000310
-0.18492484 0.34541430 -0.00000050
-0.30692142 -0.04567184 0.00000419
-0.26719536 -0.38878709 0.00000319
-0.05241681 0.26507709 0.00000200
-0.03438951 -0.45970669 0.00000064
-0.15259575 0.11582987 -0.00000568
-0.45706957 -0.37395927 0.00000494
-0.68281501 -0.57297217 -0.00000043
-0.18584394 0.44975060 0.02088222
-0.72910607 -0.28551425 -0.00000112
-0.53875791 0.25404411 -0.00000036
-0.23571559 -0.31445047 0.00000091
-0.36571162 -0.53751441 0.00000380
-0.04044179 0.06314225 0.00000198
-0.33877707 0.29719932 0.06684412
-0.78697168 -0.05540121 -0.00000184
-0.03988954 0.54782018 -0.00000064
-0.07876721 0.24155276 0.00000809
-0.09409277 -0.04326635 0.00000227
-0.29808826 0.17891064 0.02090756
-0.15165439 -0.77649037 0.00000004
-0.41916278 -0.56637724 0.00000423
-0.62172670 -0.48226957 -0.00000008
-0.21608308 0.44961108 0.03633712
-0.25817754 -0.00550582 0.00000383
-0.55162656 0.12236002 -0.00000029
-0.41421720 0.29008464 0.10397063
-0.40301349 -0.77616303 0.00000369
-0.08408665 0.44947490 0.00000310
-0.10213783 0.41562245 0.00000228
-0.07425814 0.41841938 0.00000228
-0.26640329 0.05433837 0.00000160
-0.49802655 -0.23167319 0.03621113
-0.12495216 0.50141059 0.00065294
-0.10378841 -0.65948662 0.00000120
-0.29293703 -0.18839093 0.00000115
-0.24901767 0.27911860 0.00000177
-0.59229641 -0.52963763 0.02128257
-0.20679063 0.52559375 0.04769767
-0.31188279 0.19155037 0.03065902
-0.07755163 0.55422932 0.00000324
-0.04680646 0.21680418 -0.00000666
-0.09490164 -0.38912705 0.00000163
-0.77004084 -0.14596997 -0.00000160
-0.75966824 -0.10899811 -0.00000157
-0.43814520 0.11098467 0.07822838
-0.75320610 -0.08219738 -0.00000155
-0.00308157 0.49061951 0.00000643
-0.19726992 0.25053575 0.00000197
-0.26672894 -0.70358344 0.00000260
-0.66473381 0.04807476 0.18093173
-0.06981965 0.33618850 -0.00000380
-0.18481761 -0.32747185 0.00000089
-0.53525543 -0.71935750 0.00000500
-0.10319262 -0.60239792 0.00000130
-0.43848109 -0.01283281 0.05213865
-0.05018890 0.38813981 0.00000223
-0.44397951 0.09663903 0.00000054
-0.09420107 0.64240791 0.01481616
-0.17165628 -0.78789275 0.00000002
-0.52368572 0.03174172 0.10522725
-0.61012454 -0.25534421 0.08859941
-0.09835881 -0.72573529 0.00000103
-0.02540133 0.36719675 -0.00000443
-0.31141012 -0.24441437 0.00000386
-0.71531225 -0.51228839 0.08796411
-0.35345253 -0.67722879 0.00000343
-0.36877970 0.30828689 0.08456164
-0.24718087 -0.07730588 0.00000136
-0.11845302 -0.70356223 0.00000125
-0.07710990 -0.49178983 0.00000128
-0.00220954 0.67207359 0.00000066
-0.32117672 -0.48158508 0.00000060
-0.43861512 0.20076275 0.00000234
-0.50216782 0.00281540 0.00000022
-0.22947777 -0.74860577 0.00000010
-0.73833496 -0.17621570 0.17104657
-0.47711650 0.15488388 0.00000219
-0.32932553 0.37358300 0.00000220
-0.56276506 0.04506375 0.12806834
-0.27410244 0.01213643 0.00000152
-0.03471525 0.05300298 0.00000160
-0.57547292 0.16131792 0.15924031
-0.64537180 -0.15057696 0.12887535
-0.30714610 -0.39558425 0.00000354
-0.37291300 -0.35048803 0.00000084
-0.24198807 0.50298650 0.06092820
-0.17344335 0.16711366 0.00000181
-0.59608349 -0.17311816 0.09885122
-0.03115165 0.43959959 0.00000232
-0.64480283 -0.32457176 0.09167411
-0.27116541 0.43605281 0.00000142
-0.21030120 -0.34103162 0.00000276
-0.66418200 -0.38061176 -0.00000052
-0.28914205 -0.52185784 0.00000314
-0.16982094 0.47094502 0.00000400
-0.78893489 -0.20406340 -0.00000149
-0.64638184 -0.15500413 -0.00000066
-0.34327076 0.38471680 0.00000094
-0.52720431 -0.65153244 0.00000505
-0.78825559 -0.24129552 -0.00000140
-0.22421703 0.36233344 0.00000436
-0.54989513 -0.63373630 0.00000529
-0.41789497 -0.61306221 0.00000035
-0.58333676 -0.61797362 0.00000034
-0.31043152 -0.26882576 0.00000381
-0.52176283 0.14357244 0.12796894
-0.29996937 0.46754089 0.08310409
-0.09863959 0.55551920 0.00000343
-0.36473576 0.31917428 0.00000222
-0.63632097 -0.18919066 0.11604888
-0.07304772 0.66589283 0.00000333
-0.65854259 -0.32104707 -0.00000055
-0.28230959 -0.41861735 0.00000072
-0.26923630 -0.68975938 0.00000264
-0.56032465 -0.25864553 0.06239467
-0.28896901 -0.66554901 0.00000287
-0.19308262 -0.58234165 0.00000216
-0.01442152 -0.65125679 0.00000041
-0.75669146 -0.08884041 -0.00000157
-0.24165397 -0.00534140 0.00000149
-0.68063553 -0.38114207 0.09802504
-0.05998885 0.07047737 -0.00000905
-0.06672940 0.60689862 0.00000417
-0.14144899 -0.36387854 0.00000210
-0.39328131 0.30652668 0.09673645
-0.71803486 0.01173924 0.20052127
-0.51127376 -0.28734440 0.00000051
-0.65592217 -0.19776100 -0.00000068
-0.03233522 0.51301809 -0.00000150
-0.71250649 -0.69655034 0.04743943
-0.20116805 0.47463653 0.03400743
-0.57199790 0.16829241 0.15894003
-0.14847833 0.30832800 0.00000342
-0.66023143 -0.23062597 0.11950459
-0.17966485 -0.02526253 0.00000145
-0.74530373 -0.54964224 -0.00000063
-0.01241242 -0.47874028 0.00000060
-0.31335516 0.43039030 0.08207814
-0.46414469 -0.08631046 0.04969501
-0.37852403 0.31072018 0.00000077
-0.31385452 -0.34102935 0.00000370
-0.02617965 0.39606216 0.00000224
-0.21588717 0.39371455 0.00000412
-0.01985559 0.07918438 -0.00000998
-0.30696662 -0.75663776 0.00000286
-0.52819609 -0.51161083 0.00000054
-0.13686893 -0.39955010 0.00000199
-0.24071579 0.41450956 0.04150843
-0.64455888 0.09834905 -0.00000096
-0.42141939 0.30884108 0.11163799
-0.14538134 0.40359639 0.00000226
-0.05529365 -0.45441564 0.00000115
-0.05957284 0.48334733 -0.00000132
-0.33855936 -0.08010009 0.00000135
-0.51136027 -0.01210907 0.00000017
-0.49166213 0.14707185 0.00000012
-0.20367219 0.38837896 0.00000198
-0.54049192 0.00837389 -0.00000007
-0.13320368 -0.73281664 0.00000013
-0.43649708 0.22280132 0.10110807
-0.02217821 0.24909784 0.00000886
-0.42184134 -0.76702258 0.00000006
-0.39675390 -0.43148983 0.00000428
-0.20115533 0.37387606 0.00000466
-0.02579808 0.08391644 0.00000189
-0.11698074 0.12296894 0.00000279
-0.23743812 -0.24380474 0.00000104
-0.51774772 0.12721148 0.12244001
-0.41673915 -0.68746304 0.00000021
-0.14473963 -0.34061615 0.00000086
-0.63068563 0.02460257 0.00000093
-0.77762246 -0.31573294 -0.00000121
-0.42964429 -0.27389193 0.00000488
-0.13926240 0.61442586 0.03195890
-0.40045260 0.33578198 0.10661464
-0.16648945 0.05554867 0.00000160
-0.44236929 0.06638985 0.07093560
-0.32015915 -0.04466266 0.00000431
-0.01216958 -0.08233202 0.00000135
-0.33068032 -0.50199880 0.00000355
-0.53995308 -0.15379269 0.07420424
-0.53972130 0.12194574 0.00000142
-0.05151550 -0.68020793 0.00000069
-0.02607931 0.12934489 0.00000198
-0.54706791 -0.42593951 0.02011701
-0.04102638 -0.07358739 0.00000136
-0.22687574 -0.47233119 0.00000267
-0.52667655 0.13822412 -0.00000013
-0.27885050 0.06719253 0.00000163
-0.33890238 0.03146676 0.00000141
-0.72546923 -0.43179247 0.11024164
-0.05717722 -0.69107371 0.00000020
-0.22221941 -0.76252443 0.00000007
-0.24513106 0.39008603 0.03858603
-0.21444268 0.16799001 -0.00000303
-0.30399799 0.03410835 0.00000156
-0.18250805 0.29620196 -0.00000149
-0.43667448 -0.60043494 0.00000433
-0.43321582 -0.24045198 0.00000103
-0.46483751 0.00477320 0.00000050
-0.07520571 -0.43252460 0.00000137
-0.30794771 -0.34418884 0.00000085
-0.09348309 0.42210306 0.00000314
-0.04060933 -0.51400896 0.00000054
-0.74668396 0.03690963 -0.00000165
-0.48277570 0.28239915 0.00000043
-0.40232962 0.16754102 0.00000077
-0.02020883 0.66974838 0.00000276
-0.17173906 -0.55661900 0.00000201
-0.29623342 0.46951729 0.08161002
-0.27392022 0.21026133 0.00000538
-0.76287491 -0.25379507 -0.00000137
-0.23282298 -0.68131467 0.00000022
-0.10361574 0.41575469 0.00000228
-0.20751476 0.51885709 0.04663936
-0.40978490 0.21996262 0.00000065
-0.59231574 -0.74637010 0.00000546
-0.65875677 -0.57687996 0.04529785
-0.01990810 0.70861323 0.00000283
-0.47250540 -0.35631003 0.00000511
-0.18329307 0.11964920 0.00000172
-0.55478550 0.19849734 -0.00000041
-0.58482556 -0.56893650 0.00911992
-0.61847758 -0.55168564 0.03001386
-0.16319979 0.07758050 -0.00000611
-0.04212582 0.39533852 0.00000262
-0.10623896 -0.49322262 0.00000154
-0.50097204 -0.24099801 0.03574154
-0.47232416 -0.10849693 0.04917757
-0.47550682 -0.61966588 0.00000034
-0.06002207 0.34041355 0.00000214
-0.50942647 0.09257349 0.11083252
-0.75556645 -0.47647083 0.11617805
-0.13736728 0.25889072 0.00000323
-0.53561287 -0.40419949 0.01886219
-0.35553929 0.26128094 0.00000100
-0.65479983 -0.35466682 -0.00000048
-0.58025059 -0.53437334 0.00000029
-0.36815621 -0.06120422 0.00586148
-0.74764213 -0.73474803 0.05733100
-0.07872080 0.63505360 0.00000363
-0.21957192 0.19250707 0.00000652
-0.24354491 0.31710059 0.02229379
-0.15716295 0.31656002 0.00000209
-0.39430187 0.30789160 0.09754754
-0.13844458 0.62022696 0.00000267
-0.32460993 0.46218078 0.00000114
-0.25456543 -0.60644819 0.00000267
-0.46062238 -0.64153750 0.00000030
-0.75259437 -0.24727864 0.16327476
-0.08833117 -0.13657096 0.00000204
-0.45099827 -0.34895473 0.00000493
-0.35052129 0.04260482 0.00000608
-0.00933515 0.73058902 0.00000287
-0.05573480 -0.70243831 0.00000069
-0.23434219 -0.72477407 0.00000014
-0.13886014 0.52264428 0.01228077
-0.46336360 -0.46118964 0.00000483
-0.17823678 0.25817392 0.00000198
-0.10832729 0.58184259 0.00000246
-0.31900567 0.41853543 0.00000182
-0.03250789 -0.20772687 0.00000111
-0.53879218 0.19800875 0.00000045
-0.23157662 -0.41513372 0.00000072
-0.67517525 -0.15739941 -0.00000088
-0.40705000 -0.38130312 0.00000447
-0.30733719 0.18882541 0.00000502
-0.39219768 -0.09151224 0.00000116
-0.29881656 -0.05429762 0.00000410
-0.34981806 0.00381231 0.01025423
-0.12526391 0.02216112 -0.00000818
-0.09528643 -0.47433621 0.00000061
-0.57028852 -0.23116125 -0.00000000
-0.22243722 0.23411682 0.00000194
-0.10797487 -0.68802931 0.00000119
-0.41339169 0.25675149 0.09647515
-0.54335909 0.17110365 -0.00000029
-0.59201010 0.09781495 0.15423863
-0.68268569 -0.79376007 0.01154568
-0.15776949 -0.17690131 0.00000260
-0.20164612 0.39665064 0.01770754
-0.06959207 0.10049150 -0.00000823
-0.52606511 0.17865979 0.13761545
-0.12275373 0.22950735 0.00000193
-0.31805566 0.09510037 0.00000148
-0.06175995 -0.76263383 0.00000063
-0.17212212 0.41694745 0.00689616
-0.26033267 -0.24465135 0.00000104
-0.29552000 -0.71485298 0.00000284
-0.44747418 -0.29157214 0.00000500
-0.15596141 -0.56863191 0.00000185
-0.13613179 0.30337837 0.00000330
-0.68770484 -0.49982374 0.07646934
-0.00895982 0.18630645 -0.00000826
-0.32994606 0.39340140 0.08272811
-0.18795645 -0.25379318 0.00000102
-0.58619580 -0.67216877 0.00000024
-0.09435793 0.61700511 0.00950728
-0.23339171 0.02508596 0.00000155
-0.12903211 0.24343725 0.00000196
-0.60102682 0.13713747 0.16719790
-0.37332232 0.32972836 0.09143536
-0.32938107 -0.03438023 0.00000442
-0.66497337 -0.13406530 0.14241671
-0.26665068 0.13036046 0.00000174
-0.18185898 0.10475188 0.00000334
-0.37566560 0.08181763 0.00000509
-0.49107285 -0.00173783 0.08142649
-0.33849708 0.18994797 0.04394485
-0.72917506 -0.23369032 -0.00000119
-0.52774613 -0.49451032 0.00000535
-0.59035946 -0.76519431 0.00000007
-0.61055194 0.08380687 -0.00000069
-0.29843502 -0.76554905 0.00000277
-0.10551855 0.13441417 -0.00000661
-0.07406574 -0.35556827 0.00000083
-0.00327390 0.37017349 0.00000219
-0.02609610 0.74849449 0.00244193
-0.15434323 0.34158851 -0.00000140
-0.30447461 0.23546964 0.00000141
-0.70004310 -0.34343453 -0.00000083
-0.19750052 0.37066817 0.00000205
-0.38030963 0.05318975 0.03634619
-0.19499118 0.17514807 0.00000183
-0.09101589 -0.46167236 0.00000063
-0.13614460 0.59720416 0.02670789
-0.31476476 0.25546754 0.04569386
-0.03904164 -0.54315340 0.00000084
-0.53078662 0.12690839 -0.00000014
-0.18784443 0.01415661 0.00000153
-0.74201874 -0.10911310 0.18716775
-0.23452105 -0.40486256 0.00000286
-0.03059290 0.02232623 0.00001129
-0.25410862 0.27826027 0.01946008
-0.01905540 0.20552741 0.00000206
-0.07481193 0.05718532 0.00000228
-0.04579236 0.10592329 0.00000170
-0.00279068 -0.61697151 0.00000034
-0.35148553 0.27519898 0.00000305
-0.54932078 0.18535011 0.15094455
-0.11452985 0.40043588 0.00000225
-0.17566683 0.06908010 0.00000163
-0.34123618 0.18970055 0.04529961
-0.66101075 0.05915458 -0.00000010
-0.58080698 -0.53204542 0.01488763
-0.08312703 0.06359458 -0.00000855
-0.44958525 -0.15948433 0.00000081
-0.44450350 0.32301160 0.00000026
-0.21010920 0.34427940 0.00000487
-0.14744005 0.62229720 0.03781645
-0.05894941 -0.03804812 0.00000143
-0.43285824 -0.19698500 0.00000098
-0.44648078 0.26194429 0.11452366
-0.21339178 0.37863474 0.00000192
-0.12673385 0.51413680 0.00426805
-0.52969703 0.13738235 0.00000141
-0.66789523 -0.00562195 -0.00000101
-0.59372086 0.09707601 0.00000070
-0.47002861 -0.09760158 0.05031318
-0.05646875 0.31046936 -0.00000464
-0.20433125 -0.06508615 0.00000138
-0.07044391 0.24498653 -0.00000549
-0.20870953 -0.57601886 0.00000042
-0.20385464 0.05050081 -0.00000552
-0.32013110 -0.27138240 0.00000389
-0.13200344 0.48767588 0.00000239
-0.01601709 -0.51014546 0.00000069
-0.25076558 -0.01762070 0.00000374
-0.27717246 -0.32833155 0.00000339
-0.48095540 0.19101595 0.00000015
-0.11552103 0.37119527 0.00000220
-0.22546222 0.53418149 0.05908273
-0.02704026 0.55179965 -0.00000092
-0.59109509 0.01456034 0.00000182
-0.43478499 0.12412735 0.00000341
-0.64277330 -0.20194066 -0.00000058
-0.29762569 0.18727007 0.00000152
-0.63485658 -0.73324672 0.00000013
-0.34866542 -0.38226005 0.00000394
-0.11813904 0.61721798 0.02173312
-0.64525920 -0.14717652 -0.00000066
-0.14222027 0.58367094 0.02694852
-0.24122820 0.18666718 0.00000626
-0.41436168 0.01278851 0.00000524
-0.25492467 -0.33158633 0.00000319
-0.11289409 -0.24137028 0.00000105
-0.23525801 -0.00740880 0.00000362
-0.24194492 -0.37674820 0.00000298
-0.18384885 -0.19919265 0.00000279
-0.25503144 0.19984151 0.00329614
-0.18383374 -0.49511918 0.00000057
-0.47082404 -0.67416748 0.00000024
-0.75333233 -0.34693159 -0.00000113
-0.32483668 -0.10214794 0.00000425
-0.30982599 -0.03872701 0.00000423
-0.02383063 0.70898890 0.00000305
-0.26180993 0.39633712 0.00000320
-0.11463876 0.44865226 -0.00000047
-0.03546805 0.10198688 0.00001032
-0.13688710 0.13757816 -0.00000570
-0.16064319 0.25718803 -0.00000281
-0.01011709 0.15984498 0.00001005
-0.11279396 0.05346512 -0.00000793
-0.34469685 0.40865150 0.00000090
-0.74371754 -0.37942448 0.13069628
-0.06758943 0.23325958 0.00000836
-0.34560904 -0.22976865 0.00000107
-0.41516279 -0.03256443 0.00000091
-0.10105948 0.35091504 0.00000307
-0.61970488 0.07195041 0.00000053
-0.47165289 -0.11997240 0.00000060
-0.47018225 -0.79106715 0.00000427
-0.25678862 0.10756139 0.00000170
-0.01693993 0.77249923 0.00000291
-0.44997683 -0.01309568 0.05797030
-0.53628337 -0.69303854 0.00000506
-0.28891836 0.48428306 0.00000123
-0.53577578 -0.09288619 0.00000009
-0.35285539 -0.66136093 0.00000026
-0.29741982 -0.16536478 0.00000119
-0.14111332 0.38451235 0.00000222
-0.42157292 0.00158016 0.00000082
-0.46888490 0.01624175 0.07387724
-0.11051428 0.31533254 -0.00000309
-0.51185113 -0.50737470 0.00000055
-0.01141060 0.12835543 0.00001038
-0.00119468 -0.54501485 0.00000048
-0.41115222 -0.21725551 0.00000481
-0.33906190 0.22594023 0.00000393
-0.10705383 -0.52475563 0.00000149
-0.31552889 -0.54258674 0.00000334
-0.09555296 0.29918062 0.00000293
-0.56933494 -0.11247803 -0.00000014
-0.15575975 -0.34119615 0.00000086
-0.01701921 -0.21329924 0.00000125
-0.11519976 0.66622374 0.03062335
-0.16812979 -0.46696498 0.00000215
-0.64919893 -0.23761108 0.11237265
-0.06889421 0.06165933 0.00000224
-0.18860565 0.13116256 -0.00000442
-0.59700835 -0.05304910 0.12479535
-0.62169701 -0.08093632 0.13152358
-0.21280315 -0.70860737 0.00000210
-0.45870898 0.19875023 0.00000198
-0.32741303 0.09454600 0.00000141
-0.24165829 0.46057203 0.00000161
-0.24477136 -0.67379677 0.00000024
-0.08164424 0.63125868 0.00000260
-0.35021926 -0.10254617 0.00000131
-0.30556626 -0.22466994 0.00000108
-0.05660351 0.57760422 0.00000310
-0.75712606 -0.07771258 -0.00000159
-0.07147707 0.34559031 -0.00000358
-0.41962642 0.30980348 0.00000129
-0.31473269 -0.05924779 0.00000424
-0.18854204 0.22757900 0.00000193
-0.40581800 0.23044920 0.00000066
-0.08950799 0.43939668 0.00000313
-0.51967250 -0.16080685 0.00000029
-0.14639111 -0.02822459 0.00000277
-0.35178515 0.33179402 0.00000231
-0.09631949 0.19307278 0.00000273
-0.45702846 -0.25808192 0.00000088
-0.08552436 0.20441760 -0.00000584
-0.41821076 -0.22256234 0.00000108
-0.28829048 -0.28069840 0.00000358
-0.03849630 0.09566323 -0.00000916
-0.38806664 0.23529894 0.07895355
-0.27223555 0.34587339 0.00000365
-0.29708375 -0.10679663 0.00000399
-0.30358340 0.08849056 0.00454632
-0.16097241 0.08677821 0.00000859
-0.57177349 0.09371564 -0.00000041
-0.17072560 -0.79917943 0.00000155
-0.15380712 0.23307673 0.00000706
-0.38966612 -0.45177162 0.00000418
-0.26999778 -0.20717487 0.00000356
-0.58611138 0.14338966 0.16088524
-0.59992402 -0.63965065 0.00000027
-0.12661971 0.59567998 0.02150750
-0.03150069 -0.65791863 0.00000027
-0.01420046 -0.34994616 0.00000084
-0.68666806 -0.19858099 0.13984155
-0.55770359 0.22276866 -0.00000046
-0.24059220 0.53549512 0.06711001
-0.64395583 -0.79602893 0.00000584
-0.21484379 -0.63350346 0.00000031
-0.39528182 -0.59518818 0.00000396
-0.26415773 0.04193031 0.00000158
-0.44880937 0.11835155 0.08525301
-0.14335058 0.09574046 -0.00000631
-0.28445928 -0.10623026 0.00000388
-0.33200173 0.20993141 0.00000124
-0.24974577 0.43328249 0.05011537
-0.05236092 0.55045518 0.00000253
-0.63629156 -0.15593489 0.12308842
-0.09769771 -0.70150843 0.00000018
-0.51029466 -0.42109215 0.00231230
-0.52208924 -0.15153057 0.06553536
-0.02367431 0.34639185 0.00000775
-0.04746634 0.32851161 -0.00000455
-0.63949320 -0.18964698 0.11757669
-0.62760995 -0.09068089 0.13248469
-0.14213853 -0.71516127 0.00000145
-0.43548687 -0.04679831 0.00000078
-0.15272010 0.27657186 0.00000658
-0.40306879 0.04189776 0.04561276
-0.69390350 -0.16497823 0.15067531
-0.13109470 0.63365090 0.03185416
-0.51617001 0.15309312 0.00000147
-0.43120266 -0.34789941 0.00000475
-0.64123206 -0.62876658 0.02531597
-0.28430953 -0.59224933 0.00000296
-0.56546431 0.21527169 -0.00000051
-0.01594460 -0.22220108 0.00000123
-0.23150596 0.40065322 0.03384965
-0.17535724 -0.26284647 0.00000259
-0.01537260 0.68646569 0.00000279
-0.12927297 -0.58651754 0.00000040
-0.40321321 -0.13688917 0.00000113
-0.18887664 -0.56715668 0.00000044
-0.44392554 0.28160226 0.00000119
-0.40403938 0.32186529 0.10549987
-0.52744304 0.00824913 0.10217161
-0.28599502 0.45105948 0.07245039
-0.52799965 0.15283323 0.13312756
-0.41509588 0.19900378 0.08509948
-0.16323296 -0.47340833 0.00000061
-0.08323241 0.42746072 0.00000230
-0.10252847 0.03222351 -0.00000861
-0.01941677 -0.65714639 0.00000027
-0.05058747 0.06809351 -0.00000935
-0.68534768 0.08263126 -0.00000124
-0.28059854 -0.07589905 0.00000136
-0.08132036 0.10401615 -0.00000784
-0.24842010 0.55049508 0.00000146
-0.67986190 -0.28777723 0.11743449
-0.04496574 0.71400782 0.00478981
-0.41882465 0.16521632 0.07983846
-0.47602553 0.30515236 0.00000005
-0.54513227 0.16210496 0.14386866
-0.13813005 -0.12246462 0.00000127
-0.13840413 -0.65444311 0.00000027
-0.03279247 0.24713338 0.00000196
-0.08236396 0.66664618 0.00000255
-0.12780271 0.12123607 0.00000871
-0.19689498 0.56994792 0.00000220
-0.05911909 -0.34024402 0.00000086
-0.23208571 0.49322104 0.00000164
-0.17091660 0.20633264 0.00000343
-0.07830748 0.31685197 -0.00000393
-0.35598453 0.29255491 0.00000096
-0.20591675 0.08348286 0.00000352
-0.03451114 0.05847767 -0.00000997
-0.09415209 0.44627034 0.00000234
-0.28502683 0.44068002 0.00000131
-0.72834660 -0.36731811 0.12539229
-0.03183196 -0.09422836 0.00000161
-0.53139553 -0.75771564 0.00000489
-0.50747238 -0.61569474 0.00000035
-0.06271619 0.07751534 0.00000165
-0.72555060 -0.20419026 -0.00000120
-0.60108096 -0.77046896 0.00000550
-0.08148885 0.13155292 0.00000175
-0.16719802 -0.00470499 0.00000300
-0.43442618 -0.30794594 0.00000486
-0.47480213 0.19560264 0.00000171
-0.04609469 0.47503922 0.00000281
-0.50793803 -0.79391088 0.00000001
-0.14126356 -0.22770531 0.00000235
-0.58200056 -0.25675744 0.07389626
-0.16124692 0.61272429 0.00000233
-0.06864601 0.04225547 0.00000158
-0.47866422 -0.22605806 0.00000068
-0.08229052 0.03327362 -0.00000914
-0.17154884 -0.37241750 0.00000080
-0.39920790 -0.77534340 0.00000005
-0.58443111 -0.27853448 -0.00000005
-0.50255318 -0.31955902 0.01988600
-0.14921566 -0.79426337 0.00000001
-0.42516449 -0.14885807 0.01646342
-0.39911351 -0.56886546 0.00000043
-0.67894559 -0.46616385 0.07912373
-0.35729974 -0.18415423 0.00000115
-0.05358902 -0.05004361 0.00000141
-0.66565238 0.05230804 0.18230018
-0.62223599 -0.62711976 0.01593670
-0.21636520 -0.09027305 0.00000133
-0.56204697 -0.30490342 0.00000015
-0.32155473 -0.38835175 0.00000368
-0.52367668 -0.17267305 0.00000027
-0.75127330 -0.35854824 -0.00000110
-0.45251776 0.04023218 0.07058414
-0.36833472 0.23445762 0.00000325
-0.27879808 0.20708683 0.01701086
-0.67272635 -0.77237038 0.01098249
-0.27392925 0.27289780 0.00000457
-0.06267237 -0.23413030 0.00000163
-0.19282220 -0.47118094 0.00000062
-0.30972475 -0.20175212 0.00000393
-0.02956950 -0.51140049 0.00000081
-0.25212614 -0.17073378 0.00000346
-0.07595645 -0.24509070 0.00000104
-0.08012346 -0.27470999 0.00000171
-0.45137346 -0.58565950 0.00000040
-0.17238335 0.52924473 0.00000320
-0.17978419 0.26452572 0.00000362
-0.12473003 0.27102817 0.00000201
-0.44458370 -0.44694638 0.00000469
-0.65238562 -0.40128284 -0.00000041
-0.01756215 0.24202618 0.00000195
-0.02822853 0.38608238 -0.00000399
-0.27338494 0.14752001 0.00160256
-0.20239310 -0.17839668 0.00000300
-0.15872949 -0.62374532 0.00000177
-0.40228858 -0.56949547 0.00000407
-0.14212704 -0.59753784 0.00000167
-0.64013019 0.08668700 -0.00000091
-0.47299411 0.06457907 0.08623158
-0.74856526 -0.68774164 -0.00000028
-0.24151811 -0.37009853 0.00000081
-0.31472396 0.27035442 0.04883094
-0.19099259 -0.04411671 0.00000142
-0.19743151 0.13562243 0.00000175
-0.55327674 -0.28663768 0.00000019
-0.43908066 -0.76346123 0.00000404
-0.48268625 0.21867566 0.00000010
-0.10619488 -0.70452299 0.00000018
-0.32216473 0.16000007 0.02923197
-0.37130235 0.39780613 0.00000072
-0.75430458 -0.41766957 0.12800539
-0.09724629 -0.64102961 0.00000118
-0.68485623 -0.39722205 0.09677554
-0.12308386 0.19613736 0.00000298
-0.37856888 0.33100580 0.00000181
-0.66047096 -0.21567069 0.12279975
-0.44611728 -0.54650958 0.00000451
-0.38249093 0.14212059 0.05633007
-0.65057080 0.01456036 0.00000068
-0.43480504 0.32261274 0.00000033
-0.01081882 0.16466593 -0.00000862
-0.44285814 0.04022292 0.06563002
-0.32172543 0.11674358 0.00000143
-0.30913008 -0.13359628 0.00000125
-0.33127682 0.45836600 0.00000106
-0.64776346 0.06341746 0.00000010
-0.74149993 -0.20105043 0.16739926
-0.44638032 0.05386748 0.07033340
-0.74983235 -0.29003759 -0.00000127
-0.12801333 -0.43624894 0.00000068
-0.72775944 0.05933181 -0.00000138
-0.24880226 -0.03030927 0.00000144
-0.24020568 0.10095820 0.00000724
-0.21656547 -0.51094688 0.00000250
-0.13010793 0.06836129 0.00000927
-0.03834511 0.71335053 0.00126039
-0.01210065 0.65852841 0.00000273
-0.04035363 -0.27736531 0.00000098
-0.56849641 -0.16521770 0.08639876
-0.24483431 -0.64919380 0.00000250
-0.42253650 0.22556328 0.00000233
-0.37378853 0.23152848 0.07084394
-0.77430749 -0.03841546 -0.00000176
-0.33908818 0.06483098 0.01771072
-0.05676780 0.34047721 0.00000265
-0.21270379 0.18294581 0.00000184
-0.30732680 -0.59418124 0.00000039
-0.76973294 -0.56184022 -0.00000060
-0.12490509 -0.21695644 0.00000222
-0.74633189 -0.44079316 0.11901698
-0.66364891 -0.14073859 0.14032278
-0.02057143 -0.20727427 0.00000130
-0.69887005 -0.08827605 0.16948985
-0.14435662 -0.48360242 0.00000059
-0.38538298 -0.42644589 0.00000070
-0.32122148 -0.19076746 0.00000114
-0.42153933 0.14081661 0.07605240
-0.69081352 -0.40604932 -0.00000069
-0.57882227 0.13314941 0.00000052
-0.01404610 -0.75292623 0.00000009
-0.55490443 -0.41150666 0.00000033
-0.64203595 -0.07476308 0.14324947
-0.27412386 0.13565699 0.00000634
-0.57709793 -0.77851024 0.00000526
-0.03834407 0.74626437 0.00000278
-0.33808312 0.21255145 0.04852817
-0.31658781 0.07271382 0.00000634
-0.12835638 0.38970684 -0.00000121
-0.58865686 -0.10410522 -0.00000029
-0.71921213 -0.55631037 0.08062297
-0.09653127 -0.17290789 0.00000118
-0.17341171 0.38951925 0.00000221
-0.16692301 -0.26656953 0.00000100
-0.18567067 0.53365503 0.00000194
-0.24907759 0.48771773 0.06131988
-0.18832965 -0.55298231 0.00000217
-0.55781181 0.11039335 0.13939266
-0.42666066 -0.21046549 0.00000104
-0.42433682 -0.48507334 0.00000059
-0.55975453 0.06997495 0.13181139
-0.06161212 -0.49423943 0.00000057
-0.70119087 -0.78296979 0.02331195
-0.11425052 -0.16287945 0.00000223
-0.20701143 0.49721327 0.04179124
-0.09477350 -0.42670144 0.00000070
-0.04142297 -0.65638783 0.00000027
-0.24405569 0.46598598 0.05413748
-0.18599380 -0.25050034 0.00000103
-0.75751891 -0.16965300 -0.00000148
-0.14291038 -0.57946548 0.00000041
-0.12949018 -0.04584745 0.00000141
-0.02666724 -0.40631377 0.00000098
-0.06990608 0.05182006 0.00000160
-0.04119680 0.09400052 -0.00000912
-0.03130403 -0.21773145 0.00000109
-0.55818309 -0.42135152 0.02678277
