ply
format ascii 1.0
element vertex 1380
property float x
property float y
property float z
end_header
-0.18442749 -0.33489066 0.36196937
-0.18871218 -0.48728687 0.37037878
-0.22294540 -0.18297942 0.43756791
-0.28190728 0.48977699 -0.00000065
-0.64100189 -0.28750303 -0.00000081
-0.32887265 -0.34710652 0.00000000
-0.28153671 0.11536475 0.55256542
-0.63397017 -0.06118688 -0.00000118
-0.13597602 0.17672454 0.26687577
-0.19236076 0.25120048 0.37753724
-0.20758552 0.32284780 0.40742259
-0.27431353 0.35868096 0.00000210
-0.66067113 -0.25832948 -0.00000095
-0.02660999 -0.55393951 0.00000000
-0.17273464 0.20974941 0.33902151
-0.32516153 -0.74927982 0.63818390
-0.07877629 0.57936238 0.00000000
-0.61291190 -0.73051088 0.00000000
-0.07162805 0.43426542 0.14057471
-0.15965471 0.13378761 0.31333852
-0.79796838 -0.23767697 -0.00000141
-0.19791283 0.13651564 0.38843810
-0.06456501 0.62760244 0.00000000
-0.08058719 -0.29964540 0.15816566
-0.16567130 0.12057751 0.32515804
-0.08061933 0.43390629 0.15822245
-0.48028525 -0.07144716 -0.00000051
-0.46272458 0.30206846 -0.00000109
-0.62480853 -0.69025670 -0.00000003
-0.06378810 0.54266848 0.12519093
-0.14207764 0.59910571 0.00000063
-0.08827325 0.04912135 0.00000000
-0.36206533 -0.30172044 0.71061622
-0.30131139 -0.53078072 0.00000000
-0.01523495 0.38854969 0.00000594
-0.12389127 -0.01307880 0.24315705
-0.08380758 -0.66374215 0.16448620
-0.22373445 0.15954002 0.43911280
-0.06941903 0.49460431 0.00000353
-0.28710134 0.05330016 0.00000687
-0.02539125 -0.13302367 0.04983451
-0.01640211 0.75102241 0.03219201
-0.08918759 0.56714132 0.00000000
-0.28968791 -0.25856254 0.56856219
-0.00926998 0.56545883 0.01819386
-0.22812831 -0.65272922 0.44773944
-0.52602180 -0.13424505 -0.00000059
-0.05289622 -0.78981577 0.10381756
-0.06399967 0.20337988 0.00000000
-0.07371145 0.60199412 0.00000000
-0.37717663 0.09538040 0.00000453
-0.27105361 -0.59851376 0.53198759
-0.51661793 -0.78758742 0.00000000
-0.22998541 -0.24135169 0.00000000
-0.30353945 -0.41317751 0.00000000
-0.06493390 0.23123961 0.12744349
-0.07697046 0.24890041 0.00000711
-0.20248815 -0.25494227 0.39741648
-0.66689634 -0.71184107 -0.00000017
-0.43890383 -0.44172070 0.00000000
-0.25513646 0.04330471 0.50074298
-0.31601923 0.37391288 0.00000105
-0.16263965 0.41846163 0.00000325
-0.19523689 0.18223148 0.00000000
-0.02825015 -0.42076273 0.00000000
-0.12805434 -0.33367832 0.25132777
-0.00986609 -0.53256223 0.00000000
-0.20209225 0.49359660 -0.00000032
-0.17776116 -0.73672554 0.34888559
-0.16366146 0.44123650 0.00000285
-0.63419250 0.14054995 -0.00000154
-0.60134855 0.11368677 -0.00000008
-0.42240105 0.31900646 -0.00000095
-0.12252516 0.46985243 0.24047709
-0.32959453 0.02226280 0.64688745
-0.04173051 -0.03428969 0.08190301
-0.66824308 -0.28336022 -0.00000094
-0.17531679 0.61374302 -0.00000026
-0.04376499 -0.49653414 0.08589602
-0.18774794 -0.42319501 0.36848631
-0.74386494 -0.68840071 -0.00000028
-0.62334229 -0.07342617 -0.00000112
-0.29737338 0.09000943 0.00000615
-0.01246192 0.48716766 0.02444964
-0.50631659 -0.58667643 0.00000000
-0.61491715 -0.29760236 -0.00000068
-0.10542033 -0.58065680 0.20690479
-0.26558374 -0.79468098 0.52125191
-0.38267257 -0.03920843 -0.00000015
-0.02407245 -0.18750159 0.04724616
-0.27697318 -0.21398094 0.00000000
-0.10174786 -0.16436264 0.19969696
-0.08713523 0.44371441 0.00000403
-0.68448449 -0.71306279 -0.00000022
-0.01831377 0.06667254 0.00000000
-0.08539286 0.14503637 0.00000854
-0.05796442 0.10261507 0.11374649
-0.11053641 -0.77379000 0.00000000
-0.13376412 -0.23551982 0.26253416
-0.03179581 -0.68849768 0.00000000
-0.37611612 0.33666579 0.00000052
-0.68142092 0.06703434 -0.00000161
-0.08172930 0.45668413 0.16040194
-0.14264928 0.28038790 0.27996657
-0.00543974 -0.24592057 0.01067639
-0.04872149 0.22392793 0.09560895
-0.17984330 0.09968290 0.00000000
-0.03990093 -0.22967645 0.00000000
-0.02465480 0.48862829 0.04838091
-0.34879158 -0.31499765 0.68456393
-0.29095241 -0.62480464 0.57104258
-0.26900021 0.08167030 0.00000672
-0.09415524 -0.47699261 0.18479519
-0.14630347 -0.07382343 0.28714470
-0.22558146 -0.26450243 0.00000000
-0.05213261 0.42207805 0.10231011
-0.16601377 0.16618237 0.00000700
-0.45338248 0.21385258 -0.00000090
-0.24180399 -0.71887891 0.00000000
-0.08864681 0.12120411 0.17396804
-0.34274153 0.28186668 -0.00000055
-0.40160426 0.21658589 0.00000203
-0.05144937 -0.41514404 0.10097788
-0.22734440 0.30244665 -0.00000009
-0.20232032 -0.65364633 0.00000000
-0.75569449 -0.66615084 -0.00000033
-0.08952592 0.30589909 0.17569916
-0.19833011 0.06604136 0.00000802
-0.17350324 -0.50457710 0.34052872
-0.04804767 -0.24579756 0.09430148
-0.31129520 -0.13730031 0.61097099
-0.41620248 0.21356561 -0.00000074
-0.25388249 0.10648454 0.49828418
-0.03170393 -0.26158437 0.00000000
-0.74216709 0.04582078 -0.00000165
-0.36029917 0.03306089 -0.00000018
-0.22376671 0.28136341 0.00000437
-0.13144366 0.26162301 0.25797187
-0.10367208 0.02063881 0.20345535
-0.08552005 0.08543567 0.16784721
-0.46063985 -0.42023636 0.00000000
-0.15501072 -0.24252410 0.30423412
-0.15150664 0.02530707 0.29734162
-0.09795230 0.22588527 0.19223534
-0.11011652 0.49646952 0.21612294
-0.18627887 0.21170982 0.36560459
-0.19191822 0.60155307 -0.00000037
-0.19861399 -0.48937118 0.00000000
-0.07896670 0.30558762 0.15498517
-0.08398507 -0.48118824 0.16483456
-0.29771695 0.08977202 0.58432014
-0.20478222 0.13773608 0.40192055
-0.26508925 -0.39515572 0.52028222
-0.07315094 -0.22841611 0.14357078
-0.25067035 -0.79913046 0.00000000
-0.05542410 0.41953830 0.10877031
-0.01785205 0.40264908 0.03503759
-0.01646369 0.06164672 0.00001083
-0.09021673 0.42303898 0.17705945
-0.21146344 -0.47705411 0.41503187
-0.24363041 0.08292148 0.47816713
-0.12327769 -0.65782538 0.24195280
-0.16006658 -0.60380440 0.31415706
-0.16903518 -0.14343975 0.00000000
-0.03764854 0.63047282 0.07389159
-0.04012290 0.32039852 0.07874781
-0.29507766 -0.70371051 0.57913885
-0.15361047 -0.72600299 0.30148590
-0.20681891 -0.71749987 0.40591622
-0.09586742 -0.28773048 0.00000000
-0.27958899 0.38723916 0.00000153
-0.25763662 -0.56275789 0.00000000
-0.71715838 0.07674582 -0.00000178
-0.14834426 0.24324765 0.29115098
-0.43646205 -0.75324762 0.00000000
-0.22609880 0.12705749 0.00000000
-0.10005011 0.21765860 0.19635249
-0.02052729 -0.73667501 0.04028820
-0.74799504 -0.79775275 -0.00000001
-0.09342088 -0.79627080 0.18335389
-0.10774971 0.67080945 -0.00000023
-0.09291619 -0.23903370 0.18236334
-0.13986352 -0.19299751 0.00000000
-0.11365534 0.17035930 0.00000773
-0.11734420 0.36721157 0.23030205
-0.27536620 0.02623660 0.00000000
-0.69078492 -0.17456716 -0.00000123
-0.10534385 0.33625908 0.20675506
-0.01565212 -0.11519077 0.00000000
-0.13267634 0.45452661 0.26039876
-0.24341751 0.17568187 0.47774658
-0.52906379 -0.65789524 0.00000000
-0.25951691 -0.14412431 0.00000000
-0.21211742 0.33878084 0.00000363
-0.06608073 -0.66076683 0.12969433
-0.07201592 0.07771130 0.00000000
-0.09163700 -0.58486225 0.17985273
-0.22768324 -0.50507120 0.44686592
-0.22462569 -0.35828439 0.44086511
-0.41609750 -0.40686777 0.00000000
-0.03023329 0.51140934 0.00000000
-0.43441338 -0.74032043 0.00000000
-0.53847449 -0.62820888 0.00000000
-0.13538378 -0.34841160 0.26571299
-0.15102435 -0.53355669 0.00000000
-0.09224794 0.01791083 0.00001034
-0.14788852 -0.51274892 0.29025562
-0.01434942 0.23866119 0.00000000
-0.22519741 -0.36438848 0.44198720
-0.26497699 0.28566305 -0.00000022
-0.04938840 0.13511761 0.09693289
-0.22450040 0.11732642 0.44061455
-0.08446551 0.10011218 0.16576066
-0.06985688 -0.07185064 0.13710566
-0.21812390 -0.08223321 0.00000000
-0.15020519 -0.34881946 0.29480246
-0.58438561 -0.22221855 -0.00000069
-0.27694117 -0.55429315 0.54354320
-0.08666652 0.23986958 0.00000709
-0.31172827 -0.13477474 0.61182098
-0.55311368 -0.63847120 0.00000000
-0.19997519 0.33327166 0.39248571
-0.13888574 -0.63930042 0.27258617
-0.05766838 0.72410588 -0.00000011
-0.16203043 -0.47524786 0.31801144
-0.38724223 0.00080496 -0.00000024
-0.19962401 -0.51874975 0.39179505
-0.18541069 0.07295272 0.00000811
-0.06901132 0.35456177 0.00000564
-0.13318338 -0.53155234 0.00000000
-0.17855028 0.42404825 0.00000285
-0.27882456 -0.27236238 0.54724081
-0.17567272 -0.78349287 0.34478669
-0.20696353 0.12081884 0.40619397
-0.24624032 -0.45339792 0.48328747
-0.00373736 0.36786907 0.00732208
-0.12245188 0.12699786 0.24033202
-0.04925873 0.29744446 0.09666566
-0.31344381 -0.38645811 0.61518707
-0.27201037 -0.77224290 0.53386523
-0.06282564 0.29367141 0.12330568
-0.72411620 -0.41670008 -0.00000094
-0.27535540 -0.37460520 0.00000000
-0.29354810 0.14571934 0.00000529
-0.12970458 0.27121983 0.25455884
-0.45838460 0.27763565 -0.00000008
-0.04055249 -0.10143422 0.07959096
-0.04608635 0.49929370 0.09045207
-0.30706788 0.11646723 0.60267484
-0.06180943 0.26669586 0.00000000
-0.42371341 -0.72908427 0.00000000
-0.08130710 0.18850819 0.15956430
-0.06020105 0.73629701 -0.00000014
-0.30868976 -0.27776916 0.60585678
-0.14864092 -0.55363053 0.00000000
-0.50161560 0.14074927 0.00000138
-0.01898403 0.14902344 0.00000000
-0.13810613 0.54623156 0.00000159
-0.06432048 -0.51209288 0.00000000
-0.24594203 -0.53000967 0.48270181
-0.45315853 0.19396050 0.00000142
-0.10089832 -0.65928233 0.00000000
-0.24352816 -0.05053328 0.47796593
-0.31261639 0.02374749 0.61356469
-0.10137242 0.28364633 0.00000000
-0.09742511 -0.11336888 0.00000000
-0.11191041 -0.16082801 0.00000000
-0.23010591 0.10722929 0.00000692
-0.64180918 -0.06006660 -0.00000122
-0.34575759 -0.52475505 0.00000000
-0.17525342 -0.26183303 0.00000000
-0.23404380 0.24357344 0.00000480
-0.19983449 -0.43638957 0.00000000
-0.06758131 0.41489092 0.00000000
-0.02943046 0.05811979 0.05774094
-0.46681409 -0.11810994 -0.00000037
-0.17468326 0.15054683 0.34283663
-0.09910559 0.40968499 0.19450565
-0.01382445 -0.52490147 0.02713277
-0.02862572 0.23699231 0.00000801
-0.10526304 0.45962412 0.20659694
-0.29660008 -0.47253661 0.00000000
-0.31345453 0.36483674 0.00000125
-0.11628628 0.14864355 0.00000000
-0.27647244 -0.23953659 0.54262446
-0.15325673 0.23811931 0.30078484
-0.34786462 -0.01689369 0.68274574
-0.35849358 -0.75356184 0.00000000
-0.29833265 -0.55530966 0.00000000
-0.27697260 0.00917555 0.54360082
-0.00290900 -0.58354317 0.00570939
-0.06727241 -0.03870530 0.13203319
-0.39951281 0.25495852 0.00000143
-0.19462820 -0.35105710 0.38198994
-0.58399586 -0.11067298 -0.00000088
-0.10148715 -0.48399732 0.19918527
-0.31472433 -0.02603619 0.61770174
-0.05676245 0.13903859 0.11140568
-0.59994097 -0.60275098 -0.00000008
-0.25642212 0.22532847 0.50327346
-0.15116207 -0.20888555 0.00000000
-0.04403762 0.14473311 0.08643109
-0.26326441 0.30983788 -0.00000026
-0.30439877 0.04359971 0.59743320
-0.04980598 0.60757317 0.09774987
-0.51950022 -0.52056652 0.00000000
-0.70005411 0.00883418 -0.00000023
-0.33323419 -0.78518116 0.65402789
-0.04529153 -0.23292777 0.08889209
-0.09352002 -0.74728534 0.00000000
-0.23723854 0.38788103 0.00000233
-0.04911294 0.33523771 0.09639225
-0.00241614 -0.75281381 0.00474208
-0.07172726 0.21212908 0.14076248
-0.02232382 -0.73596025 0.00000000
-0.32764514 -0.34871692 0.00000000
-0.22721133 0.13667626 0.00000652
-0.37073923 -0.04719722 -0.00000008
-0.02071949 -0.12347454 0.04066542
-0.13189094 -0.65202301 0.00000000
-0.08445929 -0.71193663 0.00000000
-0.48694789 -0.12564293 -0.00000044
-0.05908910 0.56279862 0.11596869
-0.47085044 0.30862583 -0.00000114
-0.42738008 0.06272867 -0.00000052
-0.14809424 -0.43498012 0.00000000
-0.22139635 -0.20072527 0.00000000
-0.25793178 0.11074905 0.00000645
-0.08851021 0.35550221 0.17371600
-0.22096837 0.21066530 0.43368917
-0.09341598 -0.52181831 0.18334427
-0.24722314 -0.73751895 0.48521618
-0.45579111 0.08691675 -0.00000068
-0.15058210 -0.00921923 0.29554222
-0.00005911 0.50230533 0.00000446
-0.22341158 0.15577547 0.43848420
-0.26128754 -0.53250780 0.51282012
-0.06016219 0.04031616 0.11807822
-0.27635013 -0.60462904 0.00000000
-0.71699264 -0.01868387 -0.00000161
-0.07721983 -0.08770039 0.00000000
-0.16267693 -0.33627146 0.31928030
-0.07612611 -0.18795733 0.14941005
-0.46090807 0.04233991 0.00000380
-0.54621360 -0.12238030 -0.00000070
-0.05440480 0.37780720 0.10677840
-0.19165451 -0.47268995 0.37615359
-0.09394165 0.03996313 0.18435783
-0.04950126 0.37963529 0.09715439
-0.21249158 0.02799629 0.41705117
-0.07267925 0.04729798 0.14264501
-0.04542623 -0.54172819 0.08915646
-0.67389312 -0.20086006 -0.00000111
-0.25131368 0.07415294 0.49324694
-0.26917423 -0.10510276 0.52830089
-0.33775181 -0.67417434 0.00000000
-0.23569302 -0.53945384 0.00000000
-0.03384791 0.27611598 0.06643210
-0.31713520 -0.08905715 0.00000000
-0.03892657 0.71966154 -0.00000002
-0.16389010 -0.45080204 0.32166135
-0.11728022 0.51124633 0.23018308
-0.32582465 -0.74692614 0.00000000
-0.20757656 -0.04656371 0.40740424
-0.13513037 -0.49353787 0.26521565
-0.17098045 0.22373812 0.33557173
-0.18448676 0.18887299 0.36208715
-0.38552862 -0.17979347 0.00000000
-0.13347096 -0.79667750 0.26195877
-0.38785247 -0.71419452 0.00000000
-0.24684770 -0.42950651 0.48447966
-0.21882687 -0.06119631 0.42948502
-0.30403843 -0.17014535 0.00000000
-0.07149758 0.35223974 0.14031599
-0.08799662 0.10815971 0.17270788
-0.22521182 0.17298584 0.00000601
-0.03839170 0.21402642 0.00000821
-0.34682906 -0.18997820 0.00000000
-0.68750440 0.05662333 -0.00000079
-0.06095401 -0.66617867 0.00000000
-0.23565861 -0.07370833 0.00000000
-0.16380351 -0.35707154 0.32149140
-0.39306747 -0.34022928 0.00000000
-0.02915186 -0.10166718 0.00000000
-0.10857760 0.06588851 0.21310145
-0.57161296 -0.12747030 -0.00000080
-0.09721419 -0.70855959 0.19079888
-0.24504314 0.25774571 0.48094047
-0.07225767 -0.21849583 0.00000000
-0.08662331 -0.47043148 0.17001253
-0.24493354 0.22094587 0.48072531
-0.20469495 0.32213277 0.40174906
-0.00475346 -0.57023208 0.00932944
-0.28315974 -0.72415220 0.00000000
-0.49014149 0.02434561 0.00000354
-0.22209684 -0.27504222 0.43590211
-0.79663486 -0.22800248 -0.00000143
-0.35649554 -0.48308093 0.69968380
-0.28752384 -0.54936498 0.56431366
-0.54523140 -0.58915565 0.00000000
-0.01262549 -0.04010149 0.02477961
-0.45229280 0.02066869 0.00000433
-0.18920582 -0.66360318 0.00000000
-0.46233627 0.32633861 -0.00000114
-0.31193903 0.02282129 0.61223525
-0.01145354 0.54361452 0.00000000
-0.06715445 -0.45309834 0.13180169
-0.29448787 0.25978617 -0.00000030
-0.04410795 0.24370483 0.00000000
-0.23984809 -0.46042533 0.47074150
-0.55698841 -0.17208058 -0.00000066
-0.73775521 -0.36320306 -0.00000109
-0.26404087 0.16740846 0.51822501
-0.06361729 0.39513217 0.12485943
-0.54253131 -0.24173267 -0.00000047
-0.60006560 0.10515869 0.00000008
-0.18259815 0.53803077 -0.00000032
-0.36434345 -0.18352777 0.00000000
-0.02903647 -0.77089808 0.05698887
-0.22704831 -0.76133094 0.00000000
-0.07535411 0.27264460 0.00000677
-0.11147901 0.22078523 0.00000000
-0.40402523 0.11624272 0.00000366
-0.35648284 0.16087060 0.00000383
-0.22745399 -0.73434566 0.44641598
-0.30553456 -0.17440449 0.59966451
-0.08441522 0.18864908 0.16566468
-0.21823674 0.12935678 0.42832751
-0.06690277 0.31077119 0.13130771
-0.04114889 0.68496971 0.08076189
-0.05658926 0.42831364 0.11105747
-0.18044604 0.56026348 -0.00000035
-0.04860762 0.00429665 0.00001120
-0.17386939 0.01892850 0.00000000
-0.07974237 -0.18472201 0.00000000
-0.16938748 0.03064769 0.00000898
-0.45935110 -0.70631677 0.00000000
-0.01660964 0.59303663 0.00000285
-0.15660490 0.32998589 0.30736438
-0.39175415 0.17551891 0.00000291
-0.18174306 0.49359779 0.00000163
-0.14485273 0.05108720 0.28428256
-0.07804136 0.08951356 0.15315151
-0.13427032 -0.56612966 0.26352766
-0.74919472 -0.65428006 -0.00000036
-0.14318889 0.10653103 0.00000824
-0.01181676 0.14483473 0.00000965
-0.24544333 -0.52176325 0.00000000
-0.10176170 0.01174463 0.00001029
-0.25574040 -0.14753038 0.00000000
-0.10256834 -0.46755362 0.20130730
-0.32543526 -0.09212894 0.63872366
-0.38734695 0.03193358 -0.00000030
-0.23525055 0.52593897 -0.00000052
-0.12813050 -0.70282558 0.25147724
-0.07496635 0.53365609 0.00000000
-0.13953749 0.12764294 0.27386562
-0.03837031 0.04153028 0.00000000
-0.18527815 0.38221139 0.00000342
-0.30502377 -0.00960944 0.00000000
-0.38096078 -0.38617391 0.00000000
-0.19079576 0.00720317 0.37445610
-0.68848619 -0.79455335 -0.00000001
-0.17101896 -0.31694881 0.33565292
-0.79141885 -0.23927211 -0.00000140
-0.14856750 0.39534725 0.29158706
-0.28748430 -0.38295980 0.00000000
-0.08438351 0.42369566 0.00000437
-0.32499175 -0.67147016 0.63785096
-0.00051967 0.43063600 0.00101994
-0.61938139 -0.68635340 -0.00000002
-0.20900345 0.37931906 0.00000301
-0.28309714 0.02595321 0.55562770
-0.17604663 -0.56982366 0.34552054
-0.19438530 0.59025366 -0.00000046
-0.14201008 -0.12508621 0.27871821
-0.07172532 -0.48341178 0.00000000
-0.15908876 0.55434247 0.00000105
-0.53854964 -0.62097816 0.00000000
-0.77577669 -0.76947355 -0.00000008
-0.09823119 0.18573772 0.19279491
-0.22314245 -0.31150789 0.00000000
-0.13581178 0.35357810 0.00000000
-0.31392387 -0.43428992 0.61612908
-0.65853368 -0.51714218 -0.00000048
-0.09388682 0.50153603 0.18426598
-0.18709302 0.09529766 0.36720206
-0.21629833 -0.72534829 0.00000000
-0.18388460 -0.67081652 0.00000000
-0.22799398 -0.73564294 0.00000000
-0.09247133 0.02423325 0.18147151
-0.21326525 -0.40589028 0.41856824
-0.23489822 0.01059024 0.46101887
-0.71234963 -0.62682790 -0.00000043
-0.50021879 -0.03580491 -0.00000066
-0.28429041 -0.77439241 0.55796682
-0.17553588 0.12977142 0.34451915
-0.19215792 -0.60336326 0.00000000
-0.53470492 -0.49047596 -0.00000000
-0.00251635 0.12953059 0.00491825
-0.17055679 -0.13347748 0.33474583
-0.00426864 -0.42470541 0.00837791
-0.15956116 0.08760177 0.00000828
-0.01305337 -0.34414855 0.02561939
-0.68107280 -0.59680154 -0.00000044
-0.20554736 0.01702686 0.40342181
-0.23404754 -0.79335718 0.45935691
-0.46645301 0.13386403 -0.00000081
-0.25550494 -0.08524127 0.50147244
-0.33564761 -0.43676292 0.00000000
-0.04946131 -0.01549779 0.09707597
-0.36222831 0.33770353 -0.00000073
-0.42106641 -0.74455176 0.00000000
-0.19424525 -0.49624842 0.38123834
-0.29651160 0.09060573 0.00000616
-0.46117885 0.22355611 -0.00000095
-0.04780907 -0.46515620 0.09383319
-0.65590083 -0.39144507 -0.00000069
-0.13027969 0.61228242 -0.00000022
-0.26481963 -0.63657530 0.51975220
-0.68123201 -0.76142010 -0.00000010
-0.12704405 0.44448441 0.24934616
-0.09874066 0.14319350 0.19379484
-0.52005475 0.17949168 0.00000038
-0.04679476 0.28889581 0.09182932
-0.26943772 -0.68690838 0.00000000
-0.61702865 -0.01967017 -0.00000118
-0.15948637 -0.19989679 0.31301830
-0.02068948 0.01850696 0.04060652
-0.15510107 -0.54284968 0.30441143
-0.30947244 -0.45932759 0.60739223
-0.11049807 0.37666031 0.21686509
-0.13108668 -0.52973810 0.00000000
-0.43205749 -0.23941146 -0.00000001
-0.08332294 -0.65587859 0.16353501
-0.16597974 0.36117869 0.32576436
-0.12233389 -0.49554491 0.00000000
-0.03469161 0.39440906 0.06807745
-0.04739855 -0.38688257 0.09302747
-0.72173200 -0.07056589 -0.00000154
-0.21543157 -0.42721771 0.42282000
-0.17036169 0.34872611 0.00000420
-0.09227519 -0.10212718 0.18110528
-0.09287819 0.31652940 0.18227914
-0.06612656 0.06024771 0.12978429
-0.19096397 -0.10482007 0.37479873
-0.29562802 0.10504624 0.58022218
-0.48024932 -0.44290448 0.00000000
-0.22662708 0.29986735 -0.00000008
-0.12340594 0.33967326 0.24219874
-0.10391352 0.53475617 0.20394729
-0.37806276 -0.52129173 0.00000000
-0.02995782 -0.05156982 0.05879716
-0.33474624 -0.75892024 0.00000000
-0.34234641 -0.29221611 0.67191416
-0.07672025 -0.79944243 0.15057615
-0.22535831 -0.05306729 0.44230420
-0.11204603 -0.78812487 0.00000000
-0.00049721 0.67437559 0.00097585
-0.11291665 0.48805645 0.22161868
-0.63890006 0.11547729 -0.00000084
-0.34623750 -0.04644714 0.67955210
-0.59368727 -0.38322662 -0.00000044
-0.32207347 0.23069232 -0.00000037
-0.36257035 -0.75575396 0.71160575
-0.15161277 -0.07044539 0.29756507
-0.15593493 0.18215110 0.30604884
-0.70438359 -0.04345025 -0.00000152
-0.06919480 0.41501679 0.13579822
-0.01181688 -0.01211633 0.00000000
-0.23092266 0.13549464 0.00000000
-0.29172057 0.13279619 0.57255319
-0.36058881 -0.03425830 -0.00000006
-0.20648038 -0.74541561 0.40525182
-0.25974457 -0.59187527 0.50979156
-0.58587247 -0.34747172 -0.00000047
-0.34456030 0.21745072 0.00000311
-0.14721388 0.12317485 0.28891973
-0.19665696 0.17539935 0.00000000
-0.49607872 -0.35811035 -0.00000007
-0.02254363 0.64390413 0.04424559
-0.26886621 -0.54083778 0.52769464
-0.52408346 0.14248936 0.00000092
-0.77938805 -0.21297970 -0.00000147
-0.22261968 -0.33522385 0.43692803
-0.55951313 -0.47130462 -0.00000014
-0.34656378 -0.64974236 0.00000000
-0.64695322 -0.64282537 -0.00000021
-0.35761143 -0.67023916 0.00000000
-0.13710431 0.45375810 0.26909133
-0.04744561 0.22260750 0.09311983
-0.24326371 -0.56700741 0.00000000
-0.18010357 -0.40197032 0.00000000
-0.77688187 -0.53733095 -0.00000066
-0.23763283 0.23817612 -0.00000002
-0.24600258 0.07106370 0.48282291
-0.34091867 -0.44609436 0.66911139
-0.12295441 0.51913249 0.24131943
-0.73166830 -0.63087428 -0.00000042
-0.05834085 0.29995383 0.11450355
-0.28968055 -0.32207505 0.56854749
-0.23226145 -0.32825376 0.00000000
-0.33259599 -0.02351934 0.65277820
-0.01806303 0.50468167 0.03544359
-0.01682191 -0.53133152 0.03301577
-0.16387079 -0.51940389 0.00000000
-0.22606277 -0.41820542 0.44368548
-0.45128128 0.10129551 -0.00000069
-0.64351861 -0.41045077 -0.00000061
-0.39221028 -0.74555928 0.00000000
-0.07948278 0.61510207 -0.00000001
-0.25160635 -0.62661844 0.49381896
-0.54496963 -0.36250095 -0.00000027
-0.14029783 0.32195075 0.27535869
-0.13807047 0.17254089 0.27098649
-0.07713178 0.24617312 0.15137109
-0.10349439 0.19661872 0.00000000
-0.03003157 -0.08123543 0.05894191
-0.26823155 -0.49565870 0.52644919
-0.29609888 -0.22655342 0.58114504
-0.12460579 -0.73806072 0.24455941
-0.14976614 0.32081759 0.29394199
-0.19847633 0.56664761 -0.00000043
-0.45647533 0.24316630 0.00000054
-0.50702714 0.18735576 -0.00000108
-0.26683505 -0.66453858 0.52370781
-0.26910665 0.06856754 0.52816893
-0.62096692 0.10350560 -0.00000142
-0.13563952 0.24673845 0.26621560
-0.73400137 -0.53526829 -0.00000066
-0.76126148 -0.16961395 -0.00000153
-0.33810605 -0.34546993 0.00000000
-0.21363596 0.17814580 0.41929258
-0.02251582 0.07908570 0.00000000
-0.09387197 0.12483876 0.18423923
-0.24622819 0.20207466 0.48326622
-0.25684818 -0.60169906 0.50410693
-0.19353321 -0.39424452 0.37984084
-0.66393456 -0.69082450 -0.00000020
-0.36011552 -0.60950347 0.70678822
-0.33538134 0.09650343 -0.00000019
-0.05727552 0.02310205 0.11241265
-0.39751374 -0.26289459 0.00000000
-0.36801009 0.05798372 0.00000533
-0.07124242 0.33285165 0.00000593
-0.23956102 -0.15155043 0.47017929
-0.11594304 0.51710649 0.22755769
-0.32094127 -0.72358403 0.62990095
-0.03376404 -0.70638690 0.06626750
-0.25997525 0.11910089 0.00000000
-0.08032870 -0.28706596 0.15765833
-0.00769087 -0.79082745 0.01509460
-0.08997441 0.55608416 0.17659054
-0.01436381 -0.65548857 0.00000000
-0.34906012 -0.04298515 0.68509203
-0.03980201 0.46459256 0.07810990
-0.28998143 0.03954905 0.56913523
-0.18021012 -0.60683283 0.35369209
-0.00922367 -0.59449072 0.01810297
-0.07332221 0.43832147 0.14390012
-0.53268199 -0.59873275 0.00000000
-0.28950673 0.03527171 0.56820335
-0.24193893 0.25047218 0.47484736
-0.04084607 -0.41628395 0.08016715
-0.53545328 -0.31136594 -0.00000032
-0.10289957 0.27996554 0.20194731
-0.27613217 -0.16507739 0.54195690
-0.22435173 0.45166517 0.00000151
-0.48843487 0.17500957 0.00000106
-0.00505859 -0.12577891 0.00992831
-0.01918516 0.28379825 0.03763922
-0.22667782 0.37202799 0.00000280
-0.13204069 0.23829833 0.00000643
-0.72935276 -0.20567422 -0.00000133
-0.23245572 -0.25590942 0.45623340
-0.60121260 0.03879929 -0.00000122
-0.52998250 -0.03522237 -0.00000079
-0.12643233 -0.02127641 0.24814431
-0.75826136 -0.05892166 -0.00000172
-0.29668266 -0.71422446 0.58228891
-0.08426898 0.00441645 0.16537198
-0.19426783 -0.28538995 0.38128266
-0.00848645 0.23774643 0.01665605
-0.06034139 0.63102385 0.11843052
-0.01934995 0.51370106 0.00000400
-0.02071091 0.42578962 0.00000530
-0.33369125 0.04731745 0.00000616
-0.06029023 -0.22426324 0.11832953
-0.00229612 -0.23898476 0.00450652
-0.68779644 0.01055487 -0.00000154
-0.33933924 -0.29931010 0.66601200
-0.19697701 0.02609910 0.38660095
-0.26962764 0.36592423 -0.00000038
-0.67903604 -0.11439374 -0.00000128
-0.02739024 0.66229692 0.05375521
-0.34454041 0.01782772 0.67622151
-0.32239244 0.34822229 0.00000136
-0.10591673 -0.48761996 0.20787905
-0.29438254 -0.50708739 0.00000000
-0.01200366 0.23025995 0.02354229
-0.26045707 -0.48662199 0.51119034
-0.15214520 0.19198854 0.29860139
-0.12214501 -0.07052145 0.00000000
-0.15043194 0.36813437 0.29524895
-0.00968491 0.73007609 0.01900662
-0.05076650 0.10991083 0.09963764
-0.23406482 -0.22015391 0.45939170
-0.08583433 0.09100558 0.16844700
-0.37009908 0.20764079 0.00000279
-0.21894160 0.05823366 0.00000000
-0.58899841 0.09835099 0.00000041
-0.11267158 0.05880441 0.00000942
-0.09530413 0.50625865 0.18705090
-0.31321279 0.47904207 -0.00000065
-0.29832712 -0.38076877 0.58551777
-0.78320629 -0.53000760 -0.00000067
-0.27239494 0.05769156 0.53461784
-0.00339079 0.32885628 0.00665499
-0.07866565 0.55588328 0.15439253
-0.03469864 0.71536611 0.06810220
-0.30132940 0.01947768 0.59140781
-0.00028888 0.79526745 0.00056685
-0.11338988 -0.70805535 0.00000000
-0.11835381 0.25054729 0.00000000
-0.70688730 0.01673023 -0.00000163
-0.02906258 -0.12056724 0.00000000
-0.14180008 -0.48118107 0.27830606
-0.32180116 -0.65553188 0.63158889
-0.45168080 -0.61061847 0.00000000
-0.28851280 0.01250501 0.00000746
-0.38182452 -0.36229915 0.00000000
-0.03140657 -0.03742692 0.06164057
-0.32381126 -0.35304168 0.63553524
-0.35067718 0.39601654 0.00000001
-0.54616732 -0.43455262 -0.00000015
-0.24676657 0.02793632 0.48431429
-0.31500081 -0.05033083 0.61824428
-0.02222536 0.54811721 0.00000000
-0.07752314 0.16512249 0.15213672
-0.03575821 -0.45355625 0.07018138
-0.03875091 0.25127040 0.00000765
-0.12283906 -0.35660273 0.24109192
-0.01895354 0.74387657 0.00000000
-0.22939789 -0.52756796 0.00000000
-0.05150453 0.14780437 0.10106893
-0.34244383 0.01159112 0.67210536
-0.00820916 0.57350040 0.01610531
-0.21917551 -0.16152061 0.43016889
-0.30472614 0.30332498 0.00000244
-0.18296103 0.33125751 0.35909090
-0.22374630 0.00295795 0.00000000
-0.34364568 0.25690941 0.00000247
-0.15891326 0.44375442 0.31189541
-0.35727459 -0.18679868 0.70121392
-0.17943745 -0.34809491 0.35217560
-0.21112821 0.33335645 0.41437645
-0.25730848 0.03035726 0.00000000
-0.32637896 -0.09616170 0.64057583
-0.21735139 0.07109024 0.42658963
-0.06304278 0.29877824 0.12373185
-0.56006208 -0.75422553 0.00000000
-0.24707945 0.16949104 0.48493385
-0.32894736 -0.01158317 0.00000000
-0.20766628 -0.44880932 0.00000000
-0.58981442 -0.38780474 -0.00000042
-0.75485363 -0.04166636 -0.00000173
-0.75167540 -0.57103761 -0.00000057
-0.09263167 0.62814696 -0.00000009
-0.40570821 -0.45415172 0.00000000
-0.01208648 -0.75617419 0.02372171
-0.02502373 -0.65054398 0.04911320
-0.06655799 0.07885991 0.13061254
-0.29104498 -0.00682614 0.57122668
-0.33458548 -0.68546740 0.65668042
-0.07072419 -0.37196584 0.13880790
-0.11503820 0.01264448 0.22578144
-0.08965240 0.40984798 0.17595795
-0.04357096 0.13895112 0.08549727
-0.67150325 0.00451614 0.00000039
-0.09520562 0.16506655 0.00000809
-0.21675413 0.02445054 0.42541722
-0.01680385 -0.07765619 0.00000000
-0.02937534 0.69542827 0.00000113
-0.02230507 0.55028558 0.04377093
-0.01363252 0.35448282 0.00000000
-0.00323047 0.55156686 0.00634033
-0.10789716 0.09132587 0.00000900
-0.34917833 0.31103814 -0.00000063
-0.10264421 0.50812294 0.20145718
-0.07417839 -0.68752766 0.14558732
-0.22542833 0.02104152 0.44244193
-0.00942877 -0.60275122 0.01850552
-0.23264388 0.27358722 0.45660429
-0.26687017 -0.71467907 0.52377674
-0.39173270 -0.73600293 0.00000000
-0.09042441 -0.42195312 0.17747282
-0.08239806 0.51440816 0.16172038
-0.06954456 -0.61478705 0.00000000
-0.00555325 -0.20188848 0.00000000
-0.18512806 -0.52027950 0.00000000
-0.58366592 -0.08406628 -0.00000093
-0.04338700 0.38943155 0.00000550
-0.25877568 0.04330908 0.50789239
-0.07234019 0.33724338 0.14197955
-0.04162339 0.30771184 0.00000676
-0.53540011 -0.04665037 -0.00000079
-0.02097169 0.06389309 0.04113891
-0.55981785 -0.53930202 -0.00000002
-0.35147272 -0.77682574 0.00000000
-0.29021999 -0.41268339 0.56960591
-0.33216862 0.08638900 -0.00000016
-0.04557284 0.43571852 0.08943555
-0.21448801 0.10861452 0.42096227
-0.62905874 -0.16725829 -0.00000097
-0.08533620 0.50096186 0.00000000
-0.12474498 0.45801879 0.00000325
-0.68024131 0.10085340 -0.00000138
-0.07645945 -0.16383892 0.15006427
-0.12291450 0.39179728 0.24124095
-0.02983286 0.01632392 0.05852945
-0.07402139 0.05342933 0.14527920
-0.09197767 -0.70659577 0.18052136
-0.50728902 0.26958232 -0.00000088
-0.17041589 0.21498221 0.33447056
-0.29981710 -0.19079139 0.58844287
-0.08476161 0.08660361 0.16635864
-0.25821546 -0.39727653 0.00000000
-0.47165813 -0.11442643 -0.00000040
-0.11468864 -0.44633954 0.22509537
-0.15354459 0.41225847 0.30135655
-0.19757481 0.37352515 0.00000333
-0.64335252 -0.20131782 -0.00000098
-0.40045558 -0.43171135 0.00000000
-0.14785472 0.42657211 0.29018923
-0.14437082 0.48146042 0.28335330
-0.07398216 0.48982068 0.14520251
-0.31747092 -0.48722453 0.62309061
-0.17181985 -0.56402930 0.00000000
-0.18174122 -0.30609846 0.00000000
-0.72548144 -0.25884665 -0.00000122
-0.05652850 0.31884050 0.11094650
-0.44404679 -0.05173003 -0.00000039
-0.33910572 0.03297990 0.66555498
-0.74689919 -0.16281165 -0.00000149
-0.54821127 0.18017003 -0.00000017
-0.43795436 -0.17752326 -0.00000014
-0.15444675 -0.66342675 0.30312723
-0.16497446 -0.76440500 0.00000000
-0.63742965 -0.31049277 -0.00000076
-0.05875031 -0.54783006 0.00000000
-0.23444024 0.02946958 0.46012950
-0.03284238 0.09333569 0.06445859
-0.41322138 -0.16272004 -0.00000006
-0.04741358 -0.40100442 0.09305697
-0.02630370 0.70214623 0.05162412
-0.15750544 0.20019358 0.30912258
-0.25973689 0.01723780 0.50977154
-0.09418756 -0.48320510 0.00000000
-0.03637864 -0.59927049 0.00000000
-0.22204001 -0.41497289 0.00000000
-0.15024202 -0.12394635 0.29487475
-0.36270141 -0.70550044 0.71186316
-0.12672004 -0.25289171 0.00000000
-0.12263385 -0.03991882 0.24068915
-0.30839053 -0.05874787 0.60527035
-0.22848497 0.09589556 0.44843448
-0.23738350 0.18648157 0.46590682
-0.03597090 -0.22346256 0.07059882
-0.09348789 -0.14878885 0.18348541
-0.22977597 -0.20148569 0.45097410
-0.18940123 -0.69530627 0.37173115
-0.06767924 0.00676007 0.13283167
-0.00942001 -0.60085493 0.01848832
-0.20476361 0.44526046 -0.00000025
-0.61306117 -0.06638266 -0.00000108
-0.12754698 -0.19511025 0.25033199
-0.13836826 0.01651973 0.00000966
-0.42679730 0.20912472 -0.00000078
-0.66740180 -0.02420178 -0.00000139
-0.10819003 0.08302790 0.00000912
-0.38537410 0.38789273 -0.00000092
-0.22794720 -0.39627647 0.44738404
-0.05005251 0.68151288 0.09823660
-0.60782380 0.13374533 -0.00000142
-0.11837949 0.05710207 0.23233928
-0.10691247 -0.55153248 0.00000000
-0.14148038 0.17417430 0.27767908
-0.29260856 0.00751833 0.57429556
-0.06540372 0.55056218 0.12836233
-0.19732769 0.26255729 0.00000508
-0.08613578 0.05334663 0.16905568
-0.05603784 0.20987898 0.10998350
-0.01004654 0.73869337 0.01971666
-0.29964497 -0.76890717 0.58810279
-0.66317624 -0.61923416 -0.00000032
-0.58417283 -0.04379082 -0.00000100
-0.47510018 -0.34935057 0.00000000
-0.03438599 0.60730578 0.06748818
-0.07598119 0.27108891 0.14912561
-0.16498944 0.42305304 0.32382095
-0.16462518 0.11185539 0.32310480
-0.34223476 -0.22220382 0.67169529
-0.02743731 -0.44027833 0.00000000
-0.29854251 -0.11294839 0.58594156
-0.29063275 -0.73662755 0.00000000
-0.15335004 -0.57750451 0.30097475
-0.03900709 -0.51768269 0.00000000
-0.75325503 -0.28425911 -0.00000129
-0.48087928 0.01850397 -0.00000067
-0.36664005 -0.37954203 0.00000000
-0.08122084 0.15409973 0.00000000
-0.21304620 0.07448483 0.41813990
-0.21126157 0.00218927 0.41462543
-0.09168049 -0.16302187 0.17993809
-0.27032386 -0.14101655 0.00000000
-0.42992582 -0.28512319 0.00000000
-0.11409707 -0.58985374 0.22393432
-0.12075051 -0.36709306 0.23699279
-0.18021894 -0.45496646 0.35370940
-0.22194871 -0.50489644 0.43561095
-0.22481493 0.13003727 0.00000666
-0.40551178 0.33936019 -0.00000009
-0.34777928 -0.05790923 0.68257809
-0.08887364 0.54314108 0.00000251
-0.24547937 0.03084083 0.48179585
-0.65006795 -0.58969655 -0.00000032
-0.24153753 -0.35087665 0.47405778
-0.19006541 0.07536279 0.37302524
-0.03062244 -0.05444314 0.00000000
-0.14487862 0.64792893 -0.00000024
-0.31012804 0.11550383 0.60868116
-0.00074725 -0.70085134 0.00000000
-0.16958167 -0.39325442 0.33283200
-0.43502064 0.13665910 0.00000273
-0.13807316 -0.47325409 0.27099135
-0.08019097 -0.48063885 0.15738801
-0.12284576 0.15844818 0.00000777
-0.00564971 -0.65868471 0.00000000
-0.76967590 -0.65921965 -0.00000035
-0.08429874 -0.63862869 0.16545019
-0.06830704 0.72239021 -0.00000015
-0.02441602 0.24650340 0.04790479
-0.14288191 0.33507278 0.00000482
-0.72737306 0.03982063 -0.00000127
-0.09190172 -0.42490717 0.00000000
-0.16568892 -0.19301458 0.32519183
-0.11221259 0.59551259 0.00000126
-0.13675271 0.45738706 0.00000308
-0.10027788 -0.05234907 0.00000000
-0.60114383 -0.64707593 -0.00000001
-0.19429067 0.21590940 0.38132383
-0.38413202 -0.07619675 -0.00000009
-0.06646215 0.62701217 0.00000159
-0.21194759 0.35321752 -0.00000011
-0.00696276 -0.52946442 0.00000000
-0.21779680 0.03419787 0.42745378
-0.11968132 -0.02744675 0.23489434
-0.08827496 0.27571137 0.17324295
-0.15898507 0.29590446 0.31203042
-0.23518367 0.17397239 0.00000584
-0.77641394 0.00028100 -0.00000155
-0.23382345 0.01470469 0.45891888
-0.05718937 0.45510145 0.00000431
-0.28671273 0.08248826 0.56272419
-0.26159900 0.15646230 0.51343178
-0.10586205 -0.45202194 0.20777173
-0.01444936 -0.43047061 0.00000000
-0.63345734 0.03004077 0.00000070
-0.18927396 -0.73237469 0.37148138
-0.03922422 0.13446549 0.00000000
-0.64470199 -0.78526935 0.00000000
-0.35154669 -0.70623582 0.68996993
-0.73428502 -0.11917006 -0.00000151
-0.24793877 0.43079512 -0.00000041
-0.78168960 0.00566228 -0.00000174
-0.05946575 -0.07151679 0.11671134
-0.38411518 -0.70035039 0.00000000
-0.23083562 -0.06688895 0.00000000
-0.14151205 0.58593171 -0.00000023
-0.20225966 -0.46199468 0.00000000
-0.08573119 0.48650173 0.16826216
-0.22284138 0.43427173 0.00000183
-0.10633131 -0.57555398 0.20869274
-0.69229469 0.02540398 -0.00000159
-0.55358621 -0.71562744 0.00000000
-0.27716123 0.07301126 0.54397755
-0.07409371 -0.11298101 0.00000000
-0.02859136 0.67774960 0.05611537
-0.03604449 0.45008055 0.00000470
-0.23853019 -0.75738092 0.00000000
-0.14527112 -0.29336392 0.28511853
-0.23870222 -0.14706034 0.46849375
-0.41014577 -0.70371723 0.00000000
-0.31182841 -0.38427201 0.61201654
-0.06940070 -0.48500314 0.13621032
-0.16989734 -0.28102620 0.33345155
-0.19998922 0.32496526 -0.00000001
-0.15415769 -0.20527141 0.00000000
-0.07883081 0.26136653 0.15470628
-0.04251697 -0.37872662 0.00000000
-0.29589384 -0.60950391 0.58074112
-0.20323558 0.09153250 0.39888481
-0.73852119 -0.05722107 -0.00000164
-0.21793847 0.22991416 0.42773938
-0.09009693 0.39720005 0.17683038
-0.19035940 0.02598367 0.00000874
-0.58406090 -0.02863961 -0.00000103
-0.63803817 -0.05085492 -0.00000122
-0.16917781 0.62483837 -0.00000032
-0.08675924 0.59740339 0.17028033
-0.44918629 0.25941535 0.00000040
-0.18477731 0.54660986 0.00000068
-0.09139977 0.44284053 0.00000398
-0.41148624 -0.54417633 0.00000000
-0.69765903 -0.50204409 -0.00000068
-0.63425085 -0.15736178 -0.00000101
-0.04367361 -0.47210797 0.08571666
-0.15122327 -0.30065902 0.29680061
-0.47057891 -0.30562257 -0.00000005
-0.00072076 0.30819256 0.00141460
-0.27548356 0.33026297 -0.00000035
-0.08324334 -0.23165498 0.16337878
-0.32480300 -0.39276997 0.63748155
-0.35846288 -0.06645100 0.70354660
-0.09374875 0.18313118 0.18398363
-0.34898820 -0.35235093 0.68494971
-0.00014350 0.34674496 0.00026770
-0.26498325 0.51699343 -0.00000036
-0.01442368 -0.18148004 0.00000000
-0.06899294 -0.19740474 0.13541002
-0.11215666 0.63196810 0.00000065
-0.03173596 0.63833574 0.00000195
-0.40355054 -0.29277809 0.00000000
-0.13968898 0.38122563 0.27416393
-0.54143962 0.15895599 0.00000031
-0.25198289 0.15772039 0.49456071
-0.04327535 -0.28946753 0.08493502
-0.35439086 -0.52091409 0.69555282
-0.24328359 -0.44788269 0.00000000
-0.56098888 0.22873640 -0.00000123
-0.11810908 -0.62303718 0.23180855
-0.02451180 -0.01945688 0.04810845
-0.20346828 0.13492284 0.39933417
-0.17420576 -0.50420304 0.34190754
-0.19899324 0.35281964 0.39055945
-0.00959349 -0.57437808 0.01882881
-0.17619524 0.06099403 0.34580084
-0.12847099 -0.26965147 0.00000000
-0.29978138 0.27343276 -0.00000035
-0.78782716 -0.60568469 -0.00000049
-0.25360763 0.03985171 0.00000758
-0.04168896 0.24075955 0.08180656
-0.78129301 -0.24985329 -0.00000138
-0.15895836 0.34915889 0.31198356
-0.16825701 -0.50110440 0.33023215
-0.28243481 -0.30090330 0.55432647
-0.12527197 -0.47295501 0.24586691
-0.61466986 0.03145138 -0.00000126
-0.13592287 0.15574105 0.00000761
-0.75749263 0.00131899 -0.00000121
-0.69989426 -0.76203020 -0.00000009
-0.04858795 0.22564500 0.09536187
-0.08237813 0.53925865 0.16167861
-0.24216861 0.12307697 0.47529326
-0.05076279 -0.70537316 0.09963035
-0.59853025 -0.47944706 -0.00000029
-0.75994455 -0.00097687 -0.00000183
-0.07771776 -0.56821474 0.15253392
-0.27627704 0.13485812 0.00000581
-0.11294846 -0.27566015 0.00000000
-0.57177860 -0.08644250 -0.00000087
-0.62179469 -0.18429768 -0.00000091
-0.18596077 -0.25682617 0.36497869
-0.44825622 -0.07864562 -0.00000036
-0.68041891 -0.32555477 -0.00000091
-0.10930606 -0.42022116 0.00000000
-0.10180521 0.52815323 0.19981058
-0.60754957 0.04855096 -0.00000126
-0.37378787 0.39335822 -0.00000088
-0.45868267 0.27696637 -0.00000103
-0.37123340 0.05018954 0.00000540
-0.28199396 -0.75435943 0.00000000
-0.18097081 0.12508891 0.35518620
-0.55171976 -0.57280112 0.00000000
-0.65618068 -0.19019708 -0.00000105
-0.11489235 0.34998603 0.22549582
-0.21929383 0.18006334 0.43039770
-0.30404444 0.02181735 0.00000000
-0.01976427 0.65753073 0.03879063
-0.16049421 -0.78624216 0.31499635
-0.04039368 -0.08596931 0.07927926
-0.40884191 0.35153144 -0.00000036
-0.23724818 -0.72226763 0.46563868
-0.16502986 0.59315179 0.00000029
-0.10012937 -0.57841726 0.19652041
-0.44147506 0.00364275 0.00000482
-0.05126184 0.59465774 0.00000000
-0.18829142 0.24085746 0.36954970
-0.33400169 -0.35637649 0.00000000
-0.27502187 -0.02885268 0.53977827
-0.12417695 0.06027624 0.24371775
-0.69689887 0.07739846 -0.00000170
-0.17048001 0.42852699 -0.00000007
-0.17963899 0.16475872 0.35257240
-0.29139315 -0.33159996 0.57190877
-0.17502602 -0.28016132 0.00000000
-0.52654468 -0.23320862 -0.00000042
-0.38707278 -0.43473137 0.00000000
-0.31620421 -0.68270963 0.00000000
-0.23647968 -0.11453521 0.46413172
-0.24274757 0.28984109 -0.00000013
-0.23673436 -0.45631679 0.46463025
-0.13310716 -0.32258958 0.00000000
-0.33271551 -0.52903514 0.65301082
-0.53562442 -0.35492676 -0.00000024
-0.01720672 0.05126681 0.03377103
-0.16885204 -0.47289991 0.33139998
-0.09445561 -0.65235835 0.18538471
-0.10818445 0.55360575 0.21233111
-0.02395066 0.12315646 0.04700711
-0.03633087 0.16407441 0.07128777
-0.22659624 0.10647344 0.44473451
-0.06659637 0.47738552 0.00000000
-0.29462575 0.06755906 0.00000654
-0.37344975 -0.68534728 0.00000000
-0.17628747 0.23597064 0.34598862
-0.24354406 -0.65463919 0.47799540
-0.31486339 -0.64633160 0.61797223
-0.03620176 0.66200556 0.00000152
-0.13064873 -0.62162498 0.00000000
-0.00861390 -0.31666748 0.01690621
-0.09816820 0.30642207 0.00000000
-0.13942525 -0.77189786 0.00000000
-0.03432776 0.24884551 0.06737389
-0.15976061 0.20286081 0.31355753
-0.11104285 -0.53190356 0.21793991
-0.37489539 -0.50341538 0.00000000
-0.20822154 -0.21203753 0.40866948
-0.19338613 -0.27198981 0.00000000
-0.00099145 0.63462191 0.00000000
-0.29269585 -0.26493048 0.57446581
-0.77204345 -0.16570932 -0.00000159
-0.33798078 0.01621646 0.66334699
-0.18834017 0.17217341 0.00000000
-0.75037239 -0.35798287 -0.00000111
-0.24767543 -0.00644276 0.48610589
-0.45957026 -0.36123609 0.00000000
-0.55820966 -0.11477793 -0.00000077
-0.17046598 -0.30339550 0.33456760
-0.32590796 -0.17455751 0.00000000
-0.18529536 0.03519202 0.36367358
-0.13598596 0.08747062 0.26688062
-0.08464172 -0.06483360 0.00000000
-0.28519994 -0.58094804 0.55975246
-0.46710130 -0.29243174 -0.00000006
-0.04326536 0.56542030 0.08491541
-0.49697590 0.10001418 0.00000215
-0.67453237 -0.17981217 -0.00000115
-0.11471513 -0.12122733 0.22514737
-0.15010474 -0.72038041 0.29460531
-0.45846522 0.02582259 -0.00000059
-0.25104475 0.28974293 0.00000370
-0.10116064 0.25709337 0.19853337
-0.35198623 -0.31299499 0.69083405
-0.24477154 -0.31216396 0.00000000
-0.13028293 0.23013625 0.25570222
-0.19108421 -0.73365807 0.37503428
-0.15955486 0.56762733 0.00000082
-0.20508159 0.19446626 0.00000599
-0.55365497 -0.00029571 -0.00000095
-0.21789687 -0.59004235 0.00000000
-0.12447023 -0.60493661 0.24429335
-0.31239506 0.26607456 -0.00000039
-0.22418393 0.16660100 0.44000014
-0.15026559 0.07134410 0.00000000
-0.14022363 0.15462493 0.00000000
-0.02718788 0.70932464 0.05336091
-0.04628361 0.05690971 0.09083923
-0.55986899 -0.58683285 0.00000000
-0.09364039 0.59029289 -0.00000003
-0.34513255 -0.20961168 0.67738278
-0.21699737 -0.13778923 0.00000000
-0.18729129 0.04271926 0.00000000
-0.33456872 -0.75580595 0.65664726
-0.15380127 0.32738669 0.30186172
-0.10891405 -0.01036812 0.00000000
-0.06313541 0.48098726 0.00000383
-0.09332591 0.56753642 0.18316760
-0.30548822 -0.00529931 0.59957422
-0.05292964 -0.65423450 0.10388316
-0.36420313 0.10621756 0.00000460
-0.22608925 -0.45947372 0.44373745
-0.45090371 0.14581523 -0.00000077
-0.10461772 0.55196317 0.20533013
-0.12804391 0.66684833 -0.00000023
-0.08465375 -0.05582817 0.16614695
-0.59011549 -0.41253156 -0.00000038
-0.32975818 0.17347421 0.00000413
-0.53318355 -0.46228494 -0.00000004
-0.06961277 0.02366819 0.13662655
-0.38348494 0.32421751 0.00000058
-0.18722680 0.54100908 -0.00000034
-0.02070559 0.48556757 0.04063813
-0.06996476 0.32711888 0.13730672
-0.30566140 -0.72539144 0.00000000
-0.45086059 0.13613526 -0.00000075
-0.07528579 -0.17544531 0.14776078
-0.19847491 0.22122898 0.00000000
-0.01237463 -0.60171490 0.02428726
-0.17217929 0.05949125 0.00000851
-0.28432801 -0.67067007 0.55804079
-0.23680362 -0.62544763 0.00000000
-0.42910781 0.26620049 -0.00000089
-0.08995761 0.15582881 0.17655665
-0.05168781 -0.20514356 0.10144585
-0.32404830 -0.62041864 0.63599946
-0.14700384 0.45704350 0.28852034
-0.63397881 -0.75130153 0.00000000
-0.54181505 -0.65706717 0.00000000
-0.43489493 -0.27728643 0.00000000
-0.25083480 -0.39104833 0.49230522
-0.33166924 -0.15397507 0.65095877
-0.26906895 0.13937818 0.52809285
-0.32779444 0.03303753 0.00000652
-0.27118623 0.31273784 -0.00000030
-0.21651780 -0.31755970 0.00000000
-0.74493593 -0.63148413 -0.00000042
-0.18430734 0.16456818 0.36173490
-0.34365032 0.40482136 -0.00000077
-0.36957377 0.19748987 0.00000297
-0.24920465 -0.25431909 0.48910629
-0.12702880 0.08170823 0.24929995
-0.05429360 -0.53383139 0.10656014
-0.07743393 -0.51146886 0.15197686
-0.05906307 -0.53065112 0.11592102
-0.34828140 -0.72157908 0.68356111
-0.03282500 0.00607672 0.00000000
-0.28090181 -0.78117097 0.55131613
-0.40590417 -0.55040751 0.00000000
-0.77857157 0.00223702 -0.00000163
-0.08439209 -0.11343252 0.16563339
-0.22717634 0.11550621 0.44586670
-0.47297656 0.18271233 0.00000123
-0.00508631 0.64961919 0.00000218
-0.12898977 0.01399818 0.25314670
-0.13881928 0.41300998 0.27245711
-0.49877461 -0.05641466 -0.00000061
-0.23264668 -0.09521235 0.45660882
-0.25284517 0.15592955 0.49625310
-0.09738277 0.10840186 0.19111390
-0.03321569 -0.56002992 0.06519128
-0.01104006 -0.52560276 0.02166794
-0.23701325 -0.20065284 0.46517862
-0.10406335 0.56789819 0.20424265
-0.60832684 0.08368075 0.00000028
-0.07216688 0.52592012 0.14163584
-0.47616382 -0.01782964 -0.00000059
-0.01416353 0.63932392 0.00000220
-0.33546204 -0.44948380 0.65840170
-0.48217168 0.06407424 0.00000303
-0.26793146 -0.22615324 0.00000000
-0.15805487 -0.41027343 0.31020876
-0.18320164 -0.46577431 0.35956345
-0.54739711 0.21835170 -0.00000131
-0.55194217 -0.28484586 -0.00000044
-0.30446071 -0.18067413 0.59755686
-0.75112516 -0.64379033 -0.00000039
-0.05153111 0.32993809 0.10113831
-0.18190813 0.12071171 0.00000744
-0.46518622 -0.50286838 0.00000000
-0.03566219 0.00628698 0.06997049
-0.16956089 0.44757185 -0.00000010
-0.06121983 -0.66111314 0.12015401
-0.12120659 -0.40349548 0.23788792
-0.74193553 -0.49678770 -0.00000076
-0.33632839 -0.70655547 0.00000000
-0.03603009 0.59502206 0.07071500
-0.27763648 -0.78503416 0.54490740
-0.45719764 -0.48999875 0.00000000
-0.29914298 0.09440816 0.58711930
-0.51303423 0.11296983 0.00000162
-0.03501321 0.49911087 0.00000000
-0.18498529 -0.29462027 0.36306415
-0.04461156 0.31915217 0.08754524
-0.17028088 0.51957880 0.00000141
-0.12040221 -0.28542870 0.23630919
-0.07088909 -0.58986867 0.00000000
-0.43468982 -0.28351060 0.00000000
-0.01997716 0.17161657 0.00000912
-0.12431345 -0.12993239 0.24398565
-0.18428504 -0.78184415 0.36168978
-0.42097147 -0.02843643 -0.00000033
-0.09229996 -0.52266017 0.00000000
-0.08128961 0.14503558 0.15952863
-0.03019039 0.49324086 0.05925362
-0.05452835 0.10344607 0.10700249
-0.18007842 0.32948092 0.35343295
-0.77486234 -0.16759335 -0.00000158
-0.20609085 -0.15363457 0.40448784
-0.31832052 -0.34446086 0.00000000
-0.00146208 0.74585478 0.00286799
-0.25157286 -0.62255461 0.49375324
-0.54834449 -0.38404654 -0.00000025
-0.17441999 0.40074287 0.34232955
-0.50830679 0.26522721 -0.00000083
-0.29723457 0.01402665 0.58337497
-0.34877084 -0.32307984 0.68452321
-0.42966199 -0.63303846 0.00000000
-0.16590775 -0.53771812 0.32562132
-0.16754281 0.03531111 0.00000000
-0.06103132 -0.35154213 0.00000000
-0.33982053 -0.71257357 0.66695508
-0.16243829 -0.07856571 0.31881195
-0.51004105 0.03765940 -0.00000083
-0.18774201 0.22716497 0.36847633
-0.13061435 -0.77140973 0.25635220
-0.07893470 -0.14667697 0.15492238
-0.57465065 -0.75587786 0.00000000
-0.34310100 0.36408220 0.00000069
-0.32550162 -0.52987507 0.63885219
-0.34313895 -0.28197548 0.67346971
-0.00842491 0.60010910 0.00000287
-0.28851432 -0.71128649 0.56625704
-0.01920813 0.27383681 0.03769913
-0.45518314 -0.53441342 0.00000000
-0.35305716 -0.47614383 0.69293534
-0.23402883 0.01010154 0.45932196
-0.45793119 -0.44616767 0.00000000
-0.05166627 0.09415609 0.10140358
-0.51328491 -0.46791263 0.00000000
-0.07364705 0.38348499 0.14453578
-0.38717060 0.16206912 0.00000322
-0.09421303 0.31751985 0.00000582
-0.30884262 0.11517843 0.60615817
-0.16024256 0.42585632 0.31450433
-0.12034435 -0.41047851 0.23619565
-0.01132729 -0.25961390 0.02223167
-0.16049063 0.15037292 0.31499013
-0.25702221 -0.02916070 0.50445059
-0.24942601 -0.05002581 0.48954155
-0.74587238 -0.61246038 -0.00000047
-0.12734298 0.50129481 0.24993246
-0.48382829 0.30576724 -0.00000119
-0.40178858 -0.08251051 -0.00000015
-0.04417013 0.35363131 0.08667988
-0.23242749 0.04814783 0.45617087
-0.21851448 -0.71638301 0.00000000
-0.52309491 0.06971960 -0.00000094
-0.04551710 0.58055452 0.08933078
-0.49387541 -0.36807487 -0.00000004
-0.68141369 -0.53730243 -0.00000054
-0.13529875 0.04378131 0.26554612
-0.15160894 -0.13744667 0.29755755
-0.03993395 0.18791900 0.07836035
-0.08721862 0.62759022 -0.00000007
-0.14346290 -0.75149539 0.28156960
-0.18277630 0.48554268 0.00000174
-0.23380111 -0.02304564 0.45887489
-0.19858822 -0.07633206 0.00000000
-0.34602418 -0.56785443 0.00000000
-0.56486498 0.18799420 -0.00000133
-0.38513317 -0.51436928 0.00000000
-0.13924306 -0.38860568 0.00000000
-0.24654443 0.25246660 -0.00000008
-0.20982169 0.07826762 0.41181122
-0.28492575 -0.44588438 0.00000000
-0.24688116 -0.74434539 0.48454501
-0.05892540 -0.26817603 0.11565082
-0.42151463 -0.26974667 0.00000000
-0.23178362 -0.70005273 0.45491359
-0.02126473 0.58265822 0.00000294
-0.27497404 0.41918225 0.00000108
-0.20867479 -0.48831221 0.40955869
-0.11184580 -0.04245913 0.21951584
-0.58716193 0.17786544 -0.00000141
-0.79643927 -0.16768209 -0.00000158
-0.12039451 -0.24267214 0.23629408
-0.26328578 -0.16902853 0.00000000
-0.13382119 0.58917451 0.00000095
-0.26332076 0.11440816 0.51681322
