ply
format ascii 1.0
element vertex 1377
property float x
property float y
property float z
end_header
-0.62611368 -0.12986071 -0.00000016
-0.36294085 0.56254904 0.04918528
0.57866360 -0.62813829 -0.00000011
-0.28616662 0.56556304 0.02027466
-0.61544470 0.07353901 -0.00000021
-0.37274201 -0.09343026 -0.00000044
-0.09432128 -0.61966942 -0.00000011
0.23034938 0.41981150 -0.00000100
0.30649227 0.17031400 -0.00000075
-0.27298571 -0.58362498 -0.00000014
0.33124041 0.20894932 -0.00000091
-0.00653071 -0.25748428 -0.00000034
0.76249500 -0.68719323 -0.00000028
-0.44197552 0.56489383 0.08108228
-0.21421929 0.18810149 -0.00000062
-0.27366248 0.33735996 -0.00000062
0.28601793 0.38606794 -0.00000111
0.38852881 0.36980724 -0.00000074
-0.31324003 -0.05303592 -0.00000047
0.32227635 0.44055771 -0.00000074
0.58479057 -0.19873366 -0.00000092
-0.60931935 0.75166436 0.21987917
-0.10650749 -0.02651966 -0.00000048
-0.04382649 -0.62122733 -0.00000011
0.37504166 0.11722950 0.00000406
-0.15124717 -0.46261834 -0.00000021
0.12374040 0.22937787 -0.00000064
0.57207354 -0.16357064 -0.00000095
-0.51218941 0.56424902 0.10835018
0.33243985 0.37673606 -0.00000124
0.04803328 0.17094944 -0.00000061
0.15174456 -0.76794555 -0.00000002
-0.31156744 -0.25068238 -0.00000034
-0.12175821 0.51026719 -0.00000082
-0.15212724 -0.35669453 -0.00000028
0.54115436 -0.33484192 -0.00000052
0.38630566 -0.12078025 -0.00000044
-0.68987359 -0.74490974 0.00000000
-0.61284629 0.06623403 -0.00000021
0.26784938 -0.59525440 -0.00000013
-0.42963415 -0.73416480 -0.00000004
-0.43204579 0.08802572 -0.00000041
0.64710601 0.11202175 -0.00000108
0.72941501 -0.34339798 -0.00000110
-0.39880678 0.04885196 -0.00000044
-0.40945466 0.06230744 -0.00000043
-0.49178495 -0.75391544 -0.00000003
-0.37951976 -0.64010413 -0.00000010
-0.35183912 0.70809863 0.10188261
0.64257200 -0.12671720 -0.00000125
0.65209548 0.00066701 -0.00000153
0.01752454 0.57186005 0.00000244
-0.38546201 0.55991875 0.05698159
-0.36755499 -0.35882380 -0.00000028
0.22602337 0.45158627 -0.00000104
-0.19844725 -0.48598002 -0.00000020
-0.34847567 0.41563311 -0.00000056
-0.63628136 0.20445879 0.01596791
0.62621643 0.14305769 -0.00000172
-0.11036237 0.49988378 -0.00000081
-0.63160929 -0.50724732 -0.00000009
-0.46876610 -0.26160875 -0.00000031
-0.27685887 0.10529904 -0.00000057
-0.39773247 -0.52618448 -0.00000017
0.30194788 0.49451299 -0.00000131
-0.63851103 0.09014505 -0.00000019
0.75958146 -0.13126277 -0.00000161
0.11623622 0.40603560 -0.00000075
-0.26996743 0.12846868 -0.00000058
0.67767574 -0.06688934 -0.00000148
0.67937351 -0.22080166 -0.00000118
-0.42815371 0.54224095 0.06678592
0.68645913 0.10644132 -0.00000173
0.18215211 -0.59103738 -0.00000013
-0.61388008 -0.64681005 -0.00000008
0.23064353 -0.08390665 -0.00000045
0.02412209 0.51272701 -0.00000082
0.09653443 0.26446087 0.00000625
0.19230306 0.33209788 -0.00000071
-0.12019131 -0.21800918 -0.00000036
-0.06850734 -0.17352974 -0.00000039
0.11609748 0.24747451 -0.00000065
0.23574574 0.38895912 0.00000185
-0.64520105 0.53869132 0.15046732
0.66009411 -0.03351030 -0.00000149
-0.35808391 -0.07604953 -0.00000045
-0.16333220 -0.68840613 -0.00000007
0.01068310 -0.39096383 -0.00000026
-0.61246563 0.36887277 0.07107566
-0.26281440 -0.23988680 -0.00000035
-0.32216074 -0.56432987 -0.00000015
0.34626637 0.27460848 0.00000178
-0.59622273 0.22852781 0.00970067
0.22924840 0.00252887 -0.00000050
-0.19276393 0.25422904 -0.00000066
0.53394352 -0.51100983 -0.00000018
-0.24537254 0.32082519 -0.00000065
0.08203162 0.40686499 0.00000415
0.07644761 0.07993392 0.00000955
-0.78370801 -0.16145401 0.00000000
0.26133262 0.47530109 -0.00000019
-0.08313548 -0.21042562 -0.00000037
-0.45261083 0.71715519 0.14493038
-0.09829923 0.53065465 -0.00000083
-0.62275406 -0.23084185 -0.00000015
0.20989056 0.51417522 -0.00000111
0.53348585 -0.53528190 -0.00000017
-0.54119039 0.27805320 0.00754211
0.01259485 0.70987013 0.00000027
0.20304769 0.07194186 0.00000777
0.10580076 -0.61805399 -0.00000011
0.66196213 0.03630774 -0.00000163
0.46144507 0.31866694 -0.00000122
-0.37488785 0.19959167 -0.00000049
-0.51511464 0.53538900 0.09818497
-0.05372543 0.15639343 -0.00000060
-0.33427250 0.38792112 -0.00000057
0.64106308 -0.07658742 -0.00000134
0.63973250 -0.43973261 -0.00000063
-0.61861400 -0.23080684 -0.00000015
0.15738572 0.47079533 0.00000189
-0.39364513 0.40440657 -0.00000051
0.32050578 -0.21741192 -0.00000036
0.44297273 0.07957340 0.00000343
-0.00443386 0.13132692 -0.00000058
-0.76615257 0.35207062 0.12472823
0.01673218 0.12036318 -0.00000058
-0.24549948 -0.74026887 -0.00000004
-0.08137075 0.73604765 0.00682593
-0.30966634 0.67061350 0.07066028
0.76349865 -0.52234619 -0.00000069
0.05483995 0.52469156 0.00000265
-0.03245131 -0.06536316 -0.00000046
0.09551422 0.26292306 0.00000629
0.59506033 -0.30450351 -0.00000075
0.49361087 0.22037323 -0.00000007
0.62999386 -0.72635980 -0.00000005
-0.67740896 0.74011949 0.24204218
0.59212675 -0.36929618 -0.00000061
-0.05720797 0.41941556 -0.00000076
0.20595812 -0.26346811 -0.00000034
0.33918988 0.39993005 -0.00000131
0.00299741 -0.31162088 -0.00000031
-0.43868471 0.14084731 -0.00000041
0.63069177 -0.13903279 -0.00000119
-0.08559752 0.20666576 -0.00000063
0.04101943 0.01862376 0.00001108
-0.64798331 -0.47123754 -0.00000008
-0.14084095 0.31279617 -0.00000070
-0.61752526 0.23174493 0.01931124
0.06822275 -0.73244165 -0.00000004
0.75770891 -0.30300459 -0.00000124
0.50363259 0.02215138 0.00000329
-0.61630172 0.60353306 0.16455513
-0.72893799 0.11517367 0.01728954
-0.37556030 0.15484654 -0.00000048
0.62102502 -0.50833828 -0.00000044
0.26198561 0.08935827 0.00000659
0.27221947 0.33103662 0.00000219
0.33976140 -0.36802612 -0.00000027
0.52975235 -0.46718763 -0.00000022
-0.70114147 0.26559234 0.06535152
-0.70334691 -0.75678677 0.00000000
0.14304351 0.07649138 0.00000860
0.32681277 0.33372689 0.00000110
0.21863398 0.08623986 -0.00000055
-0.54385984 -0.03711972 -0.00000027
0.47361374 0.29282754 -0.00000099
-0.28672883 -0.17012578 -0.00000039
0.65876869 -0.14754402 -0.00000126
0.43078507 -0.44986635 -0.00000022
0.76756028 -0.34059189 -0.00000115
0.56912156 0.19459155 -0.00000164
0.06601278 0.25942662 0.00000679
-0.65176596 -0.77348142 -0.00000002
0.35553747 -0.02171082 -0.00000054
-0.38172906 0.44126915 0.00901347
0.41996433 -0.19358413 -0.00000041
-0.05296440 -0.35105203 -0.00000028
0.14048306 0.26468042 -0.00000067
-0.39526845 0.62145363 0.08494402
-0.02529087 -0.18860868 -0.00000038
-0.69521416 0.23804302 0.05223026
-0.31995332 -0.53600762 -0.00000016
-0.32129736 0.70976822 0.09056601
0.27711455 -0.05338677 -0.00000047
0.65852047 0.09278136 -0.00000173
0.31667438 -0.13525083 -0.00000042
-0.33048573 -0.56098957 -0.00000015
-0.04753481 -0.73187125 -0.00000004
0.27824224 0.43117637 -0.00000117
-0.54395271 0.01544849 -0.00000028
-0.76066922 -0.46016980 0.00000000
0.62504742 0.02251797 0.00000096
-0.37130364 0.41682236 -0.00000053
0.16975656 -0.51145612 -0.00000018
0.68926214 0.04051162 -0.00000060
0.49838649 0.09999590 -0.00000123
-0.55937604 0.66943563 0.16807365
-0.58779305 0.42592851 0.08376828
0.51676038 0.02108011 -0.00000113
-0.41253278 0.76698816 0.14875386
0.07021205 0.00982289 -0.00000051
0.34721898 0.24535259 -0.00000103
-0.24225404 -0.19495276 -0.00000038
0.58315403 -0.02752115 -0.00000125
-0.69325623 -0.53986055 -0.00000002
0.16364073 -0.06938358 -0.00000046
-0.40424156 0.61561552 0.08617280
0.20936666 0.19091630 -0.00000062
0.17124452 0.41113721 0.00000269
0.18647278 -0.38859238 -0.00000026
-0.39954444 -0.79013716 -0.00000001
-0.05476392 0.71791910 -0.00000093
0.17784707 0.14545798 0.00000695
-0.05379352 -0.04935766 -0.00000047
0.41960063 0.14238933 -0.00000106
-0.74867954 0.52597343 0.18604142
0.55941149 -0.30108887 -0.00000064
0.72367119 -0.43831267 -0.00000090
-0.38419413 0.00348131 -0.00000044
0.19918972 0.26265727 -0.00000066
-0.62251256 0.39954474 0.08703555
-0.56788296 0.33770104 0.04138348
-0.06636401 -0.09152813 -0.00000044
-0.57689227 0.63538998 0.16159487
0.23680854 -0.18474376 -0.00000038
-0.19694976 -0.66782464 -0.00000008
0.62094158 -0.40919873 -0.00000063
0.40599333 -0.32626715 -0.00000030
0.17976489 0.40314383 -0.00000080
0.10919893 0.37425370 -0.00000073
0.34477885 0.41776541 -0.00000136
0.44557194 0.11423611 0.00000276
0.34996918 0.28906547 0.00000145
0.68603075 0.08941452 -0.00000142
-0.03137158 -0.76808233 -0.00000002
-0.52698268 0.62907839 0.13955867
0.35470631 -0.32930033 -0.00000029
-0.01568050 0.20739717 -0.00000063
0.20087315 0.40324839 0.00000227
0.76332469 -0.34565295 -0.00000114
-0.55746308 -0.10526337 -0.00000024
0.33194244 -0.59488721 -0.00000013
0.01419879 0.48648322 -0.00000080
-0.76049807 -0.44191392 0.00000000
0.06052548 -0.11476794 -0.00000043
-0.10791884 -0.59043058 -0.00000013
0.13511891 0.44960039 -0.00000078
0.77031094 -0.65703540 -0.00000036
0.54095969 0.08661868 0.00000142
-0.46301174 0.61917355 0.11060267
0.28685439 0.27031645 0.00000300
-0.75342081 -0.72835038 0.00000000
0.10109550 0.64627475 -0.00000018
0.12300230 0.27686171 0.00000565
-0.18270796 -0.18682320 -0.00000038
0.67608002 -0.65023147 -0.00000033
0.24964350 -0.51469871 -0.00000018
-0.26050266 -0.08770820 -0.00000045
-0.48919993 0.04459425 -0.00000034
-0.72042095 0.16600278 0.03387383
0.50191265 -0.71384029 -0.00000005
-0.57123935 0.08005223 -0.00000026
0.11646903 0.39843773 0.00000377
-0.27350230 -0.75302819 -0.00000003
-0.33713891 -0.43187420 -0.00000023
-0.47137116 -0.06602954 -0.00000034
0.65142786 -0.29091078 -0.00000096
-0.21943028 -0.07322017 -0.00000045
0.30270486 0.17327214 0.00000444
-0.00631809 0.72961976 -0.00000096
-0.62722084 0.06774324 -0.00000020
0.63980020 0.10257189 -0.00000169
0.35470233 -0.11389008 -0.00000043
-0.22773893 0.22061240 -0.00000064
-0.35051859 0.76946679 0.12541858
-0.35711461 0.46488658 0.00862264
0.77207285 -0.56748637 -0.00000058
-0.16566445 0.18190223 -0.00000061
-0.18020501 -0.71305566 -0.00000005
-0.22748858 -0.24960446 -0.00000034
0.63534842 0.11764959 -0.00000095
-0.63228690 0.24860969 0.03170730
0.09004806 0.63506459 -0.00000097
0.69803265 -0.43760692 -0.00000082
-0.58901081 -0.26925110 -0.00000018
0.54877040 0.01800462 0.00000250
-0.62720318 0.52833579 0.13935406
0.33203267 -0.16088094 -0.00000040
0.02722491 0.30598862 -0.00000069
-0.61011036 -0.52889544 -0.00000011
-0.51340459 0.47588636 0.07419251
-0.25428346 -0.63939804 -0.00000010
-0.08884014 -0.58450001 -0.00000013
0.44787202 -0.12498129 -0.00000063
0.07550167 0.14742310 -0.00000059
0.50743510 -0.59086896 -0.00000013
0.19775005 -0.38902800 -0.00000026
0.20396106 0.03277109 -0.00000052
-0.57825535 -0.64053236 -0.00000010
-0.06261596 0.65476664 -0.00000091
0.11998811 0.15121333 -0.00000059
0.46302104 -0.17275263 -0.00000058
-0.12709492 -0.31165960 -0.00000031
-0.73254655 -0.18353719 -0.00000004
0.15612740 -0.01838359 -0.00000049
-0.56695231 -0.37545243 -0.00000018
0.76889786 0.02525399 -0.00000195
-0.30715580 0.08545182 -0.00000054
0.64455920 0.04961956 -0.00000160
0.03452685 0.74571430 -0.00000069
-0.55840179 0.69531573 0.17783563
-0.41673453 0.63898407 0.10022891
0.70401933 -0.52809543 -0.00000066
-0.71116092 0.64896597 0.21954335
-0.66698607 -0.64043466 -0.00000002
-0.36509857 0.11777015 -0.00000049
0.46781325 0.15203061 -0.00000123
-0.24175432 0.50134694 -0.00000069
0.11964787 0.12555897 -0.00000058
-0.56369206 -0.42286533 -0.00000017
-0.62536865 -0.69185844 -0.00000006
-0.57080578 -0.65063643 -0.00000009
0.34040900 -0.78059286 -0.00000001
-0.71884189 -0.04789536 -0.00000008
-0.31460973 -0.48145623 -0.00000020
0.29617383 -0.22300893 -0.00000036
-0.71575076 -0.27424873 -0.00000004
0.71279405 0.06612071 -0.00000151
0.41913071 -0.34253761 -0.00000029
-0.41121295 -0.20536161 -0.00000037
0.25554777 -0.29051880 -0.00000032
0.18094023 0.24094217 -0.00000065
-0.49416108 -0.08236542 -0.00000031
-0.41539921 0.11570065 -0.00000043
-0.55954042 0.16116443 -0.00000029
-0.42034964 0.08696801 -0.00000042
-0.28235545 0.37892135 -0.00000062
-0.69859114 0.14643584 0.01764824
-0.21671150 0.53275685 -0.00000072
-0.48167933 0.29745871 -0.00000039
0.23215736 0.45952607 -0.00000108
0.59671848 -0.07922276 -0.00000119
-0.20634683 -0.01834326 -0.00000049
-0.01044193 0.41594738 -0.00000076
-0.16672416 -0.18485464 -0.00000038
0.49591187 -0.71038366 -0.00000006
0.35069907 0.09220643 -0.00000074
-0.55225031 -0.04133495 -0.00000026
-0.71659329 0.69636806 0.24025209
-0.51311479 0.40762095 0.04732215
0.68281337 0.07675029 -0.00000177
0.00519142 0.00202353 -0.00000050
-0.48518550 -0.39737971 -0.00000025
0.03898300 0.17726132 -0.00000061
0.22652409 -0.75172129 -0.00000003
0.00894650 -0.64986640 -0.00000009
0.40432711 0.03364469 0.00000499
0.22307588 -0.43535650 -0.00000023
0.46102438 -0.76834913 -0.00000002
-0.74948516 -0.09285416 -0.00000004
-0.15465464 0.16430679 -0.00000060
-0.56424201 -0.50272900 -0.00000016
-0.67422804 -0.20742708 -0.00000010
-0.71697705 0.29839778 0.08441650
0.31282613 0.18882208 -0.00000081
0.78063131 -0.06579465 -0.00000181
-0.25607192 -0.04188506 -0.00000047
0.78475991 -0.47411044 -0.00000081
-0.19179399 0.53820213 -0.00000075
0.13905572 -0.29427356 -0.00000032
0.23276994 -0.43199475 -0.00000023
0.10453872 -0.36542478 -0.00000027
-0.72020165 -0.65603051 0.00000000
0.21506771 0.54412840 -0.00000119
-0.43189953 0.50886426 0.05517204
0.04318646 -0.63680345 -0.00000010
-0.01640105 -0.73406717 -0.00000004
0.28429947 -0.10609077 -0.00000043
0.00694192 -0.08488428 -0.00000045
0.04050126 -0.49211592 -0.00000019
-0.60343387 0.22676951 0.01183794
-0.33246440 -0.44067997 -0.00000022
0.74555168 -0.23548483 -0.00000137
0.45079890 -0.05887720 -0.00000077
-0.51089669 -0.42444469 -0.00000023
-0.62790041 0.13453219 -0.00000021
-0.69514297 0.31342027 0.08174665
-0.52094801 -0.40456149 -0.00000022
0.14281493 0.07729289 -0.00000055
-0.72435921 -0.75630561 0.00000000
0.64127273 0.06841840 -0.00000018
-0.20560557 -0.65723880 -0.00000009
-0.17673480 0.75211062 0.05050026
-0.52254927 -0.01673088 -0.00000029
0.60186905 0.14311637 -0.00000165
-0.56316714 0.49555066 0.10140461
-0.32772735 -0.17140495 -0.00000039
-0.32640757 0.04280110 -0.00000051
-0.22037570 0.24956477 -0.00000066
0.52377861 0.03846684 -0.00000119
-0.14482468 0.24242753 -0.00000065
0.27584348 0.04890083 0.00000704
-0.38535335 0.64694056 0.09104748
0.75617924 -0.62916472 -0.00000043
-0.46119891 0.52981689 0.07486848
-0.73046053 -0.55085829 0.00000000
0.02484223 0.40059321 -0.00000075
0.02105969 -0.64085991 -0.00000010
-0.62441117 0.16954109 -0.00000022
0.32712176 -0.73249129 -0.00000004
0.45499844 0.25604231 -0.00000140
-0.64480671 0.04975902 -0.00000017
-0.48819627 -0.70456602 -0.00000006
-0.65492914 0.70153191 0.21810649
0.72546019 -0.60197576 -0.00000050
-0.56181759 0.50046514 0.10280189
0.33333981 0.16045182 0.00000408
0.40912931 -0.61861913 -0.00000011
-0.64294819 0.46320933 0.11999885
-0.76897316 -0.37025758 0.00000000
-0.78822840 -0.13357959 0.00000000
-0.04322527 0.15947831 -0.00000060
-0.68179653 -0.72077131 0.00000000
0.35343205 0.37281776 -0.00000012
0.51285148 0.19062103 0.00000009
0.24820522 -0.11158367 -0.00000043
-0.10769666 -0.28627865 -0.00000032
-0.74665961 -0.25239587 -0.00000001
0.33154221 0.15567573 0.00000420
-0.45291889 0.33908095 -0.00000043
0.61056348 0.13080713 -0.00000165
0.35608331 0.00903808 0.00000636
-0.12799397 -0.47596708 -0.00000020
0.60590320 0.17297924 -0.00000172
0.49310867 -0.21196192 -0.00000060
0.64983104 0.05825464 -0.00000016
0.10869349 0.03569094 0.00000978
-0.46839276 -0.33043734 -0.00000029
-0.08180756 -0.26208909 -0.00000034
0.61453171 -0.04062451 -0.00000133
0.11504987 -0.01162378 -0.00000049
-0.26458100 -0.55630593 -0.00000015
-0.28583865 -0.02517726 -0.00000048
-0.12579775 -0.13178283 -0.00000042
-0.29970687 -0.19254277 -0.00000038
0.42836087 0.21760413 0.00000123
0.26934209 -0.69848660 -0.00000006
0.06086924 -0.32942604 -0.00000029
0.15890222 -0.47387027 -0.00000020
-0.75435190 -0.58782103 0.00000000
0.57379989 0.04269382 0.00000158
-0.10951008 0.54447971 -0.00000084
0.35844339 -0.69355935 -0.00000007
-0.54304187 0.38068971 0.04849642
-0.12524847 0.61341945 -0.00000083
-0.37575061 0.58836382 0.06432428
0.66147222 0.13173213 -0.00000181
-0.47860484 -0.03717467 -0.00000034
0.27532327 0.47232304 -0.00000124
-0.23833892 0.12143849 -0.00000058
0.36625888 -0.00464259 -0.00000060
-0.77626647 -0.23301263 0.00000000
0.55511450 -0.07634273 -0.00000107
0.25435254 0.30442101 -0.00000085
0.46643791 0.23166535 0.00000025
0.03857562 0.14219724 -0.00000059
0.29753568 -0.40803193 -0.00000024
0.43195901 -0.36982257 -0.00000027
0.50011358 -0.41883438 -0.00000024
-0.62615893 -0.06698407 -0.00000017
0.43961010 0.08348995 0.00000342
0.75483571 -0.15483306 -0.00000155
0.55038066 0.14878240 -0.00000149
0.52405807 -0.35749682 -0.00000042
0.09498152 0.65173348 -0.00000016
-0.48143660 -0.56759025 -0.00000015
0.03785582 0.56021393 -0.00000085
0.22803912 0.34744752 0.00000275
-0.33378550 0.61814308 0.05954794
-0.14070147 -0.15541005 -0.00000040
-0.58367198 -0.06704400 -0.00000022
-0.75975162 0.25918296 0.08581183
-0.20130992 -0.63495606 -0.00000010
-0.46530853 -0.10358293 -0.00000034
-0.62374433 0.42086058 0.09587314
0.00327215 0.50731731 -0.00000082
0.23051052 -0.49797590 -0.00000019
-0.11883947 0.15979666 -0.00000060
-0.40934816 0.47041080 0.03126102
-0.37966686 0.28526948 -0.00000050
-0.49774824 -0.72669840 -0.00000005
-0.26465571 0.26349028 -0.00000062
-0.66761176 -0.25138108 -0.00000010
-0.17318683 -0.23758534 -0.00000035
0.20640109 0.36342875 -0.00000081
-0.13718539 0.06131726 -0.00000054
0.01607288 0.29737389 0.00000693
-0.59683718 -0.46373949 -0.00000013
-0.29072399 -0.63111163 -0.00000011
0.59896199 0.13472034 -0.00000056
-0.56072991 -0.13302050 -0.00000023
0.38925624 -0.74513033 -0.00000003
0.06120737 0.54091310 -0.00000084
0.71372254 -0.04783932 -0.00000163
-0.38105107 0.45611594 0.01456696
0.14069434 -0.05033501 -0.00000047
-0.14291688 0.03879152 -0.00000052
0.17510909 -0.27370990 -0.00000033
0.43554056 -0.67269019 -0.00000008
-0.20136684 0.42689266 -0.00000072
-0.15710011 -0.27818320 -0.00000033
-0.49869577 0.25786025 -0.00000037
0.03799036 -0.30780386 -0.00000031
-0.01148097 -0.37679951 -0.00000026
-0.39047019 0.05757968 -0.00000045
-0.65064463 0.55087272 0.15737552
0.29533494 -0.52461300 -0.00000017
0.12544980 0.38216569 0.00000390
0.45567761 -0.04262832 -0.00000081
0.61076423 -0.47785035 -0.00000046
0.12469818 -0.45959212 -0.00000021
-0.24743807 0.31365641 -0.00000065
0.10527453 0.29970000 0.00000554
0.64857598 -0.69996481 -0.00000015
0.05535256 -0.20882522 -0.00000037
0.27199673 0.32185746 0.00000236
-0.75142367 0.37540197 0.12809996
-0.57336689 -0.72934344 -0.00000004
0.03372123 -0.56047098 -0.00000015
-0.67515562 0.72454542 0.23505464
-0.71123247 0.04852985 -0.00000010
0.32641696 0.44305839 -0.00000086
0.43359623 0.23847060 -0.00000129
-0.63766897 0.20595350 0.01709764
0.75790465 0.02008331 -0.00000155
-0.37887099 0.20864004 -0.00000049
-0.29204367 -0.49020939 -0.00000019
-0.48049177 -0.07088751 -0.00000033
0.58178034 0.12758007 -0.00000010
0.17876870 0.10665283 0.00000757
0.26997829 -0.32254199 -0.00000030
-0.74822688 0.13115459 0.03111365
-0.24759111 -0.79538142 -0.00000000
0.36840435 -0.74437504 -0.00000003
-0.54978630 -0.40391432 -0.00000019
0.28742737 0.30887064 0.00000230
-0.38360441 0.59221570 0.06891236
0.42374531 -0.30974913 -0.00000031
-0.67921693 0.15918430 0.01505124
0.24391519 -0.45549965 -0.00000022
-0.39807689 0.70404813 0.11841813
0.68355778 -0.32197722 -0.00000100
0.17038843 0.43867482 -0.00000084
0.06193242 0.20080669 -0.00000063
0.71795801 -0.12186821 -0.00000150
-0.54172003 -0.02521921 -0.00000027
-0.06515874 -0.78985906 -0.00000001
0.38485711 0.21430293 0.00000212
0.00696813 0.75607463 -0.00000039
0.14696730 0.45635157 -0.00000080
-0.59120865 0.42554353 0.08495614
0.00644535 -0.63428710 -0.00000010
-0.18637443 -0.35933007 -0.00000028
-0.25497417 0.23922020 -0.00000063
-0.51929499 0.47308515 0.07540334
0.38714926 -0.38707083 -0.00000026
0.44489860 -0.78599002 -0.00000001
-0.37380067 0.22430213 -0.00000050
-0.53415220 -0.03628169 -0.00000028
0.07133935 -0.54976614 -0.00000016
-0.35100844 0.60438374 0.06090553
-0.46455970 -0.68837014 -0.00000007
-0.08992658 0.77820106 0.02670160
0.04036333 0.57266621 -0.00000086
0.78014006 0.00539788 -0.00000195
-0.61129809 0.26089011 0.02829399
0.06393074 0.32641577 -0.00000070
0.45472150 -0.74847468 -0.00000003
-0.59500965 0.59471651 0.15275389
0.45402071 -0.10927629 -0.00000068
0.32608538 -0.16514810 -0.00000040
-0.05288620 -0.13330273 -0.00000042
0.69135495 -0.12998622 -0.00000140
-0.53466073 0.19771570 -0.00000032
-0.39221694 -0.45588454 -0.00000022
-0.56147655 -0.19453839 -0.00000022
-0.39460079 -0.06580507 -0.00000042
-0.53207296 0.74110862 0.18546466
0.48290666 0.13817489 0.00000161
-0.65101956 0.57654707 0.16758567
0.45685362 0.31687652 -0.00000152
-0.15681981 0.62513181 -0.00000080
0.42071398 -0.19880801 -0.00000040
0.48762535 0.26147889 -0.00000070
0.73132675 -0.27058829 -0.00000125
-0.10185611 0.24540529 -0.00000065
0.09793704 -0.79081211 -0.00000001
0.40172881 0.36888092 -0.00000097
0.58989863 0.19375322 -0.00000144
0.35551277 -0.33603686 -0.00000029
-0.07119894 0.02232519 -0.00000051
-0.45017602 -0.45255104 -0.00000022
0.08986787 0.03870536 -0.00000052
-0.13956478 0.02715366 -0.00000052
-0.62219764 -0.44821039 -0.00000011
-0.10784324 -0.62217942 -0.00000011
-0.73650169 0.14272779 0.03105406
-0.65627862 0.59613044 0.17732279
-0.45780660 -0.04119271 -0.00000036
-0.29163212 -0.58094923 -0.00000014
0.49391579 -0.60478380 -0.00000012
0.15696892 -0.51956361 -0.00000018
-0.43266172 -0.27518673 -0.00000033
0.32333186 0.01450291 0.00000689
0.15393116 -0.55483022 -0.00000015
0.14803244 0.03751619 -0.00000052
-0.67944093 0.66500158 0.21339578
0.23360415 -0.73782118 -0.00000004
-0.32248201 0.10697177 -0.00000053
-0.66792026 0.69874023 0.22210422
-0.46102222 0.57048974 0.09074104
-0.46742004 0.00543087 -0.00000036
0.49199059 -0.03379551 -0.00000095
-0.33742395 0.22538308 -0.00000053
-0.13966362 -0.38699438 -0.00000026
0.04746178 0.68707904 0.00000012
0.25555154 0.29450772 0.00000317
-0.33422998 0.47084121 0.00198685
0.69624641 0.07032000 -0.00000127
0.26308443 -0.42673327 -0.00000023
-0.19651569 0.16301551 -0.00000060
0.05813284 -0.12114890 -0.00000042
-0.04710088 0.08030005 -0.00000055
-0.60945861 -0.14497528 -0.00000018
0.53196876 0.11256672 0.00000113
0.47510224 -0.79832591 -0.00000000
-0.67517904 0.60517906 0.18827756
0.67866234 -0.24608726 -0.00000113
-0.07797328 0.18294708 -0.00000061
-0.47390710 0.33883287 0.00499289
-0.43859974 -0.36325061 -0.00000027
-0.34927343 0.52040502 0.02730984
-0.38469353 0.67715930 0.10263324
-0.58466646 -0.69672851 -0.00000006
-0.17917971 -0.06351635 -0.00000046
0.38957669 -0.20452386 -0.00000037
-0.32329717 -0.00200479 -0.00000050
0.48068049 0.04946912 -0.00000107
0.22015226 0.06422541 -0.00000054
-0.48319651 0.71395371 0.15566377
-0.52427967 0.72763232 0.17712793
0.59007852 -0.12040511 -0.00000109
0.01641080 -0.07373216 -0.00000045
-0.76511236 0.05726012 0.00876888
0.29951097 -0.35624207 -0.00000028
-0.48590219 -0.61055296 -0.00000012
0.09591673 -0.02653564 -0.00000048
-0.09681579 -0.60353424 -0.00000012
0.56712588 0.00527916 -0.00000126
0.34500428 0.34424038 -0.00000122
0.37708557 0.41100655 -0.00000126
-0.30983042 0.48669278 -0.00000061
-0.09288325 -0.26254134 -0.00000034
0.17847119 0.04771716 0.00000853
-0.17378000 -0.58230494 -0.00000014
-0.72393051 -0.37316314 -0.00000001
0.46312381 0.01730360 0.00000416
0.75627793 -0.11852909 -0.00000163
0.65114415 -0.42769688 -0.00000069
0.32737900 -0.75698580 -0.00000003
-0.41690937 -0.44366122 -0.00000022
0.63927209 -0.46837732 -0.00000057
0.28663427 0.04428429 -0.00000053
-0.10477954 0.38935941 -0.00000074
0.09023475 -0.31389487 -0.00000030
-0.37408731 -0.31749215 -0.00000030
-0.33406369 -0.68539197 -0.00000007
0.10790534 -0.75212276 -0.00000003
-0.68853558 0.42363198 0.12235458
-0.20215023 0.19727861 -0.00000062
0.25614634 -0.08929510 -0.00000044
-0.34753833 0.09587752 -0.00000050
-0.75354499 0.38027431 0.13084114
0.27443005 0.45357347 -0.00000005
-0.76205318 -0.17263404 -0.00000001
-0.69255658 -0.18217733 -0.00000008
0.08069518 -0.05222957 -0.00000047
0.71566404 -0.37142558 -0.00000101
0.23425459 0.11789588 0.00000655
0.25576631 0.49589718 -0.00000045
-0.56614339 0.62844344 0.15465905
0.13847796 0.58406514 0.00000022
-0.43808411 -0.49115758 -0.00000019
-0.75303744 0.41310846 0.14351163
-0.19228843 0.03226254 -0.00000052
0.73847768 -0.19219122 -0.00000143
0.64952865 -0.59604127 -0.00000036
-0.00006971 -0.63714448 -0.00000010
-0.58358994 -0.32895800 -0.00000017
-0.19309179 -0.63072700 -0.00000011
-0.56235716 -0.29447091 -0.00000020
-0.05621995 0.13337928 -0.00000058
-0.16591489 -0.79318390 -0.00000000
-0.36411544 0.38318330 -0.00000054
-0.16949569 -0.00120940 -0.00000050
0.13955295 -0.35152906 -0.00000028
-0.66295498 0.01824288 -0.00000015
0.16649663 0.04478318 -0.00000053
0.20179800 0.27763616 0.00000444
0.10630631 0.14953818 -0.00000059
-0.59362646 -0.75813714 -0.00000003
-0.20195045 0.03922766 -0.00000052
0.25119989 -0.65353724 -0.00000009
0.46112786 0.22875000 -0.00000136
0.09842887 -0.01405435 -0.00000049
0.43472917 0.11268230 -0.00000105
-0.69832969 0.69188474 0.23133632
0.06779039 0.07520500 0.00000976
-0.42602230 0.53178094 0.06185068
-0.64716744 0.60550267 0.17742511
-0.42772564 0.23300919 -0.00000044
0.10050120 0.00931304 0.00001033
-0.76967383 0.23963391 0.08203859
-0.21066781 -0.12033706 -0.00000042
0.01612194 -0.74472465 -0.00000003
0.75486695 -0.42448717 -0.00000094
0.01242873 0.58349378 0.00000233
0.57515684 0.14321497 -0.00000025
-0.28459671 0.70934502 0.07601512
0.38095723 0.27186290 -0.00000119
0.06629262 -0.58919353 -0.00000013
0.11595655 -0.00389378 -0.00000050
0.51238221 0.20646984 -0.00000018
0.06877177 -0.15763898 -0.00000040
-0.07641358 0.37013682 -0.00000073
0.39940422 -0.79107707 -0.00000001
-0.11130848 0.09582397 -0.00000056
-0.75746695 0.36337007 0.12575272
0.15826486 -0.28842404 -0.00000032
-0.10613708 0.36960692 -0.00000073
-0.39242727 0.25041969 -0.00000048
-0.58260228 0.18472704 -0.00000027
-0.76880238 -0.19781234 0.00000000
0.03010151 -0.51001013 -0.00000018
0.31127605 0.11164429 0.00000538
0.74272305 -0.60214162 -0.00000049
0.40505229 -0.15959818 -0.00000042
-0.29205330 0.68293404 0.06858585
0.72601140 0.04405694 -0.00000185
-0.42283562 0.03535886 -0.00000041
-0.53445053 -0.16728275 -0.00000025
0.14957627 0.21869867 0.00000619
0.53174196 0.09232686 0.00000149
0.23236624 0.54357972 -0.00000086
0.78793000 -0.38315753 -0.00000104
-0.19526843 -0.58663688 -0.00000013
-0.11847504 -0.69377096 -0.00000007
0.43464312 -0.66243884 -0.00000009
-0.07752301 0.57694299 -0.00000086
-0.79939457 -0.57224363 0.00000000
-0.33633369 -0.67031530 -0.00000008
-0.25690994 -0.69469334 -0.00000007
0.47958113 0.26850382 -0.00000150
-0.05739890 0.53079294 -0.00000083
-0.03801066 -0.10060849 -0.00000044
-0.68936948 0.49955230 0.15243864
0.73979895 -0.56045149 -0.00000060
0.03712056 0.16196397 0.00000881
-0.27722277 0.46112490 -0.00000064
0.77407750 0.01185944 -0.00000172
-0.50838979 -0.44249761 -0.00000022
-0.46282118 0.19865654 -0.00000040
-0.70090763 -0.33437145 -0.00000004
-0.21006103 -0.46251363 -0.00000021
0.07130030 0.08317720 0.00000957
0.77336849 -0.65670977 -0.00000036
-0.78707383 -0.53205959 0.00000000
-0.04441009 0.20937469 -0.00000063
-0.02674123 -0.50506599 -0.00000018
-0.53504408 -0.59437955 -0.00000013
0.58064726 0.09489775 -0.00000148
-0.61082148 0.52440582 0.13139279
0.40867981 -0.34038103 -0.00000029
-0.52362703 0.35344335 0.03020743
0.23954157 -0.29810995 -0.00000031
0.45154863 -0.54759399 -0.00000016
-0.40122590 -0.23439921 -0.00000035
-0.32838350 0.24868934 -0.00000055
0.14795026 -0.23649256 -0.00000035
-0.11788663 -0.55328021 -0.00000015
-0.38081327 0.62941434 0.08239848
0.27840466 -0.19013873 -0.00000038
0.66779887 -0.31766647 -0.00000096
0.65717601 -0.39040488 -0.00000078
0.01961542 -0.39323433 -0.00000025
0.64998505 0.07304993 -0.00000166
-0.13168240 -0.68179347 -0.00000007
-0.56600922 0.74014682 0.19838917
0.30294357 -0.69378946 -0.00000007
-0.42869348 0.24139206 -0.00000044
-0.74373644 0.18594673 0.05082951
0.10042706 0.36604631 -0.00000073
-0.62053708 -0.50497220 -0.00000010
-0.54967258 -0.51744930 -0.00000017
-0.07192675 0.17938682 -0.00000061
0.02917192 -0.46910139 -0.00000021
-0.58242393 -0.75723758 -0.00000003
0.21650527 -0.40513475 -0.00000025
0.20009256 0.03226561 0.00000846
0.41534282 -0.08056725 -0.00000061
0.09989609 0.21459739 -0.00000063
0.19175068 -0.29416276 -0.00000032
0.19408937 0.12933399 0.00000697
-0.78036079 -0.00662262 -0.00000002
-0.07326173 -0.13682417 -0.00000041
-0.47993433 0.01496750 -0.00000034
0.55428492 -0.70768887 -0.00000006
-0.36703661 0.45663591 0.00927774
-0.40806640 0.13338171 -0.00000044
-0.29436846 -0.67039390 -0.00000008
0.77792540 -0.14420417 -0.00000164
0.23765396 0.44055481 0.00000089
-0.74159275 -0.39863156 0.00000000
0.42027887 -0.43656370 -0.00000023
-0.24993867 0.37981061 -0.00000066
-0.04913474 -0.55529566 -0.00000015
-0.40333386 0.03343257 -0.00000043
-0.70220559 0.74922856 0.25533169
-0.21937670 0.68310452 0.04016673
-0.24321366 0.72306062 0.06517071
-0.74456890 -0.08643989 -0.00000004
-0.70563538 -0.56605923 0.00000000
-0.24226011 0.41426355 -0.00000067
-0.17981361 -0.08631649 -0.00000045
0.04988747 0.48054921 0.00000344
0.37130388 -0.77737386 -0.00000001
-0.10721697 0.30292781 -0.00000069
0.36438170 0.43408244 -0.00000143
-0.24175329 0.28745030 -0.00000065
0.12272773 0.66384445 -0.00000091
-0.37589562 0.56977222 0.05709410
-0.64060767 0.16321666 0.00149867
0.40340472 0.31729597 -0.00000135
0.10418586 -0.06644681 -0.00000046
-0.04138264 -0.18837736 -0.00000038
-0.26017980 -0.11687285 -0.00000043
0.41152498 0.03257645 -0.00000082
0.70375385 -0.13903887 -0.00000142
-0.60184589 0.20312909 0.00194961
-0.40710530 -0.70563315 -0.00000006
-0.10417186 -0.17095175 -0.00000039
0.00194535 -0.47822536 -0.00000020
-0.03577185 0.24499959 -0.00000065
-0.65327806 -0.11038317 -0.00000014
0.21792064 0.12017150 0.00000676
-0.29769132 -0.07010375 -0.00000046
-0.19836336 -0.13144134 -0.00000042
-0.41908059 -0.59929311 -0.00000013
-0.64607244 -0.44344409 -0.00000008
0.13195496 0.49355494 0.00000197
-0.68909562 0.06198938 -0.00000013
-0.36101536 -0.46038862 -0.00000021
-0.12957587 0.38134630 -0.00000074
0.21518900 -0.36537836 -0.00000027
-0.14677117 -0.62780872 -0.00000011
-0.43016264 0.12994142 -0.00000042
0.29712606 -0.66653134 -0.00000008
0.27548725 -0.15652765 -0.00000040
-0.05902623 0.67510947 -0.00000091
0.63551398 -0.73787709 -0.00000004
-0.47152227 0.47416977 0.05710375
0.11512979 -0.30181970 -0.00000031
-0.60437370 0.18516741 -0.00000024
0.23601327 0.38324213 -0.00000094
0.50057724 -0.61281468 -0.00000012
0.00333502 -0.68187956 -0.00000007
0.50716915 -0.06496354 -0.00000094
0.00169132 0.69337350 0.00000071
-0.07576409 -0.41464666 -0.00000024
-0.35678628 0.69522028 0.09877394
-0.53257178 0.72760361 0.18036682
0.05375690 0.39191040 -0.00000074
-0.75526183 -0.03298132 -0.00000004
0.00926303 -0.02848021 -0.00000048
-0.38626114 -0.16900916 -0.00000039
-0.32575046 -0.51653763 -0.00000018
-0.20101518 -0.77455119 -0.00000002
-0.01948638 0.62401609 -0.00000089
-0.12800276 -0.73763585 -0.00000004
0.02767377 -0.15950236 -0.00000040
-0.45905174 0.33533072 -0.00000043
-0.72694282 -0.67132868 0.00000000
-0.10226521 0.22216650 -0.00000064
0.03594980 0.20562173 0.00000812
0.53321250 -0.46470754 -0.00000024
-0.47630338 0.43818404 0.04487303
0.47473844 -0.18688581 -0.00000059
-0.52581853 0.04184272 -0.00000030
0.28967051 0.08304267 0.00000628
-0.09588431 -0.22097985 -0.00000036
-0.12260178 0.44114278 -0.00000078
-0.70057503 0.07300017 -0.00000012
0.09452370 -0.03768226 -0.00000048
-0.14028155 -0.45035730 -0.00000022
0.35749387 -0.68506532 -0.00000007
0.42619056 -0.43856665 -0.00000023
-0.40681975 -0.74488344 -0.00000003
0.62455310 -0.75402754 -0.00000003
-0.06101684 0.12369909 -0.00000058
0.26325189 0.34913500 0.00000204
0.48905266 -0.10553272 -0.00000080
0.09241924 0.58943713 -0.00000089
0.29606482 0.36982798 0.00000104
0.31430378 0.03579604 0.00000668
-0.26785348 0.48430893 -0.00000066
0.18838947 0.31811378 -0.00000070
0.57412358 0.05823449 0.00000129
-0.52499378 0.18772059 -0.00000033
-0.42268381 0.38849731 0.00438180
0.07176540 0.46060539 -0.00000079
-0.13370504 0.48109892 -0.00000080
0.29622101 0.04014760 -0.00000053
-0.74296165 -0.08893927 -0.00000004
-0.65996563 -0.15293261 -0.00000012
-0.52256946 -0.52136711 -0.00000017
0.51339141 -0.14419512 -0.00000080
0.34259040 -0.37681072 -0.00000026
0.33050212 -0.70882804 -0.00000006
0.17620729 0.02094745 0.00000900
0.15632320 -0.23116641 -0.00000036
0.06737439 0.58509088 0.00000148
-0.77090631 -0.15444929 -0.00000000
0.52345784 -0.63227570 -0.00000010
-0.69239400 0.06996604 -0.00000013
-0.67316937 0.22509459 0.03851456
0.70058704 -0.20656182 -0.00000128
-0.49605355 0.30487626 0.00036391
-0.51341426 -0.43382896 -0.00000023
0.41052454 0.01056923 0.00000529
-0.02428076 -0.48113953 -0.00000020
0.06284454 0.09480131 -0.00000056
-0.44930291 -0.13415138 -0.00000035
-0.58861518 -0.27019621 -0.00000018
0.12292185 0.65948230 -0.00000112
-0.40582572 0.30768130 -0.00000048
0.45144982 -0.08699852 -0.00000071
-0.32045582 -0.66919288 -0.00000008
-0.70989209 0.04614134 -0.00000010
0.05618332 0.05257888 -0.00000053
0.27099152 0.33487698 0.00000215
-0.50462322 -0.01023900 -0.00000031
-0.12891618 -0.36995795 -0.00000027
-0.02776300 0.57886509 -0.00000086
0.01137557 0.38344346 0.00000560
0.19739676 0.50886423 0.00000044
-0.69042056 0.32466220 0.08430198
-0.22161152 -0.02554981 -0.00000048
0.71917283 -0.41040655 -0.00000094
0.26164366 -0.28254624 -0.00000032
0.68519782 -0.32110410 -0.00000101
-0.58335538 0.67985574 0.18155670
0.27567074 0.39056690 0.00000106
0.01119414 0.05716739 -0.00000054
-0.00634544 -0.47989239 -0.00000020
-0.33287429 -0.59059247 -0.00000013
0.36653426 0.00923013 -0.00000063
-0.46662241 0.00112792 -0.00000036
0.19601018 -0.73753038 -0.00000004
0.00400219 0.22467969 0.00000829
0.52935967 -0.71469865 -0.00000005
0.76484114 -0.20466607 -0.00000149
0.77415637 -0.29388081 -0.00000127
0.54009003 0.16052550 -0.00000148
-0.52910515 0.57415575 0.11886338
0.51883472 -0.27627543 -0.00000056
0.68170250 0.03698292 -0.00000169
-0.04459458 0.59722754 -0.00000087
0.28967470 -0.08666693 -0.00000045
0.09449469 0.43473802 0.00000351
0.05931301 0.57037678 -0.00000086
-0.30375009 0.56899332 0.02851107
0.18651269 -0.09687861 -0.00000044
0.72111301 -0.11340139 -0.00000153
-0.24567913 -0.56147737 -0.00000015
0.44118770 0.13239028 0.00000251
0.12102848 0.60670569 -0.00000101
0.13929651 -0.18740454 -0.00000038
-0.44960231 0.35034735 -0.00000044
-0.60433159 0.59203055 0.15535490
-0.67085957 -0.49700596 -0.00000005
0.34014872 0.45088701 -0.00000141
0.22742776 -0.73682479 -0.00000004
-0.48515513 -0.58465138 -0.00000013
-0.46963022 -0.30361395 -0.00000030
0.35851082 0.32400405 -0.00000122
-0.48516831 0.53317324 0.08557891
-0.62587889 0.15235057 -0.00000021
-0.53637135 0.52523638 0.10253728
-0.27499635 0.10229156 -0.00000056
0.32193762 -0.11741030 -0.00000043
0.18832002 0.55122434 -0.00000112
0.43663713 0.03790342 0.00000430
-0.54603646 0.55126949 0.11652931
0.64890274 -0.55362883 -0.00000044
-0.69535299 -0.09181135 -0.00000009
-0.60263229 -0.29791159 -0.00000016
-0.35356553 0.57776981 0.05147640
-0.20374630 0.18740217 -0.00000062
-0.57828653 0.62761131 0.15909246
-0.11076149 0.39114924 -0.00000074
-0.17904380 0.27866295 -0.00000067
0.33783546 -0.53099576 -0.00000017
-0.15462568 0.49607301 -0.00000078
-0.26624625 0.23810519 -0.00000061
0.32209524 -0.21846544 -0.00000036
-0.34267069 0.58791644 0.05118312
0.25353793 -0.42286385 -0.00000024
0.11598667 -0.59142067 -0.00000013
0.29472235 0.08993278 0.00000609
0.36168343 -0.53773832 -0.00000016
-0.19088083 -0.14608816 -0.00000041
-0.68274872 0.37649605 0.10161136
0.32409209 0.04808052 0.00000628
0.67655636 -0.49938604 -0.00000063
0.29393993 0.49205336 -0.00000112
-0.48548891 0.10556779 -0.00000035
0.41388434 0.05246167 0.00000447
0.53907746 0.14772122 -0.00000145
0.53419468 -0.22229534 -0.00000072
0.27059380 -0.15745397 -0.00000040
-0.44652108 0.21332861 -0.00000042
-0.08432853 0.65478050 -0.00000088
-0.68727870 0.47918194 0.14363487
-0.01600002 -0.59096667 -0.00000013
-0.22020390 -0.13268909 -0.00000042
0.07626877 0.38138536 -0.00000074
0.23774093 -0.63853700 -0.00000010
0.55224315 0.17259785 -0.00000034
0.32813908 0.38629658 -0.00000124
0.75241021 -0.63293568 -0.00000042
0.59590649 -0.04551970 -0.00000126
-0.08740911 0.76653164 0.02114098
0.28118668 0.41866579 -0.00000116
-0.51361951 -0.43934215 -0.00000023
-0.23022669 -0.50051483 -0.00000019
-0.02235358 -0.32984329 -0.00000029
0.15015359 -0.54270458 -0.00000016
-0.44657542 -0.79571557 -0.00000000
0.56758130 0.09342298 -0.00000144
-0.56798887 0.41118745 0.07022815
-0.22603324 0.77430082 0.07852061
-0.73393334 -0.21356598 -0.00000003
-0.00531897 0.62577546 -0.00000089
0.58014454 -0.05083701 -0.00000120
0.06109382 0.12517422 0.00000904
-0.17386077 -0.65130126 -0.00000009
-0.06248488 -0.78290200 -0.00000001
0.40076923 -0.56030683 -0.00000015
0.19368946 0.14292208 -0.00000059
-0.13242107 0.64262071 -0.00000083
0.49755452 -0.20490814 -0.00000063
0.48581755 0.15794040 -0.00000130
0.07145878 -0.16021086 -0.00000040
-0.57124138 -0.18094707 -0.00000021
0.25569899 0.47120582 -0.00000001
-0.76027514 -0.56547663 0.00000000
-0.70415963 -0.77929295 0.00000000
-0.17763122 0.63260423 0.00401072
0.60412960 -0.79422057 -0.00000000
-0.56865687 -0.50637541 -0.00000015
-0.02828131 0.43272464 -0.00000077
-0.34551158 -0.55238219 -0.00000015
0.45560026 -0.25484440 -0.00000040
0.01402041 0.08487994 0.00001041
0.12485121 0.66534061 -0.00000098
0.12351047 -0.69554558 -0.00000007
-0.60591286 0.63995446 0.17475871
-0.59088383 0.49668150 0.11271151
0.14056214 -0.36257767 -0.00000027
-0.16199668 -0.20614189 -0.00000037
-0.53105278 -0.30301060 -0.00000023
0.09588458 0.03630571 0.00000996
0.40282110 -0.39983383 -0.00000025
-0.06508367 -0.38941587 -0.00000026
-0.45777121 0.61040477 0.10511165
0.42784686 0.00426440 0.00000507
-0.53481821 -0.10889751 -0.00000026
0.38841005 -0.17233258 -0.00000039
-0.23114170 -0.37965736 -0.00000026
0.23804173 0.16500964 -0.00000060
-0.31542253 -0.75987897 -0.00000003
0.05649998 0.01655129 0.00001088
0.58012512 0.10877921 0.00000027
-0.03491693 -0.79252133 -0.00000000
0.01146064 -0.28279858 -0.00000032
0.27471177 -0.26991254 -0.00000033
-0.12723466 -0.72019534 -0.00000005
-0.18343881 0.56284353 -0.00000076
0.50562257 -0.19177476 -0.00000068
-0.05598007 -0.30541192 -0.00000031
0.46883169 0.26642029 -0.00000146
0.41368433 0.30196667 -0.00000000
0.64185377 0.03997650 -0.00000157
0.41180358 -0.58083814 -0.00000014
-0.37222504 -0.14300410 -0.00000041
0.13599012 -0.57726597 -0.00000014
0.62409233 -0.12622200 -0.00000119
0.68812327 -0.14001267 -0.00000137
-0.31800132 0.70365124 0.08687653
-0.29205251 -0.24375428 -0.00000035
0.00732716 -0.25299244 -0.00000034
-0.09176466 0.65936995 -0.00000088
-0.11365414 -0.57537009 -0.00000014
0.20296357 -0.53393573 -0.00000017
-0.36052813 -0.67778028 -0.00000008
0.05340274 0.14019332 -0.00000059
0.46837361 0.18932929 -0.00000131
-0.38971095 0.75172680 0.13382696
0.37365941 -0.60930453 -0.00000012
0.50099325 0.07108734 0.00000247
-0.78626538 -0.21401945 0.00000000
0.39783027 -0.79303739 -0.00000000
0.53514207 -0.55781632 -0.00000015
0.07724505 -0.03599353 -0.00000048
0.43298285 0.24280634 -0.00000130
-0.52189878 0.59860470 0.12562170
0.51932031 -0.10834213 -0.00000089
-0.42338814 -0.02699341 -0.00000040
-0.20249443 0.16706834 -0.00000060
0.48796516 -0.69080679 -0.00000007
-0.22817167 0.64322142 0.02798168
0.24928410 -0.76863423 -0.00000002
0.02499094 -0.69600643 -0.00000006
0.34021220 0.18830130 0.00000345
-0.61738076 -0.57511814 -0.00000009
-0.53571247 -0.15879720 -0.00000025
-0.71055709 0.24692831 0.06172660
-0.79943169 -0.20786548 0.00000000
-0.70299580 -0.54118775 -0.00000000
-0.68949311 -0.65337870 0.00000000
-0.50331163 -0.53623295 -0.00000016
0.40255304 -0.34921063 -0.00000028
0.50820625 0.04953419 -0.00000116
-0.76881837 0.43695498 0.15904372
-0.72640086 0.43315809 0.14092981
0.01377304 0.34223770 -0.00000071
-0.37947999 0.26335639 -0.00000050
0.22709249 0.07076908 -0.00000054
-0.43424750 -0.75441215 -0.00000003
-0.15945845 -0.78878743 -0.00000001
-0.34160048 -0.39605790 -0.00000025
-0.46597040 -0.10691302 -0.00000034
-0.23097320 -0.74700446 -0.00000003
-0.58054132 0.66249057 0.17364734
-0.29939253 0.62730534 0.04965864
-0.01129716 0.39700594 -0.00000075
-0.60721906 -0.19951323 -0.00000017
-0.47139038 -0.04655590 -0.00000034
-0.17042650 0.27870292 -0.00000067
0.08700904 -0.01397218 -0.00000049
0.16623130 0.43136371 -0.00000081
-0.46271418 -0.07672764 -0.00000035
-0.33764497 -0.34486042 -0.00000028
-0.55933533 0.29435079 0.02104197
0.45797952 -0.00124946 -0.00000090
-0.46367493 -0.24358363 -0.00000031
-0.59486289 -0.49602466 -0.00000013
0.20866365 0.36807374 0.00000275
0.52175639 -0.67150036 -0.00000008
0.25009433 0.21690991 -0.00000066
0.22553039 0.45326089 -0.00000105
0.11230293 0.68591395 -0.00000114
0.38401447 0.32643776 -0.00000131
0.04756733 0.74349613 -0.00000090
-0.08982456 -0.33093863 -0.00000029
-0.71031782 -0.60106272 0.00000000
0.71631076 -0.41704843 -0.00000092
-0.58724860 -0.17458648 -0.00000020
0.14221652 0.55395844 0.00000069
-0.56705482 0.51447336 0.11034519
0.68912826 -0.16529480 -0.00000132
0.42892247 0.31603596 -0.00000055
0.55645859 0.09906007 -0.00000141
-0.76104410 -0.44760329 0.00000000
-0.22950477 0.15917101 -0.00000060
-0.54589932 0.44766233 0.07586648
-0.00087220 -0.14769770 -0.00000041
0.37196096 0.07755318 0.00000483
-0.10504760 -0.58546128 -0.00000013
0.23393025 -0.30131978 -0.00000031
-0.48311096 -0.01406098 -0.00000034
-0.21657926 0.20120817 -0.00000063
0.19217106 -0.52693658 -0.00000017
0.53796847 -0.67701144 -0.00000008
-0.67970180 0.03878909 -0.00000014
0.21081531 0.02851196 0.00000836
0.00774160 0.44311975 0.00000468
-0.03749186 -0.72672584 -0.00000005
0.35065273 -0.54716365 -0.00000016
0.00645874 -0.49847628 -0.00000019
0.21512545 -0.00711311 -0.00000050
-0.09588339 -0.75539062 -0.00000003
-0.17082186 -0.60777785 -0.00000012
-0.64989649 -0.43546748 -0.00000008
0.77318653 -0.51529848 -0.00000071
-0.44839561 -0.52057710 -0.00000017
0.07083312 0.21307713 0.00000747
-0.62503543 0.45616313 0.11021610
-0.26547422 -0.42240087 -0.00000024
-0.63607693 0.21834061 0.02132879
-0.58863025 0.22301135 0.00456258
0.11840383 -0.03479051 -0.00000048
0.53852269 -0.39002223 -0.00000040
0.63259767 -0.78568679 -0.00000001
-0.38013776 0.60744615 0.07352320
-0.10745854 -0.52764260 -0.00000017
-0.37578675 -0.52555258 -0.00000017
-0.51661623 -0.18312900 -0.00000027
0.78306714 -0.05305047 -0.00000184
-0.58698478 0.07160537 -0.00000024
0.24348418 0.25792142 -0.00000072
-0.52183854 -0.08957235 -0.00000028
0.64931567 -0.32403508 -0.00000089
-0.11425137 -0.40556752 -0.00000025
-0.37648009 0.37286373 -0.00000052
-0.15457977 0.23966278 -0.00000065
0.50935667 -0.54331416 -0.00000016
0.57300743 -0.52422594 -0.00000025
-0.54268824 0.33447831 0.03024515
-0.30816271 -0.01131550 -0.00000049
-0.56944455 0.37368496 0.05609953
-0.61980612 -0.15063536 -0.00000016
0.18339432 -0.75111591 -0.00000003
0.00559706 -0.57180715 -0.00000014
0.55108917 0.07911431 0.00000136
0.44634873 -0.54974297 -0.00000016
-0.53871679 0.55344922 0.11451468
0.41488428 0.37203931 -0.00000149
0.64094121 0.14581240 -0.00000178
0.40335045 0.23608369 0.00000138
0.14194604 0.23047368 -0.00000064
-0.51656118 0.57230845 0.11322265
0.42757353 0.04687277 -0.00000090
-0.07703686 0.53045124 -0.00000083
0.36327922 0.32277769 -0.00000123
0.36852866 0.21803928 -0.00000104
-0.43803302 0.16175497 -0.00000042
0.15288584 0.19077857 0.00000659
0.24649438 0.43363948 -0.00000107
-0.66823537 0.00562222 -0.00000014
0.05833882 0.47191276 0.00000345
-0.34715684 0.41792451 -0.00000056
0.10113470 -0.76808738 -0.00000002
0.11192689 0.65896322 -0.00000062
-0.40297808 0.13746274 -0.00000045
0.67020447 -0.58993708 -0.00000043
-0.16330870 0.35394602 -0.00000072
-0.05941530 -0.28561672 -0.00000032
0.23294568 -0.06378729 -0.00000046
0.57646074 0.16276187 -0.00000063
-0.35629050 -0.66680304 -0.00000008
-0.08611394 -0.69101910 -0.00000007
-0.51496676 -0.02450840 -0.00000030
0.17754027 -0.56488120 -0.00000015
0.57747628 -0.12316911 -0.00000105
-0.49872056 -0.52720767 -0.00000017
0.03934512 -0.41579916 -0.00000024
-0.75758414 0.14517865 0.04027803
-0.48630588 0.00852162 -0.00000034
0.23172797 0.41161936 -0.00000098
-0.56515782 0.59834723 0.14247639
-0.23752882 -0.17820074 -0.00000039
0.76735840 -0.51401737 -0.00000071
-0.08027796 0.68927204 -0.00000089
-0.07813260 0.42933394 -0.00000077
0.08033185 0.62924028 -0.00000092
-0.67364282 -0.20352925 -0.00000010
-0.59084277 0.52970866 0.12564051
-0.51962127 0.27417194 -0.00000035
-0.30382817 0.02732937 -0.00000052
-0.18899458 0.23218045 -0.00000065
-0.42305192 -0.52547760 -0.00000017
-0.18915415 0.23685560 -0.00000065
0.02985566 -0.47348037 -0.00000020
-0.57099991 0.74906550 0.20384102
-0.14390873 -0.56713108 -0.00000015
0.27462478 0.36178020 -0.00000102
0.48775820 0.24611603 -0.00000148
-0.14098100 -0.09923759 -0.00000044
0.27674565 0.35374750 -0.00000102
-0.59772192 0.41176745 0.08210948
0.23952629 0.24663991 -0.00000069
0.47501197 -0.76191177 -0.00000002
-0.12727169 -0.79313544 -0.00000000
-0.39804359 0.30009514 -0.00000048
-0.23276167 -0.25602529 -0.00000034
-0.34792320 -0.53701892 -0.00000016
-0.76728521 0.45014050 0.16361092
0.69480707 -0.22202867 -0.00000123
0.39884222 -0.70468332 -0.00000006
0.04280580 -0.78663399 -0.00000001
-0.09216459 -0.43880389 -0.00000023
0.00785604 -0.29915067 -0.00000031
-0.18743256 -0.74728164 -0.00000003
0.44884338 0.34797711 -0.00000150
0.57990854 0.03658700 0.00000157
0.13356102 0.47621539 0.00000225
-0.40891854 0.30360502 -0.00000047
0.67193153 -0.51158443 -0.00000059
-0.59594384 0.43230114 0.08946078
0.10080220 0.56043651 0.00000137
0.29455118 0.49934084 -0.00000126
-0.57048619 -0.06449136 -0.00000023
-0.01900376 0.55869806 -0.00000085
-0.53886064 -0.20413754 -0.00000024
0.60775857 -0.12036130 -0.00000115
-0.25293864 0.03734477 -0.00000052
-0.16508000 -0.28581856 -0.00000032
0.69763098 0.03308695 -0.00000174
0.27553210 0.34533040 -0.00000099
0.35159014 0.32689367 -0.00000120
-0.58539635 0.25604030 0.01624081
-0.66968424 0.21690081 0.03393697
-0.44256600 0.44886507 0.03583599
0.75368218 -0.12514336 -0.00000161
0.12554688 -0.09726868 -0.00000044
-0.44618955 0.72013911 0.14358309
-0.67338156 -0.14179523 -0.00000011
-0.09484356 0.76803595 0.02464457
-0.00174052 0.08916401 -0.00000056
0.16615292 0.32133501 -0.00000070
-0.00791200 0.30927627 -0.00000069
-0.52287063 -0.00148008 -0.00000030
-0.08600416 -0.37275306 -0.00000027
-0.75652566 -0.15840929 -0.00000002
-0.21341530 -0.77501023 -0.00000002
-0.47262431 0.01094454 -0.00000035
0.55373824 -0.40924881 -0.00000041
-0.56259601 -0.24544422 -0.00000021
0.13328766 0.21204856 0.00000654
-0.69088612 -0.42634333 -0.00000004
0.25599939 0.02818798 0.00000768
-0.29393550 -0.09049748 -0.00000044
-0.60284077 0.67404063 0.18691484
-0.40293070 0.57047066 0.06796436
-0.74912262 -0.64176884 0.00000000
0.50308901 0.19629296 -0.00000143
0.13826245 -0.09296934 -0.00000044
0.46665222 0.04416010 0.00000361
0.79559324 -0.68288972 -0.00000029
0.00576460 0.70685106 0.00000043
0.01208377 0.59662388 0.00000212
0.74265936 -0.07593390 -0.00000167
0.16998329 0.29981085 0.00000456
-0.26592417 0.61350740 0.03113245
0.55804928 -0.26690379 -0.00000070
-0.35993266 -0.00163964 -0.00000047
0.34981789 0.17328649 0.00000353
-0.14174718 -0.05746905 -0.00000046
0.06102626 0.20236367 0.00000779
-0.62359264 -0.21557798 -0.00000015
0.33687143 -0.28785627 -0.00000032
-0.66293311 0.24815099 0.04353942
0.14759558 -0.79151913 -0.00000001
-0.43728957 -0.01243146 -0.00000038
-0.50918722 -0.63950021 -0.00000010
0.36642108 -0.41957694 -0.00000024
-0.47263281 -0.04005197 -0.00000034
0.43390101 -0.37004437 -0.00000027
0.28412312 0.41545722 0.00000045
0.38194738 0.30987926 -0.00000127
-0.63905251 0.49480536 0.13085606
-0.71542941 -0.35283633 -0.00000003
0.30032690 -0.60175335 -0.00000012
0.26956272 0.00286145 0.00000789
