ply
format ascii 1.0
element vertex 1408
property float x
property float y
property float z
end_header
-0.54121714 0.38166151 0.00000000
-0.51975342 0.21417122 0.00000000
-0.05692373 0.11842879 0.00000000
-0.08406008 -0.71584723 0.00000000
-0.22361337 -0.19715716 0.00000000
0.41430230 -0.46629137 0.00000000
0.53653633 0.48272877 0.07899841
0.70839241 -0.11837952 0.00000000
-0.61568432 -0.53997312 0.00000000
0.30376710 -0.07427134 0.00000000
0.09230492 0.64008111 0.00000000
-0.64541654 -0.47395707 0.00000000
-0.38106794 -0.69305614 0.00000000
0.57441422 -0.10799702 0.00000000
-0.16630276 -0.44511443 0.00000000
-0.65034271 -0.09184398 0.00000000
0.33130355 -0.12318441 0.00000000
-0.18152256 -0.36909313 0.00000000
0.26072586 0.58311213 0.01579426
-0.45361923 -0.45720260 0.00000000
0.35996943 -0.07800184 0.00000000
0.34578993 -0.12914418 0.00000000
-0.37008481 0.49552032 0.00000000
-0.16625761 -0.66053855 0.00000000
-0.44798675 0.06621764 0.00000000
0.01174361 0.69232669 0.00000000
-0.67288798 -0.20852065 0.00000000
-0.29375588 -0.50002975 0.00000000
-0.12999233 0.09621664 0.00000000
0.13486932 -0.38467711 0.00000000
-0.73239933 -0.34082758 0.00000000
0.02479346 -0.01890022 0.00000000
-0.08377644 0.28610037 0.00000000
-0.24634656 -0.21446687 0.00000000
0.12647170 0.57761882 0.00000000
0.08206891 -0.23492234 0.00000000
0.04432241 -0.57756099 0.00000000
0.76837818 -0.65653541 0.00000000
0.63734922 -0.58078869 0.00000000
-0.70872622 -0.22433657 0.00000000
0.44351211 -0.12713432 0.00000000
0.12482280 0.69161650 0.00592287
0.73330937 -0.76158523 0.00000000
-0.17707318 0.21989206 0.00000000
0.37291308 -0.25363731 0.00000000
-0.05751291 0.23122281 0.00000000
0.70245691 -0.32849199 0.00000000
0.22737344 -0.06755454 0.00000000
-0.56294512 -0.54099849 0.00000000
-0.57257459 -0.55361387 0.00000000
-0.51920641 -0.21742506 0.00000000
0.30714497 0.66720347 0.06281549
-0.19668390 -0.40664957 0.00000000
-0.56242349 -0.24629404 0.00000000
0.67743486 0.11121519 0.00000000
0.60342131 0.43656452 0.08646382
-0.27063033 -0.43278193 0.00000000
0.56694314 -0.19702175 0.00000000
0.13239602 0.63336376 0.00000000
0.12458704 -0.06892319 0.00000000
-0.11421241 -0.75304442 0.00000000
0.50840639 -0.22115154 0.00000000
-0.10806717 -0.40240695 0.00000000
0.73628199 0.35879843 0.10631370
0.10475861 -0.68572262 0.00000000
-0.76086184 -0.03765676 0.00000000
0.78407992 -0.77273656 0.00000000
0.04495662 -0.02227758 0.00000000
-0.44873479 0.38206740 0.00000000
0.11909387 0.63923906 0.00000000
-0.35728834 -0.10381751 0.00000000
-0.64207935 0.01814349 0.00000000
-0.46112468 0.70555460 0.00000000
0.17601505 -0.39441294 0.00000000
-0.60945827 -0.34471556 0.00000000
0.33919430 0.67202927 0.07610109
-0.35600039 0.51375558 0.00000000
-0.60865971 -0.43260449 0.00000000
-0.71490860 -0.69073529 0.00000000
0.19964041 0.06895768 0.00000000
-0.23848805 0.08970170 0.00000000
-0.22341974 0.14498294 0.00000000
-0.75555305 0.40776055 0.00000000
0.02390524 -0.58407656 0.00000000
0.62301719 0.17664719 0.00000000
0.44950610 -0.50346733 0.00000000
0.26126992 0.19201813 0.00000000
-0.10434832 -0.13905755 0.00000000
-0.11962370 -0.77415221 0.00000000
0.50641380 0.65453159 0.13004383
-0.25190675 0.33214779 0.00000000
-0.59491449 0.69198101 0.00000000
-0.19816413 0.57882318 0.00000000
-0.46275180 -0.64694254 0.00000000
0.13874031 -0.20815430 0.00000000
-0.28821429 -0.60855098 0.00000000
-0.01265460 -0.21349626 0.00000000
0.21280502 -0.62554882 0.00000000
-0.31279995 -0.77546605 0.00000000
-0.60501654 0.63375168 0.00000000
-0.55231465 -0.09117424 0.00000000
0.10931720 0.69124788 0.00020359
-0.69067087 -0.18269888 0.00000000
-0.61401505 0.01232090 0.00000000
-0.68253708 0.53312178 0.00000000
0.16241660 -0.70824239 0.00000000
-0.70766305 -0.74108866 0.00000000
0.56964589 0.11119005 0.00000000
0.45185628 0.02263197 0.00000000
0.44710813 0.05833532 0.00000000
0.54487775 0.22392778 0.00000000
-0.07003984 0.25772448 0.00000000
0.39679029 -0.04721594 0.00000000
0.17321032 0.02577690 0.00000000
0.68385343 0.56590651 0.16204259
0.39257433 0.29013810 0.00000000
0.22751295 -0.70811971 0.00000000
0.34096279 0.14987205 0.00000000
0.06818912 -0.45669631 0.00000000
-0.51604343 0.00258936 0.00000000
-0.20193773 0.09676872 0.00000000
-0.28317273 -0.76017753 0.00000000
0.07361875 0.25677635 0.00000000
0.53297909 -0.64869628 0.00000000
-0.04295404 -0.06948263 0.00000000
0.25043477 -0.07980588 0.00000000
-0.17674804 -0.18745421 0.00000000
0.09414607 -0.32005784 0.00000000
0.42660260 0.04409025 0.00000000
-0.22712854 0.32641512 0.00000000
-0.25728091 0.46935281 0.00000000
-0.27345672 0.28802616 0.00000000
0.32320779 0.20475788 0.00000000
0.03238535 0.12040794 0.00000000
-0.29866131 0.35496773 0.00000000
0.73530672 0.40073586 0.12107184
0.37261437 -0.73302445 0.00000000
0.05836184 -0.50870304 0.00000000
-0.17877076 -0.12381025 0.00000000
0.40961398 -0.70673065 0.00000000
-0.74149255 0.02363669 0.00000000
0.28517478 -0.27359027 0.00000000
0.31196921 0.25411536 0.00000000
-0.25292773 -0.46693401 0.00000000
0.70316014 0.44242310 0.12450922
-0.68822428 -0.19729419 0.00000000
0.43952210 0.12288778 0.00000000
0.54950285 -0.38699481 0.00000000
0.58964684 0.57826769 0.13255479
-0.78400828 0.62151610 0.00000000
-0.18339268 -0.42461137 0.00000000
0.34149189 0.30987354 0.00000000
0.60805471 -0.46356665 0.00000000
-0.49912186 0.33616492 0.00000000
0.45617146 0.61204150 0.09663365
0.67970237 -0.53519356 0.00000000
0.33853166 -0.79323550 0.00000000
0.07996339 0.20862557 0.00000000
0.52595441 -0.12875089 0.00000000
0.56513746 0.36108276 0.04547553
-0.70789806 -0.63178300 0.00000000
0.31790898 0.01612595 0.00000000
-0.04834268 0.55169631 0.00000000
0.24178998 -0.56764463 0.00000000
0.07078757 0.39239674 0.00000000
0.36347047 0.25817031 0.00000000
-0.23108985 -0.70897225 0.00000000
0.53689519 -0.48115589 0.00000000
0.41635607 -0.21501639 0.00000000
-0.78257638 -0.55467722 0.00000000
0.60033840 0.57483061 0.13516849
-0.34642239 0.60293512 0.00000000
-0.75928403 -0.65094948 0.00000000
-0.74428025 0.22350158 0.00000000
-0.55636032 0.49706736 0.00000000
-0.16405253 0.18241496 0.00000000
-0.44426257 -0.33525566 0.00000000
0.30872177 0.54640131 0.01986014
-0.64325488 0.20455277 0.00000000
-0.40914828 -0.59238383 0.00000000
-0.24895619 -0.24641037 0.00000000
-0.75658489 -0.66678268 0.00000000
0.45257066 -0.09162904 0.00000000
0.55339627 0.19538571 0.00000000
-0.46117009 0.34627675 0.00000000
0.62181491 -0.65206268 0.00000000
0.64585572 -0.42045204 0.00000000
0.51691364 0.37114062 0.03172482
0.15054746 -0.63299310 0.00000000
0.02621693 0.26694112 0.00000000
-0.10962201 -0.04961628 0.00000000
-0.72489274 0.43938630 0.00000000
0.29200983 -0.51156447 0.00000000
0.71243269 0.22884613 0.05090094
0.69067367 -0.15668017 0.00000000
-0.12013993 -0.14564580 0.00000000
0.40454331 -0.02818256 0.00000000
0.13580337 0.41335468 0.00000000
0.68104925 0.21387407 0.03419965
-0.19282432 0.24056754 0.00000000
-0.27639369 0.42051866 0.00000000
0.40851953 0.61384231 0.08011412
0.33229698 0.55019624 0.02972125
0.14335429 -0.67969515 0.00000000
-0.56396126 -0.64189892 0.00000000
-0.52139682 0.23299553 0.00000000
0.33305172 -0.41949727 0.00000000
0.19635243 -0.43357589 0.00000000
-0.63036518 0.24504010 0.00000000
0.07258623 -0.28126463 0.00000000
0.06615053 -0.62177099 0.00000000
-0.11537429 -0.44146765 0.00000000
0.50406290 -0.14324230 0.00000000
0.38829941 0.24895079 0.00000000
0.75152888 -0.63107711 0.00000000
0.66713793 -0.79447008 0.00000000
0.36166247 0.01422067 0.00000000
-0.46725469 -0.71974740 0.00000000
-0.74244633 0.73358829 0.00000000
-0.47731320 -0.41395484 0.00000000
0.44732250 -0.60925964 0.00000000
0.33794359 0.54992588 0.03165824
-0.47333827 0.12988740 0.00000000
0.66960704 -0.05633592 0.00000000
0.56220423 0.57328921 0.12087393
0.33806058 0.19660726 0.00000000
-0.37090187 -0.77073650 0.00000000
-0.66466764 -0.24909092 0.00000000
-0.28485209 0.17824210 0.00000000
0.50400770 -0.21225380 0.00000000
-0.24164021 0.14803998 0.00000000
-0.39837554 -0.34498590 0.00000000
0.22835376 0.19238933 0.00000000
0.44629456 -0.43839019 0.00000000
0.55037511 -0.69998734 0.00000000
0.04778317 -0.23055383 0.00000000
-0.38477784 -0.31875280 0.00000000
-0.64269903 -0.09732514 0.00000000
-0.60534185 -0.39289952 0.00000000
-0.75892247 0.34724537 0.00000000
-0.44780531 0.10121746 0.00000000
0.04662604 0.71074795 0.00000000
-0.74554664 -0.52626932 0.00000000
0.72717685 0.37164559 0.10766190
0.72818849 0.44463903 0.13432498
0.50755591 -0.06135560 0.00000000
0.07056637 -0.10813966 0.00000000
-0.59301248 0.56514652 0.00000000
0.27982458 0.44839183 0.00000000
-0.75296023 0.08119192 0.00000000
0.11156553 0.03485049 0.00000000
0.69860001 0.57323066 0.16999436
-0.01901788 0.41297566 0.00000000
-0.61862118 0.10151222 0.00000000
-0.08070287 0.27867906 0.00000000
0.74959796 0.23279637 0.06571434
0.00128918 0.46594468 0.00000000
0.60745080 -0.15773467 0.00000000
0.75437858 -0.35163933 0.00000000
-0.25186731 0.20441305 0.00000000
0.68952305 0.39666534 0.10311001
0.73475098 -0.54659039 0.00000000
0.76262156 0.64062906 0.21734310
-0.67047162 -0.57030106 0.00000000
0.22198732 -0.02985909 0.00000000
0.72308787 0.21210186 0.04870712
0.79772727 -0.46420497 0.00000000
-0.66213000 -0.76689991 0.00000000
0.75813085 0.06075596 0.00680467
0.41377335 0.57399443 0.06765032
0.19549944 0.29187861 0.00000000
0.56625462 -0.48610955 0.00000000
-0.47504123 0.35553437 0.00000000
0.51081794 -0.47077221 0.00000000
-0.19235080 -0.79484877 0.00000000
0.75490876 0.27048175 0.08120531
0.37685104 0.06821838 0.00000000
0.24030536 0.52786862 0.00000000
0.59651134 0.64339086 0.15849090
0.22150283 -0.58282197 0.00000000
0.78809021 -0.54784422 0.00000000
-0.57347695 0.30002741 0.00000000
0.19832297 0.62122152 0.00704163
0.70698302 0.31148376 0.07871078
-0.51707997 -0.03885937 0.00000000
-0.39669083 -0.21945258 0.00000000
0.38924990 -0.41255776 0.00000000
-0.59794542 -0.56482766 0.00000000
0.66802282 0.18943884 0.02070270
0.73641108 0.58984686 0.18960375
0.65196786 -0.62981348 0.00000000
0.75718012 0.67008986 0.22599691
-0.75707246 0.32423461 0.00000000
0.09184161 0.54673220 0.00000000
0.02398297 0.27194650 0.00000000
-0.20431454 0.10262890 0.00000000
0.46632630 -0.79496426 0.00000000
-0.25300992 -0.14114084 0.00000000
-0.79626221 0.59687280 0.00000000
0.31330347 -0.13739034 0.00000000
-0.14167398 0.19273617 0.00000000
0.12749754 0.54923677 0.00000000
-0.41082580 0.41690898 0.00000000
-0.43860115 0.33225647 0.00000000
0.65610022 -0.64408892 0.00000000
-0.48976725 0.63788978 0.00000000
0.45993105 -0.49363073 0.00000000
-0.42380196 0.34506313 0.00000000
-0.31185523 0.20139723 0.00000000
-0.22043621 -0.38505840 0.00000000
0.59041423 0.46896764 0.09345196
0.11214150 -0.16385985 0.00000000
-0.70361007 -0.29031550 0.00000000
-0.06731686 0.07711686 0.00000000
0.06177394 0.07847904 0.00000000
0.52844812 -0.51651666 0.00000000
-0.73638818 0.37775269 0.00000000
-0.53489924 -0.27081692 0.00000000
0.24185848 -0.28159064 0.00000000
0.19731734 -0.67731701 0.00000000
-0.48498068 -0.31684188 0.00000000
-0.69589388 -0.55942822 0.00000000
-0.34427456 0.55571615 0.00000000
0.24013517 -0.03350779 0.00000000
-0.55155209 0.11238313 0.00000000
0.13394913 -0.45981597 0.00000000
0.49552018 -0.76645564 0.00000000
0.54000820 0.46887897 0.07525937
0.73613331 0.03027288 0.00000000
0.36071981 0.44527345 0.00215929
0.37869160 -0.49502096 0.00000000
0.25865933 0.21789911 0.00000000
0.20255325 0.56902168 0.00000000
-0.57503587 -0.54368572 0.00000000
0.05415642 0.49084623 0.00000000
-0.79604310 0.65848238 0.00000000
0.34299322 0.49036331 0.01201793
-0.00722350 -0.42660049 0.00000000
0.29268621 -0.01571609 0.00000000
-0.27610783 -0.19383733 0.00000000
-0.31996708 -0.36423815 0.00000000
0.41542290 0.65603703 0.09780344
0.36624380 0.41177979 0.00000000
0.26554781 -0.37841400 0.00000000
0.58894258 -0.67212368 0.00000000
0.11066475 -0.21877361 0.00000000
0.35920258 0.20373669 0.00000000
-0.65312974 -0.60266410 0.00000000
0.02572693 0.64631930 0.00000000
-0.63149238 0.05640631 0.00000000
0.68584917 0.36211783 0.08933934
0.30451594 0.76473633 0.09700794
-0.26156200 -0.27934179 0.00000000
-0.39744363 -0.10259194 0.00000000
-0.30223991 -0.16356216 0.00000000
-0.72259419 -0.71902412 0.00000000
-0.60909308 -0.67504897 0.00000000
0.08919290 -0.29912061 0.00000000
-0.26274575 -0.25806542 0.00000000
-0.16709429 -0.28001249 0.00000000
-0.54266105 0.53134133 0.00000000
0.74537705 -0.26669340 0.00000000
-0.30588696 -0.31305886 0.00000000
0.08321823 0.47139735 0.00000000
0.50792725 0.44297216 0.05436712
-0.50650804 0.15231411 0.00000000
0.64449709 0.25637898 0.03634435
0.03719151 -0.08326428 0.00000000
0.18526018 0.70566794 0.03276023
0.38809931 -0.05581781 0.00000000
0.58476315 -0.04956147 0.00000000
0.48552538 -0.12059796 0.00000000
0.10632389 0.23025359 0.00000000
-0.57330196 0.45176227 0.00000000
0.09852675 0.14364709 0.00000000
0.77739453 -0.76920723 0.00000000
0.58962546 0.18647319 0.00000000
-0.26889525 0.54888315 0.00000000
0.41402376 -0.63717749 0.00000000
-0.45775390 -0.08181677 0.00000000
-0.49592575 -0.60169560 0.00000000
-0.47566810 0.45880965 0.00000000
0.76918062 -0.09293348 0.00000000
-0.18534359 0.10327744 0.00000000
-0.75121242 -0.41225489 0.00000000
-0.12243571 -0.55266530 0.00000000
-0.06174664 -0.06341932 0.00000000
0.68971164 0.53771877 0.15399759
0.03789552 0.68641278 0.00000000
-0.05293160 0.61258823 0.00000000
-0.33614698 0.31493196 0.00000000
0.10521171 0.00058277 0.00000000
0.50402901 -0.02352600 0.00000000
-0.65242209 -0.08730902 0.00000000
0.47443373 -0.33207528 0.00000000
-0.23562316 -0.33876315 0.00000000
-0.64681308 0.15327218 0.00000000
0.28427649 -0.02678837 0.00000000
0.75230935 -0.67449992 0.00000000
-0.68275028 0.00488610 0.00000000
0.28758032 0.51198569 0.00000000
-0.61536967 -0.68030873 0.00000000
0.18009779 -0.62540018 0.00000000
0.54058941 0.02530478 0.00000000
-0.59219464 0.78857665 0.00000000
-0.28560953 -0.20793521 0.00000000
-0.09171526 0.70282213 0.00000000
0.44079632 -0.66062066 0.00000000
-0.07898919 0.76127207 0.00000000
0.03688048 0.17573291 0.00000000
0.43540865 0.28691780 0.00000000
-0.13203940 -0.70073837 0.00000000
-0.51613438 0.41420712 0.00000000
0.14458380 -0.54642919 0.00000000
0.08387803 0.66765618 0.00000000
0.60786489 -0.54772355 0.00000000
0.75497522 -0.72661478 0.00000000
0.60363813 0.44845784 0.09082695
-0.14125008 -0.69120740 0.00000000
-0.00319077 -0.43277907 0.00000000
-0.20573246 0.75459156 0.00000000
-0.47742971 -0.20910889 0.00000000
0.70658554 0.53798204 0.16017188
0.23969752 0.46743259 0.00000000
0.57202131 0.32254964 0.03407270
0.55601030 -0.45487849 0.00000000
0.24213313 -0.29210019 0.00000000
0.63085870 0.42393096 0.09179745
0.16702679 -0.06615995 0.00000000
-0.72583143 0.02720069 0.00000000
-0.48003550 0.09532155 0.00000000
-0.14556804 -0.02038777 0.00000000
0.53711972 0.51208524 0.08978535
0.36911438 -0.35409861 0.00000000
0.08203879 -0.00954634 0.00000000
-0.13579199 0.49921858 0.00000000
-0.44829061 0.62791941 0.00000000
0.18570360 -0.15576497 0.00000000
-0.51666032 0.44626076 0.00000000
0.26056142 -0.05522973 0.00000000
-0.30448669 0.39694270 0.00000000
0.37584079 -0.02946070 0.00000000
-0.72888665 0.51553583 0.00000000
-0.06207859 0.23772570 0.00000000
0.30739173 0.23751833 0.00000000
0.68064977 0.70919076 0.21251155
0.46710490 0.35980615 0.00969570
0.05171751 0.79493927 0.01680980
0.31395025 0.35233037 0.00000000
-0.56920794 0.27495262 0.00000000
-0.50122053 -0.31922636 0.00000000
-0.52367019 -0.18804651 0.00000000
0.17773666 0.71091460 0.03193991
-0.21983001 0.74618845 0.00000000
0.20695560 -0.10573624 0.00000000
-0.48876430 0.41627577 0.00000000
-0.30881920 -0.43062574 0.00000000
-0.59047867 -0.46329533 0.00000000
-0.47533894 -0.19244498 0.00000000
-0.47629484 -0.77211511 0.00000000
0.60967463 -0.21579171 0.00000000
-0.46299373 -0.74245211 0.00000000
0.09949981 0.78422437 0.03016469
0.50343234 -0.49765274 0.00000000
-0.30527906 0.01041835 0.00000000
0.57293796 0.00787160 0.00000000
-0.50076895 -0.50506373 0.00000000
0.21378106 0.17475800 0.00000000
0.33226437 0.08368958 0.00000000
0.28002449 -0.70140340 0.00000000
-0.51508288 -0.49557956 0.00000000
0.36581581 -0.70439912 0.00000000
-0.47150298 -0.37128551 0.00000000
-0.06285636 -0.09256965 0.00000000
-0.05682880 0.61642151 0.00000000
0.23462442 0.05227646 0.00000000
0.68180591 -0.50000831 0.00000000
-0.28544129 -0.44149651 0.00000000
0.29994198 -0.20908906 0.00000000
-0.62388896 0.32517086 0.00000000
-0.08304642 0.40043534 0.00000000
-0.01029962 0.36160757 0.00000000
0.22868523 0.08210164 0.00000000
0.77862019 0.27380266 0.09094472
-0.15382345 -0.51052954 0.00000000
0.55409075 0.70263006 0.16455035
0.35313440 -0.04667837 0.00000000
0.24361736 -0.53388250 0.00000000
-0.72330163 0.32843349 0.00000000
-0.28650062 -0.18273335 0.00000000
-0.54215710 -0.29601987 0.00000000
-0.12400530 -0.51010177 0.00000000
0.05004474 -0.44111450 0.00000000
-0.60356677 -0.52973606 0.00000000
-0.20058648 -0.55110302 0.00000000
0.77064137 -0.63494530 0.00000000
0.49102125 -0.79322713 0.00000000
-0.44558535 -0.56413538 0.00000000
-0.72291509 -0.78244886 0.00000000
-0.69157663 0.53099170 0.00000000
-0.42089562 0.64623361 0.00000000
0.44109254 0.64683941 0.10373810
0.20672219 0.52865506 0.00000000
0.02540824 -0.04766515 0.00000000
-0.39081077 -0.28751590 0.00000000
-0.17911249 0.78209127 0.00000000
0.33857982 -0.16497636 0.00000000
0.65952084 0.66335599 0.18838550
0.30219912 0.34317438 0.00000000
0.68290098 -0.13301310 0.00000000
-0.57350548 0.16738843 0.00000000
-0.57717272 0.13654123 0.00000000
-0.12678704 -0.04031090 0.00000000
0.63680444 -0.73083052 0.00000000
0.78551446 -0.31956317 0.00000000
-0.19478236 0.62314622 0.00000000
0.40294365 -0.41353731 0.00000000
-0.66273807 0.68382394 0.00000000
-0.50179958 -0.77059253 0.00000000
-0.18435910 0.66188754 0.00000000
-0.50002866 0.43344669 0.00000000
0.49998296 0.39044911 0.03258151
-0.11685026 0.24159174 0.00000000
0.74728047 -0.45842251 0.00000000
0.31899842 0.10663562 0.00000000
0.07816373 0.21917193 0.00000000
-0.36583332 -0.53716837 0.00000000
0.43737028 -0.35094753 0.00000000
-0.79183633 0.32783502 0.00000000
-0.26781975 -0.75546964 0.00000000
0.31202915 0.03089375 0.00000000
-0.53458336 -0.64306889 0.00000000
-0.25053491 -0.26204147 0.00000000
0.78903362 -0.56175764 0.00000000
-0.38808519 0.35557516 0.00000000
-0.01280035 0.44419412 0.00000000
0.09484724 -0.13617863 0.00000000
0.13393998 -0.28175173 0.00000000
0.51389159 0.04697695 0.00000000
0.69218131 0.12242229 0.00526149
-0.60411831 0.29568358 0.00000000
-0.64239989 0.15495331 0.00000000
0.75662634 0.66547373 0.22413427
-0.33820866 0.39014365 0.00000000
0.40229630 0.58822599 0.06864274
0.05083842 -0.36817356 0.00000000
0.71233511 -0.12781529 0.00000000
-0.07992293 -0.70272916 0.00000000
0.58044873 0.51517322 0.10650880
-0.66435913 -0.64867858 0.00000000
0.56627791 -0.64267127 0.00000000
-0.41216812 -0.44383495 0.00000000
-0.79332958 -0.55814730 0.00000000
-0.25058197 0.56944561 0.00000000
0.64837884 0.68784344 0.19319366
0.62582632 0.46311557 0.10410206
-0.54681623 -0.54221287 0.00000000
0.07500829 -0.76173344 0.00000000
-0.51014057 -0.51175243 0.00000000
0.37053947 -0.14376800 0.00000000
0.76173847 0.39822331 0.12968962
0.30720116 0.56189625 0.02489491
-0.60864436 0.03490166 0.00000000
-0.40352459 0.26144351 0.00000000
0.42620777 0.00135556 0.00000000
0.70026060 0.44174682 0.12322089
-0.07031685 0.38688296 0.00000000
0.47982819 0.38057270 0.02176166
-0.04240089 0.72741700 0.00000000
0.23278653 -0.63505380 0.00000000
-0.06816274 -0.35566502 0.00000000
0.17913043 -0.69658282 0.00000000
0.53778891 -0.03191624 0.00000000
-0.70560275 0.47601243 0.00000000
0.27635814 0.24489423 0.00000000
0.10023972 -0.71755002 0.00000000
0.26250829 -0.77131910 0.00000000
-0.76195446 0.70862712 0.00000000
0.56596967 -0.04025319 0.00000000
0.35173326 -0.41399009 0.00000000
-0.40176822 0.17156786 0.00000000
0.31786999 0.51759605 0.01277796
0.56889074 -0.39269490 0.00000000
0.44699850 -0.41660978 0.00000000
-0.70288908 0.74973764 0.00000000
-0.40015964 -0.25016178 0.00000000
0.67207379 0.06123008 0.00000000
-0.57644578 -0.34071044 0.00000000
-0.62357754 -0.79285082 0.00000000
0.47709806 -0.06550129 0.00000000
0.26903503 -0.00911082 0.00000000
-0.05951097 0.21957983 0.00000000
0.24825972 0.60002070 0.01739481
-0.56857126 -0.60436477 0.00000000
-0.48079068 0.09922312 0.00000000
-0.16740255 0.57607230 0.00000000
-0.29276112 0.12899368 0.00000000
-0.02250026 -0.58171352 0.00000000
0.31481709 0.49111991 0.00213902
-0.66615232 -0.50736418 0.00000000
0.48688603 0.66690805 0.12746730
0.59181578 0.12389999 0.00000000
-0.35653269 -0.45626531 0.00000000
-0.79634861 -0.57252599 0.00000000
-0.62232913 -0.11578041 0.00000000
-0.43298015 0.06105544 0.00000000
-0.10777766 0.14541251 0.00000000
-0.12196577 0.70781114 0.00000000
0.71808918 -0.65138966 0.00000000
0.52723791 -0.18453592 0.00000000
-0.17179924 -0.65220548 0.00000000
-0.23736048 -0.27926938 0.00000000
-0.40300146 0.53464610 0.00000000
0.59074620 -0.76867429 0.00000000
-0.35699859 -0.76456695 0.00000000
-0.72621141 0.37555348 0.00000000
-0.64824861 -0.78872794 0.00000000
0.08182884 -0.46914030 0.00000000
0.21773258 -0.74915687 0.00000000
0.51785286 0.62833017 0.12472518
-0.62504126 0.37983700 0.00000000
-0.56260581 -0.00776412 0.00000000
0.04164174 0.17755746 0.00000000
-0.18234434 0.71710250 0.00000000
0.54040933 -0.20612964 0.00000000
-0.39358628 -0.46107514 0.00000000
-0.56128482 -0.78393545 0.00000000
0.02364998 -0.61006496 0.00000000
0.38556455 0.73014488 0.11374585
0.11373887 0.18664867 0.00000000
0.01291015 -0.02292461 0.00000000
0.13334518 -0.00575654 0.00000000
-0.73945494 -0.48836249 0.00000000
0.35635721 0.41070773 0.00000000
0.51033039 0.51350943 0.08064662
0.77343204 0.07033798 0.01576977
0.30927618 -0.19315085 0.00000000
-0.36691211 0.73958954 0.00000000
-0.60185653 0.64626818 0.00000000
0.53665271 -0.29340205 0.00000000
-0.05825432 -0.60782967 0.00000000
0.11716185 0.64148267 0.00000000
-0.70902668 0.39209367 0.00000000
-0.03588756 -0.35389180 0.00000000
-0.29389363 0.64713700 0.00000000
0.26184339 0.08959918 0.00000000
-0.16885011 0.64876305 0.00000000
-0.70677698 0.59807601 0.00000000
-0.15133829 -0.26350906 0.00000000
0.25466441 0.06195406 0.00000000
-0.20632827 0.29781182 0.00000000
-0.61164601 0.62544136 0.00000000
0.57725632 -0.59010126 0.00000000
0.18563315 -0.60919790 0.00000000
0.73668403 -0.77142617 0.00000000
0.51015202 -0.66833408 0.00000000
0.04863530 0.55228688 0.00000000
-0.42626155 -0.22142624 0.00000000
-0.58565945 -0.25722600 0.00000000
0.07929833 -0.34207932 0.00000000
0.32245131 -0.10659059 0.00000000
-0.08632774 -0.45191752 0.00000000
-0.73806515 -0.76431013 0.00000000
-0.48881136 -0.36435360 0.00000000
0.71582771 0.56309229 0.17254856
-0.40958233 0.33308488 0.00000000
0.78745019 -0.13113917 0.00000000
-0.46381635 -0.11919016 0.00000000
0.18514869 -0.63452361 0.00000000
0.03659445 -0.69498258 0.00000000
0.32154636 -0.08376792 0.00000000
-0.01851532 0.33056868 0.00000000
0.65151402 -0.42657532 0.00000000
0.06486085 0.61727329 0.00000000
-0.59494843 -0.76257574 0.00000000
-0.23675629 -0.75595726 0.00000000
0.04646309 -0.04915826 0.00000000
0.29570679 0.41686325 0.00000000
-0.54196720 -0.07690626 0.00000000
-0.70866925 -0.45873221 0.00000000
-0.45869474 0.22369067 0.00000000
-0.67082183 0.78224240 0.00000000
0.00577423 0.09670837 0.00000000
0.57931973 0.06861385 0.00000000
-0.22954453 -0.15528960 0.00000000
0.45707916 0.20556038 0.00000000
-0.60523705 0.58371080 0.00000000
-0.15716380 -0.07697100 0.00000000
0.76639839 0.40886497 0.13520258
0.49473607 0.60669104 0.10860026
0.75468286 -0.43747853 0.00000000
-0.45338872 -0.35517628 0.00000000
0.50520255 -0.01914351 0.00000000
0.02348294 0.58014569 0.00000000
0.67052343 0.55061192 0.15172956
0.41288410 0.01078912 0.00000000
-0.27514462 0.29238256 0.00000000
-0.37310405 0.15015528 0.00000000
0.71277943 0.07978243 0.00000000
0.71247805 0.43243831 0.12426895
-0.51037982 0.56369149 0.00000000
-0.47416230 0.57922946 0.00000000
-0.31733838 0.23288785 0.00000000
0.30049608 -0.12067513 0.00000000
0.77772169 -0.44638496 0.00000000
-0.11730600 -0.01256173 0.00000000
-0.07453276 -0.36358679 0.00000000
0.49414938 -0.68072371 0.00000000
-0.08005746 0.67717759 0.00000000
-0.75753859 -0.05677411 0.00000000
-0.60680717 0.57153775 0.00000000
0.55478374 -0.43045242 0.00000000
-0.48497273 -0.11317576 0.00000000
0.10940801 0.61824476 0.00000000
0.18421610 -0.61561138 0.00000000
0.45172230 -0.29486484 0.00000000
-0.48469585 0.15060709 0.00000000
-0.44641823 0.55497476 0.00000000
-0.38571582 -0.44551061 0.00000000
-0.66069281 0.53900138 0.00000000
-0.24286516 -0.46309989 0.00000000
0.63756807 -0.06646169 0.00000000
-0.27735118 0.21346654 0.00000000
-0.54330393 -0.20887733 0.00000000
0.75558666 -0.57801934 0.00000000
0.16886247 -0.59621568 0.00000000
0.38888890 -0.15501302 0.00000000
0.64788046 -0.55079775 0.00000000
0.22486420 0.40657133 0.00000000
-0.16050754 -0.06589356 0.00000000
-0.24769810 -0.57889336 0.00000000
0.59928382 -0.05409847 0.00000000
-0.37234046 -0.58890952 0.00000000
-0.66007083 -0.72842008 0.00000000
0.35897679 0.42551119 0.00000000
0.23238546 0.07539162 0.00000000
0.27247246 0.24273459 0.00000000
-0.66610894 -0.01387517 0.00000000
-0.02111881 0.03677287 0.00000000
-0.61910762 -0.76076086 0.00000000
0.64286084 0.32899095 0.06191600
-0.68247933 -0.23408734 0.00000000
-0.68348420 -0.65695044 0.00000000
-0.15039891 -0.55753733 0.00000000
-0.50179146 0.77719762 0.00000000
-0.77133082 -0.27891885 0.00000000
-0.56660961 0.20875830 0.00000000
0.52664964 -0.74448797 0.00000000
-0.04725269 0.36591858 0.00000000
-0.64591921 -0.30704559 0.00000000
0.16763387 -0.40498252 0.00000000
0.41525048 0.64489254 0.09372613
0.14706142 -0.41219987 0.00000000
0.75853710 -0.40351496 0.00000000
0.07771647 -0.09558711 0.00000000
-0.30662188 0.02245324 0.00000000
0.60365491 0.10958811 0.00000000
0.40312064 -0.50609239 0.00000000
-0.18468574 0.12120689 0.00000000
-0.54780666 0.59100693 0.00000000
-0.10872732 0.13027405 0.00000000
-0.08160015 0.06849939 0.00000000
0.60589026 0.01579643 0.00000000
-0.75781984 0.06457119 0.00000000
0.11501172 0.26140861 0.00000000
0.77989181 -0.32094510 0.00000000
-0.27646950 -0.43277118 0.00000000
0.35175899 -0.18202898 0.00000000
0.22519256 0.51554081 0.00000000
-0.37494470 -0.37566784 0.00000000
0.24953022 -0.09329748 0.00000000
0.24794533 0.22960819 0.00000000
0.04054628 0.04082007 0.00000000
0.34605854 0.33493669 0.00000000
0.39298277 0.15356226 0.00000000
-0.61079534 -0.41849673 0.00000000
0.34949048 0.42388650 0.00000000
-0.11058423 0.20020040 0.00000000
0.44922666 0.13487243 0.00000000
0.78889225 -0.77580691 0.00000000
0.77402667 0.28767682 0.09428841
0.18763339 0.02436872 0.00000000
-0.42174629 0.39894513 0.00000000
0.62930525 0.10421596 0.00000000
-0.32359672 0.14726792 0.00000000
-0.25812490 0.13300363 0.00000000
0.20971754 -0.39354026 0.00000000
-0.44850071 0.28054090 0.00000000
-0.35546820 -0.54627021 0.00000000
-0.67919939 -0.06717021 0.00000000
0.24068724 -0.34777212 0.00000000
0.29758200 0.56733734 0.02338960
-0.37618528 -0.16968098 0.00000000
0.53038037 0.52818751 0.09315870
-0.44838323 -0.39068369 0.00000000
0.45959415 0.20442355 0.00000000
-0.08699766 0.01675856 0.00000000
0.66777687 0.60474627 0.17024382
-0.37781816 -0.23068703 0.00000000
0.75431503 -0.04498641 0.00000000
-0.74890449 -0.51245650 0.00000000
-0.24623677 0.06333532 0.00000000
0.69843894 -0.25096160 0.00000000
-0.06023068 0.70152735 0.00000000
0.51924341 0.12999061 0.00000000
0.76681629 0.31210187 0.10049064
0.56305481 -0.12607406 0.00000000
0.70020329 0.17924678 0.02862484
-0.51990838 0.54937130 0.00000000
0.18169597 -0.70895193 0.00000000
-0.18209549 -0.05907572 0.00000000
0.65429994 0.53207511 0.13920592
0.53520601 -0.75615981 0.00000000
0.58828836 0.34744254 0.04890210
-0.11096634 0.34396115 0.00000000
0.20199180 0.45698102 0.00000000
0.50862335 -0.21979219 0.00000000
-0.17698510 -0.50266753 0.00000000
0.73363749 0.07361586 0.00261328
0.05208123 0.08674808 0.00000000
0.24366393 -0.07107201 0.00000000
-0.17122864 -0.78294570 0.00000000
0.21484471 0.38303820 0.00000000
0.78705992 -0.18581984 0.00000000
0.54690371 0.11003802 0.00000000
0.58257956 0.47263442 0.09195033
-0.53902564 -0.57418904 0.00000000
-0.37755122 -0.13295841 0.00000000
-0.46540462 0.11757792 0.00000000
0.28334653 0.22904266 0.00000000
0.28075136 -0.21367090 0.00000000
-0.53324983 -0.34731441 0.00000000
0.02556266 -0.61163742 0.00000000
0.04877947 0.48076231 0.00000000
-0.60852677 0.68238546 0.00000000
0.26039910 -0.05665733 0.00000000
0.12001854 -0.79145217 0.00000000
0.15910968 0.50663550 0.00000000
-0.61674051 -0.61433126 0.00000000
-0.59007199 -0.65329598 0.00000000
-0.00581752 0.41013558 0.00000000
-0.63294157 0.41082100 0.00000000
-0.17582446 0.08257298 0.00000000
-0.59373528 0.39343799 0.00000000
-0.26006520 0.58459377 0.00000000
0.41144845 -0.39171553 0.00000000
0.13146339 0.06317550 0.00000000
-0.75886582 -0.09667392 0.00000000
0.62333496 -0.33114467 0.00000000
0.00449981 0.02488491 0.00000000
-0.74156185 -0.52706292 0.00000000
-0.09385658 -0.46526192 0.00000000
0.60004461 0.06517483 0.00000000
-0.49908478 -0.57293329 0.00000000
-0.78871593 -0.39949690 0.00000000
-0.39833910 -0.63844651 0.00000000
-0.79722155 -0.70180239 0.00000000
0.04352293 0.39487283 0.00000000
-0.31933520 0.63460474 0.00000000
0.19502975 -0.03003239 0.00000000
0.73685652 -0.03085091 0.00000000
0.64001736 0.17555557 0.00561072
-0.31762107 0.69070005 0.00000000
-0.49031599 0.55525235 0.00000000
-0.52887113 -0.77825540 0.00000000
0.60760880 0.26547052 0.02632954
-0.00778529 0.31894630 0.00000000
-0.23847434 -0.63159945 0.00000000
-0.11471015 0.04662787 0.00000000
0.13403267 0.43223801 0.00000000
-0.55414293 -0.66409526 0.00000000
-0.27135153 -0.45872775 0.00000000
0.45936327 -0.70141386 0.00000000
0.74482263 0.10853226 0.01922308
-0.74638351 0.26971032 0.00000000
0.49104307 0.74712916 0.15786750
0.78892045 0.00530674 0.00000000
0.29880729 -0.62167411 0.00000000
0.58976867 -0.38247602 0.00000000
0.33356434 0.54965478 0.02998278
0.47973675 -0.14551259 0.00000000
0.66560418 -0.02134594 0.00000000
0.17939333 -0.01873772 0.00000000
0.75881043 0.57625583 0.19277728
0.03671881 -0.38487938 0.00000000
0.79312885 0.09400208 0.03139215
0.29995223 -0.68691562 0.00000000
0.11948463 -0.74059986 0.00000000
-0.29696441 -0.41224042 0.00000000
-0.67487167 0.07285555 0.00000000
0.61019453 -0.33686222 0.00000000
-0.44216913 -0.12195115 0.00000000
-0.74057612 -0.08711993 0.00000000
0.03477774 0.37421551 0.00000000
0.72575247 -0.75755752 0.00000000
-0.22746168 -0.33056966 0.00000000
0.56572660 0.11424365 0.00000000
0.46678434 0.49246039 0.05737384
0.39926638 0.55109089 0.05417180
-0.79886958 0.68533080 0.00000000
-0.33444461 -0.31346950 0.00000000
0.61809267 0.33717440 0.05594073
-0.65484908 -0.62473402 0.00000000
0.01442486 -0.30188741 0.00000000
-0.05167326 -0.71043504 0.00000000
0.69524670 0.49466652 0.14048071
0.30317861 0.41207441 0.00000000
-0.26536521 -0.41196968 0.00000000
0.38159224 -0.49957635 0.00000000
-0.06471657 0.15711835 0.00000000
0.04089441 0.09828829 0.00000000
0.05077108 -0.57627809 0.00000000
0.30285491 -0.20266249 0.00000000
-0.35675222 -0.49333398 0.00000000
0.28976853 -0.35762769 0.00000000
0.75966473 0.40695360 0.13208789
-0.77643334 -0.13487035 0.00000000
0.56557994 0.09152952 0.00000000
0.44726999 0.17767109 0.00000000
0.58268266 -0.37512937 0.00000000
-0.58043954 -0.73236958 0.00000000
0.13860974 -0.44825820 0.00000000
0.62553337 -0.03638768 0.00000000
0.12743077 0.59856788 0.00000000
-0.58952389 -0.25901341 0.00000000
-0.04934742 -0.14796718 0.00000000
0.38474891 -0.60338870 0.00000000
-0.14098535 0.24912914 0.00000000
0.49523720 -0.72755662 0.00000000
0.42093956 -0.14646934 0.00000000
-0.10489044 -0.06971808 0.00000000
-0.36815635 -0.56547460 0.00000000
-0.61531963 -0.37895438 0.00000000
0.68414355 0.27888000 0.05873529
-0.49706626 0.77971406 0.00000000
0.69789277 -0.24883743 0.00000000
0.18999971 -0.17625064 0.00000000
0.34624685 -0.76985199 0.00000000
-0.22273155 -0.78017280 0.00000000
-0.06591414 0.42164123 0.00000000
0.49268000 -0.30647936 0.00000000
-0.55748249 0.64795286 0.00000000
0.22031352 0.30233338 0.00000000
0.26257918 -0.61414126 0.00000000
0.38258096 -0.56311513 0.00000000
0.56019538 0.39338511 0.05533308
-0.26260690 0.64205077 0.00000000
0.69477054 0.33391716 0.08239325
0.45727236 -0.49307950 0.00000000
0.67991452 0.40331371 0.10204350
-0.19596380 -0.44728177 0.00000000
-0.72274951 0.19253286 0.00000000
-0.02494482 0.33027730 0.00000000
-0.75605170 0.17032953 0.00000000
-0.02158116 -0.43753060 0.00000000
-0.56438318 0.54912276 0.00000000
-0.48556078 0.45822631 0.00000000
0.35267490 -0.75982813 0.00000000
0.14321557 0.65873693 0.00070345
0.52637737 -0.39336584 0.00000000
0.55615675 -0.22296436 0.00000000
-0.64859198 0.54881703 0.00000000
0.57939525 0.56340211 0.12350544
-0.73629815 0.29208017 0.00000000
0.20983537 -0.14415313 0.00000000
0.50660399 0.10857767 0.00000000
0.41000910 0.03464383 0.00000000
-0.58568250 -0.29446900 0.00000000
-0.45734450 -0.51232483 0.00000000
-0.15112746 0.21578981 0.00000000
0.69108415 0.58925784 0.17306086
0.33980660 -0.76691590 0.00000000
-0.33180361 -0.64275294 0.00000000
-0.67703615 -0.44743213 0.00000000
0.57439564 -0.31804994 0.00000000
0.21556882 -0.08909217 0.00000000
0.55443441 -0.43482782 0.00000000
-0.16529494 0.31549339 0.00000000
0.11974007 0.74407071 0.02299020
0.51389477 0.71598775 0.15488086
-0.24481403 0.01347139 0.00000000
-0.42388279 -0.10422069 0.00000000
-0.06487202 -0.47088003 0.00000000
0.08705468 -0.31690232 0.00000000
-0.08458470 -0.29897435 0.00000000
-0.66741781 -0.53634331 0.00000000
0.38667118 0.34026043 0.00000000
0.61983492 -0.12736089 0.00000000
-0.28398213 -0.75371465 0.00000000
-0.70888965 0.25579576 0.00000000
0.10940392 -0.65703051 0.00000000
0.72529696 0.01546365 0.00000000
-0.18420681 -0.19295810 0.00000000
0.73872272 -0.08139590 0.00000000
-0.38924237 0.66517907 0.00000000
0.39980914 -0.28012839 0.00000000
0.77084108 -0.53151743 0.00000000
0.22919889 -0.38140588 0.00000000
0.42384866 -0.53335778 0.00000000
-0.32068662 0.38504842 0.00000000
0.18341726 -0.21922494 0.00000000
0.14932773 -0.15318066 0.00000000
-0.43529939 0.32298909 0.00000000
-0.52806811 0.05936530 0.00000000
-0.07257226 0.16054468 0.00000000
0.71366131 0.55649647 0.16939166
0.37671480 0.40686048 0.00000000
0.40794673 0.00516730 0.00000000
0.57653761 -0.07000725 0.00000000
0.21088403 0.15566646 0.00000000
0.35541077 0.49538934 0.01830263
0.77311567 -0.22738451 0.00000000
-0.21467043 -0.72582174 0.00000000
0.79147807 -0.45827267 0.00000000
-0.12262891 0.34389980 0.00000000
0.16280986 -0.14459009 0.00000000
0.23937456 0.02720629 0.00000000
0.13666333 -0.22438637 0.00000000
0.05500649 -0.35840314 0.00000000
0.07382506 0.48638363 0.00000000
0.57536331 0.11201659 0.00000000
-0.23926733 -0.24248496 0.00000000
0.09448986 0.72391426 0.00663077
0.65382565 -0.54682170 0.00000000
-0.55108252 0.76331568 0.00000000
0.72904894 0.07750428 0.00236104
0.72290361 -0.18732962 0.00000000
0.66463409 -0.13928903 0.00000000
-0.11022042 -0.31755105 0.00000000
-0.03369827 -0.44756766 0.00000000
-0.74825558 -0.57957378 0.00000000
-0.28640460 0.67335978 0.00000000
0.30592829 0.27654256 0.00000000
0.52666684 0.64174006 0.13273212
0.34177994 0.16450699 0.00000000
0.63961286 -0.35979067 0.00000000
0.27445683 -0.74560775 0.00000000
0.71249718 0.61948231 0.19166511
-0.11743720 0.08721678 0.00000000
-0.75082592 0.58977216 0.00000000
0.30594361 0.67089059 0.06371107
0.50326578 -0.04418602 0.00000000
0.60148793 -0.15907085 0.00000000
-0.13994802 0.35054010 0.00000000
-0.16572445 -0.67138558 0.00000000
-0.18855028 -0.39646433 0.00000000
-0.08214128 -0.43158156 0.00000000
0.15717431 -0.09913470 0.00000000
-0.36164504 -0.58728009 0.00000000
-0.64412593 -0.37635706 0.00000000
0.41053283 0.74397571 0.12772463
-0.77028007 -0.54703813 0.00000000
-0.02267920 -0.07358968 0.00000000
0.57532178 -0.39936256 0.00000000
0.31241148 0.53640426 0.01758768
-0.24552977 -0.12836346 0.00000000
-0.67015655 0.30468785 0.00000000
0.67383939 0.63849086 0.18458573
0.78498483 -0.03338742 0.00000000
0.43703565 -0.63299743 0.00000000
0.29371304 0.00082499 0.00000000
0.77434627 0.39734239 0.13391466
-0.10449595 0.31366061 0.00000000
0.37433777 -0.43321334 0.00000000
0.37869692 -0.16793265 0.00000000
0.64069645 -0.76326753 0.00000000
-0.35184611 -0.22396620 0.00000000
-0.30863314 0.25260409 0.00000000
-0.33904380 -0.52033985 0.00000000
0.08546815 -0.20565874 0.00000000
0.50790795 -0.32597403 0.00000000
-0.65358690 -0.54907774 0.00000000
0.21782607 0.52129296 0.00000000
0.32153039 -0.68922656 0.00000000
0.32920046 0.06773812 0.00000000
-0.04687622 -0.63293540 0.00000000
0.12924978 -0.01495937 0.00000000
-0.17699336 0.19144684 0.00000000
-0.62185797 -0.11174258 0.00000000
0.37298360 0.15164560 0.00000000
0.55020431 0.01978065 0.00000000
-0.43619527 0.28410899 0.00000000
0.09804802 -0.77992304 0.00000000
-0.08871958 -0.37985249 0.00000000
0.38548933 -0.01725330 0.00000000
0.36098360 0.16528388 0.00000000
0.05437685 -0.31539287 0.00000000
0.54163960 0.06639234 0.00000000
-0.51296189 -0.69277028 0.00000000
-0.17811538 0.39807497 0.00000000
-0.10147697 0.73071265 0.00000000
0.63901910 0.62941160 0.16876934
0.02799425 -0.00713207 0.00000000
-0.44601255 -0.32042148 0.00000000
0.43892819 -0.17895543 0.00000000
0.56761552 -0.14175661 0.00000000
-0.74990580 -0.07289144 0.00000000
-0.27770435 0.62605705 0.00000000
-0.63791002 0.58139690 0.00000000
-0.43244290 -0.55263411 0.00000000
0.23246244 -0.11811931 0.00000000
-0.21833265 0.14699358 0.00000000
-0.40705788 0.33559391 0.00000000
-0.00178913 0.71642683 0.00000000
-0.52069945 -0.45254862 0.00000000
0.78956951 -0.34555448 0.00000000
-0.79830057 0.47419097 0.00000000
0.47982667 -0.29413164 0.00000000
-0.58158691 0.67390166 0.00000000
-0.35226488 0.17087567 0.00000000
-0.44731856 0.14213294 0.00000000
-0.74296590 -0.20737844 0.00000000
0.47754483 -0.59756595 0.00000000
-0.49685884 0.65492813 0.00000000
-0.68477101 0.44618235 0.00000000
-0.50468815 0.41182134 0.00000000
-0.64428826 -0.55392146 0.00000000
-0.23993598 0.77328283 0.00000000
-0.63524655 -0.35420243 0.00000000
0.76832353 0.35215878 0.11546567
-0.34981641 0.05371326 0.00000000
-0.19839549 -0.63238952 0.00000000
0.17556799 -0.48273493 0.00000000
-0.14254849 0.68967025 0.00000000
0.64214071 0.22544289 0.02434950
0.24918683 -0.16399948 0.00000000
0.07450559 0.46295878 0.00000000
-0.20961763 -0.46079675 0.00000000
-0.40956172 -0.07166591 0.00000000
-0.12011160 -0.22270607 0.00000000
0.49025363 0.54633900 0.08524129
-0.50821929 -0.47389422 0.00000000
-0.79432867 -0.42483297 0.00000000
-0.09829180 0.18549992 0.00000000
-0.02065048 -0.61296427 0.00000000
-0.41997422 0.68348408 0.00000000
-0.26153211 -0.03362814 0.00000000
-0.71662815 0.55379883 0.00000000
0.48270614 0.35444630 0.01338554
0.65636079 0.19984685 0.02025089
0.49583179 -0.33469052 0.00000000
-0.43904936 -0.75364202 0.00000000
-0.41632520 -0.07854287 0.00000000
0.45773466 -0.54832405 0.00000000
-0.02240938 0.44018822 0.00000000
-0.01963894 0.78542269 0.00000000
-0.08398813 -0.71233014 0.00000000
-0.19775315 -0.33210535 0.00000000
-0.51355329 -0.56365672 0.00000000
-0.45643213 0.39483096 0.00000000
0.72998285 -0.51650325 0.00000000
-0.69118175 -0.00317647 0.00000000
0.71499036 -0.50905237 0.00000000
-0.73484995 0.64084984 0.00000000
0.72917440 0.45298532 0.13768725
0.07125900 -0.03494391 0.00000000
-0.62731071 0.15731851 0.00000000
0.60532562 -0.55181555 0.00000000
-0.31358806 0.42612633 0.00000000
0.78023118 -0.69478076 0.00000000
0.72113253 -0.18972156 0.00000000
-0.27669153 -0.63393198 0.00000000
-0.18453251 0.26143531 0.00000000
0.01054053 -0.47964658 0.00000000
-0.38231520 -0.53336979 0.00000000
0.75002454 0.08025476 0.01090924
0.68839472 0.39519973 0.10217544
0.30808530 -0.67150822 0.00000000
-0.22676436 -0.21006382 0.00000000
0.46236457 -0.47195582 0.00000000
0.59625080 0.68495596 0.17337232
-0.17956264 -0.53934719 0.00000000
0.76359113 0.19003338 0.05534894
-0.40632384 0.54865124 0.00000000
0.07134538 0.46674239 0.00000000
-0.45640596 -0.76242172 0.00000000
0.19234853 -0.58166366 0.00000000
0.29007477 -0.46880586 0.00000000
-0.76861352 0.34881039 0.00000000
-0.23339978 -0.11254643 0.00000000
-0.39696412 0.42065939 0.00000000
-0.32482750 -0.63933151 0.00000000
0.34002282 0.22785292 0.00000000
-0.08137095 0.50445582 0.00000000
0.46615494 -0.14893754 0.00000000
-0.06893427 -0.56540109 0.00000000
-0.26642825 -0.30937530 0.00000000
0.31702376 -0.20597310 0.00000000
-0.41533151 -0.40868692 0.00000000
-0.70957732 -0.66251694 0.00000000
-0.41098022 0.53308279 0.00000000
-0.65759309 -0.35140999 0.00000000
0.23069381 -0.58377612 0.00000000
0.66700406 0.62237742 0.17631763
-0.76496224 0.66668820 0.00000000
0.06660461 0.66900790 0.00000000
0.28579003 0.30321633 0.00000000
0.74938483 -0.05375452 0.00000000
-0.70694977 0.39757815 0.00000000
-0.05313038 -0.08771765 0.00000000
-0.34911204 -0.36272402 0.00000000
-0.05888931 -0.49420127 0.00000000
0.67700905 0.34792161 0.08103964
-0.65700056 0.41275030 0.00000000
-0.18420582 0.61038124 0.00000000
-0.40654554 0.23755131 0.00000000
0.53615108 0.57934978 0.11367087
0.27706819 0.64772629 0.04496185
-0.24900049 -0.10197251 0.00000000
-0.75551699 0.62629872 0.00000000
0.73821556 -0.42210246 0.00000000
-0.07222510 -0.46293917 0.00000000
-0.39910650 0.56169340 0.00000000
-0.01419605 -0.51705104 0.00000000
0.71229721 0.37290477 0.10275462
-0.14408858 0.37539590 0.00000000
0.47326621 -0.07053548 0.00000000
-0.72298367 -0.58128575 0.00000000
0.38051952 -0.12595704 0.00000000
-0.59587449 0.18849556 0.00000000
0.57734416 -0.00659094 0.00000000
0.31531539 -0.14697103 0.00000000
-0.50538235 0.72031600 0.00000000
0.06502167 0.33011725 0.00000000
0.52115982 0.45253449 0.06257983
-0.45850314 0.62157175 0.00000000
-0.40619842 -0.78088235 0.00000000
-0.40836213 -0.78072536 0.00000000
-0.64458258 -0.33349922 0.00000000
-0.78195863 -0.40615676 0.00000000
0.47886778 -0.18514650 0.00000000
-0.50090758 0.79113581 0.00000000
-0.33357588 -0.37063578 0.00000000
-0.38320890 -0.08762594 0.00000000
0.22554857 -0.29304064 0.00000000
-0.40448642 0.61350015 0.00000000
0.19609307 0.31747295 0.00000000
-0.13500767 0.02062070 0.00000000
-0.01421032 0.46023562 0.00000000
0.05122956 0.74205457 0.00000000
0.71372428 0.22158039 0.04874854
0.47086511 0.01911726 0.00000000
0.79766949 -0.19117688 0.00000000
-0.26780247 0.58530857 0.00000000
0.23679454 0.22055675 0.00000000
0.74662359 -0.24345132 0.00000000
-0.07554105 -0.02132787 0.00000000
0.24154305 0.42867963 0.00000000
-0.55377938 0.25291208 0.00000000
0.21703193 -0.05887006 0.00000000
-0.25260939 0.21109060 0.00000000
-0.33989122 -0.42382774 0.00000000
0.09827452 -0.18257673 0.00000000
-0.05437704 -0.67639279 0.00000000
-0.33605284 -0.35379469 0.00000000
-0.39696733 -0.43645431 0.00000000
-0.57779820 0.04079873 0.00000000
-0.05730933 -0.62710039 0.00000000
0.63433616 0.15901278 0.00000000
0.46504573 -0.57228419 0.00000000
-0.38476729 -0.36729566 0.00000000
0.02713735 0.38090206 0.00000000
-0.71252621 0.59728781 0.00000000
0.64840566 -0.34683267 0.00000000
0.40502393 0.21723841 0.00000000
-0.41884735 0.31555665 0.00000000
-0.49548519 0.67307622 0.00000000
0.04389956 -0.19129712 0.00000000
-0.37191441 -0.00530636 0.00000000
0.19783684 -0.65388667 0.00000000
0.10605678 -0.48568136 0.00000000
-0.78331516 -0.62259187 0.00000000
-0.17295553 -0.59719532 0.00000000
0.45352332 0.36535719 0.00680240
0.58960706 -0.10297073 0.00000000
0.06030073 0.16298029 0.00000000
-0.22128094 0.78694217 0.00000000
-0.62855211 0.68241396 0.00000000
-0.19658575 0.19123473 0.00000000
0.12115161 -0.78274790 0.00000000
0.33236097 -0.16082806 0.00000000
0.33948516 -0.22222812 0.00000000
0.43593723 0.40007808 0.01297585
0.22605373 0.32317534 0.00000000
-0.56848124 0.43945102 0.00000000
-0.14960703 0.05718721 0.00000000
0.00335234 0.52700649 0.00000000
-0.42106424 0.13978635 0.00000000
0.53390638 0.57467931 0.11117943
-0.11635451 -0.72574089 0.00000000
-0.74934382 0.65769491 0.00000000
-0.74766644 -0.79915845 0.00000000
0.01316036 0.78214858 0.00000000
0.06390995 0.11721415 0.00000000
-0.31070959 0.65684238 0.00000000
-0.33168777 0.00588997 0.00000000
-0.72045232 0.27463095 0.00000000
-0.11174475 0.47937636 0.00000000
-0.06872224 -0.75505786 0.00000000
0.27404453 0.73036103 0.07364460
0.02766057 -0.44823509 0.00000000
-0.66692041 -0.20583514 0.00000000
0.62888819 -0.20149053 0.00000000
-0.08383200 -0.61956343 0.00000000
-0.24981792 -0.70517447 0.00000000
-0.10141479 -0.53720546 0.00000000
-0.51458239 -0.44840152 0.00000000
0.75308708 -0.05682318 0.00000000
-0.56243498 0.37674239 0.00000000
-0.26689393 -0.42222648 0.00000000
-0.53283277 0.66211819 0.00000000
-0.46697760 -0.24724116 0.00000000
-0.54046823 0.07992189 0.00000000
0.42106244 0.11143401 0.00000000
-0.49460872 0.19563281 0.00000000
0.21419372 0.01777214 0.00000000
-0.19777075 0.76308941 0.00000000
-0.10525311 -0.20178594 0.00000000
-0.52655943 -0.66394786 0.00000000
-0.48122812 -0.24946318 0.00000000
0.33016009 -0.26761898 0.00000000
0.44701800 0.31534793 0.00000000
-0.71960966 -0.34635256 0.00000000
0.73150410 0.41090798 0.12336669
-0.60650128 0.43915108 0.00000000
0.55734865 0.30911344 0.02394544
0.27651131 0.40157838 0.00000000
0.78316800 -0.29262295 0.00000000
-0.28435482 -0.32895697 0.00000000
-0.10896314 0.10867398 0.00000000
-0.54316713 -0.69918637 0.00000000
0.11251047 0.70912019 0.00779325
0.01892963 -0.34772296 0.00000000
-0.75307144 0.12341585 0.00000000
0.54655029 -0.03800570 0.00000000
0.60541539 -0.19918042 0.00000000
0.43685359 0.30632301 0.00000000
0.20926618 0.30613948 0.00000000
-0.57488093 0.52620061 0.00000000
-0.28291430 -0.57946672 0.00000000
0.68299581 -0.57019313 0.00000000
0.24384692 0.42545610 0.00000000
-0.72130424 0.18329585 0.00000000
0.68370937 0.53100688 0.14941686
-0.19317357 -0.60357580 0.00000000
0.25989010 -0.62980034 0.00000000
0.71507459 0.55707487 0.17010924
-0.37285469 0.61403643 0.00000000
0.71341482 -0.24702274 0.00000000
0.01495256 -0.23158066 0.00000000
-0.54734652 -0.26517035 0.00000000
-0.59145592 0.49917003 0.00000000
0.07667376 0.10047657 0.00000000
0.11326138 0.25111567 0.00000000
-0.70741195 0.49439391 0.00000000
0.01330547 -0.68947154 0.00000000
0.61547809 -0.73530284 0.00000000
-0.13453947 0.30361439 0.00000000
0.07040898 -0.08723971 0.00000000
-0.41150664 -0.03580904 0.00000000
-0.34366843 0.58165489 0.00000000
0.56719906 -0.61976670 0.00000000
-0.03444407 0.48424893 0.00000000
0.42489364 -0.48354548 0.00000000
-0.23468736 -0.74790594 0.00000000
0.07876639 -0.71321435 0.00000000
0.58525487 0.31354446 0.03559613
0.49788895 0.60334608 0.10853106
-0.51910827 0.73485130 0.00000000
-0.08132428 -0.55354514 0.00000000
0.53728345 0.59443785 0.11951485
-0.42613082 0.06882969 0.00000000
0.25550944 0.36239143 0.00000000
0.63219097 0.15031414 0.00000000
-0.55991021 0.31080494 0.00000000
0.05121826 0.38260073 0.00000000
0.22955579 -0.46676624 0.00000000
-0.37943438 0.61412306 0.00000000
0.58817608 -0.61234921 0.00000000
-0.75258197 -0.05181305 0.00000000
-0.68897122 0.51671352 0.00000000
-0.27414388 0.46825731 0.00000000
-0.37428352 -0.10398099 0.00000000
0.08073349 0.07575867 0.00000000
0.24065247 -0.72940752 0.00000000
-0.06508473 -0.18957687 0.00000000
-0.17008060 0.66705306 0.00000000
0.70502833 -0.09851651 0.00000000
-0.56501187 -0.74672380 0.00000000
0.59755670 0.64592674 0.15978117
0.08938139 -0.32596464 0.00000000
0.26480446 -0.33430912 0.00000000
0.25203000 -0.61342140 0.00000000
0.31042427 0.04139842 0.00000000
-0.07327031 -0.41836707 0.00000000
-0.73427966 -0.35091645 0.00000000
-0.54676447 0.73555472 0.00000000
0.58543896 0.22063664 0.00218896
-0.68737037 0.41206159 0.00000000
-0.32290908 0.12951455 0.00000000
0.42285665 0.53624660 0.05732286
0.47487148 -0.61409790 0.00000000
0.20021122 -0.34646672 0.00000000
0.72611020 -0.41841429 0.00000000
0.63577030 -0.16435977 0.00000000
-0.31302528 0.70751953 0.00000000
-0.45946136 0.19257721 0.00000000
0.38170666 0.28946505 0.00000000
