ply
format ascii 1.0
element vertex 1375
property float x
property float y
property float z
end_header
0.66036021 0.07120171 0.09296405
0.55898951 0.04537166 -0.00000079
0.70440261 -0.26905348 -0.00000061
0.77371836 -0.17503966 -0.00000078
-0.54065896 -0.00980349 -0.00000027
-0.36472025 -0.61031811 -0.00000012
0.64073359 -0.77783455 -0.00000001
-0.28172599 -0.37893476 -0.00000026
-0.22018071 -0.27704085 -0.00000033
-0.10569540 0.34856491 -0.00000072
0.61303480 -0.28414887 -0.00000050
-0.19479859 -0.16351504 -0.00000040
-0.42652680 0.30409702 -0.00000045
0.70313553 -0.41756208 -0.00000045
-0.41581014 -0.29076170 -0.00000032
0.45390229 0.00538817 -0.00000064
-0.59786130 0.09552517 -0.00000023
0.45568267 0.14831117 -0.00000079
0.22656144 -0.56002355 -0.00000015
0.00282836 0.22155961 -0.00000064
0.15339537 0.63922427 -0.00000099
0.01667387 -0.44635644 -0.00000022
-0.56081772 0.73638468 -0.00000030
0.45298638 -0.13429565 -0.00000049
-0.38013041 0.37574685 -0.00000052
0.29482739 0.20894703 0.40238923
0.25642094 0.52508563 0.02511917
0.05441192 0.53636165 -0.00000084
0.09572239 -0.66530231 -0.00000008
0.36945925 -0.08075605 -0.00000045
-0.53434502 -0.34791783 -0.00000022
-0.19409718 -0.58199255 -0.00000014
-0.74563047 0.65963468 -0.00000007
0.33083811 0.33337866 -0.00000086
0.07269048 0.71840812 -0.00000099
-0.48794685 -0.31172266 -0.00000028
-0.13275236 -0.39613070 -0.00000025
-0.47031546 -0.62473023 -0.00000011
0.51494662 0.10318133 -0.00000081
0.71951996 -0.41115162 -0.00000048
-0.16698330 0.05444612 -0.00000053
0.58645722 -0.27339769 -0.00000048
-0.48917426 0.04404228 -0.00000034
-0.72508359 0.16126212 -0.00000009
0.16113577 0.53054534 -0.00000088
-0.07220770 -0.11805951 -0.00000043
0.19155494 0.35937070 0.33833893
0.34066471 -0.03513442 -0.00000048
-0.31160830 -0.75430837 -0.00000003
0.00006766 0.43641835 -0.00000077
-0.73573567 0.48927125 -0.00000008
-0.18212109 0.48757524 -0.00000075
-0.78839241 0.69682226 -0.00000001
-0.44531595 0.11790424 -0.00000040
0.36931477 0.41050475 0.02741084
-0.71398577 0.41153300 -0.00000011
0.17281854 0.59880695 -0.00000097
0.75654427 -0.69674841 -0.00000013
0.26786086 0.35633886 0.23880449
0.46192023 0.20227500 -0.00000086
0.22582354 0.46951187 0.14217418
-0.75639163 0.38723714 -0.00000005
-0.51922663 -0.55470869 -0.00000015
0.56430995 -0.70698117 -0.00000006
0.41243822 -0.39729919 -0.00000025
-0.45017009 -0.29003975 -0.00000032
0.46930466 0.32837448 0.00315033
-0.52550976 0.38893138 -0.00000034
0.38194494 0.21266306 -0.00000078
-0.76805393 -0.05265824 -0.00000002
-0.15618889 0.59800808 -0.00000080
0.19947834 0.56730110 0.04512451
0.31708954 0.31806264 -0.00000082
0.15112704 -0.70691778 -0.00000006
-0.59119987 -0.15889089 -0.00000019
0.59797166 0.07548872 0.17188927
-0.07655869 -0.53249944 -0.00000017
-0.53722865 0.04239499 -0.00000029
-0.67788375 -0.67241840 -0.00000001
0.52979051 0.02370644 -0.00000074
0.11424291 -0.55223685 -0.00000015
0.43613140 0.18563961 -0.00000081
-0.58101089 0.17119836 -0.00000026
0.30462271 0.22919091 0.36158431
0.69712601 -0.47002270 -0.00000039
-0.68328222 0.29177864 -0.00000015
-0.13476526 -0.21517106 -0.00000037
-0.05345137 -0.73062132 -0.00000004
-0.28385771 -0.38202074 -0.00000026
-0.09526817 0.30722398 -0.00000069
0.17948941 0.55588173 0.08778960
0.55626353 -0.50473747 -0.00000020
0.51563006 -0.76429723 -0.00000002
-0.47234542 0.30957475 -0.00000041
0.76344655 -0.09023664 -0.00000086
-0.77712332 0.78878419 -0.00000003
0.20078922 0.31820826 0.38170990
0.25253305 0.39076731 0.21285828
0.33878364 0.28066566 0.24525777
-0.79808720 0.73046365 -0.00000000
0.53271398 0.25079365 0.02240092
0.70972501 -0.70318763 -0.00000012
0.67963506 -0.56404483 -0.00000027
0.21333955 0.03501682 -0.00000052
0.21935908 0.22939769 0.47712432
-0.66483379 -0.59031016 -0.00000004
-0.72074925 0.73993980 -0.00000010
0.77368815 -0.77512818 -0.00000003
0.74478021 0.02882868 -0.00000097
-0.10876577 -0.64712079 -0.00000010
0.21323908 0.48415512 -0.00000089
0.24686220 0.33891912 0.29099158
-0.00325565 0.08402912 -0.00000055
-0.37178600 -0.06111868 -0.00000045
-0.18234727 0.24567852 -0.00000065
0.25837131 -0.37135105 -0.00000027
-0.32945442 0.33147055 -0.00000056
0.18023746 0.58516872 -0.00000096
0.62962114 -0.72546824 -0.00000005
0.68818634 0.08495472 0.03648288
-0.70324616 0.33895107 -0.00000012
0.20296021 0.17611839 -0.00000061
0.64164606 -0.07878192 -0.00000075
0.48369055 0.20405944 -0.00000088
0.04398540 0.37314623 -0.00000073
-0.44221268 0.58684679 -0.00000045
0.32710753 -0.77030115 -0.00000002
0.53637733 -0.16574460 -0.00000054
-0.28824374 0.71043779 -0.00000064
0.07728614 0.69174784 0.04206193
-0.52832718 -0.20462779 -0.00000025
0.77439996 -0.56131943 -0.00000030
0.24344407 0.26204096 -0.00000069
-0.36438530 0.68836804 -0.00000054
-0.33798572 -0.43200944 -0.00000023
0.58253600 -0.50170576 -0.00000023
0.66039165 -0.58772683 -0.00000022
-0.36040737 0.64462116 -0.00000055
0.29136700 0.26408555 0.33219012
-0.66815860 -0.73175605 -0.00000001
0.71227099 -0.15734896 -0.00000074
-0.62726202 -0.75239238 -0.00000003
0.52550212 0.10550864 0.22955288
0.20959019 -0.38618766 -0.00000026
-0.14280264 0.44408724 -0.00000078
0.49559100 0.25005776 0.07382847
-0.06372082 -0.24214799 -0.00000035
-0.32280988 -0.26806286 -0.00000033
-0.49512225 -0.42833323 -0.00000023
-0.03733570 -0.01830505 -0.00000049
0.52939553 -0.22253400 -0.00000047
-0.68815438 -0.63507425 -0.00000000
-0.34626233 -0.54050632 -0.00000016
-0.50985674 0.18207504 -0.00000034
0.23453758 0.15730309 -0.00000060
0.24110807 0.02795299 -0.00000052
0.42281898 -0.56092058 -0.00000015
0.24870345 -0.24324091 -0.00000035
-0.17468604 -0.32953148 -0.00000029
-0.26094683 0.42054979 -0.00000065
0.71084046 -0.60872972 -0.00000024
0.13488463 0.30278492 -0.00000069
-0.73322304 0.49693644 -0.00000008
-0.28401097 0.23763500 -0.00000059
0.53847000 -0.46997648 -0.00000022
-0.45882022 0.30360977 -0.00000042
0.70931274 0.06510193 0.03475281
0.27233001 -0.27782513 -0.00000033
0.63684136 -0.32992255 -0.00000047
0.41507115 -0.09834386 -0.00000048
0.52462742 0.14450979 0.17776186
-0.23875226 0.26485993 -0.00000065
0.05376771 0.07070146 -0.00000054
0.18593291 0.07303455 -0.00000055
0.45475146 -0.67613578 -0.00000008
-0.29366790 0.16613270 -0.00000057
0.05942463 -0.41224464 -0.00000024
0.06861387 0.33596526 -0.00000071
-0.65572069 -0.75151122 -0.00000002
-0.61692031 -0.22747594 -0.00000015
0.63631310 -0.24207956 -0.00000057
0.60207403 -0.34284227 -0.00000042
-0.36699567 -0.10079425 -0.00000044
-0.20932511 0.36390829 -0.00000070
-0.43154588 -0.72457249 -0.00000005
-0.75652783 0.77406632 -0.00000005
-0.19946895 -0.44101204 -0.00000022
-0.39336020 -0.50818440 -0.00000018
-0.60877522 -0.73466933 -0.00000004
-0.15971493 0.69092173 -0.00000080
0.64316776 -0.54729762 -0.00000025
-0.77309858 0.07466826 -0.00000003
0.03605064 0.67663719 -0.00000092
-0.33246140 -0.43090990 -0.00000023
0.25190651 -0.43470415 -0.00000023
0.10107326 0.07755838 -0.00000055
0.48497346 0.11932810 0.26583470
-0.75563367 0.57206460 -0.00000006
-0.34445717 0.10220077 -0.00000050
0.23445507 0.41673254 -0.00000084
0.15201136 -0.07622317 -0.00000045
0.05690301 0.28983332 -0.00000068
0.43056486 0.32987215 0.05374007
-0.55695522 -0.68051241 -0.00000007
-0.76763802 0.17983882 -0.00000004
0.74275306 -0.17572223 -0.00000075
0.25622394 0.35169848 0.26091535
-0.22516882 0.14360346 -0.00000059
0.53513413 -0.52951291 -0.00000017
-0.29771287 -0.14045019 -0.00000041
0.33007186 -0.27045733 -0.00000033
-0.76562509 -0.04905961 -0.00000003
-0.50186348 0.68137261 -0.00000037
-0.24445802 -0.54366494 -0.00000016
0.19199379 0.41152443 0.26689765
0.71149053 -0.58281470 -0.00000027
0.30734057 0.45057918 -0.00000096
-0.42214092 -0.69981966 -0.00000006
-0.10265676 0.05095466 -0.00000053
0.38347819 -0.15245326 -0.00000040
0.76176223 -0.66748568 -0.00000017
-0.62360032 0.47044561 -0.00000022
-0.25801817 0.58789462 -0.00000068
0.33126670 0.13066808 -0.00000064
0.01116467 -0.55205831 -0.00000015
-0.17576523 0.08424051 -0.00000055
0.29904555 -0.28573407 -0.00000032
0.35838270 0.25384469 0.25506806
-0.43943100 0.15968461 -0.00000041
0.14891760 0.34187242 -0.00000071
0.07285083 0.42807088 -0.00000077
-0.58583001 0.54126655 -0.00000027
-0.35492911 0.22141613 -0.00000052
0.53845931 0.20847114 0.07208741
-0.49530037 -0.60707144 -0.00000012
0.78265911 -0.11100270 -0.00000086
0.15784249 0.57489637 0.09136529
-0.59047170 0.35717503 -0.00000026
-0.28425320 0.25685023 -0.00000060
-0.65157026 -0.71022280 -0.00000003
0.19359654 -0.72048660 -0.00000005
-0.33100628 0.54358345 -0.00000059
-0.56145843 -0.47426136 -0.00000017
-0.79615891 -0.24573805 0.00000000
-0.50401415 -0.42877209 -0.00000023
0.32723601 0.35118800 0.16514665
-0.43713752 0.15310575 -0.00000042
0.69063733 -0.23551255 -0.00000063
-0.78429467 -0.51131375 0.00000000
0.44723428 0.35026410 -0.00000100
0.39450762 0.19356818 0.28787553
-0.71754721 0.60909300 -0.00000010
0.26676352 -0.04300261 -0.00000047
-0.64417690 -0.04740105 -0.00000016
0.02103923 0.05415376 -0.00000053
-0.39764969 0.73724442 -0.00000050
-0.58663942 -0.64663089 -0.00000010
-0.63819612 0.34299585 -0.00000020
-0.16921855 0.43757966 -0.00000075
0.42290176 -0.25001883 -0.00000034
-0.79947915 0.79576052 -0.00000000
-0.19404626 0.67512627 -0.00000076
0.18226526 0.57964879 0.05173367
-0.22256685 -0.30661241 -0.00000031
-0.48314723 -0.53393785 -0.00000017
0.00822136 -0.78741672 -0.00000001
-0.37866522 -0.31418599 -0.00000030
0.16517664 -0.59816724 -0.00000013
0.15348058 -0.07622024 -0.00000045
0.20945610 0.23532292 0.48252760
0.09422453 -0.67026962 -0.00000008
0.35467111 -0.20610018 -0.00000037
-0.46767373 0.56968119 -0.00000042
0.48419748 -0.61221905 -0.00000012
0.36488275 -0.00701257 -0.00000053
0.54708087 0.16522012 0.11912813
-0.79048617 0.54198536 -0.00000001
0.71592552 0.04451973 -0.00000096
0.76792448 -0.30590816 -0.00000062
0.24110167 -0.02119335 -0.00000049
0.79346158 -0.27372352 -0.00000066
0.19203572 0.34772528 0.35350488
-0.69608493 -0.00825517 -0.00000011
0.07973868 0.02171034 -0.00000051
0.27029493 -0.69704249 -0.00000006
0.66869329 0.08999554 0.05611480
0.45284748 -0.64680664 -0.00000010
0.08202436 -0.64086460 -0.00000010
-0.42610395 -0.12052356 -0.00000038
0.20076116 -0.42786776 -0.00000023
0.28466940 0.28712278 -0.00000076
0.57052863 0.21166365 0.02418769
-0.51089393 0.11577037 -0.00000033
0.53034488 -0.53907124 -0.00000016
0.32225409 -0.44006079 -0.00000022
0.64309670 -0.58875653 -0.00000020
-0.69114506 -0.35322820 -0.00000005
0.35322106 -0.00516449 -0.00000052
-0.06273426 -0.77288338 -0.00000002
0.32597821 0.44763747 0.03583816
0.64073380 -0.75507230 -0.00000003
-0.64763263 -0.75197864 -0.00000002
-0.48363347 -0.59484941 -0.00000013
0.53365177 0.16078069 0.14340075
-0.00923913 0.10291809 -0.00000056
-0.34942714 -0.70210374 -0.00000006
0.27220602 -0.62347207 -0.00000011
-0.59577772 -0.56765982 -0.00000011
-0.39856073 -0.74302724 -0.00000004
-0.33966068 0.41789465 -0.00000057
0.11531752 0.08904605 -0.00000056
0.12562469 0.64670196 0.03758917
-0.50477664 -0.58494434 -0.00000013
-0.27034249 0.46552259 -0.00000065
0.32738468 -0.02059337 -0.00000049
-0.08030912 0.24074541 -0.00000065
0.48523799 0.27776938 0.05024850
-0.10337924 0.08599727 -0.00000055
0.20673974 -0.73666396 -0.00000004
-0.44336808 -0.54227564 -0.00000016
-0.79293474 0.11314435 -0.00000001
0.63064276 -0.71535704 -0.00000006
0.18595640 -0.04055265 -0.00000047
0.56798622 0.11709576 0.15610246
0.37879985 -0.55342675 -0.00000015
0.15268413 0.44593581 -0.00000079
0.06970368 -0.22674848 -0.00000036
0.50504089 0.23879189 -0.00000094
-0.65755783 -0.14220896 -0.00000013
-0.77558429 0.62592971 -0.00000003
-0.71805162 -0.02728690 -0.00000008
-0.20505193 -0.11254335 -0.00000043
-0.18487261 -0.39083111 -0.00000026
0.17458161 0.53689361 -0.00000091
-0.68577896 -0.56687624 -0.00000002
0.55555211 0.18888592 -0.00000094
-0.51183422 0.67898001 -0.00000036
0.77457892 -0.35042819 -0.00000056
0.35220470 0.30598290 0.19263583
-0.36673477 -0.78285727 -0.00000001
0.50730067 -0.23709337 -0.00000043
0.76613511 -0.09521354 -0.00000086
-0.64076252 -0.79964512 -0.00000000
0.45591633 -0.21000461 -0.00000041
0.01783231 -0.12879280 -0.00000042
-0.66392836 0.38268435 -0.00000017
0.58581609 0.08942757 -0.00000087
0.33447017 0.32119452 -0.00000085
0.03117198 -0.52069014 -0.00000017
0.54218754 -0.32670697 -0.00000038
0.66163580 -0.07484268 -0.00000077
-0.51708852 -0.55483208 -0.00000015
0.13624184 -0.40914388 -0.00000024
0.57458095 -0.42406419 -0.00000031
-0.69440358 -0.18070026 -0.00000008
-0.39474524 -0.31276308 -0.00000030
0.71640795 -0.78255708 -0.00000002
-0.00661619 -0.50386975 -0.00000019
0.74849135 -0.40834501 -0.00000049
-0.00225197 0.64775202 -0.00000090
0.21309272 0.37848103 0.28312302
-0.79904891 0.05288604 -0.00000000
-0.01138463 0.76597066 -0.00000098
-0.21329655 -0.22619965 -0.00000036
0.39153956 -0.07595630 -0.00000048
-0.41504171 0.09559738 -0.00000043
-0.10592078 0.04245066 -0.00000053
-0.24595891 0.30435975 -0.00000065
0.40427395 0.15324572 0.32938274
0.31870097 0.26257805 0.29710782
-0.47580565 0.58413745 -0.00000041
-0.56643842 0.07585940 -0.00000026
-0.08028391 -0.08312615 -0.00000045
0.14256772 -0.49196775 -0.00000019
0.28759017 0.37718710 -0.00000086
0.41254860 -0.20885649 -0.00000037
-0.78084752 0.62130363 -0.00000002
-0.67569713 -0.39127902 -0.00000006
0.39990664 -0.22199485 -0.00000036
-0.50778110 0.45824584 -0.00000037
0.16864823 0.41460701 -0.00000077
0.68517457 -0.53931598 -0.00000030
0.41161153 -0.03489480 -0.00000055
-0.41357467 0.30793354 -0.00000047
-0.74243385 -0.34979635 0.00000000
0.66915609 -0.13151851 -0.00000072
-0.13423286 0.52599471 -0.00000081
-0.04195424 -0.40718948 -0.00000025
-0.42460937 -0.06719153 -0.00000039
-0.46467834 -0.70871395 -0.00000006
-0.38294885 0.05042139 -0.00000045
0.26753309 -0.29861250 -0.00000031
-0.58403047 -0.13190921 -0.00000021
-0.08235914 0.11598864 -0.00000057
0.37008630 0.23704010 0.26199725
-0.79363419 -0.41630307 0.00000000
-0.26269621 -0.02851549 -0.00000048
-0.62339517 -0.54898512 -0.00000009
0.70385708 0.04937046 0.06353344
0.06028751 -0.21017302 -0.00000037
0.74354716 -0.61255023 -0.00000023
-0.72725159 0.03832763 -0.00000008
0.09128867 -0.32781189 -0.00000030
0.35874429 0.13868636 -0.00000068
-0.54283446 0.09708829 -0.00000029
0.77133847 -0.53230236 -0.00000033
0.22639151 0.26898591 -0.00000067
0.35807337 -0.25238359 -0.00000034
-0.31982993 -0.58494630 -0.00000013
0.07552033 0.20443981 -0.00000063
0.21324872 -0.63724767 -0.00000010
0.36955737 0.24852151 0.24711948
0.10297680 -0.02062758 -0.00000049
-0.75557781 0.33658217 -0.00000006
0.09161004 0.49375681 -0.00000081
0.06882565 -0.35062036 -0.00000028
-0.53931976 -0.02566850 -0.00000027
0.60691588 -0.08936726 -0.00000070
-0.31215437 0.29229978 -0.00000057
-0.14777577 0.59645568 -0.00000081
-0.10195500 0.47386784 -0.00000080
0.23417309 -0.54303691 -0.00000016
0.63892905 -0.42945320 -0.00000037
-0.49999136 -0.33186288 -0.00000026
0.08577845 0.01361395 -0.00000051
0.26582697 0.37169113 0.22071291
-0.47391382 0.28799347 -0.00000040
-0.28169565 0.34800054 -0.00000062
-0.32367096 0.04371562 -0.00000052
0.09847143 -0.51787160 -0.00000018
0.22977979 -0.46270172 -0.00000021
-0.33722876 0.43832255 -0.00000057
0.61377053 -0.42071468 -0.00000035
0.20879299 -0.61622386 -0.00000011
-0.17329015 -0.43278231 -0.00000023
-0.57927563 -0.43895177 -0.00000016
0.38865925 -0.66203252 -0.00000009
-0.76679525 -0.70298833 0.00000000
0.27419077 -0.09659720 -0.00000044
0.27737875 -0.46291388 -0.00000021
0.23754747 -0.32346573 -0.00000030
0.10648711 0.53803500 -0.00000084
0.00372805 -0.66462576 -0.00000008
-0.61459408 0.70724525 -0.00000023
-0.17341443 0.69695085 -0.00000078
0.36018682 0.21173017 0.30982533
0.22812780 -0.19029872 -0.00000038
-0.43331763 -0.77987521 -0.00000001
-0.16269378 -0.40937693 -0.00000024
0.49321335 -0.05279219 -0.00000062
0.05855217 0.65736018 0.11422185
-0.46808530 -0.67099716 -0.00000008
0.06516027 0.68016835 0.07426308
0.72907724 -0.41017745 -0.00000049
0.21154014 0.33130861 0.34931061
-0.74018097 0.21838408 -0.00000007
-0.65128333 -0.73233181 -0.00000002
-0.72458893 0.66678920 -0.00000009
0.36472894 0.26960772 0.22503499
0.30684624 0.17543884 -0.00000066
-0.04335516 0.00417663 -0.00000050
-0.02478049 -0.42190440 -0.00000024
0.20532744 0.48313887 0.15150504
0.65930780 -0.45659071 -0.00000036
0.52640521 -0.34444144 -0.00000034
-0.42663797 -0.61056009 -0.00000012
-0.34334277 0.01061445 -0.00000049
0.51176248 -0.36589300 -0.00000030
0.15676308 0.01586144 -0.00000051
-0.73283294 0.18042802 -0.00000008
-0.33317468 -0.67230699 -0.00000008
-0.01567837 0.33871124 -0.00000071
0.37409784 -0.02573612 -0.00000052
0.61175355 -0.39595454 -0.00000038
0.00281889 0.59873914 -0.00000087
0.44719504 0.28606007 0.09066401
-0.69037133 -0.20043453 -0.00000008
-0.09628232 0.47066880 -0.00000079
0.68740639 -0.48591001 -0.00000036
-0.16086528 0.64609575 -0.00000080
0.43630659 0.30136981 0.08465812
0.15592704 0.25091623 -0.00000066
0.24437369 -0.33282290 -0.00000029
-0.41455392 -0.28354249 -0.00000032
0.33234394 -0.33924618 -0.00000029
0.10822467 0.13024313 -0.00000058
0.37392427 0.12499611 -0.00000068
-0.78504080 0.51111489 -0.00000002
-0.43792375 0.14761129 -0.00000041
-0.69446019 -0.77553851 0.00000000
-0.03474119 -0.32798811 -0.00000030
-0.45532519 -0.66784616 -0.00000008
-0.13940315 0.06139979 -0.00000054
-0.72376028 -0.03670827 -0.00000007
0.28110200 0.41788450 0.13721454
-0.28354435 0.18563139 -0.00000059
-0.61753186 -0.74057783 -0.00000004
-0.09637218 -0.48062501 -0.00000020
-0.11788464 0.26766868 -0.00000067
0.70170925 0.05140027 0.06369374
0.46963335 -0.26617631 -0.00000036
-0.70475233 -0.62054650 0.00000000
-0.57921259 -0.25580143 -0.00000019
0.02447962 0.66414194 -0.00000092
0.13138152 0.19316298 -0.00000062
-0.46356311 0.73998965 -0.00000042
0.06208911 0.69669258 0.05598853
-0.40158673 0.48085790 -0.00000050
-0.49156684 -0.28713902 -0.00000028
-0.09215764 0.16697732 -0.00000060
0.65986824 -0.74250571 -0.00000006
0.58795518 0.01145052 -0.00000079
-0.67702046 -0.65339775 -0.00000001
0.10123003 0.21538841 -0.00000063
-0.66675436 -0.11904362 -0.00000012
0.21856619 -0.54682046 -0.00000016
0.69917625 -0.04988311 -0.00000084
0.54588456 0.24831026 0.00788341
0.33685306 -0.04795899 -0.00000047
-0.70110911 -0.76690036 0.00000000
-0.38787311 -0.27480099 -0.00000033
0.25309802 0.32847337 0.29671034
-0.04190039 0.48082101 -0.00000080
-0.10858303 0.44086090 -0.00000078
0.02097280 -0.11320702 -0.00000043
-0.70116127 0.37349060 -0.00000012
0.43983543 -0.33345158 -0.00000029
-0.62495722 0.79120796 -0.00000022
-0.65539613 0.01840608 -0.00000016
0.27134186 0.39749786 0.17816594
-0.14450870 -0.25746196 -0.00000034
0.12173229 0.62845137 0.06766824
0.52350580 -0.64253614 -0.00000010
-0.41327698 -0.58341118 -0.00000014
0.11075013 0.06895205 -0.00000054
-0.65492914 -0.70684209 -0.00000003
-0.44517025 0.09429196 -0.00000040
-0.28208687 0.32995483 -0.00000061
0.55821938 -0.32855026 -0.00000039
0.27809852 -0.75315508 -0.00000003
-0.02930898 0.33009071 -0.00000071
0.53436675 0.26362759 -0.00000100
0.24431528 -0.01147157 -0.00000049
0.03309680 0.71837986 -0.00000095
-0.55312114 -0.00081909 -0.00000026
-0.54775434 0.26899670 -0.00000032
0.18895124 0.11984322 -0.00000057
-0.04550892 0.69639860 -0.00000093
-0.69431756 -0.37617719 -0.00000004
0.78751532 -0.75327666 -0.00000006
0.35519344 -0.47349935 -0.00000020
-0.63384588 0.19298979 -0.00000021
-0.34953881 -0.08895173 -0.00000044
0.37894865 0.23650068 -0.00000080
-0.75230648 -0.33335850 0.00000000
-0.24551195 0.05432303 -0.00000053
0.35426005 0.21109623 0.31873731
-0.38950469 -0.23624133 -0.00000035
-0.70989846 -0.62174125 0.00000000
0.09889574 0.20104963 -0.00000063
0.29644623 -0.21167530 -0.00000037
0.29307526 0.33352994 -0.00000081
0.25346783 -0.76684193 -0.00000002
0.24213823 -0.44449496 -0.00000022
-0.56551311 -0.64148121 -0.00000010
-0.18803651 -0.40193318 -0.00000025
0.05396808 0.22859949 -0.00000064
0.29160044 0.49996373 -0.00000099
0.23832229 -0.23015470 -0.00000036
0.65307090 -0.60369123 -0.00000020
-0.68400514 -0.55395019 -0.00000002
0.52002743 -0.20337630 -0.00000048
-0.63367877 0.26403477 -0.00000021
-0.56042030 -0.46118035 -0.00000017
0.51138992 0.22133163 0.09138880
0.34720235 0.37525399 -0.00000092
-0.51382266 -0.65505303 -0.00000009
0.42939131 0.23188352 0.18844212
-0.21062157 0.48091835 -0.00000072
-0.58242492 -0.74927111 -0.00000003
0.02279990 -0.20891706 -0.00000037
-0.64582425 0.66619078 -0.00000019
-0.35343450 0.06383384 -0.00000049
0.45815527 0.33913567 -0.00000100
0.57836331 -0.58161280 -0.00000014
0.05773640 0.34600037 -0.00000072
-0.26394962 -0.68582456 -0.00000007
-0.44887466 0.15124559 -0.00000040
-0.14199086 0.37022474 -0.00000073
0.74067110 -0.52600202 -0.00000034
0.65343575 -0.33169885 -0.00000049
0.62600459 -0.53169760 -0.00000025
-0.31991243 -0.29591892 -0.00000032
0.44384245 0.15893374 0.26790676
-0.77004163 -0.56578271 0.00000000
0.06243830 0.32259752 -0.00000070
0.74131600 0.01844592 -0.00000096
0.30878795 0.28065294 0.28602076
0.38149074 0.22636849 0.26100183
0.68223438 -0.13232451 -0.00000073
-0.07697268 -0.56871174 -0.00000014
0.66068133 -0.08364919 -0.00000076
0.39779649 0.13234605 -0.00000071
0.03624419 0.40821668 -0.00000076
0.34312659 0.17137776 -0.00000070
-0.10398863 0.35554938 -0.00000072
0.61272865 0.16394326 0.03168657
0.57395353 0.16372340 -0.00000093
-0.43595426 0.43777904 -0.00000046
-0.75244293 0.31182188 -0.00000006
-0.23164663 0.54930593 -0.00000071
-0.31741459 -0.16235153 -0.00000040
-0.42698482 -0.56516536 -0.00000015
0.43746834 0.23255646 0.17655616
0.78538083 -0.15266091 -0.00000081
0.28704851 -0.15583226 -0.00000040
0.46148643 -0.18972247 -0.00000044
0.14274730 0.05576858 -0.00000053
-0.44573747 -0.01483475 -0.00000038
0.17571086 0.55745791 0.09078130
-0.53826509 -0.72742405 -0.00000005
0.67839369 0.08333603 0.05198406
-0.70147382 -0.78101477 0.00000000
0.37088401 -0.20079966 -0.00000037
-0.79028253 0.15649687 -0.00000001
-0.53848269 -0.47474869 -0.00000019
-0.05408665 -0.16265905 -0.00000040
-0.65772337 0.71784400 -0.00000018
0.54830386 0.25046497 -0.00000100
-0.77726753 0.02084201 -0.00000003
0.46703593 -0.10821468 -0.00000053
-0.47629241 -0.75272971 -0.00000003
0.19638832 -0.71360724 -0.00000005
0.25420672 -0.04867882 -0.00000047
0.41112514 0.33655305 -0.00000094
0.42480912 0.03500295 -0.00000064
-0.69242529 0.12360292 -0.00000013
0.72110794 -0.19372032 -0.00000071
-0.43499801 -0.46355862 -0.00000021
0.59650223 -0.30483016 -0.00000046
-0.66724489 -0.26809266 -0.00000009
0.17977128 -0.51892932 -0.00000018
0.41830139 0.28156780 0.13601550
0.21207164 0.08026683 -0.00000055
0.30066901 0.40138801 -0.00000090
0.39804160 0.18620460 0.29307764
-0.44598789 -0.61903272 -0.00000011
0.12236153 -0.12409112 -0.00000042
-0.79464874 0.28848478 -0.00000001
0.17693600 0.49658830 0.17180197
-0.42560375 -0.75838527 -0.00000003
0.32937862 0.25086007 0.29852106
0.22858700 0.56852208 0.00392469
0.46300912 0.20018388 -0.00000085
-0.09531544 0.40580721 -0.00000075
-0.54881683 -0.63846491 -0.00000010
-0.23037216 0.48900960 -0.00000070
-0.49219198 0.58591515 -0.00000038
0.78449711 -0.42316295 -0.00000047
-0.59439895 0.20586308 -0.00000026
0.75941663 -0.78359460 -0.00000002
0.12200167 0.67364582 0.00591011
0.06767801 -0.63488631 -0.00000010
-0.36711189 0.69564950 -0.00000054
-0.72106365 0.66247715 -0.00000010
-0.65590318 -0.16662412 -0.00000012
0.27007463 0.01118466 -0.00000051
-0.33189514 -0.17761206 -0.00000039
0.32988461 0.24175667 -0.00000076
0.33759130 0.30598266 0.21248702
0.59427478 0.12244554 -0.00000091
0.31432029 -0.23193590 -0.00000036
-0.43567050 0.66889124 -0.00000046
0.47444022 0.30518255 0.02767812
-0.56101121 0.39929481 -0.00000030
-0.70704466 0.12879051 -0.00000012
0.10778865 -0.70729338 -0.00000006
0.57544962 0.19421131 0.04121030
0.19988439 0.21027865 -0.00000063
0.27058266 -0.37447500 -0.00000027
-0.32078191 -0.57796989 -0.00000014
0.64624991 -0.33782312 -0.00000048
0.53715578 -0.41975290 -0.00000027
0.16021879 0.38618872 -0.00000074
0.69153973 -0.39152634 -0.00000047
-0.36597411 -0.05986690 -0.00000045
0.15788290 0.09898189 -0.00000056
0.31181256 0.32636092 0.21982288
0.35750544 -0.71042413 -0.00000006
-0.65523319 0.10722136 -0.00000017
-0.30770009 0.33058293 -0.00000059
0.20319716 -0.77144588 -0.00000002
0.12651418 -0.05182571 -0.00000047
0.55708803 0.21991264 0.03123998
0.64614057 -0.38739356 -0.00000042
-0.20559046 0.29360610 -0.00000068
-0.15776873 -0.18411116 -0.00000038
0.52299686 0.20546719 -0.00000092
-0.28151699 -0.33054058 -0.00000029
0.46625410 0.12739573 -0.00000078
-0.55654628 -0.04168172 -0.00000025
0.56005055 -0.11841951 -0.00000062
0.12773848 0.21483287 -0.00000063
-0.48444696 0.79399660 -0.00000039
-0.27223943 -0.05001202 -0.00000047
-0.23586924 -0.40717819 -0.00000025
0.20814839 -0.39868776 -0.00000025
0.05677013 0.06480857 -0.00000054
-0.13645327 -0.35758417 -0.00000028
0.22539639 0.36587927 0.28352801
-0.04816671 -0.15889945 -0.00000040
0.55515998 0.06087858 -0.00000080
0.56674763 -0.26923274 -0.00000046
0.54248271 -0.72107226 -0.00000005
-0.59304704 -0.75830506 -0.00000003
-0.62210558 -0.16711617 -0.00000016
-0.36443528 0.28342284 -0.00000052
-0.40125541 0.22773547 -0.00000047
0.48938929 -0.67256265 -0.00000008
0.30519905 0.01493397 -0.00000051
0.16616473 0.61225265 0.02931552
-0.12456937 0.65183444 -0.00000084
0.43019958 0.23901810 0.17765254
-0.70810191 0.51584912 -0.00000011
-0.31518897 -0.73175430 -0.00000004
-0.20155720 0.77620240 -0.00000075
0.09364038 0.63148200 -0.00000092
0.27772590 -0.78821705 -0.00000001
-0.32782943 -0.73954124 -0.00000004
-0.06091811 -0.20246465 -0.00000037
0.34320729 0.25015745 0.28069082
0.12441622 0.59521675 0.10916812
-0.34918553 0.13208279 -0.00000051
-0.42940954 -0.09056875 -0.00000038
0.39449550 -0.14489890 -0.00000041
-0.42224124 -0.68080989 -0.00000007
0.43167927 -0.45223838 -0.00000022
-0.47887194 -0.05584594 -0.00000033
-0.50331440 0.27193723 -0.00000037
-0.79386431 0.20790375 -0.00000001
-0.14392651 -0.10098046 -0.00000044
0.28606151 0.04806540 -0.00000053
-0.42774803 -0.25555448 -0.00000034
0.17166688 0.18791923 -0.00000062
-0.19025391 0.33172152 -0.00000071
0.34881573 0.30909905 -0.00000085
-0.77507147 -0.62347376 0.00000000
-0.33394346 -0.53179628 -0.00000017
-0.47058026 -0.31535584 -0.00000029
-0.21843322 0.60008370 -0.00000073
0.67655052 -0.15682960 -0.00000070
-0.14753395 0.12659950 -0.00000058
-0.17121116 0.56493305 -0.00000077
0.33292640 0.39950106 0.09178829
0.16625232 0.25317932 -0.00000066
-0.57218924 0.24175829 -0.00000028
-0.59773703 -0.70282110 -0.00000006
0.11485871 -0.59673803 -0.00000013
-0.63162862 0.04865049 -0.00000019
-0.21385943 -0.53118274 -0.00000017
0.78864359 -0.34824743 -0.00000056
0.45160363 0.18354334 0.22393425
0.49012719 -0.09224625 -0.00000057
0.67472055 -0.79565170 -0.00000001
-0.63110763 -0.71515377 -0.00000005
0.17777680 0.40256777 -0.00000077
0.42275250 0.32376478 -0.00000094
-0.24064289 -0.54627637 -0.00000016
-0.37523489 0.62219450 -0.00000053
-0.15472143 -0.04898806 -0.00000047
-0.02020367 0.75534907 -0.00000097
-0.79593403 -0.73624206 0.00000000
0.54728442 -0.04031688 -0.00000069
-0.38953478 -0.53543716 -0.00000017
0.50230111 0.03741704 -0.00000072
-0.58055756 -0.73961768 -0.00000004
0.37028686 0.33114216 -0.00000089
-0.32248288 -0.39751776 -0.00000025
0.44968583 0.13529059 -0.00000077
-0.47028317 -0.01167597 -0.00000035
0.03596633 -0.41231047 -0.00000024
-0.02784953 -0.38866347 -0.00000026
0.49792434 -0.61938172 -0.00000011
0.23323232 0.56127765 -0.00000099
-0.21497218 -0.62335293 -0.00000011
0.53489751 -0.48449489 -0.00000020
0.62312517 0.07074360 -0.00000089
0.28344989 0.22056914 0.40205690
0.43087405 -0.61702094 -0.00000011
-0.03867344 -0.04910673 -0.00000047
-0.00337987 0.15614086 -0.00000060
0.01990387 0.63439942 -0.00000090
-0.20740112 0.26343847 -0.00000066
-0.03451050 -0.73796116 -0.00000004
0.43873296 0.21374774 0.20038808
0.08209803 0.66757015 0.06836835
0.05561700 0.68246602 0.08410539
-0.78624153 0.03111918 -0.00000002
0.27683119 0.37202488 -0.00000084
-0.54937216 -0.60301937 -0.00000012
-0.02753264 0.61219729 -0.00000088
-0.52957555 0.58012073 -0.00000034
0.61344470 0.10163576 -0.00000091
0.00533382 0.41154145 -0.00000076
0.71493973 -0.42586230 -0.00000045
-0.65077625 0.35156513 -0.00000019
-0.46668085 0.09294764 -0.00000037
0.23601202 0.46378707 0.13611072
0.58005773 0.08156439 -0.00000085
-0.34366608 0.63829501 -0.00000057
0.09878174 0.56460491 0.18557247
-0.51282044 0.23637632 -0.00000035
-0.41091074 0.72251562 -0.00000049
-0.17039565 -0.77998920 -0.00000001
-0.76607341 0.34739544 -0.00000004
0.14367352 0.46123116 0.26501405
0.27031821 0.52502480 0.00632371
0.79575401 -0.57757148 -0.00000028
-0.38544990 -0.77770174 -0.00000001
-0.53013075 0.75505071 -0.00000034
-0.66569250 0.34238929 -0.00000017
0.44453436 -0.52884870 -0.00000017
-0.69596533 0.19679482 -0.00000013
0.04726373 -0.36633911 -0.00000027
-0.67797482 0.53828088 -0.00000015
0.44455542 0.24866575 0.14504617
0.02285875 0.03041407 -0.00000052
0.21250136 0.45266781 -0.00000086
-0.64572654 -0.46926827 -0.00000008
0.38914980 0.04097925 -0.00000061
-0.39490519 -0.55692833 -0.00000015
-0.19693968 0.72965512 -0.00000075
0.24119732 0.29088581 0.36393467
0.78084214 -0.58994751 -0.00000026
0.63847880 0.01015590 -0.00000084
0.64803501 -0.32751161 -0.00000049
0.36045730 0.20388508 0.32011460
-0.25255287 -0.35380868 -0.00000028
0.23795842 0.14719039 -0.00000059
-0.76076145 -0.36637548 0.00000000
-0.55034043 0.66132579 -0.00000031
0.50137698 0.23970676 0.08002960
0.45554244 -0.62277864 -0.00000011
-0.30850385 0.22751904 -0.00000057
0.06743754 0.35775490 -0.00000072
-0.76883720 0.32179090 -0.00000004
-0.21053782 -0.16762762 -0.00000040
-0.55891541 -0.22848389 -0.00000022
0.74154509 -0.11585473 -0.00000081
-0.48425991 0.30645686 -0.00000039
-0.04940709 -0.70781192 -0.00000006
0.09641564 0.67017488 -0.00000096
-0.55526396 -0.08972676 -0.00000024
-0.74178160 0.10908710 -0.00000007
0.12824905 0.03243899 -0.00000052
0.33233181 0.17489939 -0.00000069
-0.36483246 -0.77976713 -0.00000001
0.32394252 0.39178767 0.11446989
0.46587278 0.21154808 0.16650935
0.47406344 0.20073110 0.17007693
0.10983053 0.17689294 -0.00000061
0.61102948 -0.49830539 -0.00000027
0.29563677 -0.34743237 -0.00000028
-0.37096508 0.39736304 -0.00000053
0.43932541 0.19650985 0.22299928
0.53951004 -0.72662994 -0.00000005
-0.17503481 0.61234308 -0.00000078
0.16572787 0.13006847 -0.00000058
-0.13923812 0.59568361 -0.00000081
0.09015689 -0.70772381 -0.00000006
0.56210368 -0.75858525 -0.00000003
-0.62151039 0.60911962 -0.00000022
0.54692374 0.02175167 -0.00000075
0.33697097 0.24170414 0.30064503
0.53778437 -0.06715651 -0.00000065
-0.27091017 -0.43212919 -0.00000023
0.19473115 0.06234455 -0.00000054
0.42352517 0.10413033 -0.00000071
0.57171070 -0.41499674 -0.00000031
-0.44622659 0.71475055 -0.00000044
-0.70770931 -0.24115776 -0.00000005
-0.35841595 -0.53420295 -0.00000017
-0.64511256 -0.19752429 -0.00000013
0.46626625 -0.49659591 -0.00000019
-0.47986485 0.65002056 -0.00000040
-0.68551467 0.09755425 -0.00000014
-0.46157952 0.10028419 -0.00000038
0.10770020 0.29293325 -0.00000068
-0.50575156 0.49323182 -0.00000037
-0.58276797 -0.57401604 -0.00000013
-0.39589083 -0.11858718 -0.00000041
-0.44177492 -0.38379046 -0.00000026
-0.02794135 -0.43604163 -0.00000023
0.52287268 0.06371842 -0.00000077
0.14924321 0.47913565 0.23312698
0.15099077 -0.03439144 -0.00000048
-0.50396143 0.60714656 -0.00000037
-0.60171010 -0.49219394 -0.00000012
-0.34824591 -0.60331744 -0.00000012
-0.27278319 -0.65824986 -0.00000009
-0.24637897 -0.47161188 -0.00000021
0.05341782 -0.42937661 -0.00000023
-0.13998616 -0.57967911 -0.00000014
-0.13094561 -0.13014412 -0.00000042
-0.63781811 0.08689973 -0.00000019
0.11307675 -0.04538622 -0.00000047
0.41512784 -0.42455134 -0.00000023
0.53058640 -0.20198485 -0.00000050
-0.10366913 0.27113643 -0.00000067
0.12436448 0.61857874 0.07750366
0.44684465 -0.72995055 -0.00000004
0.50695221 0.09852770 -0.00000079
0.46286684 0.14976214 0.25452272
0.18196015 -0.17283661 -0.00000039
0.18673675 0.28412800 -0.00000068
-0.38812589 0.15185565 -0.00000047
-0.41875427 0.74756236 -0.00000048
0.31160877 -0.05586160 -0.00000047
0.39428870 0.25568537 0.20379309
-0.12875167 0.65706506 -0.00000084
0.04558289 -0.74386152 -0.00000004
-0.67348545 -0.72673765 -0.00000000
0.34291643 -0.05617440 -0.00000046
0.36489659 -0.16059540 -0.00000040
0.08811502 0.69553369 -0.00000098
-0.49659978 0.36079144 -0.00000038
-0.28867325 -0.58609069 -0.00000013
0.26053031 -0.15384858 -0.00000040
0.28338998 -0.38389848 -0.00000026
-0.70900648 0.24914564 -0.00000011
-0.68215860 0.03360786 -0.00000013
-0.68820268 -0.57001424 -0.00000001
-0.59345185 -0.58599525 -0.00000011
0.05470922 0.35590946 -0.00000072
0.68333349 -0.17853637 -0.00000069
0.58708083 -0.15693993 -0.00000061
0.01914792 0.09412706 -0.00000056
-0.44656712 0.72278682 -0.00000044
0.50765771 0.13620964 0.21208847
0.60305702 -0.63120056 -0.00000012
-0.63182709 0.55053292 -0.00000021
0.46783864 0.19187680 -0.00000085
-0.68563960 -0.02591087 -0.00000012
0.78101228 0.01651039 0.00336287
-0.20355320 -0.27824805 -0.00000033
-0.69078242 -0.25791045 -0.00000007
-0.61434643 -0.59929774 -0.00000009
0.27712629 0.09191732 -0.00000056
-0.31488442 0.67436780 -0.00000061
-0.49379416 0.25374102 -0.00000037
-0.53861168 0.43669013 -0.00000033
0.58706932 -0.38478215 -0.00000036
-0.79694629 -0.21368535 0.00000000
-0.72784382 0.41894676 -0.00000009
0.21867584 -0.46804693 -0.00000021
0.04495130 -0.23716400 -0.00000035
0.20428010 -0.19067773 -0.00000038
-0.48307908 -0.58778035 -0.00000013
-0.63601200 0.47098819 -0.00000020
-0.58261330 -0.28534747 -0.00000018
0.24921248 0.42409634 0.17209505
0.21310059 0.14894464 -0.00000059
0.00270044 -0.72015536 -0.00000005
-0.22199002 -0.25956949 -0.00000034
-0.60608662 0.03449676 -0.00000021
-0.63210327 -0.64662237 -0.00000006
-0.04097555 0.20686321 -0.00000063
0.55570484 0.09997301 0.19604506
0.27346343 -0.16307804 -0.00000040
0.10983941 0.65012764 0.05437848
-0.22386929 -0.54314056 -0.00000016
0.48515847 0.25080636 -0.00000093
0.39711422 0.28679666 -0.00000088
0.71741282 -0.47709363 -0.00000040
0.39428549 0.34768116 -0.00000094
0.40996218 0.30885070 -0.00000091
0.68092471 -0.37124385 -0.00000048
-0.14233916 -0.37273501 -0.00000027
-0.00039903 0.03150498 -0.00000052
0.15648939 -0.29816296 -0.00000031
0.51521447 -0.62062668 -0.00000011
-0.72403498 -0.49977768 0.00000000
0.00055986 -0.72963318 -0.00000004
-0.50015382 0.74067469 -0.00000037
-0.71679608 0.54448754 -0.00000010
0.76570061 -0.14227793 -0.00000081
0.31306836 0.48558637 0.00182508
0.41218860 -0.56335749 -0.00000015
0.54703984 -0.42695867 -0.00000027
0.57052680 -0.14894068 -0.00000060
-0.54947978 -0.64096333 -0.00000010
-0.36865426 -0.60569552 -0.00000012
-0.06483998 -0.57278301 -0.00000014
-0.19308736 0.63361853 -0.00000076
0.15737226 0.46400352 -0.00000081
0.32723824 -0.09105067 -0.00000044
-0.69395472 -0.72008292 0.00000000
0.14688235 0.27149248 -0.00000067
0.46811565 0.18072712 -0.00000084
0.46095546 0.29724774 0.05677450
0.23925778 0.22894672 0.45070680
0.56270593 0.19809046 0.05325189
0.21876485 -0.01314833 -0.00000049
0.59296869 -0.08900627 -0.00000068
-0.68377248 -0.07024562 -0.00000011
-0.30808348 0.53303976 -0.00000061
-0.28696207 -0.03674004 -0.00000048
0.33275730 0.32742407 -0.00000085
-0.24350767 -0.48183850 -0.00000020
-0.10738378 -0.56960996 -0.00000014
-0.43519042 -0.01608284 -0.00000039
0.25163089 0.26469126 0.38534430
-0.56399300 -0.05848827 -0.00000024
-0.26787277 -0.69467275 -0.00000007
0.23683600 -0.17916194 -0.00000039
0.23487717 -0.35027251 -0.00000028
-0.63765091 0.01202956 -0.00000018
0.10682588 0.51402971 0.24334630
-0.31608963 -0.23900093 -0.00000035
-0.78035442 0.74126680 -0.00000002
-0.78639101 0.55789203 -0.00000002
-0.17322546 0.27525463 -0.00000067
0.21653557 0.22674939 -0.00000064
0.36997728 -0.47821033 -0.00000020
0.28915330 0.19997464 -0.00000067
-0.66953076 -0.67303347 -0.00000002
0.10610236 0.15894218 -0.00000060
0.13841320 0.61017051 -0.00000095
0.11297373 -0.12532593 -0.00000042
0.22984540 -0.44179437 -0.00000022
0.47860572 -0.42341500 -0.00000024
-0.59911646 0.78083400 -0.00000025
0.17864379 0.37242182 -0.00000073
-0.35805710 -0.75928696 -0.00000003
-0.74100876 -0.33116731 -0.00000000
0.22894259 0.25179368 -0.00000066
-0.40226652 -0.39218409 -0.00000025
-0.59345907 -0.24911519 -0.00000017
-0.60238209 0.38038634 -0.00000025
0.43048143 0.20748802 0.22010019
-0.74285927 -0.56396636 0.00000000
-0.20782870 -0.31931580 -0.00000030
0.20651612 -0.67268085 -0.00000008
0.62612085 -0.77261390 -0.00000002
-0.24596180 0.42548381 -0.00000067
0.23680022 0.39688631 0.22591754
0.53627117 -0.17241865 -0.00000053
-0.58220609 0.23934982 -0.00000027
0.13761754 -0.43105691 -0.00000023
-0.53030959 -0.33178638 -0.00000023
-0.13782879 0.10308010 -0.00000056
0.47924502 -0.50786942 -0.00000018
0.67919829 0.11696859 -0.00000100
0.31363051 0.06270363 -0.00000055
-0.71500518 -0.19732620 -0.00000005
0.15269581 0.11193071 -0.00000057
0.24222664 0.55040224 0.01001059
0.21979054 -0.16513603 -0.00000040
0.73541791 0.04507216 0.02649998
-0.59142029 -0.59890080 -0.00000011
-0.07170912 -0.01526010 -0.00000049
-0.27526705 0.47902044 -0.00000065
0.11331028 0.11940834 -0.00000057
-0.68492167 0.64125904 -0.00000014
0.32968270 0.46967862 0.00086525
0.15000814 0.18287404 -0.00000061
-0.68056618 0.03060043 -0.00000013
-0.13665370 -0.54426692 -0.00000016
0.20083642 -0.16227967 -0.00000040
0.34420569 -0.32896359 -0.00000029
0.39819532 -0.55350418 -0.00000015
0.10730298 -0.64275881 -0.00000010
0.19240611 -0.54453160 -0.00000016
0.57865954 -0.29383792 -0.00000045
-0.03945344 0.31037196 -0.00000069
0.59629313 -0.67460641 -0.00000008
-0.19652522 0.78163646 -0.00000075
0.60193848 -0.69239347 -0.00000007
0.10125698 -0.26884161 -0.00000033
-0.43658595 0.53430653 -0.00000045
0.32166119 0.26333064 0.29206440
-0.04499580 -0.56179939 -0.00000015
-0.54001338 -0.36368414 -0.00000021
-0.27794852 0.72913423 -0.00000065
-0.69681243 0.68882197 -0.00000013
-0.21874309 0.41656474 -0.00000070
-0.76064833 -0.17412700 -0.00000001
0.77839610 -0.37881025 -0.00000053
-0.46489070 -0.03344472 -0.00000035
-0.34564685 -0.21186777 -0.00000037
-0.13594974 0.77413392 -0.00000083
0.34990971 -0.53885677 -0.00000016
0.31962389 -0.09292204 -0.00000044
0.63756233 -0.09605650 -0.00000072
-0.26696928 0.66564053 -0.00000067
0.00567205 -0.71228190 -0.00000005
-0.59777255 -0.09602323 -0.00000020
-0.34269003 0.76132441 -0.00000057
-0.68070782 -0.17403977 -0.00000010
0.06059695 -0.05518616 -0.00000047
-0.56667766 0.42567836 -0.00000029
-0.27403372 0.75012697 -0.00000066
0.08595821 0.62591408 0.11970995
0.06207859 -0.19104629 -0.00000038
0.51774142 -0.58200432 -0.00000014
-0.77043307 -0.60783087 0.00000000
-0.50989743 -0.67489242 -0.00000008
-0.30462654 0.29443659 -0.00000058
-0.73725051 0.42611330 -0.00000008
-0.10769711 0.09033689 -0.00000056
0.14229800 -0.17129730 -0.00000039
-0.27594700 -0.41009990 -0.00000024
0.69061599 0.09141707 0.02440398
-0.78931372 0.08225975 -0.00000001
0.25743929 0.28223052 0.35362908
0.15268326 0.55372793 0.12712861
-0.28719751 -0.06568959 -0.00000046
-0.25141599 0.55534120 -0.00000069
0.31398319 -0.15160366 -0.00000041
-0.57745959 -0.35538508 -0.00000017
0.21198166 0.27056230 -0.00000067
0.37267426 -0.58650279 -0.00000013
0.19040620 -0.19390812 -0.00000038
0.39728458 0.36467374 -0.00000096
-0.73923627 -0.72985256 0.00000000
0.39505366 -0.43050934 -0.00000023
-0.20079572 -0.08376345 -0.00000045
-0.62214670 -0.61915427 -0.00000008
-0.03240399 -0.78247626 -0.00000001
0.65161408 -0.32169583 -0.00000050
-0.36171012 0.19158176 -0.00000050
0.24502167 0.32645380 0.31042449
-0.02070199 0.36911543 -0.00000073
-0.78787637 -0.40299284 0.00000000
0.20368048 -0.21914558 -0.00000036
-0.00906957 -0.33603792 -0.00000029
0.28875406 0.27698887 0.31821175
-0.17474948 -0.50817511 -0.00000018
0.01049437 0.67269869 -0.00000092
0.39392316 0.39364002 0.01689185
0.16856251 0.27006069 -0.00000067
0.26657496 0.51741164 0.02175028
-0.49078937 -0.24076757 -0.00000029
0.53459473 -0.31881103 -0.00000038
0.38820873 -0.52678585 -0.00000017
-0.26848811 -0.43959650 -0.00000023
-0.37479918 0.27070679 -0.00000050
-0.45550596 -0.21963201 -0.00000033
0.46324027 -0.66146886 -0.00000009
-0.27439036 0.05869312 -0.00000054
0.42229620 -0.02610989 -0.00000057
-0.28174910 -0.29047745 -0.00000032
0.39031789 -0.60094185 -0.00000012
-0.45132564 0.50011225 -0.00000044
-0.03676763 0.18626135 -0.00000062
-0.28976260 0.08110110 -0.00000055
-0.15387861 0.18744392 -0.00000062
0.69889032 -0.77827700 -0.00000003
0.19527176 0.57020782 -0.00000096
0.15634488 0.59074971 0.07186444
-0.28391186 -0.46023889 -0.00000021
0.56672091 -0.20575289 -0.00000053
0.15193277 0.29955787 -0.00000069
-0.68798797 -0.32047019 -0.00000006
0.56736332 0.16790773 0.08792556
-0.61929841 0.75707220 -0.00000023
-0.06814348 0.22423975 -0.00000064
0.10464340 0.38823524 -0.00000074
-0.29071495 0.10433715 -0.00000056
0.71191807 -0.51018567 -0.00000036
-0.23677831 0.22814349 -0.00000064
-0.69533425 -0.48907095 -0.00000002
0.51838758 -0.74267819 -0.00000004
0.32517935 0.24702687 -0.00000076
0.12478400 0.41154914 -0.00000076
-0.72590622 -0.73412960 0.00000000
-0.39252640 0.52054157 -0.00000051
0.64283292 -0.46104307 -0.00000034
0.62091766 -0.35643223 -0.00000043
0.31659744 0.45255257 -0.00000097
0.03640789 0.29543568 -0.00000068
0.44437105 0.22865698 -0.00000086
-0.75387335 -0.39987493 0.00000000
-0.30789285 -0.01654553 -0.00000049
0.56120977 -0.28995902 -0.00000044
0.14488899 -0.27928312 -0.00000033
0.58387514 0.15215207 -0.00000093
-0.08361145 -0.20912871 -0.00000037
-0.49410428 0.38468205 -0.00000038
-0.43294833 -0.06834787 -0.00000038
0.17530921 -0.09267227 -0.00000044
0.52876071 0.17336389 0.13295174
-0.03707174 -0.43129400 -0.00000023
0.34438570 0.08261775 -0.00000060
-0.74596598 -0.20357399 -0.00000002
-0.69665102 -0.60102866 -0.00000000
-0.26693721 0.00294528 -0.00000050
-0.09488660 0.18952788 -0.00000062
0.31587625 0.04855838 -0.00000054
0.66675779 -0.22562102 -0.00000062
-0.76821686 0.63046484 -0.00000004
0.07678333 0.59881727 0.16898104
-0.33558347 -0.64346365 -0.00000010
0.06618119 -0.39905580 -0.00000025
-0.07522818 -0.50065719 -0.00000019
0.11212890 -0.68243167 -0.00000007
-0.15594865 0.74695609 -0.00000081
0.34493744 -0.48408261 -0.00000020
-0.44451729 0.03674257 -0.00000039
0.27340585 -0.53118922 -0.00000017
-0.46421102 -0.24386354 -0.00000031
0.08465274 0.43871792 -0.00000077
0.13129792 0.55033437 0.16078793
-0.74201385 0.09663083 -0.00000007
0.35170303 0.37392345 -0.00000092
0.41250504 0.14521305 -0.00000074
-0.08169450 0.14230578 -0.00000059
-0.48663083 0.12574810 -0.00000036
-0.42776936 -0.06638830 -0.00000038
-0.09469245 -0.73493915 -0.00000004
-0.20839656 0.65188531 -0.00000074
0.53720601 0.00643838 -0.00000073
0.48316464 -0.33141935 -0.00000031
0.28563003 0.46844386 0.06238375
0.66066136 0.13479372 0.00617148
0.49334879 -0.74875105 -0.00000003
0.40373622 0.13109001 -0.00000072
0.22232432 0.19174938 -0.00000062
0.55045965 0.22117103 -0.00000097
0.12458186 -0.62467514 -0.00000011
-0.29188947 0.70294195 -0.00000064
0.18462955 0.60510591 0.01394103
-0.59930393 -0.03405234 -0.00000021
-0.73599908 -0.67754805 0.00000000
0.24857216 0.51050608 0.05558584
-0.51622564 -0.43655750 -0.00000022
0.45567215 0.32656391 -0.00000098
0.16218579 0.60640324 -0.00000097
0.73965921 -0.66000104 -0.00000017
0.01219973 -0.14490591 -0.00000041
-0.02091973 -0.35582132 -0.00000028
0.50344618 0.26877081 -0.00000097
0.45758148 -0.29829309 -0.00000032
-0.11763128 0.54449898 -0.00000083
-0.08644717 -0.55658942 -0.00000015
0.08075568 -0.71903069 -0.00000005
-0.36054729 0.66813766 -0.00000055
-0.29549402 -0.45043735 -0.00000022
-0.09379568 0.12144960 -0.00000058
0.00277024 0.00588316 -0.00000050
0.46437998 -0.49973116 -0.00000019
-0.12015972 0.27909163 -0.00000067
-0.07140089 -0.40923339 -0.00000024
-0.79624739 0.19862522 -0.00000000
0.14251719 0.54428269 0.15376838
-0.14725602 -0.43209612 -0.00000023
0.18605218 -0.15487374 -0.00000040
-0.20792387 0.13180234 -0.00000058
-0.20606199 0.28132150 -0.00000068
-0.14895340 -0.06196279 -0.00000046
0.64046027 -0.51294393 -0.00000028
-0.03282774 0.15155855 -0.00000059
-0.26008702 -0.16985232 -0.00000039
0.35907696 0.39268369 0.06552605
0.50367692 0.12873743 0.22764624
-0.45114706 0.67715758 -0.00000044
0.21478385 0.52119602 0.08696270
0.01915466 0.75488124 0.03526714
0.13879774 0.30045105 -0.00000069
-0.06477389 0.41017256 -0.00000076
-0.03438180 0.40263179 -0.00000075
0.22453332 -0.41759387 -0.00000024
-0.10748395 0.36432417 -0.00000073
0.20244125 0.29519638 -0.00000068
0.54033202 0.23468301 0.03393728
0.68261892 -0.37508423 -0.00000047
0.21062193 0.14334566 -0.00000059
-0.15052604 -0.09766758 -0.00000044
-0.44648276 -0.34650237 -0.00000028
-0.16086655 -0.78451572 -0.00000001
-0.45800836 -0.40376010 -0.00000025
0.20751299 -0.52625795 -0.00000017
-0.30050933 0.07353078 -0.00000055
-0.13094101 0.44968385 -0.00000078
0.47745283 0.22663987 -0.00000090
0.09200500 0.03465230 -0.00000052
-0.70782284 -0.45217217 -0.00000002
0.51073668 -0.07136274 -0.00000062
-0.47818491 -0.20867182 -0.00000031
0.13691662 -0.71797205 -0.00000005
-0.33901513 -0.12882933 -0.00000042
0.04826262 -0.13791853 -0.00000041
0.00201210 0.11908569 -0.00000057
0.09689000 -0.68549839 -0.00000007
0.58650032 -0.59801697 -0.00000013
-0.62174125 0.09140113 -0.00000021
0.78642609 -0.62749292 -0.00000022
0.62996785 -0.31383677 -0.00000048
-0.40522930 -0.56297258 -0.00000015
0.75719866 -0.44006120 -0.00000045
0.43143585 0.28576846 0.11246744
-0.22419139 -0.58248827 -0.00000014
0.12331728 0.55486139 0.16547925
-0.12065276 0.14129384 -0.00000059
0.40906693 -0.34057656 -0.00000029
0.23633815 0.05085814 -0.00000053
0.39418346 -0.40147759 -0.00000025
0.06138365 -0.52878653 -0.00000017
0.12304366 0.62731324 0.06743292
0.07150239 -0.28844386 -0.00000032
-0.29505331 0.28494341 -0.00000059
-0.23397694 -0.38416793 -0.00000026
0.23456007 -0.67916310 -0.00000008
-0.02891918 -0.11431526 -0.00000043
0.08326761 -0.61747130 -0.00000011
0.68313301 0.04491952 0.09773121
-0.04137567 -0.62517560 -0.00000011
-0.57339720 0.67840312 -0.00000028
0.37962337 0.38495402 0.04811577
0.71407458 -0.72139506 -0.00000010
-0.65339098 -0.27742165 -0.00000011
-0.70894443 0.66773991 -0.00000011
-0.12016248 0.44556937 -0.00000078
-0.05669352 0.39036015 -0.00000074
0.67681916 -0.27754409 -0.00000057
-0.28687192 0.30960187 -0.00000060
0.07694486 -0.17409772 -0.00000039
0.28414566 0.46030952 0.07544982
0.23259796 0.31007698 0.34954681
-0.67525302 -0.24849357 -0.00000009
0.19878257 0.53216171 0.09380305
-0.15107569 0.45769317 -0.00000078
-0.26479553 -0.45532006 -0.00000022
-0.61893949 -0.36463476 -0.00000013
-0.49265017 0.22030411 -0.00000037
0.40686307 -0.16619535 -0.00000040
-0.33243606 -0.08820521 -0.00000044
-0.00132847 -0.78238920 -0.00000001
0.36642619 -0.42186902 -0.00000024
-0.11518609 -0.58721989 -0.00000013
0.28164836 0.50004180 -0.00000098
-0.22109800 -0.23878174 -0.00000035
0.68640878 0.06256730 0.06930862
-0.66911822 -0.37187345 -0.00000007
-0.04159113 0.17817638 -0.00000061
0.30241137 0.13142117 -0.00000061
0.43788365 -0.17958058 -0.00000042
0.40996129 -0.27102002 -0.00000033
0.32225636 0.30900025 -0.00000082
0.06280995 0.34820065 -0.00000072
-0.65439136 0.00394759 -0.00000016
0.22777884 -0.14451184 -0.00000041
-0.24203321 -0.20126532 -0.00000037
-0.33599150 -0.29099303 -0.00000032
0.27525634 0.41396415 -0.00000088
-0.03429998 0.33705671 -0.00000071
0.39186188 -0.17000874 -0.00000039
-0.00611068 -0.73543553 -0.00000004
0.43297729 0.36666779 0.00047979
0.44172323 0.16521145 0.26225787
-0.36476608 0.09834578 -0.00000048
-0.44289831 -0.16266255 -0.00000035
-0.03747385 -0.12564639 -0.00000042
0.08474901 0.11884031 -0.00000057
0.19355985 0.34151730 0.35986737
0.46030896 -0.12376220 -0.00000051
0.18523182 0.61079276 -0.00000100
0.08111008 -0.35996143 -0.00000028
-0.33519086 0.34701030 -0.00000056
0.65455709 -0.66661509 -0.00000013
0.10746917 -0.13135960 -0.00000042
-0.21763232 -0.56632406 -0.00000015
-0.21918194 -0.26361137 -0.00000034
0.28417998 0.21441049 -0.00000068
-0.78356887 0.71711121 -0.00000002
