ply
format ascii 1.0
element vertex 1381
property float x
property float y
property float z
end_header
-0.07214684 0.62634372 0.02351518
-0.06567214 -0.71668213 0.00000036
-0.14539533 0.04057905 0.00000280
-0.43825431 -0.50388790 -0.00000135
-0.24315226 -0.20823080 0.00000259
-0.06894871 0.63392870 0.01754519
-0.34860006 -0.04100289 0.02649726
-0.30305888 0.07276190 0.19418023
-0.31254275 0.05264252 0.31609314
-0.14977871 0.19015084 -0.00000296
-0.25303719 0.19365081 0.19955415
-0.05779794 0.38910986 -0.00000101
-0.41672096 -0.44377202 -0.00000096
-0.28941119 0.10581910 0.19869063
-0.33461993 -0.00230800 0.24357238
-0.63414506 -0.72721217 0.16487659
-0.11414196 -0.10478308 0.00000304
-0.19902799 0.32190123 0.10555747
-0.29989264 0.03707378 0.00000724
-0.45648769 -0.44568424 0.00000155
-0.24451258 0.21073965 0.04643516
-0.49512674 0.03756996 0.00000356
-0.27627626 0.13674627 0.16425258
-0.10625356 0.50281430 0.00000725
-0.45646002 -0.69639724 -0.00000230
-0.16591930 0.48513795 0.00000632
-0.27515850 0.14114302 0.23900109
-0.27672753 0.24712929 0.00000402
-0.42780217 -0.75039310 -0.00000236
-0.43293646 0.10625401 0.00000226
-0.56657233 0.19887243 0.00000064
-0.24546887 0.49806255 0.00000427
-0.25682869 0.35697999 0.00000420
-0.08586836 -0.17305545 0.00000274
-0.34592203 -0.49326193 0.00000134
-0.68080356 0.03771451 -0.00000062
-0.27689549 0.08166641 -0.00000170
-0.08849262 0.21834948 0.00000446
-0.15444634 -0.28523108 0.00000225
-0.24661111 0.20678563 0.09485993
-0.62338635 0.04869227 0.00000100
-0.36451587 -0.07523644 0.21004868
-0.11592909 0.08024643 0.00000385
-0.49743571 0.13432243 0.00000149
-0.36867892 -0.08956205 0.02277830
-0.15383844 0.38153918 0.00000170
-0.02398633 0.36854775 0.00000511
-0.28738071 -0.29657405 0.00000047
-0.37929471 -0.37439377 0.00000186
-0.02690656 -0.15765858 0.00000265
-0.44683346 -0.71053783 -0.00000231
-0.28683700 0.02572097 0.00000361
-0.36915626 -0.76544111 0.00000015
-0.16157238 0.46040435 0.00000527
-0.03131440 0.12810321 0.00000387
-0.77174549 -0.18729478 -0.00000153
-0.25237033 0.19446167 0.16438507
-0.41084634 -0.18738690 0.19734873
-0.26872458 0.15180565 0.02466521
-0.07067547 -0.63308832 0.00000030
-0.31149809 -0.73117517 0.00000030
-0.11722714 0.09763928 0.00000962
-0.06877102 0.18824070 0.00000391
-0.38640361 -0.12725076 0.24680534
-0.11623158 0.22220105 -0.00000322
-0.44264990 -0.26514671 0.15434093
-0.69190135 -0.14781172 -0.00000066
-0.24560904 -0.57116985 0.00000100
-0.25638545 -0.71765051 -0.00000119
-0.13741673 -0.32845163 0.00000123
-0.34143380 0.13409087 0.00000574
-0.06063284 0.08038364 0.00000385
-0.33693202 0.31421280 0.00000328
-0.09785564 0.32608788 0.00000493
-0.59559835 -0.70379020 -0.00000317
-0.79388029 -0.65957480 -0.00000035
-0.62794730 -0.19919186 0.00000012
-0.08974008 -0.62750510 0.00000021
-0.18539686 -0.20279570 0.00000149
-0.13995214 0.46530803 0.14031410
-0.09987996 -0.60260618 0.00000026
-0.14588253 0.24334691 -0.00000182
-0.72300832 -0.38607450 -0.00000091
-0.13313158 0.18561471 0.00000883
-0.58716993 -0.62715362 -0.00000279
-0.46354387 -0.31883970 0.01161376
-0.44199434 -0.08252874 0.00000224
-0.35681889 -0.05484491 0.28970828
-0.21110869 0.21577099 0.00000747
-0.52112796 -0.45568179 0.10722852
-0.20189053 0.31663431 0.17790105
-0.33806664 0.27343094 0.00000329
-0.69812194 -0.67507251 -0.00000031
-0.21231773 0.06339040 0.00000250
-0.24565862 0.21062882 0.16280522
-0.58750648 -0.61600617 0.10401984
-0.32436804 0.01847065 0.06851901
-0.62658875 -0.47697921 0.00000027
-0.09617145 0.52639688 0.00000580
-0.12539206 0.49811637 0.03721845
-0.02830727 0.28673329 -0.00000434
-0.00909082 -0.78552994 0.00000001
-0.32238923 -0.32442985 0.00000208
-0.07273753 -0.16976460 0.00000276
-0.40285634 0.03442226 0.00000264
-0.33067458 0.11778065 0.00000608
-0.11696068 -0.52863670 0.00000048
-0.15883635 0.29838432 -0.00000012
-0.01656808 0.42408483 0.00000526
-0.51245502 -0.43391300 0.14369499
-0.12328608 -0.18447290 0.00000269
-0.18165559 -0.27409617 0.00000120
-0.31388954 -0.23803078 0.00000246
-0.41605905 0.19076707 0.00000386
-0.22552600 0.14037176 0.00000772
-0.75210147 -0.49641454 -0.00000076
-0.22461205 0.23811596 0.00000454
-0.57547946 -0.60924092 -0.00000264
-0.33728795 -0.01252640 0.07772484
-0.65012727 -0.71053211 0.00000010
-0.43168721 -0.24029435 0.08348306
-0.56961924 -0.57386426 0.05828908
-0.18793455 -0.42154378 0.00000052
-0.13519014 0.47608994 0.10885360
-0.43354172 -0.71004422 0.00000039
-0.21160652 0.28985311 0.03153875
-0.39989370 0.35652638 0.00000252
-0.29656279 -0.37592692 0.00000186
-0.03899491 -0.25732790 0.00000237
-0.01069984 0.02105727 0.00000353
-0.63036868 -0.71944501 0.10568542
-0.26138417 0.17182295 0.12574126
-0.13238929 -0.38423104 0.00000182
-0.65075987 -0.27799320 -0.00000011
-0.52903170 -0.41906868 0.00000138
-0.41629121 -0.19743763 0.33320937
-0.08926636 0.58559567 0.04895372
-0.05700769 -0.14216742 0.00000253
-0.58307594 -0.05479648 0.00000057
-0.17576269 0.17303278 0.00000426
-0.16195992 0.52995819 0.00000604
-0.24238008 -0.38187736 0.00000037
-0.22111197 0.10875056 -0.00000274
-0.34024363 -0.55436607 -0.00000098
-0.20135249 -0.04579304 0.00000208
-0.51014698 0.25223233 0.00000156
-0.71943408 -0.16874882 -0.00000097
-0.20512317 -0.57345899 0.00000099
-0.27559090 0.13927624 0.20300687
-0.31806900 -0.22812812 0.00000250
-0.32565367 0.01439253 0.02563144
-0.09058739 -0.44385149 0.00000101
-0.42117871 0.26601663 0.00000232
-0.26329707 0.03873611 0.00000367
-0.44117306 -0.25685690 0.36177513
-0.08704131 0.67190794 0.00000635
-0.23953095 -0.65243541 0.00000065
-0.32719115 0.00829142 0.00000701
-0.50455305 -0.41569073 0.10616706
-0.19793754 0.36248175 0.00000668
-0.12488650 0.49952404 0.04567200
-0.29175570 0.10094183 0.23333402
-0.58484791 -0.60895011 0.13201837
-0.63864220 -0.69044463 0.00000023
-0.15010173 0.43875980 0.05025425
-0.28460016 0.11608843 0.13948397
-0.26119380 -0.41721020 0.00000167
-0.25808418 0.18260946 0.24991852
-0.01439485 0.47626632 0.00000550
-0.13163023 -0.22403370 0.00000173
-0.06905261 -0.09243407 0.00000310
-0.27455784 0.14371963 0.28858355
-0.22226973 0.22104475 0.00000726
-0.29077097 0.16545773 0.00000390
-0.53223055 -0.59963572 -0.00000234
-0.15560014 0.61837190 0.00000526
-0.16124485 0.12212051 0.00000403
-0.32844793 0.00731873 0.01201928
-0.26199737 0.16847713 0.04421092
-0.48539672 0.00606721 0.00000169
-0.36120092 -0.06450493 0.33028868
-0.30951500 0.05982784 0.31063656
-0.07833582 0.12421027 0.00000404
-0.06531333 0.68533517 0.00000666
-0.72453221 -0.64110358 -0.00000040
-0.21686661 -0.16074536 0.00000149
-0.64376353 -0.41114697 0.00000003
-0.42474959 0.11974170 0.00000425
-0.02160531 -0.39650498 0.00000163
-0.36962530 0.34740603 0.00000350
-0.29544586 0.05397230 0.00000374
-0.01032185 -0.52297516 0.00000121
-0.23480340 0.13156050 -0.00000179
-0.36612942 -0.59436722 0.00000090
-0.29977692 0.07671615 0.01917859
-0.32433694 0.02278410 0.25528979
-0.29196699 0.10147524 0.27906927
-0.36657888 -0.08305533 0.08586355
-0.42949764 -0.31552474 0.00000212
-0.52373113 -0.02027364 0.00000125
-0.19857436 0.11638940 0.00000401
-0.42472037 0.18904987 0.00000370
-0.50882975 -0.21123650 0.00000152
-0.48935928 -0.51519917 0.00000125
-0.31496311 0.04491903 0.23353752
-0.60361129 -0.37257662 0.00000049
-0.38672894 -0.67217042 0.00000056
-0.24233047 -0.21084424 0.00000111
-0.03091421 0.23256191 0.00000433
-0.16859209 -0.79043018 -0.00000098
-0.01656912 0.22436800 0.00001035
-0.21554095 0.47153010 0.00000463
-0.27661627 -0.35544876 0.00000194
-0.08540083 0.58345962 0.00000443
-0.52889043 -0.68757115 0.00000049
-0.76388810 -0.07268847 -0.00000154
-0.66685095 0.09416346 -0.00000048
-0.13128473 -0.39747293 0.00000097
-0.13419612 0.44397326 0.00000463
-0.17259670 -0.08070056 0.00000211
-0.10000923 0.11668247 0.00000341
-0.12713219 -0.65818697 0.00000062
-0.36521608 -0.12806128 0.00000294
-0.31212447 0.04463425 0.00000701
-0.21964655 -0.05603448 0.00000193
-0.74490153 -0.24002725 -0.00000124
-0.30015732 -0.55495973 0.00000107
-0.42282510 -0.50137136 0.00000131
-0.03167694 0.50384894 0.00000092
-0.03537418 0.57986524 0.00000604
-0.25509284 0.00188690 -0.00000426
-0.59065419 -0.62243016 0.15558015
-0.39638054 -0.15085644 0.26790910
-0.37789416 0.15100058 0.00000491
-0.28183755 -0.31327642 0.00000213
-0.27594200 0.14009327 0.27609739
-0.41699217 0.02839618 0.00000513
-0.30545473 -0.23291814 0.00000064
-0.23980266 0.22689807 0.25664888
-0.21123238 -0.16766563 0.00000277
-0.39866256 0.35378416 0.00000254
-0.46162526 -0.62130967 0.00000078
-0.11685341 0.51821087 0.01437406
-0.68426033 -0.47118603 -0.00000041
-0.02139916 0.11611444 0.00000401
-0.14626131 0.44758827 0.03106809
-0.54409050 -0.50960565 0.17363267
-0.36559618 -0.07708629 0.24377847
-0.01282833 -0.78391906 -0.00000001
-0.30834642 0.06234758 0.29731902
-0.05376992 0.18531045 0.00000399
-0.38168073 -0.28374961 -0.00000005
-0.25498042 0.18795609 0.15567306
-0.23481188 -0.37726298 0.00000185
-0.05883339 0.65590449 0.00000701
-0.79024579 -0.75632906 -0.00000011
-0.47809772 -0.35292998 0.05752645
-0.62348994 0.09785195 0.00000002
-0.16156185 -0.32306607 0.00000111
-0.51477447 0.05754899 0.00000302
-0.13663244 -0.06628063 0.00000321
-0.65346119 0.04409480 0.00000046
-0.66290569 -0.79977103 0.02777571
-0.50566112 -0.41902608 0.07717806
-0.74287174 -0.04974394 -0.00000131
-0.68102939 -0.02912617 -0.00000059
-0.39088198 -0.14291166 0.03389165
-0.01010543 0.31122692 0.00000480
-0.03003507 -0.55233484 0.00000090
-0.59647128 -0.48988496 0.00000063
-0.48804017 -0.46523223 0.00000146
-0.37946925 -0.27464801 0.00000001
-0.46419765 -0.48515753 -0.00000142
-0.39931041 -0.15427709 0.42828613
-0.71790289 -0.78879044 -0.00000003
-0.21957721 -0.37833360 0.00000184
-0.62928173 -0.71688285 0.10297052
-0.49750551 -0.39386389 0.31742852
-0.41280837 0.18998289 0.00000392
-0.12355949 -0.07739252 0.00000316
-0.46601355 -0.25597372 0.00000204
-0.03303888 -0.53682427 0.00000115
-0.29107110 0.04689895 -0.00000210
-0.24695197 0.47592588 0.00000484
-0.25629381 0.11965324 0.00000248
-0.39597371 0.14490288 0.00000267
-0.26946192 0.15584005 0.28057914
-0.56701068 -0.56841519 0.02103271
-0.03573019 0.02021710 0.00000337
-0.41920684 -0.20643415 0.00000257
-0.33367393 0.41532894 0.00000327
-0.71872513 0.07855754 -0.00000108
-0.58867948 -0.62022181 0.04326188
-0.63200657 -0.72393199 0.08231674
-0.12142442 0.32641394 0.00000813
-0.40365422 -0.59941595 -0.00000156
-0.79076764 -0.23794667 -0.00000141
-0.65096752 -0.77140062 0.00801624
-0.25705244 -0.56004865 0.00000105
-0.47705857 -0.34908007 0.11641349
-0.34365126 -0.20381120 0.00000261
-0.09564478 -0.00692876 0.00000347
-0.08190059 -0.01106178 0.00000345
-0.52914904 -0.15680931 0.00000126
-0.56880906 0.22732042 0.00000060
-0.11018339 0.61805545 0.00000633
-0.34651576 -0.62612112 0.00000076
-0.62642764 -0.73308920 0.00000029
-0.62799675 -0.18513627 0.00000011
-0.13156742 0.60335955 0.00000555
-0.13464958 0.47818227 0.14350930
-0.32095619 -0.69041317 -0.00000146
-0.02140385 -0.03977461 0.00000320
-0.02258053 0.02270208 0.00001152
-0.54768870 -0.51924584 0.13177156
-0.08176067 0.60453610 0.08507790
-0.11716867 -0.54397082 0.00000041
-0.73128561 -0.24503704 -0.00000107
-0.39028635 -0.64999485 0.00000066
-0.33116745 0.00791145 0.32624226
-0.40653574 -0.34561152 -0.00000047
-0.25035299 0.28784779 0.00000431
-0.53405124 0.01987807 0.00000111
-0.05755757 -0.38463347 0.00000182
-0.55719267 -0.07616907 0.00000089
-0.28748284 0.11134874 0.23734609
-0.45285991 -0.29253205 0.03419854
-0.49272274 -0.00993868 0.00000161
-0.08419015 0.07007947 0.00000381
-0.43500611 -0.17754068 0.00000237
-0.30753012 0.40799151 0.00000358
-0.18395121 0.44015336 0.00000502
-0.17084240 -0.30215454 0.00000115
-0.29383409 0.09774751 0.31338746
-0.17603885 0.50405478 0.00000597
-0.36776209 -0.08198921 0.25809457
-0.47639306 0.04285367 0.00000387
-0.61483265 0.01214952 0.00000146
-0.11538133 -0.28030606 0.00000158
-0.64337896 -0.49510109 0.00000008
-0.00123430 -0.05263233 0.00000326
-0.27866948 -0.10084995 0.00000306
-0.28821157 0.10912654 0.21702192
-0.05428280 0.07346037 0.00000382
-0.21673118 -0.43990272 0.00000027
-0.55051192 -0.00438787 0.00000093
-0.53826695 -0.49536000 0.18181708
-0.20597879 -0.22563837 0.00000127
-0.16906053 0.39232041 0.02076009
-0.35774830 -0.29835406 0.00000219
-0.45132976 -0.58111257 0.00000096
-0.04706153 -0.35574099 0.00000194
-0.43880969 -0.37201638 -0.00000078
-0.21498899 -0.49097508 0.00000135
-0.67378193 -0.57588692 -0.00000024
-0.27836906 -0.79307455 0.00000003
-0.08593399 0.59414801 0.07129147
-0.02986788 0.47239335 0.00000012
-0.13483382 -0.34589952 0.00000199
-0.42170502 0.08979194 0.00000240
-0.29221889 -0.60861263 -0.00000093
-0.24977342 -0.20192878 0.00000111
-0.50667881 -0.54490779 -0.00000194
-0.02627660 0.59473938 0.00000610
-0.00002629 -0.23429093 0.00000247
-0.44516586 -0.09331195 0.00000221
-0.40938472 0.08076520 0.00000486
-0.48773664 0.21896873 0.00000156
-0.75091065 -0.05976992 -0.00000139
-0.48820727 0.30149330 0.00000151
-0.42577092 -0.36669214 0.00000190
-0.01395722 0.15742289 0.00000410
-0.22002326 0.04908753 0.00000239
-0.27014272 -0.12191750 0.00000297
-0.36881440 -0.08242949 0.35019716
-0.51513313 -0.43946477 0.18381348
-0.25756679 -0.35970993 0.00000037
-0.49531134 0.17958517 0.00000149
-0.30371847 -0.42647582 -0.00000020
-0.13676604 0.44790487 0.00000277
-0.51640923 -0.44630632 0.01868983
-0.25129190 0.45813613 0.00000422
-0.44018567 -0.44782280 -0.00000112
-0.02152763 0.29198485 0.00000478
-0.07623942 0.13244459 0.00000362
-0.58354475 -0.79621556 -0.00000351
-0.17649219 0.44285302 0.00000510
-0.19264003 -0.13905679 0.00000173
-0.51450164 0.18620001 0.00000200
-0.36074761 0.26720080 0.00000431
-0.30373211 0.30482832 0.00000368
-0.09433065 0.07882333 0.00000328
-0.45667445 -0.29691088 0.24628005
-0.09138468 0.43233490 0.00000103
-0.03575827 0.69650808 0.00000633
-0.28667054 0.10849994 0.02615985
-0.40794423 0.36914095 0.00000259
-0.10657589 0.19573186 0.00000917
-0.31683078 -0.39033386 0.00000179
-0.09629748 -0.40624333 0.00000114
-0.31411978 -0.07863728 0.00000126
-0.63103423 -0.72233197 0.04953502
-0.02828175 0.33288035 0.00000496
-0.48222711 -0.38519564 0.00000181
-0.36658749 -0.07837599 0.29198578
-0.65357206 0.13841914 -0.00000035
-0.33916789 -0.36986553 -0.00000017
-0.15112631 -0.20495943 0.00000260
-0.14679899 0.08546238 0.00000299
-0.07399671 0.10596868 0.00000396
-0.13023220 0.25397054 0.00000461
-0.55615936 -0.54250768 0.00830925
-0.52601352 -0.46612645 0.16650626
-0.33299223 -0.00327969 0.02837208
-0.17124599 0.16306060 -0.00000296
-0.67493239 0.11414410 -0.00000059
-0.03820031 0.31623537 0.00000945
-0.33318754 0.31881228 0.00000332
-0.19558457 0.32950458 0.07465516
-0.21779696 -0.38348762 0.00000182
-0.37366293 -0.11987833 0.00000298
-0.17939579 0.16243440 0.00000313
-0.40988384 -0.51411498 0.00000125
-0.14243554 0.18455487 0.00000431
-0.16374249 -0.33272851 0.00000204
-0.03077495 -0.48891403 0.00000118
-0.02387063 0.09932849 0.00001102
-0.56985696 -0.61781324 -0.00000264
-0.29731887 0.30950415 0.00000375
-0.74629033 -0.64699773 -0.00000038
-0.53256032 0.20798048 0.00000148
-0.51685025 -0.63704919 0.00000071
-0.06632477 -0.43064369 0.00000122
-0.16195427 -0.47345202 0.00000045
-0.11633765 0.51970732 0.02543609
-0.20453664 0.30876839 0.11311488
-0.38816621 -0.13542418 0.07477204
-0.17352665 0.21026704 0.00000442
-0.58590201 -0.61282977 0.07341120
-0.50145838 -0.43841923 -0.00000144
-0.57613515 -0.50223002 0.00000087
-0.32803820 -0.56634475 -0.00000096
-0.49958195 -0.40557153 0.02353244
-0.26733209 0.32650903 0.00000409
-0.03646766 -0.69229178 0.00000025
-0.05574058 0.37507885 0.00000881
-0.35652757 0.08041728 0.00000317
-0.20826039 0.05141635 0.00000372
-0.57120997 -0.57519071 0.16864856
-0.08650676 0.50575727 0.00000519
-0.10452432 -0.53835488 0.00000114
-0.79910957 -0.73249582 -0.00000017
-0.55376449 -0.53594717 0.04250412
-0.39062171 -0.41259111 -0.00000066
-0.65309656 -0.28896566 -0.00000014
-0.27200341 0.17869237 0.00000411
-0.32851014 0.43639046 0.00000358
-0.16313365 -0.44019206 0.00000059
-0.42626273 -0.22376651 0.23417359
-0.21730671 0.27670601 0.05898591
-0.00119390 0.49303914 -0.00000025
-0.27818867 0.16845211 0.00000404
-0.63526600 -0.75465415 0.00000020
-0.43475762 -0.32241187 0.00000209
-0.30152994 0.07345656 0.06261382
-0.25499480 0.18879294 0.19394045
-0.06472515 0.06058163 -0.00000861
-0.56125403 -0.75542420 -0.00000319
-0.35010453 -0.70926822 -0.00000172
-0.14812205 -0.42979783 0.00000162
-0.31622449 -0.05318788 0.00000327
-0.70197667 -0.78690054 -0.00000003
-0.07985375 0.55543493 0.00000732
-0.26025070 -0.18997448 0.00000267
-0.00254230 0.10380338 -0.00000946
-0.13298601 0.32568066 -0.00000025
-0.52621277 -0.46419730 0.27227909
-0.43103270 0.02495857 0.00000232
-0.43409552 -0.25739668 0.00000237
-0.26190519 -0.56891440 0.00000101
-0.43623617 -0.25159703 0.06940876
-0.27418853 -0.30389497 0.00000052
-0.18750876 0.12935163 0.00000293
-0.39960710 -0.16063733 0.18047759
-0.01945397 -0.05036449 0.00000328
-0.04367016 0.52446824 0.00000579
-0.02119634 -0.10608437 0.00000304
-0.43067010 -0.72280271 -0.00000226
-0.10485292 -0.79049693 0.00000004
-0.75408361 -0.22456203 -0.00000135
-0.07371047 0.45116529 0.00000547
-0.16147227 0.41227290 0.09284420
-0.04183922 0.42416347 0.00000872
-0.02379518 -0.12987564 0.00000279
-0.04162485 0.69514385 0.00000654
-0.26099346 0.03336287 0.00000785
-0.08627997 0.35678967 0.00000847
-0.15247821 -0.70312980 -0.00000050
-0.20486396 -0.16951971 0.00000276
-0.44684745 -0.75614911 0.00000019
-0.44981177 -0.73180372 -0.00000242
-0.15387438 0.42869261 0.00840426
-0.31973380 0.02869208 0.02598948
-0.63004457 -0.71874161 0.10221802
-0.09263458 0.53685531 0.00000725
-0.48134164 0.19307749 0.00000165
-0.61263523 -0.67734962 0.07427186
-0.45827198 -0.30218706 0.18395803
-0.17961007 0.36911057 0.12033142
-0.19416090 -0.13743071 0.00000290
-0.51942527 0.00370645 0.00000336
-0.41628326 0.17418765 0.00000398
-0.20600703 -0.14611276 0.00000162
-0.19523848 -0.77601164 -0.00000107
-0.73919296 0.01468775 -0.00000095
-0.32548021 0.01931429 0.22412774
-0.16532347 -0.29763124 0.00000120
-0.77145513 -0.38535496 -0.00000104
-0.27979472 -0.65523802 0.00000063
-0.48134717 0.27831252 0.00000160
-0.47428493 -0.33821087 0.29963978
-0.32548626 0.06224863 0.00000354
-0.04113343 0.67515977 0.00000621
-0.06959662 0.70558073 0.00000623
-0.18484163 0.35822414 0.19688802
-0.15115116 -0.43837428 0.00000158
-0.53930102 0.02719592 0.00000279
-0.12815408 -0.70802742 -0.00000037
-0.31402178 0.04657187 0.20632832
-0.17517107 -0.05022414 0.00000328
-0.31793689 -0.40626960 -0.00000020
-0.55105759 -0.66409665 0.00000059
-0.72797560 -0.13255382 -0.00000109
-0.00822066 0.14581311 0.00001096
-0.15429077 -0.10573675 0.00000304
-0.25212140 -0.29435950 0.00000069
-0.29927017 0.07554016 0.00000701
-0.68694772 -0.01093424 -0.00000067
-0.17640715 -0.68609044 -0.00000057
-0.26480896 0.18515677 0.00000681
-0.12883826 0.48157142 0.00000483
-0.34797127 -0.56209633 0.00000104
-0.60302467 0.01645295 0.00000030
-0.03633309 0.50301108 0.00000104
-0.09081983 0.52032192 0.00000310
-0.39095258 -0.13433892 0.41777707
-0.52581151 0.23471979 0.00000110
-0.33656254 -0.07878390 0.00000316
-0.26098326 0.18723185 0.00000686
-0.23532056 0.14113984 0.00000757
-0.15923222 0.46027115 0.00000530
-0.07299952 0.62538349 0.07173773
-0.55915774 -0.33712063 0.00000099
-0.44506590 -0.27344982 0.04587325
-0.61800926 -0.11118556 0.00000019
-0.05920897 -0.07619699 0.00000281
-0.04882206 0.58137882 0.00000328
-0.08393137 -0.52582968 0.00000120
-0.24395552 0.21337501 0.10309736
-0.65590669 -0.47397418 -0.00000008
-0.32001093 0.01788560 0.00000706
-0.38110974 -0.11810543 0.08719636
-0.24822556 -0.34168238 0.00000201
-0.39637958 0.39842592 0.00000258
-0.27214242 -0.02635773 0.00000174
-0.03071707 0.19672128 0.00000418
-0.32010726 0.03022767 0.13376717
-0.24574541 0.21050520 0.16682165
-0.68066299 -0.48299512 -0.00000036
-0.61097726 -0.38321267 0.00000040
-0.67895716 -0.59687447 -0.00000029
-0.58569991 0.07412170 0.00000153
-0.08483395 0.39153690 0.00000470
-0.63776200 -0.60297449 0.00000020
-0.26473272 0.07690603 -0.00000218
-0.46642126 -0.32568458 0.01608044
-0.17475410 0.37925898 0.05118218
-0.14533320 0.62754330 0.00000558
-0.36082882 0.04452319 0.00000608
-0.41862179 0.11576037 0.00000242
-0.00027095 0.21331987 0.00000443
-0.07084046 0.23741142 -0.00000422
-0.44628409 -0.20387198 0.00000225
-0.06607928 -0.65532679 0.00000063
-0.11485455 0.04753764 0.00000371
-0.15459278 0.42936884 0.11424608
-0.45574164 -0.06476483 0.00000207
-0.08865768 0.34333848 0.00000447
-0.29240876 -0.58954123 -0.00000084
-0.15929498 -0.75334684 -0.00000076
-0.16284205 -0.05209191 0.00000229
-0.14446082 -0.25890907 0.00000150
-0.17150311 0.62801290 0.00000507
-0.10608666 0.06126021 0.00000313
-0.08917893 0.57294328 0.00000430
-0.06803845 0.31631711 0.00000488
-0.59181051 -0.20082691 0.00000054
-0.53609696 0.02645681 0.00000108
-0.17537156 0.37761673 0.04417804
-0.27160924 -0.52962090 -0.00000046
-0.48388743 0.08488119 0.00000340
-0.12786314 -0.09129611 0.00000233
-0.35970735 0.17664506 0.00000505
-0.10094730 0.40723482 0.00000467
-0.03123434 0.59260132 0.00000590
-0.35992112 -0.26427513 0.00000017
-0.23569753 0.49147029 0.00000438
-0.15552718 0.18963194 -0.00000280
-0.22642666 -0.43944944 0.00000021
-0.54456410 -0.03456863 0.00000101
-0.54793267 0.16947729 0.00000149
-0.00093945 0.53028971 0.00000582
-0.54307020 -0.50929447 0.07914392
-0.35451363 -0.04784035 0.35305809
-0.39801828 -0.15718539 0.16362598
-0.22227812 0.26394117 0.02549121
-0.62819758 0.00474229 0.00000126
-0.24738659 0.20863480 0.25866331
-0.27132105 0.14720192 0.09839493
-0.68068854 0.11485823 -0.00000062
-0.30343548 -0.00536896 0.00000165
-0.34538677 -0.03247110 0.06049224
-0.05438667 0.35821328 0.00000507
-0.12446032 0.67284934 0.00000562
-0.44809641 0.02345607 0.00000212
-0.58333324 0.13000058 0.00000048
-0.25550219 0.40759302 0.00000521
-0.34789050 -0.03507914 0.21098350
-0.47053798 -0.33371979 0.09965244
-0.06797823 -0.34568597 0.00000199
-0.05205567 -0.79566093 0.00000002
-0.12659794 -0.08881808 0.00000311
-0.31854875 0.03468096 0.16366324
-0.44209937 -0.54198027 0.00000113
-0.57165817 0.16735860 0.00000060
-0.13504310 -0.26149704 0.00000236
-0.17617543 -0.56971482 0.00000101
-0.08605182 -0.66259519 0.00000008
-0.17508946 0.37990332 0.11502133
-0.03389809 0.11472434 0.00000400
-0.17561663 0.06248323 -0.00000522
-0.45905181 -0.07430750 0.00000204
-0.59724267 -0.75144959 0.00000021
-0.20715337 0.20470520 0.00000759
-0.39808559 0.26446032 0.00000259
-0.03964808 0.19554370 0.00000412
-0.57026036 0.06358342 0.00000191
-0.18056146 0.06565930 -0.00000499
-0.21541528 0.04962456 0.00000242
-0.45847525 -0.30473606 0.09358564
-0.29945666 -0.43385522 -0.00000021
-0.35726486 0.38460853 0.00000301
-0.34342636 -0.02165125 0.32775416
-0.37554450 -0.10479222 0.08182210
-0.33024939 -0.33745141 0.00000202
-0.15175432 0.27043816 0.00000468
-0.42752772 0.08349025 0.00000449
-0.34378681 -0.02256822 0.32569996
-0.35236114 -0.04975493 0.04089763
-0.07055348 0.20963796 -0.00000489
-0.57254420 0.01762216 0.00000066
-0.01413149 -0.24361941 0.00000243
-0.24412557 0.21064068 0.00106681
-0.01150804 0.74409844 0.00000669
-0.16018528 -0.21844102 0.00000254
-0.39845209 -0.14792876 0.00000278
-0.15478553 0.37825588 0.00000515
-0.77358023 -0.08667007 -0.00000165
-0.28776987 0.10606441 0.03575232
-0.15309334 -0.64426739 0.00000068
-0.03565074 0.00189566 0.00000329
-0.55679994 -0.50234045 0.00000110
-0.58749711 -0.74109443 -0.00000329
-0.31944398 -0.33982454 0.00000009
-0.72664910 -0.22987241 -0.00000103
-0.06748372 -0.34336390 0.00000159
-0.01079118 -0.59396002 0.00000084
-0.22894094 -0.49675922 -0.00000006
-0.41163370 0.03349400 0.00000254
-0.20761433 0.01441071 0.00000231
-0.06815075 0.63699916 0.06776203
-0.40281537 0.07467140 0.00000263
-0.35963156 -0.06276568 0.24030186
-0.61714722 -0.79324010 0.00000003
-0.21246135 0.51529677 0.00000518
-0.05004859 -0.56053203 0.00000075
-0.03462618 0.62936271 0.00000625
-0.31430116 0.04842369 0.31724940
-0.14403678 -0.65102224 -0.00000022
-0.42282329 -0.04754365 0.00000245
-0.05586965 0.58648947 0.00000749
-0.29920518 0.26471315 0.00000551
-0.07037943 0.58079541 0.00000392
-0.00777641 0.18548434 0.00000426
-0.29618047 0.02337415 -0.00000251
-0.36915356 -0.35012177 0.00000197
-0.30214832 0.07503514 0.19747204
-0.15969053 0.24741014 0.00000458
-0.19598934 -0.28968737 0.00000223
-0.23695273 0.52252377 0.00000466
-0.62117556 -0.65912755 0.00000042
-0.02825199 -0.25662581 0.00000238
-0.22533328 0.12632566 -0.00000220
-0.24339648 0.21435377 0.08681334
-0.34032779 -0.01581082 0.25574073
-0.32148554 0.19966143 0.00000352
-0.73422152 0.05634146 -0.00000118
-0.50134176 -0.47134763 0.00000144
-0.17219583 -0.31832899 0.00000211
-0.52182584 -0.45746872 0.10274570
-0.02667863 0.05213883 0.00001127
-0.03330135 -0.51211330 0.00000106
-0.51048616 -0.60783441 0.00000084
-0.01800665 0.35774469 0.00000507
-0.04925147 0.52425907 0.00000550
-0.25055123 0.19767893 0.11307781
-0.06285642 0.24550205 -0.00000427
-0.73386057 -0.55045122 -0.00000062
-0.14507274 0.56530417 0.00000608
-0.22557118 0.16325531 0.00000421
-0.77631172 0.01556791 -0.00000173
-0.13982713 0.45566830 0.00000704
-0.33470223 -0.00733990 0.03056614
-0.01074107 -0.10243639 0.00000305
-0.22880402 -0.18221229 0.00000132
-0.29808371 -0.76760945 0.00000014
-0.04765981 0.68569435 0.03374378
-0.49904669 -0.45107103 0.00000153
-0.18413134 0.13520176 0.00000838
-0.47115073 -0.50546519 -0.00000156
-0.01935293 0.60118907 0.00000286
-0.47385538 -0.52426756 0.00000121
-0.37260758 -0.17967811 0.00000047
-0.20412059 0.30883972 0.07214565
-0.22486319 -0.04192965 0.00000332
-0.67033492 -0.25825551 -0.00000035
-0.23400140 -0.68674616 -0.00000092
-0.18043441 -0.70128243 0.00000043
-0.05627582 0.05829445 0.00000376
-0.05450237 0.16524513 0.00001014
-0.24727111 0.20747677 0.19557702
-0.26412234 0.16671945 0.19228369
-0.18270182 0.24497112 0.00000771
-0.04487135 0.64803287 0.00000727
-0.33696443 0.08918084 0.00000339
-0.59083639 0.20554095 0.00000038
-0.39316904 -0.70935698 -0.00000198
-0.26404016 0.12529973 -0.00000106
-0.64302245 -0.70832858 0.00000019
-0.22768456 -0.24905136 0.00000241
-0.19895238 0.44866321 0.00000597
-0.11627572 -0.54074194 0.00000113
-0.10074350 0.20231444 0.00000378
-0.60117271 -0.00209016 0.00000033
-0.50892339 0.14565968 0.00000135
-0.37203024 -0.09618288 0.08731872
-0.53872175 -0.66638213 -0.00000267
-0.18480193 -0.58633476 0.00000093
-0.37460130 0.10187094 0.00000536
-0.54265044 0.07440469 0.00000098
-0.13732554 0.52455531 0.00000552
-0.00550638 -0.43927766 0.00000154
-0.09669284 0.63726165 0.00000594
-0.00703616 -0.29861180 0.00000215
-0.10075438 0.37575423 0.00000813
-0.31871502 0.03396463 0.14980233
-0.32307034 0.02281206 0.12225749
-0.53802155 -0.65468379 -0.00000261
-0.37512930 -0.58735914 -0.00000133
-0.57300415 -0.58225994 0.04846149
-0.15324192 0.11741535 0.00000309
-0.07077836 0.35846491 0.00000464
-0.06303659 0.60819186 0.00000725
-0.78467051 -0.65834433 -0.00000035
-0.35800108 -0.05573005 0.37636419
-0.05310644 -0.07403123 0.00000318
-0.15666319 -0.28338447 0.00000131
-0.24315706 0.21503395 0.09088733
-0.06063612 -0.48900530 0.00000099
-0.58604625 -0.61235749 0.10943714
-0.24888743 0.25231019 0.00000658
-0.41999851 0.27740174 0.00000309
-0.64432052 -0.76695438 -0.00000374
-0.40779648 -0.78267332 0.00000008
-0.21057032 0.29406570 0.10684783
-0.57956134 -0.69175255 0.00000047
-0.41100442 -0.59702613 -0.00000159
-0.06489524 0.17895891 0.00000428
-0.16044442 0.03390560 -0.00000635
-0.69564408 -0.69013327 -0.00000027
-0.18206786 0.36406545 0.15925373
-0.19670751 0.32792949 0.12431974
-0.50133515 -0.10388878 0.00000156
-0.01360763 0.72148037 0.00000657
-0.15979498 0.06875597 -0.00000554
-0.23912604 0.30152589 0.00000444
-0.55343871 -0.71199691 0.00000039
-0.22213710 0.26486783 0.05123024
-0.43257271 -0.29965526 0.00000219
-0.41001568 -0.43900288 -0.00000090
-0.43766265 -0.25332476 0.14475663
-0.05303860 0.04854805 -0.00000925
-0.14792134 0.44461884 0.07665232
-0.13983135 0.31138976 -0.00000038
-0.15931069 -0.02682258 0.00000338
-0.30362223 -0.46149352 0.00000148
-0.68816923 -0.42881453 -0.00000048
-0.21803750 0.27517815 0.06896610
-0.12894976 0.10409283 -0.00000564
-0.30046363 0.07656189 0.08592939
-0.36410579 -0.37038796 0.00000188
-0.13112109 0.27895202 -0.00000142
-0.30672701 0.32935130 0.00000485
-0.04829088 -0.29638851 0.00000220
-0.59391360 -0.67614172 -0.00000304
-0.01807588 -0.22986316 0.00000249
-0.29310945 0.45707430 0.00000410
-0.67157075 -0.81851828 0.12301731
-0.40606863 0.27702257 0.00000336
-0.13262516 0.56048055 0.00000636
-0.32700112 -0.27718897 0.00000031
-0.06069902 0.54155406 0.00000269
-0.17219182 -0.63811330 0.00000071
-0.04955300 0.21806297 0.00000415
-0.01879937 0.64101118 0.00000619
-0.48050070 -0.35484393 0.22820701
-0.63581731 -0.24918767 0.00000005
-0.74611050 -0.17395224 -0.00000128
-0.28043056 -0.41545795 0.00000168
-0.00272258 0.13482399 -0.00000872
-0.18118585 0.00392447 0.00000352
-0.18560855 0.11018022 0.00000286
-0.24911909 0.42051840 0.00000523
-0.53949296 -0.76762679 -0.00000311
-0.02239187 0.33564533 0.00000497
-0.35636185 -0.73152752 -0.00000185
-0.68512127 -0.08552391 -0.00000061
-0.23492324 -0.25070989 0.00000240
-0.09470251 -0.13869276 0.00000289
-0.18319610 0.36177438 0.17834089
-0.18334179 0.30955275 0.00000730
-0.14399089 -0.18539056 0.00000269
-0.66148213 -0.79559724 0.06010307
-0.35689599 -0.06061583 0.04472439
-0.15897167 -0.63044481 0.00000074
-0.36231768 -0.73342456 -0.00000190
-0.31717072 -0.16921501 0.00000085
-0.18146119 0.36402957 0.09345898
-0.11652105 -0.75389745 -0.00000050
-0.17751194 0.37209014 0.02836009
-0.32564213 0.01857661 0.20856125
-0.39752626 0.08840693 0.00000268
-0.11244392 -0.23427323 0.00000248
-0.47856674 -0.35067515 0.20624512
-0.08787430 -0.71059853 -0.00000014
-0.12125822 -0.59610766 0.00000016
-0.34994572 0.12775863 0.00000563
-0.41377018 -0.19049559 0.37078252
-0.44957408 -0.28456972 0.03550188
-0.16000688 0.21647063 0.00000348
-0.29497830 -0.60945437 -0.00000095
-0.11293230 -0.57123525 0.00000100
-0.48540889 -0.35608723 0.00000187
-0.27814852 0.13301988 0.19917741
-0.01505672 -0.30232459 0.00000218
-0.33406891 -0.00063595 0.25833623
-0.08554225 -0.11201226 0.00000301
-0.15340862 0.43140614 0.07796636
-0.15188093 -0.06565772 0.00000321
-0.51155470 -0.59817289 -0.00000220
-0.61797042 0.07948604 0.00000010
-0.59963707 -0.64613032 0.06720702
-0.10526905 0.54699999 0.05058824
-0.04091233 0.70179283 0.02534103
-0.59070160 -0.62108220 0.21971828
-0.03337295 0.41983913 0.00000887
-0.37470395 -0.10418957 0.01918348
-0.12549383 0.48499119 0.00000486
-0.18055210 -0.42852624 0.00000054
-0.10283238 0.34405772 0.00000438
-0.58741526 -0.25963136 0.00000062
-0.66557250 -0.80517690 0.07304751
-0.27974973 0.12487910 0.01101027
-0.02963061 0.11221648 0.00000399
-0.50479431 0.17459560 0.00000228
-0.58422825 0.01085601 0.00000206
-0.15781408 0.30412613 0.00000388
-0.13886217 -0.35243841 0.00000196
-0.37771218 -0.33519093 -0.00000025
-0.50729292 -0.41833644 0.28040578
-0.45526445 -0.51371821 -0.00000150
-0.17607947 0.23269279 -0.00000116
-0.35017250 -0.04072598 0.20491999
-0.29361470 0.34223014 0.00000378
-0.16439640 0.40356925 0.02065242
-0.40379987 -0.17300074 0.08207248
-0.30512642 0.06357371 0.00914535
-0.34876090 0.20694022 0.00000502
-0.74554890 -0.38591391 -0.00000104
-0.23213629 -0.79522692 -0.00000138
-0.10096308 -0.65974380 0.00000061
-0.04827043 -0.14519434 0.00000257
-0.11719956 0.42292347 0.00000535
-0.50288596 -0.41120762 0.12629484
-0.12077596 0.51002125 0.07085271
-0.09043069 0.09774377 0.00001002
-0.46946471 -0.32868639 0.20688645
-0.28047919 0.23111609 0.00000398
-0.42857848 -0.24238942 -0.00000015
-0.21909240 0.52526226 0.00000498
-0.45023799 -0.38358834 -0.00000090
-0.23618888 -0.19359656 0.00000123
-0.13989357 -0.26902463 0.00000232
-0.46965254 -0.52136969 -0.00000162
-0.28130475 0.12246464 0.07053198
-0.48610259 -0.54810859 -0.00000183
-0.14111095 0.16346462 0.00000336
-0.64854676 -0.76558016 0.00697290
-0.29187754 0.14416501 0.00000661
-0.29681694 0.15154022 0.00000383
-0.72802630 -0.02749764 -0.00000114
-0.56300891 -0.37026385 0.00000096
-0.39462342 -0.52147959 0.00000122
-0.39585150 0.12753239 0.00000475
-0.53737491 -0.74963790 0.00000022
-0.48953630 -0.51628371 -0.00000171
-0.30964993 0.05918126 0.29654993
-0.30946177 0.05383445 0.04184364
-0.10924835 0.16854640 0.00000424
-0.58778674 -0.38089666 0.00000068
-0.19696289 0.47749951 0.00000578
-0.23374518 -0.12105711 0.00000297
-0.31377560 0.04318116 0.03061570
-0.35767778 0.17668173 0.00000509
-0.22716036 0.55841959 0.00000456
-0.40947178 -0.31363371 -0.00000034
-0.18706833 0.35218294 0.16758858
-0.43299074 0.35126167 0.00000214
-0.60604921 -0.66188537 0.05513977
-0.08505648 -0.02987996 0.00000337
-0.51443219 -0.43947324 0.10914237
-0.27410608 -0.22159668 0.00000088
-0.37411795 -0.16202475 0.00000279
-0.18077081 0.36788853 0.18970285
-0.34340169 -0.41119440 0.00000170
-0.03389120 -0.44004785 0.00000157
-0.61427336 -0.67881208 0.18358606
-0.03537835 -0.55869932 0.00000084
-0.13147131 -0.34735388 0.00000119
-0.33430428 0.07652289 0.00000343
-0.06346494 0.57144745 0.00000562
-0.29503871 -0.23060032 0.00000071
-0.38581623 -0.12606786 0.23648010
-0.63368772 0.01575204 -0.00000006
-0.08920669 0.31809658 0.00000489
-0.18950563 0.48872884 0.00000493
-0.64708989 -0.76098182 0.05441118
-0.26689203 0.15984502 0.18403631
-0.20285413 0.31418564 0.17251409
-0.00200868 0.49258774 -0.00000024
-0.14282372 0.11036457 0.00000916
-0.58483175 0.17574826 0.00000044
-0.71106624 0.04917963 -0.00000098
-0.20153840 0.31579976 0.10402690
-0.30693700 0.06271338 0.16406341
-0.30837131 -0.75836168 -0.00000168
-0.46083692 0.27914815 0.00000184
-0.30928504 -0.25190757 0.00000053
-0.02256535 -0.17982280 0.00000258
-0.32775476 -0.28188357 0.00000029
-0.30435152 0.02880461 -0.00000213
-0.17565095 -0.22124792 0.00000253
-0.00171984 -0.10685390 0.00000302
-0.33463025 0.44913010 0.00000324
-0.26346614 0.16401167 0.00383569
-0.34334325 0.39469016 0.00000363
-0.10034994 -0.71251610 0.00000038
-0.75272477 0.04032599 -0.00000146
-0.00164881 0.28752861 0.00000475
-0.36212025 -0.06608678 0.35828406
-0.23424931 0.23598372 0.06646775
-0.33414749 -0.00205499 0.20422907
-0.28395811 -0.30901839 0.00000043
-0.27490603 0.14000439 0.16206006
-0.25452085 0.05661346 0.00000375
-0.13354309 0.56502082 0.00000555
-0.69784543 -0.74200018 -0.00000014
-0.61746835 0.13476343 0.00000043
-0.21874311 0.14388945 0.00000413
-0.43099488 -0.08473437 0.00000237
-0.49361649 -0.56491944 -0.00000195
-0.28188225 0.49337403 0.00000384
-0.29954703 0.01760500 -0.00000254
-0.14815377 0.44283907 0.02281619
-0.08444967 0.54548630 0.00000350
-0.07787799 0.12759313 -0.00000662
-0.35071032 -0.45185624 0.00000152
-0.36875836 0.33884670 0.00000290
-0.25868326 0.18004416 0.20078707
-0.04161409 -0.51208848 0.00000126
-0.27151632 0.14588002 0.06049359
-0.43435313 -0.24289710 0.25179244
-0.13522623 0.20673529 0.00000359
-0.48879772 -0.37561440 0.19572602
-0.12578191 0.55413809 0.00000564
-0.33721674 -0.70852824 -0.00000164
-0.22417622 -0.78027544 0.00000009
-0.67448213 0.04419651 -0.00000055
-0.35812909 -0.06329949 0.05760260
-0.31923890 0.03443639 0.22622989
-0.21209409 0.28832785 0.00000700
-0.43180842 0.31483971 0.00000257
-0.70559835 0.08493957 -0.00000093
-0.20359656 0.25044534 0.00000460
-0.64851083 -0.28323615 -0.00000008
-0.14474779 0.38766024 0.00000432
-0.30828355 -0.26103310 0.00000050
-0.13456946 0.39242393 0.00000138
-0.31916646 0.03047678 0.04425770
-0.58112896 0.20335118 0.00000059
-0.33843850 -0.01064930 0.28210148
-0.10187761 -0.15858850 0.00000281
-0.73441452 -0.11134211 -0.00000118
-0.69395320 -0.34207693 -0.00000059
-0.70627829 -0.64943876 -0.00000038
-0.27848481 0.13005579 0.10445040
-0.10622884 -0.08084040 0.00000315
-0.19126636 -0.50581685 0.00000129
-0.65465073 -0.79582438 0.00000002
-0.21621833 -0.77628155 -0.00000120
-0.22552773 0.07705472 0.00000384
-0.21432439 -0.02735227 0.00000338
-0.06754311 0.63760163 0.02981825
-0.10473852 0.28517287 -0.00000207
-0.40981978 0.33381845 0.00000284
-0.53068814 -0.45510512 0.00000138
-0.36450210 -0.07858641 0.06194095
-0.74240538 -0.47931058 -0.00000080
-0.26010738 -0.39188279 0.00000179
-0.10037647 0.61827432 0.00000591
-0.25693632 0.18066235 0.04275324
-0.28638164 0.11255958 0.17345799
-0.40250815 -0.58345664 -0.00000148
-0.19202479 -0.47689195 0.00000025
-0.71580515 0.02570276 -0.00000059
-0.32465397 0.01885904 0.11655829
-0.26187372 0.16781978 0.00224211
-0.53331969 -0.39912696 0.00000132
-0.43918102 -0.26477455 -0.00000031
-0.79261343 -0.40160584 -0.00000100
-0.58701669 -0.61385142 0.14668752
-0.18646678 -0.46977491 0.00000032
-0.71383106 -0.61426610 -0.00000046
-0.01652430 0.66596465 0.00000631
-0.67956557 0.01440682 -0.00000059
-0.47449343 0.09500583 0.00000350
-0.28652313 0.34457449 0.00000512
-0.33675396 -0.00516923 0.34415285
-0.37952588 0.24116974 0.00000282
-0.08404801 -0.10802373 0.00000303
-0.19078175 0.20270183 0.00000439
-0.17369264 0.53143672 0.00000509
-0.77629123 -0.07338985 -0.00000169
-0.19492488 -0.06924996 0.00000320
-0.39669486 -0.10970573 0.00000279
-0.29436723 0.20805414 0.00000383
-0.14010005 0.44667030 0.00000461
-0.10759782 -0.72619682 -0.00000033
-0.16853456 0.39369738 0.02585518
-0.18321827 0.35785271 0.00804669
-0.11091735 0.58541701 0.00000658
-0.33618290 0.26534533 0.00000480
-0.10512884 0.44316150 0.00000544
-0.01361280 -0.49446494 0.00000134
-0.36692844 -0.07981551 0.26516763
-0.22097593 -0.47790603 0.00000141
-0.14384351 0.34407153 0.00000414
-0.18326006 0.49067078 0.00000500
-0.25725340 0.14622001 0.00000414
-0.19823126 -0.48187481 0.00000139
-0.60780608 -0.50550584 0.00000050
-0.02208412 -0.48024479 0.00000140
-0.26430254 0.16693774 0.22096974
-0.11918241 0.27989457 0.00000401
-0.21929199 -0.77672727 0.00000010
-0.23615312 -0.36163341 0.00000192
-0.22807736 -0.39103523 0.00000041
-0.04763810 0.68613974 0.05104028
-0.15178291 0.10340361 0.00000395
-0.16070114 0.20928325 0.00000442
-0.54598268 -0.45266298 0.00000120
-0.00944297 -0.41701739 0.00000162
-0.57977355 -0.00459849 0.00000059
-0.45738738 -0.36471253 0.00000190
-0.08055933 0.47039627 0.00000160
-0.33198830 0.00506623 0.28839842
-0.52272846 0.14572102 0.00000118
-0.48166314 -0.35723073 0.24662889
-0.22606394 0.25818208 0.17392521
-0.09805836 -0.34438870 0.00000140
-0.54516122 -0.72524446 0.00000033
-0.12721180 0.11857515 -0.00000534
-0.16963122 -0.23112847 0.00000146
-0.30202879 -0.32278508 0.00000026
-0.17583640 0.00677301 0.00000247
-0.22999750 -0.03401041 0.00000196
-0.04994749 -0.19421217 0.00000265
-0.53492882 -0.75098076 0.00000021
-0.00900105 0.35100245 0.00000967
-0.34099884 -0.02154882 0.07422713
-0.12125604 0.50934267 0.09194766
-0.61312256 -0.67806151 0.09465908
-0.36133091 -0.51460954 -0.00000093
-0.60913204 -0.66588859 0.20602014
-0.00429715 0.77883280 0.00000707
-0.54688058 0.24497398 0.00000085
-0.21618897 0.54714964 0.00000486
-0.18560339 0.35612745 0.18557518
-0.47915915 -0.35028212 0.28629782
-0.27733717 -0.51645310 0.00000124
-0.14076131 0.18502787 0.00000346
-0.16619809 0.27611591 0.00000471
-0.18551470 -0.75459301 -0.00000092
-0.06520873 0.63033705 0.00000494
-0.57003260 0.07948983 0.00000066
-0.30606772 0.06824083 0.31457879
-0.39331495 0.22487907 0.00000402
-0.20123957 0.31730134 0.13809150
-0.03047477 0.39915169 0.00000525
-0.07696517 0.03519875 0.00001062
-0.01889886 0.75707681 0.00000698
-0.00336997 -0.78979058 0.00000004
-0.18749113 0.30042821 0.00000481
-0.15500748 0.21725513 0.00000830
-0.06041601 -0.73435743 0.00000029
-0.32485361 0.02017001 0.19490838
-0.63852262 -0.50655314 0.00000014
-0.05784619 -0.25871831 0.00000237
-0.24223108 0.53630855 0.00000445
-0.33231916 -0.14643167 0.00000085
-0.01677677 -0.75800486 0.00000018
-0.05450015 -0.10538011 0.00000304
-0.25401760 0.02984076 -0.00000363
-0.17733807 0.37272763 0.03794275
-0.04376299 -0.12702324 0.00000294
-0.46642609 -0.43480440 0.00000160
-0.27100822 0.23972342 0.00000409
-0.21976206 -0.70823167 -0.00000092
-0.05819669 0.64613705 0.00000510
-0.55091329 -0.70104099 -0.00000289
-0.44219176 -0.25975780 0.34238761
-0.24005436 -0.06550097 0.00000176
-0.00972208 -0.78123331 0.00000008
-0.15955081 0.03025451 0.00000267
-0.40735892 0.14843243 0.00000254
-0.28150925 -0.59553627 -0.00000080
-0.48828213 -0.53581602 0.00000116
-0.21961779 0.02002301 -0.00000490
-0.52591526 -0.46611645 0.15652970
-0.36100634 -0.20984730 0.00000040
-0.38177665 -0.11582818 0.25787682
-0.61964977 -0.34751952 0.00000029
-0.06984036 -0.53758203 0.00000115
-0.02993418 -0.14591538 0.00000286
-0.07139707 0.06518315 0.00001052
-0.04654735 0.35779950 0.00000478
-0.37434744 -0.09553610 0.36134079
-0.11932307 0.44745201 0.00000223
-0.29408946 0.06034209 0.00000719
-0.39397936 -0.20139075 0.00000024
-0.17169449 0.36020312 0.00000508
-0.34393741 0.23413377 0.00000324
-0.27599509 -0.24285634 0.00000077
-0.20867774 0.01588927 -0.00000533
-0.22561055 -0.49988572 -0.00000005
-0.31648763 0.18069864 0.00000585
-0.17250669 -0.18427502 0.00000269
-0.21290542 -0.00203590 0.00000221
-0.42799325 -0.22697000 0.27695363
-0.23156000 -0.09573047 0.00000168
-0.22427282 -0.75703818 0.00000019
-0.01534031 -0.59331040 0.00000090
-0.44006545 -0.25465956 0.34084689
-0.10441073 0.38672329 0.00000519
-0.09624591 0.28712157 0.00000418
-0.33326404 -0.54857163 0.00000110
-0.10216780 0.28594133 0.00000867
-0.66010137 -0.34861071 -0.00000019
-0.09057141 0.46527492 0.00000499
-0.21006563 -0.22878929 0.00000250
-0.21995111 0.24900875 0.00000459
-0.39185174 -0.14343114 0.11387809
-0.21092996 0.29549983 0.20818315
-0.50934615 -0.42774983 0.08475971
-0.55108497 -0.52583076 0.20263508
-0.14967636 0.44024457 0.07040553
-0.13563464 -0.05678819 0.00000325
-0.03697807 0.52402580 0.00000557
-0.42187044 -0.42011688 -0.00000088
-0.39093678 -0.05937973 0.00000283
-0.54083347 -0.51260885 0.00000126
-0.26714278 0.33143051 0.00000560
-0.08128866 -0.64107989 0.00000070
-0.18859816 0.38751880 0.00000666
-0.67184378 0.07115955 -0.00000053
-0.05401139 -0.51272735 0.00000126
-0.01173052 -0.30733025 0.00000216
-0.43740488 -0.25425209 0.00000238
-0.39168838 -0.48934636 -0.00000100
-0.52248668 -0.45615377 0.23052941
-0.05094755 0.67709490 0.00471177
-0.17086150 0.39049742 0.13188607
-0.11637442 0.20234910 0.00000368
-0.51700517 -0.18172007 0.00000141
-0.20115881 -0.67257886 -0.00000066
-0.24841298 -0.42822347 0.00000163
-0.06168347 0.56867130 0.00000599
-0.05219589 0.43791954 0.00000510
-0.19526884 0.32913885 0.02468148
-0.01178871 -0.26135852 0.00000229
-0.77732994 -0.07559419 -0.00000170
-0.12948723 -0.20079081 0.00000184
-0.01709711 0.31399400 0.00000978
-0.31949314 0.03261904 0.17325753
-0.26238160 -0.36495349 0.00000032
-0.17075874 0.02854816 0.00000362
-0.15947480 -0.45679957 0.00000150
-0.26784497 0.15778215 0.19447448
-0.49061237 -0.38316808 0.05642094
-0.05034370 0.05419411 0.00000374
-0.48739243 -0.37572981 0.04169798
-0.29652192 -0.70072121 0.00000043
-0.10090804 0.08412969 0.00000387
-0.02135449 -0.61921292 0.00000079
-0.25351139 0.18911202 0.05070894
-0.68994792 0.08327089 -0.00000055
-0.22827235 0.16490147 -0.00000119
-0.08536735 0.02250830 0.00000308
-0.00065765 -0.63054070 0.00000074
-0.08789495 -0.29749637 0.00000220
-0.58095750 -0.60130145 0.05546528
-0.32707958 0.45227945 0.00000348
-0.11189606 0.43509708 0.00000759
-0.23163712 0.00647350 0.00000846
-0.11169001 0.44838219 0.00000479
-0.27891693 0.47786172 0.00000421
-0.21975929 -0.35915356 0.00000060
-0.04927063 0.06115813 -0.00000906
-0.00063220 0.52164345 0.00000578
-0.22038118 0.54455041 0.00000480
-0.40155968 -0.16090729 0.37559784
-0.54914684 0.05233188 0.00000092
-0.35624944 -0.05146559 0.37793780
-0.61334804 0.10542515 0.00000075
-0.04121835 0.45930224 0.00000526
-0.58310655 -0.02813005 0.00000056
-0.56862744 -0.78884377 -0.00000338
-0.62352096 -0.50187223 0.00000032
-0.20457698 -0.33673673 0.00000203
-0.05962961 -0.00041755 0.00000314
-0.67781042 0.03543808 0.00000006
-0.27777084 0.35316160 0.00000396
-0.21681064 0.27920505 0.11584432
-0.46979253 -0.23426865 0.00000199
-0.20288933 0.31050661 0.01432734
-0.33564985 -0.00373143 0.29024553
-0.30242321 0.07539414 0.24217401
-0.15377757 0.41153814 0.00000437
-0.22498273 0.02126301 0.00000359
-0.05409042 0.55562226 0.00000283
-0.75366993 -0.55949018 -0.00000060
-0.72424403 -0.57810971 -0.00000055
-0.06028823 0.66248980 0.00000694
-0.47549624 -0.55847163 0.00000106
-0.64547051 0.07795265 -0.00000022
-0.38019245 -0.20793310 0.00000030
-0.55581534 -0.60579540 0.00000085
-0.00511860 -0.26739845 0.00000233
-0.46308432 -0.31021161 0.34172478
-0.21699844 -0.22170509 0.00000122
-0.18153235 -0.07787617 0.00000206
-0.21761114 0.11066162 0.00000267
-0.04114362 0.59986258 0.00000763
-0.12237643 0.00867067 0.00000280
-0.41731843 0.35138610 0.00000255
-0.50355012 0.26664766 0.00000135
-0.49635086 -0.61018964 0.00000083
-0.71331428 -0.31144712 -0.00000083
-0.26692687 0.08492429 0.00000744
-0.28954743 0.44815008 0.00000424
-0.01698408 0.18015292 0.00000429
-0.54272971 0.01484409 0.00000101
-0.27492909 0.14131326 0.22211767
-0.76603175 -0.31028095 -0.00000122
-0.66568080 0.10564808 -0.00000047
-0.36996252 -0.08658664 0.28948145
-0.32197852 0.02608009 0.15001335
-0.07921215 0.48200744 0.00000561
-0.05346734 -0.54896391 0.00000078
-0.46218186 0.21132767 0.00000281
-0.43199525 -0.23599780 0.30478362
-0.09842480 -0.46706206 0.00000086
-0.03908457 -0.52159488 0.00000098
-0.03366702 0.12498790 0.00001071
-0.28588128 -0.50881503 0.00000127
-0.12708700 -0.17310416 0.00000198
-0.34246334 -0.02510966 0.07382587
-0.21145042 0.29035023 0.03729339
-0.49519062 0.17818429 0.00000244
-0.14345911 -0.79648297 -0.00000085
-0.22865433 -0.77677325 -0.00000128
-0.01280905 -0.04499503 0.00000330
-0.69363484 -0.71208793 -0.00000022
-0.33309571 0.22909123 0.00000337
-0.23976436 0.51277045 0.00000433
-0.42996446 -0.73547476 -0.00000231
-0.18252808 0.36108790 0.07738982
-0.01337724 0.47179171 0.00000885
-0.46405044 -0.18618399 0.00000203
-0.17934060 -0.77934063 0.00000009
-0.51999244 -0.45461991 0.03348663
-0.23251701 0.07639443 0.00000383
-0.15686164 0.42191974 0.02767881
-0.35607499 -0.68487378 -0.00000165
-0.02451273 0.11012306 -0.00000864
-0.18210499 -0.62333127 -0.00000033
-0.39999281 -0.46848659 0.00000145
-0.33252653 -0.72051145 -0.00000166
-0.36725625 -0.08071479 0.26043116
-0.28856986 0.12740993 0.00000681
-0.35138363 0.05456010 0.00000324
-0.24909485 0.07585288 -0.00000268
-0.25343908 0.13952391 0.00000411
-0.01727399 0.50258120 0.00000570
-0.15977714 0.11919831 -0.00000435
-0.27814000 0.12956368 0.04676376
-0.30086602 -0.25924443 0.00000237
-0.13641401 0.22012202 0.00000857
-0.48971427 -0.38131312 0.04266815
-0.09904135 -0.06561626 0.00000321
-0.07370432 0.62378880 0.07642925
-0.21351168 -0.13376310 0.00000163
-0.20505340 0.30904667 0.18010930
-0.55067376 -0.52577680 0.16143478
-0.50054945 -0.41072984 0.00000170
-0.12654154 -0.35209910 0.00000120
-0.06347222 -0.07428596 0.00000317
-0.05924292 -0.07528790 0.00000317
-0.40759625 -0.55630049 -0.00000139
-0.46974495 -0.57179916 0.00000100
-0.22472537 -0.64521923 0.00000068
-0.03549300 0.43942398 0.00000542
-0.60008201 0.09513568 0.00000030
-0.53163319 0.08499764 0.00000111
-0.38085507 -0.54693544 -0.00000119
-0.56872196 -0.05508900 0.00000074
-0.28959612 0.07683316 0.00000384
-0.08714064 0.27913042 0.00000420
-0.28820100 -0.27406517 0.00000056
-0.01860545 -0.26503717 0.00000223
-0.09953972 -0.22734713 0.00000251
-0.43721119 -0.24988652 0.24786359
-0.23416006 0.23721688 0.11125979
-0.16773707 -0.46789594 0.00000044
-0.10017894 0.16734012 0.00000363
-0.76640249 -0.43910280 -0.00000090
-0.03280706 -0.41978679 0.00000147
-0.11162204 -0.05245973 0.00000327
-0.79020422 -0.73285047 -0.00000017
-0.03412334 0.71775999 0.00682071
-0.74152621 -0.50640867 -0.00000073
-0.09260167 -0.19733036 0.00000208
-0.45523867 -0.61508052 -0.00000194
-0.35830370 -0.58626178 0.00000094
-0.35070573 -0.32535707 0.00000208
-0.14361008 0.45435780 0.04700644
-0.15301210 0.43419559 0.15860801
-0.30472884 -0.42342266 -0.00000019
-0.01119336 0.35454462 0.00000962
-0.26913847 0.24313763 0.00000626
-0.27774211 0.23311557 0.00000402
