ply
format ascii 1.0
element vertex 1377
property float x
property float y
property float z
end_header
0.48244201 0.22251416 0.00000010
0.66999605 -0.70790938 -0.00000020
0.11344175 -0.69632553 -0.00000006
0.26157234 -0.40170289 -0.00000025
-0.09680760 0.14057833 -0.00000059
0.35231798 0.18353900 0.00000330
0.29921867 0.23831349 -0.00000086
0.30359894 0.11030502 0.00000555
0.30959174 0.28873046 -0.00000099
0.27044770 -0.09727805 -0.00000044
-0.45029104 0.36235173 0.01681266
-0.19911925 -0.05427172 -0.00000047
0.36420050 0.18989464 -0.00000098
0.39191357 -0.76213151 -0.00000002
-0.68656952 -0.53669306 -0.00000002
-0.17572328 -0.21685732 -0.00000036
0.12292671 0.46466942 0.00000259
-0.50748008 -0.24812983 -0.00000027
-0.64737250 -0.47176997 -0.00000008
-0.70121231 -0.30391540 -0.00000005
0.35943041 0.28573938 -0.00000115
0.01723090 0.69887209 -0.00000094
0.37546998 -0.37183932 -0.00000027
-0.56763751 -0.11711266 -0.00000023
-0.63518615 0.15747440 -0.00000020
0.76138904 -0.08591845 -0.00000171
-0.24849722 0.69145866 0.18611917
0.29545302 -0.56211423 -0.00000015
-0.56870957 -0.17464433 -0.00000021
0.06821463 0.28027675 0.00000642
0.21540119 0.27871651 -0.00000067
-0.36672606 0.64973639 0.28786203
0.44497073 0.32886263 -0.00000109
0.00100952 0.68646832 0.00000083
-0.49084753 -0.40268405 -0.00000025
0.39885734 -0.52184235 -0.00000017
0.01651593 0.38400816 -0.00000074
-0.38713621 0.44653763 0.04478046
-0.18284902 -0.11880307 -0.00000043
-0.23271347 -0.25108309 -0.00000034
0.54362148 0.12875764 0.00000061
-0.26300446 0.57286520 0.04770000
0.47096736 0.12554007 0.00000206
-0.33567173 0.63834411 0.23141413
-0.55918244 0.27194816 0.04139914
-0.14921279 0.28080007 -0.00000068
0.27226573 -0.53890836 -0.00000016
0.54017875 -0.62000336 -0.00000011
0.34582473 -0.42959712 -0.00000023
-0.15292215 0.74013261 0.12374729
-0.44065674 -0.56055359 -0.00000015
0.04678093 0.14134761 -0.00000059
-0.35311816 -0.50192591 -0.00000019
-0.23319944 0.36698584 -0.00000067
-0.75118118 -0.23567117 -0.00000001
0.59419165 -0.13147987 -0.00000108
-0.39326311 -0.33314263 -0.00000029
-0.66905723 0.06139866 -0.00000015
0.23380868 0.33483221 -0.00000084
0.52245316 0.09401216 -0.00000130
-0.11043242 0.70294837 0.01779256
0.18234756 0.18067382 -0.00000061
-0.04507983 -0.79772447 -0.00000000
-0.19445779 0.17619599 -0.00000061
0.71212154 -0.09935802 -0.00000152
0.02672332 -0.35230030 -0.00000028
0.30670396 0.35857339 0.00000104
-0.26248037 -0.58914745 -0.00000013
-0.57066613 0.24723713 0.02380885
0.25379256 -0.65775452 -0.00000009
0.29409952 -0.41118128 -0.00000024
-0.56538819 -0.46066580 -0.00000017
-0.59881856 -0.50976799 -0.00000012
-0.04633798 -0.56172061 -0.00000015
-0.48352493 -0.65548724 -0.00000009
0.16895736 0.38908525 -0.00000074
0.74461983 -0.36560828 -0.00000109
0.61971817 -0.07447082 -0.00000128
-0.33740796 0.40316442 -0.00000057
-0.52828918 0.36657600 0.12615620
-0.27966443 0.32828927 -0.00000062
0.10518438 0.24304324 -0.00000065
-0.36823794 0.15743742 -0.00000049
0.67702223 -0.19800938 -0.00000122
0.36795215 0.31970753 0.00000056
-0.34230744 -0.20378379 -0.00000037
-0.51598696 0.57020445 0.38059172
0.54810795 -0.67850995 -0.00000008
-0.25043783 0.60165910 0.06927972
-0.61210618 -0.25399648 -0.00000015
-0.21782697 0.43901147 -0.00000070
0.06120801 -0.77757700 -0.00000001
-0.76701173 -0.33515279 0.00000000
0.34721729 -0.12260005 -0.00000042
0.15221841 -0.40193689 -0.00000025
-0.25201881 0.59822381 0.06681379
-0.65931101 0.24509638 0.13884649
0.66661655 0.02055979 0.00000019
0.16142060 -0.62921844 -0.00000011
0.24237125 -0.19149233 -0.00000038
-0.26941732 -0.67390483 -0.00000008
0.73586606 -0.26541936 -0.00000128
0.12012971 -0.12397480 -0.00000042
0.46379031 -0.02178718 -0.00000088
0.29554409 -0.38023330 -0.00000026
0.12658434 0.62275615 -0.00000106
0.06271974 0.42566012 -0.00000077
-0.72687162 -0.15479936 -0.00000005
-0.69919219 -0.44255072 -0.00000003
0.45674579 -0.09252188 -0.00000072
0.53366601 0.00814479 0.00000297
0.23550531 -0.29849188 -0.00000031
0.43357773 -0.05903796 -0.00000071
-0.22816684 0.25912953 -0.00000066
-0.62297691 -0.78600278 -0.00000001
-0.40022086 -0.36701321 -0.00000027
0.38601017 -0.24262079 -0.00000035
0.51262638 -0.72304042 -0.00000005
0.18026165 0.49785139 0.00000096
0.20798220 0.04578847 0.00000812
-0.74064968 0.10931828 0.06645077
-0.31364540 0.30678120 -0.00000058
0.62238440 -0.59313719 -0.00000027
-0.60989488 -0.20355986 -0.00000017
-0.79651173 -0.43086474 0.00000000
0.34358469 0.27152092 0.00000189
-0.76760679 -0.24892441 0.00000000
0.57888253 -0.55574567 -0.00000021
0.28201556 0.14899624 0.00000527
0.69182896 -0.05750546 -0.00000154
-0.78007366 -0.59846911 0.00000000
0.48420762 -0.00944413 -0.00000097
0.12774103 0.07183014 -0.00000054
0.62718092 -0.19877734 -0.00000106
-0.61086130 -0.62055286 -0.00000009
0.42005811 0.03428712 -0.00000085
-0.41168173 0.49843896 0.14644316
0.43727243 0.02545234 -0.00000089
0.07274042 0.22274828 0.00000728
0.10893311 0.45590172 0.00000295
-0.38331393 -0.13677371 -0.00000041
-0.15657172 -0.64760300 -0.00000010
-0.77768661 -0.22127241 0.00000000
-0.20033998 -0.24076520 -0.00000035
0.31744941 0.06208916 0.00000615
0.45019635 0.34583080 -0.00000155
0.06529898 0.69243426 -0.00000100
0.57068899 -0.34247225 -0.00000060
0.43420675 -0.17777475 -0.00000048
0.59741604 0.13619953 -0.00000162
-0.41958104 0.21077842 -0.00000044
0.19826244 0.39545069 0.00000246
-0.21511853 0.54454909 -0.00000072
0.10050994 -0.79067481 -0.00000001
-0.14616742 -0.46636551 -0.00000021
-0.75517290 -0.79837058 0.00000000
0.24205155 0.41125478 -0.00000102
0.14971481 -0.44385092 -0.00000022
-0.22925232 -0.43532290 -0.00000023
-0.66350633 -0.67953747 -0.00000002
0.39112074 -0.63669148 -0.00000010
-0.00821671 0.31329038 -0.00000070
-0.11116079 0.07203573 -0.00000055
0.23245962 0.45855896 -0.00000108
0.32014287 -0.23454356 -0.00000035
-0.00983483 -0.19534852 -0.00000038
0.79655370 -0.29082802 -0.00000127
-0.16466083 -0.34860038 -0.00000028
0.46705620 -0.58287624 -0.00000014
0.16619031 0.23984961 0.00000559
-0.74719117 0.07979322 0.03588618
-0.36586351 -0.07005285 -0.00000045
-0.55977990 0.03221215 -0.00000026
-0.32018402 -0.07153504 -0.00000046
-0.60708898 -0.11375706 -0.00000019
0.03923318 -0.20481927 -0.00000037
-0.18712932 -0.44512243 -0.00000022
-0.54946140 0.33688976 0.11483397
0.27189834 0.38285406 -0.00000106
-0.03703792 -0.44160937 -0.00000022
0.24152504 0.23538322 0.00000450
-0.21908247 -0.33471655 -0.00000029
-0.27213243 -0.52980619 -0.00000017
-0.23139734 -0.07622033 -0.00000045
-0.48098409 0.55177158 0.30952986
0.66780434 -0.03646456 -0.00000151
0.01604109 -0.78396558 -0.00000001
-0.17826677 0.07906265 -0.00000055
0.34825470 0.24086898 0.00000235
0.14646226 -0.75619437 -0.00000003
0.04935659 -0.52444844 -0.00000017
-0.67000222 0.28073174 0.20045376
-0.46367267 0.24974399 -0.00000040
0.35895663 0.25988852 -0.00000110
0.25819801 -0.61150573 -0.00000012
0.76095278 -0.33349823 -0.00000117
-0.20470330 0.10403205 -0.00000057
-0.39662747 -0.29977212 -0.00000031
0.58044931 -0.03695920 -0.00000123
0.11253128 0.08550560 0.00000891
0.16914875 0.48650775 -0.00000093
-0.21694645 0.11589321 -0.00000057
0.32570492 -0.39033225 -0.00000026
-0.58872375 0.20705478 -0.00000026
-0.10187444 -0.20145781 -0.00000037
-0.59269846 -0.72138257 -0.00000005
-0.71413170 -0.23984405 -0.00000005
0.13797607 -0.25450052 -0.00000034
-0.35478703 -0.18617405 -0.00000038
-0.67244502 0.29462033 0.22217203
0.49475268 -0.01164021 -0.00000100
0.15515087 0.43133447 -0.00000078
-0.05062392 0.13777937 -0.00000059
0.42544449 0.08747856 0.00000362
0.07612754 0.29315559 0.00000609
-0.59252501 0.26737756 0.07966160
-0.72961716 -0.57188490 0.00000000
0.39159526 0.25350353 -0.00000119
0.12100400 -0.65261888 -0.00000009
-0.58210893 0.04708517 -0.00000024
-0.74696112 -0.44717161 0.00000000
-0.03015183 -0.47808764 -0.00000020
-0.15068159 -0.58455566 -0.00000013
0.28446109 -0.70154097 -0.00000006
0.34583100 0.33720284 -0.00000120
0.24406859 0.50140207 -0.00000120
0.50055261 -0.09329887 -0.00000086
0.09173942 -0.57344206 -0.00000014
0.33670969 -0.07008036 -0.00000046
0.45103627 0.18700047 -0.00000125
0.13524825 -0.10290393 -0.00000044
-0.09405540 -0.39961521 -0.00000025
0.28664273 0.10389459 0.00000599
-0.55291552 -0.37914237 -0.00000019
0.45471807 -0.41489731 -0.00000024
-0.59717934 -0.26949782 -0.00000017
0.14543339 0.43737991 0.00000270
-0.51115343 -0.58333325 -0.00000014
0.37533690 0.09518280 0.00000445
-0.43984680 0.58431077 0.29809555
0.70527238 -0.25569843 -0.00000120
-0.31647928 -0.43736522 -0.00000023
-0.21387200 0.29394226 -0.00000068
-0.69819127 0.10891902 0.00945644
-0.44850119 0.45070066 0.13192295
-0.21144098 0.38852311 -0.00000070
0.48207381 0.26087551 -0.00000149
-0.24979579 -0.47003795 -0.00000021
-0.37367456 -0.42956939 -0.00000023
0.20641791 0.06401409 -0.00000054
0.10920577 0.40400785 0.00000379
-0.35749634 0.29142881 -0.00000053
-0.50210870 -0.11408007 -0.00000030
-0.74463962 0.09896151 0.05798388
0.54817100 -0.45740839 -0.00000030
0.15143426 -0.60881698 -0.00000012
0.29763212 -0.01593332 -0.00000049
-0.04839833 -0.03157243 -0.00000048
0.52353506 -0.28972326 -0.00000055
0.19092827 0.22469543 0.00000547
-0.29848310 -0.03607296 -0.00000048
0.27302563 0.06599076 -0.00000054
-0.25568653 0.65790796 0.15106234
0.15354006 0.54522333 -0.00000099
0.48103851 0.07421309 -0.00000112
0.05906472 0.47451512 -0.00000080
-0.31163285 -0.48888112 -0.00000019
0.49344007 -0.45461988 -0.00000022
-0.70908062 -0.03802684 -0.00000009
-0.26596562 0.64673646 0.14987558
0.79464185 -0.48676718 -0.00000078
0.22930689 -0.31168482 -0.00000031
-0.53878555 -0.57632026 -0.00000014
-0.27822208 0.52603516 0.00566039
0.03071443 0.60139456 0.00000176
0.05642232 -0.47232004 -0.00000020
-0.12222116 -0.69549892 -0.00000007
-0.52718417 -0.29714381 -0.00000024
0.73468609 -0.61836796 -0.00000045
0.71220113 -0.72142020 -0.00000020
0.24227673 -0.09317943 -0.00000044
-0.21638126 0.64435502 0.08076858
0.69056174 -0.45831332 -0.00000076
-0.11252387 -0.11142825 -0.00000043
0.07360585 0.49185509 -0.00000081
0.49604254 -0.56891550 -0.00000014
-0.13982328 -0.53196893 -0.00000017
0.31874326 -0.73832315 -0.00000004
-0.57999383 0.38251191 0.21610802
0.08390874 0.63703198 -0.00000095
-0.45605217 0.39099205 0.06256133
0.09093013 -0.66643658 -0.00000008
0.01066300 0.57737012 0.00000246
-0.77654804 -0.05363022 -0.00000002
-0.56320014 -0.66273372 -0.00000009
-0.35896238 0.61312343 0.22884751
0.52332634 0.16597235 -0.00000144
0.42283733 -0.76303468 -0.00000002
0.01382114 0.43313243 -0.00000077
-0.37789357 0.06866509 -0.00000046
0.29004789 0.17998959 -0.00000072
-0.19776382 0.43085763 -0.00000072
0.08352123 0.11366576 0.00000889
0.33554630 0.08798263 0.00000534
-0.29970424 -0.29235960 -0.00000032
0.73942618 -0.36195126 -0.00000110
0.06456874 0.45503168 0.00000363
-0.57758311 0.48347238 0.34716469
0.20884400 -0.61639309 -0.00000011
-0.16747825 -0.55705958 -0.00000015
-0.15566288 0.41951164 -0.00000076
0.24536198 -0.47650805 -0.00000020
-0.09795893 0.46080380 -0.00000079
0.58730993 -0.15116597 -0.00000102
0.58823190 -0.45596917 -0.00000043
-0.51238410 -0.34173209 -0.00000024
0.12412616 0.53681332 -0.00000088
0.22670568 -0.45689870 -0.00000021
-0.13497682 0.21956106 -0.00000064
0.04809844 -0.05489610 -0.00000047
0.09837221 -0.25365165 -0.00000034
-0.55233262 -0.46133816 -0.00000018
-0.36661645 0.40332806 -0.00000054
-0.06673795 0.49941160 -0.00000081
0.07226299 0.04673141 -0.00000053
-0.63759354 0.32780560 0.21995605
-0.08742394 -0.54443048 -0.00000016
0.39764530 0.12940707 -0.00000096
0.53478209 0.16453536 -0.00000147
-0.78683117 0.03416233 0.02791939
-0.38796772 -0.77181062 -0.00000002
-0.45223034 0.32376130 -0.00000043
0.33902727 -0.64805488 -0.00000009
-0.21072680 0.67418937 0.11292424
-0.02597670 -0.28593899 -0.00000032
-0.04465726 0.70909498 -0.00000094
-0.38875171 0.58379379 0.22945888
0.21009412 0.51785112 -0.00000112
-0.08452026 0.60504513 -0.00000087
-0.33996241 0.03705628 -0.00000050
0.43504247 -0.66657420 -0.00000008
0.21511425 0.57211631 -0.00000104
-0.45223695 -0.78482659 -0.00000001
0.77212736 -0.28332253 -0.00000129
0.23602849 0.02587809 -0.00000052
0.67816868 0.08111278 -0.00000112
0.06978802 0.31473464 -0.00000070
-0.20059260 0.69251651 0.12381965
-0.13124764 0.39840493 -0.00000075
0.03759507 0.01990472 0.00001111
-0.74133577 0.12682917 0.09064997
-0.72546273 -0.51132305 0.00000000
-0.56460663 -0.05942169 -0.00000024
-0.39680437 0.46021124 0.07582149
-0.74369958 -0.07813217 -0.00000005
-0.00021622 -0.49616016 -0.00000019
0.18790178 0.05372851 -0.00000053
-0.56940367 0.50967160 0.37112838
0.73852263 0.05236266 -0.00000191
0.76494319 -0.37282663 -0.00000107
-0.59361802 -0.22747502 -0.00000018
-0.07416604 -0.31536459 -0.00000030
0.75984480 -0.70856365 -0.00000023
-0.01490247 -0.60826356 -0.00000012
0.75549387 -0.14288054 -0.00000158
0.01572382 0.65552861 0.00000111
-0.27318694 -0.09114988 -0.00000044
0.47517370 0.24616122 -0.00000144
0.27288803 0.43105173 0.00000038
-0.56177190 0.36655146 0.17065061
-0.12954821 -0.09183470 -0.00000044
-0.49053116 -0.02782358 -0.00000033
0.01939607 0.72506201 -0.00000095
-0.14467890 0.32678288 -0.00000070
0.35175396 0.06023779 -0.00000068
0.14453549 0.14065614 -0.00000059
-0.41023851 0.19448600 -0.00000045
-0.43265449 -0.39094153 -0.00000026
0.47562162 -0.13313937 -0.00000070
0.70761458 -0.40447202 -0.00000092
-0.74523097 0.11195510 0.07604977
0.01462866 0.73320378 -0.00000014
0.00050368 -0.57453151 -0.00000014
-0.05919743 -0.08255466 -0.00000045
0.30050165 -0.75187112 -0.00000003
-0.35198017 0.34204349 -0.00000054
-0.31490952 0.18009823 -0.00000055
0.23394396 -0.14759856 -0.00000041
-0.14620179 0.48472353 -0.00000079
0.25366772 0.38617777 0.00000156
-0.28821064 -0.25959352 -0.00000034
-0.04413381 0.16107817 -0.00000060
0.77372823 -0.57870995 -0.00000055
-0.42749599 0.41581462 0.05759607
0.60167292 -0.47611950 -0.00000044
-0.28886341 0.67975326 0.22423393
0.11191814 0.26734976 0.00000597
0.36928999 -0.18000659 -0.00000039
0.43942358 0.32846985 -0.00000097
-0.21442615 -0.10289422 -0.00000044
-0.24154921 -0.02787901 -0.00000048
0.25339033 -0.73927664 -0.00000004
0.67380557 -0.76198055 -0.00000010
-0.24074974 -0.16434151 -0.00000040
-0.20783898 -0.42101598 -0.00000024
-0.20221163 0.67063900 0.09687880
-0.42672577 -0.54874204 -0.00000016
-0.71323267 -0.76020296 0.00000000
-0.01632399 -0.01702302 -0.00000049
0.48360318 -0.68429342 -0.00000007
0.18723482 -0.22134833 -0.00000036
-0.38823577 0.61178970 0.26600327
0.03064886 -0.34041761 -0.00000029
-0.55744106 0.31676626 0.09868455
0.07965300 -0.76586078 -0.00000002
0.46690878 0.26471192 -0.00000036
0.76448556 -0.11469571 -0.00000166
-0.46120569 0.58847145 0.33203294
0.07717044 -0.36352637 -0.00000027
-0.40726233 -0.39587475 -0.00000025
-0.73868403 -0.15227921 -0.00000004
-0.52721867 -0.09450924 -0.00000027
0.25432101 0.43598498 -0.00000110
-0.08758106 -0.41055864 -0.00000024
0.03180419 0.41604720 0.00000476
0.37304580 0.38781154 -0.00000139
0.05834426 0.10143491 0.00000947
0.47695312 -0.07682738 -0.00000082
0.45698839 -0.58093359 -0.00000014
-0.60176339 -0.57200817 -0.00000011
0.36543155 -0.06362022 -0.00000048
-0.00574930 -0.15195892 -0.00000041
0.07700434 0.27804789 -0.00000067
-0.24303893 -0.40913292 -0.00000024
-0.43931418 0.22556628 -0.00000043
-0.47916755 -0.78449551 -0.00000001
0.15675667 0.08238953 0.00000830
-0.25765741 -0.31566337 -0.00000030
0.09803965 -0.15636132 -0.00000040
-0.74340998 -0.78133790 0.00000000
0.45287965 -0.43751122 -0.00000023
0.63065501 -0.73301042 -0.00000004
-0.26773665 -0.72281400 -0.00000005
-0.65555612 -0.36863769 -0.00000009
-0.06309861 0.69176319 -0.00000091
0.30512996 -0.41241272 -0.00000024
-0.06125375 -0.69617492 -0.00000006
0.41496815 -0.16572361 -0.00000044
-0.62217632 -0.55833718 -0.00000009
-0.30798188 0.57472837 0.10999101
-0.44034172 -0.22112214 -0.00000034
-0.47291265 0.33683286 0.01295984
0.43938504 -0.70249882 -0.00000006
-0.54879501 0.52132468 0.35921871
0.24087997 0.40082325 -0.00000099
0.56233422 -0.62309760 -0.00000011
0.19421407 0.16781423 -0.00000060
0.03221363 -0.32541652 -0.00000030
-0.76450675 -0.19002323 -0.00000000
0.12197778 -0.17279116 -0.00000039
0.34128450 -0.06722231 -0.00000046
-0.49844327 -0.24997729 -0.00000028
-0.77689380 0.04973503 0.03541347
0.47272946 0.29170580 -0.00000152
-0.70224454 0.21133443 0.15104348
-0.69047999 -0.38636377 -0.00000005
0.26363152 0.21368787 -0.00000070
0.61972084 0.06444094 0.00000031
-0.18676206 0.48474362 -0.00000074
0.07589513 -0.57903578 -0.00000014
0.28037154 0.02525757 0.00000736
0.01614095 0.33607287 -0.00000071
-0.03651577 -0.51238471 -0.00000018
-0.55265107 0.40818869 0.21389240
-0.11587270 -0.59820965 -0.00000013
0.35957321 -0.72295967 -0.00000005
-0.15324450 0.69722563 0.06711589
0.05740371 0.35590184 0.00000535
0.53003040 0.17275299 0.00000008
0.23960463 0.11861052 0.00000646
-0.29204211 -0.14654037 -0.00000041
-0.73009291 0.18673282 0.15536130
-0.35054753 -0.20700594 -0.00000037
-0.70309442 -0.72791368 0.00000000
-0.26533073 -0.31606150 -0.00000030
-0.31054322 -0.04189935 -0.00000047
0.23885713 0.20330931 -0.00000063
-0.40040654 -0.27321509 -0.00000033
-0.12739388 -0.44401775 -0.00000022
-0.33890472 0.21717768 -0.00000053
0.20512599 -0.65102685 -0.00000009
-0.32192607 0.47854261 0.00062240
-0.27059246 0.52298077 -0.00000066
0.14284178 0.39219288 0.00000347
0.46811336 -0.55049401 -0.00000016
0.41934210 -0.14748423 -0.00000049
-0.42576671 -0.05464043 -0.00000039
0.02383622 -0.64901173 -0.00000009
0.56724482 -0.07926520 -0.00000110
0.20624069 -0.59687968 -0.00000013
0.51163977 0.05805246 -0.00000119
0.79354459 -0.61595582 -0.00000046
0.02624678 0.73616300 -0.00000036
0.49692659 0.21112652 -0.00000144
0.03143974 0.66850821 -0.00000092
0.24744594 0.12377067 -0.00000058
-0.68332252 -0.53001029 -0.00000003
0.12717277 0.64315170 -0.00000063
0.34270897 -0.03145874 -0.00000048
0.27967173 -0.39972082 -0.00000025
0.32215731 0.40004377 -0.00000001
0.00896497 0.75089920 -0.00000034
0.07501523 0.65228140 0.00000021
0.67392801 -0.08552479 -0.00000143
-0.55194913 -0.38644483 -0.00000019
-0.31666478 -0.12464825 -0.00000042
0.03521670 -0.67521720 -0.00000008
0.59415293 0.13358889 -0.00000160
0.63242931 -0.33856933 -0.00000080
0.05117083 -0.02048568 -0.00000049
0.10953099 0.32112921 -0.00000070
0.08657542 0.48569499 -0.00000080
0.00878846 0.02224201 0.00001151
-0.74851606 0.13217296 0.10730511
0.40353413 -0.06969616 -0.00000060
-0.00789147 -0.25433321 -0.00000034
-0.40955972 0.26648428 -0.00000047
-0.31863929 -0.16410773 -0.00000040
-0.51075663 0.32869206 0.05246071
-0.43948680 -0.73006734 -0.00000004
-0.55384852 -0.52723136 -0.00000017
0.03154834 0.27394042 0.00000707
0.35001328 0.26701394 -0.00000108
-0.75593618 -0.73336320 0.00000000
0.52229846 -0.05237038 -0.00000101
0.10962631 -0.03412552 -0.00000048
0.30141336 0.14607363 -0.00000069
-0.10747782 -0.73194557 -0.00000004
0.02699736 0.71251410 0.00000001
-0.59444070 0.31700778 0.14820976
0.43778804 0.26780669 -0.00000136
0.39582830 -0.06031844 -0.00000059
0.31721264 0.34572357 -0.00000113
0.52277820 -0.48294761 -0.00000020
0.55765679 -0.61810677 -0.00000011
0.48324879 0.09074932 0.00000245
-0.31676697 0.48966683 0.00855506
0.00754885 -0.43786274 -0.00000023
0.79251056 -0.00815904 -0.00000196
0.59097327 0.05294605 -0.00000143
-0.10601339 0.69414260 0.00020558
0.25258180 0.52338487 -0.00000127
0.29555358 -0.12656181 -0.00000042
-0.77540101 -0.28336250 0.00000000
0.38818301 -0.03056969 -0.00000062
-0.26251518 -0.23808496 -0.00000035
0.17603249 0.03197261 0.00000882
-0.34239741 0.61498719 0.20929700
-0.65720091 0.29802611 0.20642879
-0.06280040 -0.10215222 -0.00000044
0.50915416 0.19591188 -0.00000145
-0.12774351 -0.00451127 -0.00000050
0.76991794 -0.77334949 -0.00000007
0.02352795 0.09689642 0.00001007
-0.36310636 -0.74439390 -0.00000003
-0.01053898 0.70228561 -0.00000094
0.50479187 -0.76030958 -0.00000002
-0.17467332 0.48736626 -0.00000076
0.08500018 0.10038355 -0.00000056
-0.36441444 0.28444139 -0.00000052
-0.58772275 0.36798403 0.20706648
0.27054108 -0.57953788 -0.00000014
-0.17840259 0.56816575 -0.00000077
-0.02058129 -0.71095255 -0.00000006
0.69165406 0.00938019 -0.00000167
-0.67126434 0.31924647 0.25335088
0.43173225 0.22064154 -0.00000125
0.55057016 0.11749751 0.00000068
-0.57030963 -0.62441505 -0.00000011
-0.17180761 -0.69568011 -0.00000007
0.38143062 -0.76084819 -0.00000002
0.48762505 -0.09420914 -0.00000082
-0.14188169 -0.63274489 -0.00000010
0.20455721 0.51767821 0.00000014
0.76510543 -0.59644702 -0.00000051
-0.15849617 0.70964399 0.09061449
-0.41282000 0.23697481 -0.00000046
0.58839834 -0.74202465 -0.00000004
-0.58672257 -0.08074164 -0.00000021
0.20858890 -0.59340025 -0.00000013
0.58634344 -0.66325009 -0.00000009
-0.70139313 0.17599777 0.10291889
0.59547938 0.12836423 -0.00000038
0.23865568 0.02054256 0.00000807
-0.31112180 0.41596180 -0.00000060
-0.55813571 0.54534413 0.40358292
-0.58471048 -0.48515464 -0.00000014
-0.20907417 0.29276245 -0.00000068
0.41415204 0.34993031 -0.00000087
0.06144543 0.30206037 -0.00000069
-0.15491832 0.69671208 0.06865889
-0.27810968 0.44168669 -0.00000064
0.76387238 -0.57298373 -0.00000057
0.16978658 0.02365907 -0.00000051
-0.34986333 0.56696771 0.15536664
-0.00566255 0.66345002 -0.00000091
-0.44413491 -0.45047554 -0.00000022
-0.59899957 0.27728176 0.10144286
-0.63137440 0.22926937 0.08064745
-0.54021985 -0.23972589 -0.00000023
0.33551747 -0.45631307 -0.00000021
-0.34486234 -0.59738711 -0.00000013
0.61169758 -0.25730516 -0.00000090
-0.04927616 0.28442553 -0.00000068
0.02952964 0.56650789 0.00000235
-0.11150000 0.54520515 -0.00000083
0.28134654 0.46022480 -0.00000124
-0.55644166 0.26516707 0.02873650
-0.35230580 -0.37001618 -0.00000027
-0.02540507 0.78008656 0.00730080
-0.18856517 -0.12179967 -0.00000042
-0.49252755 -0.75836491 -0.00000003
-0.26339807 0.61939622 0.11010256
-0.25915956 -0.27478924 -0.00000033
0.16473195 0.55405898 -0.00000105
-0.05322994 -0.20246203 -0.00000037
0.33244630 0.12606645 0.00000472
-0.19907849 0.67136467 0.09367721
-0.45815594 0.52106821 0.23834064
-0.36524092 0.57283768 0.18362285
-0.39563997 0.46765042 0.08416597
-0.61993747 -0.69818942 -0.00000006
-0.46227081 -0.59889760 -0.00000013
-0.10454761 0.49119603 -0.00000081
0.48920569 -0.28982136 -0.00000044
0.25116155 -0.34437563 -0.00000028
0.20720205 0.58428410 -0.00000111
-0.21477454 -0.07404645 -0.00000045
0.66804918 -0.30635790 -0.00000098
-0.22763511 0.66104108 0.11792454
0.75931547 -0.36349936 -0.00000109
0.69165084 0.10514714 -0.00000181
0.10598583 -0.76331455 -0.00000002
-0.02916561 0.60407158 -0.00000088
-0.19608611 -0.53562157 -0.00000017
0.41973095 0.12866750 0.00000299
0.31926229 0.28151474 0.00000218
0.09688293 0.45136225 -0.00000078
-0.23110938 0.39330047 -0.00000068
-0.52049470 -0.61304802 -0.00000012
0.64973747 -0.30196547 -0.00000093
0.33072196 0.23210895 -0.00000095
0.77435129 -0.43360809 -0.00000092
-0.11989568 0.02711384 -0.00000052
-0.23024863 0.51414552 -0.00000070
0.47027930 -0.50857514 -0.00000018
0.62979962 -0.09949229 -0.00000126
-0.23580910 0.22776681 -0.00000064
-0.30227112 0.64988832 0.20234822
0.45735935 0.22946414 -0.00000135
-0.56047969 0.52404469 0.37837490
-0.59040653 0.18365982 -0.00000026
-0.12044749 -0.17651708 -0.00000039
0.50215619 0.22551564 -0.00000033
0.54701391 -0.61722503 -0.00000011
0.01862700 0.66275021 -0.00000091
-0.16461537 0.73904702 0.13785392
0.53048454 0.13493339 -0.00000140
0.31901120 -0.18592509 -0.00000038
0.33386566 -0.35336387 -0.00000028
-0.20382356 0.46773110 -0.00000072
0.10267701 0.43955597 0.00000331
-0.61921069 0.34570893 0.21931828
-0.02020114 0.61428035 -0.00000088
0.49885860 -0.59037392 -0.00000013
0.49731203 0.18851551 -0.00000140
-0.45019583 -0.72759322 -0.00000005
0.62693487 -0.71876002 -0.00000005
0.29649376 0.23296452 0.00000349
-0.71193774 0.03757710 -0.00000010
0.20282043 -0.73364782 -0.00000004
0.03953561 -0.63069613 -0.00000011
-0.29758654 0.19766915 -0.00000057
0.36312959 -0.00843113 -0.00000059
0.24325572 0.44760479 -0.00000109
-0.33452409 0.34886155 -0.00000056
0.19288032 0.22376053 0.00000545
-0.51635450 0.33962511 0.07444431
-0.01982991 -0.14891054 -0.00000041
0.63642211 -0.37305350 -0.00000075
-0.18491172 0.08087141 -0.00000055
-0.35688413 -0.10826405 -0.00000043
-0.48372627 -0.51222849 -0.00000018
0.58412590 -0.77992278 -0.00000001
0.57885072 -0.37995880 -0.00000055
-0.32096966 -0.12643172 -0.00000042
0.00264410 0.79732181 -0.00000100
0.22946818 0.41438862 -0.00000098
-0.25607314 -0.48062915 -0.00000020
0.36129999 0.20073298 -0.00000099
0.32531339 -0.59494595 -0.00000013
-0.11743813 -0.66588132 -0.00000008
0.36516629 -0.56444080 -0.00000015
-0.47420157 -0.22129695 -0.00000031
0.40772586 0.19763146 -0.00000113
-0.70534606 -0.05854149 -0.00000009
-0.53252412 0.00499976 -0.00000029
0.31779997 -0.26272149 -0.00000034
0.20154948 -0.66082055 -0.00000009
-0.22732427 -0.54057144 -0.00000016
-0.09993428 -0.44352282 -0.00000022
0.01668147 -0.14354602 -0.00000041
-0.42574461 0.51975073 0.19348614
-0.38282159 0.39595881 -0.00000052
-0.50208274 -0.42820816 -0.00000023
0.35825570 -0.60105403 -0.00000012
0.29564536 -0.75608885 -0.00000003
-0.66236759 -0.32994525 -0.00000009
0.56508204 0.02599020 0.00000204
-0.42762458 -0.10691137 -0.00000038
-0.22266590 0.65233585 0.09973952
-0.68778154 0.17567706 0.08439100
-0.74629919 -0.38025111 0.00000000
-0.69205831 -0.27084120 -0.00000007
-0.12303319 0.11852248 -0.00000057
0.05605752 0.43685579 -0.00000077
-0.33338692 -0.63994310 -0.00000010
0.28724576 -0.21635647 -0.00000036
-0.00522231 -0.79341724 -0.00000000
0.44405532 0.27306423 -0.00000139
0.24802263 0.18636298 -0.00000062
-0.54720027 0.48746736 0.31207261
0.32081943 -0.20295131 -0.00000037
-0.56230995 0.53764849 0.39889996
-0.70600355 0.09535897 0.00181284
-0.63640235 0.41915280 0.33985015
-0.59014925 -0.24124350 -0.00000018
0.03798468 -0.61502218 -0.00000012
0.11921945 -0.37114443 -0.00000027
0.74632413 -0.55176672 -0.00000062
-0.58401242 0.23453833 0.02466998
-0.53186613 0.50057041 0.30910555
-0.18250749 -0.11743168 -0.00000043
0.46548411 0.07501082 -0.00000108
0.64203104 -0.01482974 -0.00000147
-0.74629362 -0.33377614 0.00000000
-0.27179081 -0.72606609 -0.00000005
-0.10748278 0.22741250 -0.00000064
-0.41786259 0.46146683 0.10549554
0.63636850 -0.20771486 -0.00000107
0.68235560 0.07900687 -0.00000116
-0.16792827 0.38494803 -0.00000074
0.25311933 0.24610454 0.00000408
0.58654633 -0.04649515 -0.00000123
0.11581200 -0.78598133 -0.00000001
0.42008374 -0.33970469 -0.00000029
0.46366417 -0.74085528 -0.00000004
-0.61996627 -0.48767190 -0.00000010
-0.62311215 0.43129774 0.33832709
0.09500065 0.38719600 0.00000427
0.21921201 -0.39590521 -0.00000025
0.61829103 -0.06502887 -0.00000129
0.09648644 -0.78155494 -0.00000001
0.21630510 0.26740885 -0.00000067
-0.01713975 -0.71583002 -0.00000005
-0.07526346 -0.10002855 -0.00000044
-0.13662285 0.29541708 -0.00000068
0.16074328 -0.45640860 -0.00000021
-0.10939385 -0.56028751 -0.00000015
0.01308121 0.09352828 -0.00000056
0.14603707 -0.57333448 -0.00000014
0.10721571 0.08441852 0.00000901
-0.31593004 0.31556572 -0.00000057
0.20755551 -0.55642481 -0.00000015
-0.53900248 0.47625579 0.28626094
0.42394034 0.08420433 -0.00000096
-0.43566593 -0.55538869 -0.00000015
0.45340142 0.31552001 -0.00000151
0.46910800 0.30696645 -0.00000116
-0.15774004 0.08287030 -0.00000055
0.24376957 0.26619949 -0.00000074
0.63655345 -0.00484385 -0.00000147
0.78761133 -0.51018309 -0.00000072
-0.65655554 0.15338425 0.01321905
-0.38299452 0.48970271 0.09667557
-0.64590817 0.22567402 0.09519395
-0.44881706 -0.75523727 -0.00000003
-0.24602047 0.43282381 -0.00000067
0.39764201 0.19115836 0.00000229
-0.53793182 -0.55751478 -0.00000015
0.30987996 0.17733750 -0.00000078
0.35416455 -0.13645356 -0.00000041
-0.22250750 -0.70563333 -0.00000006
-0.15567525 -0.31515807 -0.00000030
-0.35008478 0.14132030 -0.00000051
0.59506577 0.02955631 -0.00000140
0.06744364 -0.36879429 -0.00000027
0.30980619 -0.42300525 -0.00000024
0.35379036 -0.61422981 -0.00000012
0.78843147 -0.69449890 -0.00000026
-0.56968750 -0.79019010 -0.00000001
-0.30484762 0.55800728 0.08358643
-0.19498453 -0.08611412 -0.00000045
0.19735748 -0.53027664 -0.00000017
0.70119516 -0.60463765 -0.00000049
0.46255984 -0.32199591 -0.00000030
-0.60025317 -0.48141606 -0.00000012
0.40386060 -0.28476132 -0.00000032
-0.42361070 -0.41347561 -0.00000024
0.16013483 0.14596361 0.00000721
-0.44926200 0.52702366 0.23443285
-0.25486176 0.20514356 -0.00000062
-0.15118118 0.72728587 0.10434774
0.16901680 0.22504655 -0.00000064
0.78048111 -0.63571267 -0.00000041
-0.40511482 -0.71053424 -0.00000006
-0.14642675 -0.74618032 -0.00000003
0.31040618 0.25473424 -0.00000093
0.61141089 -0.20004835 -0.00000101
0.50709538 0.21195536 -0.00000148
-0.23245974 0.44983117 -0.00000069
0.29193377 -0.17579256 -0.00000039
-0.02214345 -0.48610108 -0.00000020
-0.40812214 -0.14947108 -0.00000039
0.53193647 0.23633759 -0.00000160
0.05400152 0.46897652 -0.00000079
0.05427999 -0.11040338 -0.00000043
-0.01222289 -0.56453642 -0.00000015
0.18236597 -0.17930832 -0.00000039
-0.05124807 0.75499096 0.00829485
-0.45708850 0.00864292 -0.00000037
0.21237942 -0.31037128 -0.00000031
-0.26542426 -0.14865069 -0.00000041
0.00251103 0.31128667 -0.00000069
-0.54014186 -0.77107412 -0.00000002
-0.51682915 -0.57805595 -0.00000014
-0.21381019 0.65548528 0.09215097
0.25717331 0.37303937 -0.00000099
-0.57030496 0.50078218 0.36050533
-0.31076581 -0.27598547 -0.00000033
-0.67580939 0.31095391 0.24836729
-0.54677839 -0.62046108 -0.00000011
-0.59032913 -0.62650125 -0.00000011
0.78349449 -0.26550013 -0.00000134
-0.06323716 -0.04149957 -0.00000047
0.31504998 0.06255324 -0.00000057
0.63185296 -0.00834094 -0.00000145
-0.13536928 -0.55002244 -0.00000016
0.12891429 -0.10550875 -0.00000043
0.09948609 0.10289308 0.00000883
-0.27264610 0.07756122 -0.00000055
0.17441364 0.27118749 -0.00000067
0.40263359 -0.68541092 -0.00000007
0.41148924 0.22656383 -0.00000120
-0.72414777 -0.72670089 0.00000000
0.79853787 -0.00471527 -0.00000199
0.18848493 0.13612666 -0.00000059
-0.63020814 0.25063725 0.10751251
-0.18708845 0.72180140 0.14480572
0.36497331 0.05755660 0.00000532
-0.30971417 -0.59809697 -0.00000013
0.65574820 0.04782178 -0.00000163
0.09683322 -0.36093071 -0.00000027
-0.35951776 0.11198952 -0.00000049
0.21870960 -0.24723606 -0.00000035
-0.65849231 -0.42259141 -0.00000007
-0.43497229 0.35317608 -0.00000045
0.02439682 0.49777200 0.00000354
-0.26489776 -0.49751499 -0.00000019
-0.30455303 -0.25400669 -0.00000034
-0.23185894 0.66103322 0.12353120
-0.14580475 0.14437318 -0.00000059
0.57328334 0.13258737 -0.00000003
0.05399537 0.71769288 -0.00000056
0.27065212 0.24236791 -0.00000078
0.02564671 -0.18598023 -0.00000038
0.55565654 -0.62801110 -0.00000011
0.11192315 -0.15534085 -0.00000040
0.19626142 0.00616202 -0.00000050
-0.30916583 -0.29266641 -0.00000032
-0.25699768 0.69167902 0.19771660
0.55191494 0.15719104 -0.00000006
-0.65175035 0.21347909 0.08674579
-0.07055701 -0.32011864 -0.00000030
0.77885157 -0.58119200 -0.00000055
0.10989822 -0.36025546 -0.00000027
-0.24675673 0.57547960 0.02956969
0.49648974 0.27946460 -0.00000119
0.20517439 0.08650182 -0.00000055
-0.34378262 -0.25925342 -0.00000034
0.11073308 -0.69319537 -0.00000007
-0.63132446 0.21053854 0.05567191
0.67649152 -0.60538877 -0.00000042
0.31016178 -0.18133287 -0.00000039
0.18980414 -0.26473208 -0.00000033
-0.51685013 0.50933026 0.30078575
-0.34040537 0.55100156 0.12155642
-0.30713187 0.68178017 0.25122387
0.39811893 -0.25300562 -0.00000034
0.35863929 0.27144262 0.00000160
-0.74270722 -0.14177537 -0.00000004
-0.15875640 0.69732082 0.07457252
-0.06586478 0.35533709 -0.00000072
-0.62501534 -0.22791195 -0.00000014
-0.18851941 0.53800601 -0.00000075
0.15945497 0.62905850 -0.00000118
-0.50204181 -0.29311210 -0.00000026
-0.02883839 -0.59186405 -0.00000013
-0.64012884 -0.16042545 -0.00000014
0.28451270 0.50776304 -0.00000122
-0.05417436 0.06769959 -0.00000054
-0.03420353 0.08115663 -0.00000055
-0.20111283 -0.08332087 -0.00000045
-0.22240677 -0.16162345 -0.00000040
-0.75164975 -0.04268526 -0.00000004
0.33663980 -0.50292063 -0.00000019
0.79059852 -0.38642833 -0.00000103
-0.49897338 0.54556680 0.32520158
0.28618886 0.36630926 0.00000129
0.28406634 -0.42877974 -0.00000023
-0.26555106 -0.15284614 -0.00000040
-0.66114882 -0.03666931 -0.00000014
-0.09565203 -0.09428893 -0.00000044
-0.09849730 -0.65939875 -0.00000009
-0.01771249 -0.68227660 -0.00000007
-0.17824525 -0.64785868 -0.00000010
0.66545938 -0.13810714 -0.00000130
-0.10220400 0.01223671 -0.00000051
-0.49755983 0.33172851 0.03894893
0.11341853 -0.21923462 -0.00000036
0.52623553 0.19757970 -0.00000151
-0.61047932 -0.07354982 -0.00000019
-0.55800132 -0.76440502 -0.00000002
0.01610650 -0.28792990 -0.00000032
0.17093605 0.19559097 0.00000624
-0.52455905 -0.74604917 -0.00000003
0.35195545 0.36836416 -0.00000128
0.10585237 -0.57066313 -0.00000014
-0.11426018 0.64482575 -0.00000085
0.73157695 -0.01837720 -0.00000175
-0.34394921 0.42174702 -0.00000056
-0.60686768 -0.42316541 -0.00000013
0.39383572 0.24522014 0.00000140
-0.51469984 -0.00046612 -0.00000030
0.47516829 0.05156253 0.00000331
0.18740691 0.11442376 -0.00000057
0.01822242 -0.74051314 -0.00000004
-0.09418388 -0.11190536 -0.00000043
-0.25370750 0.51484117 -0.00000068
-0.25967761 -0.73968011 -0.00000004
0.28079940 -0.56102290 -0.00000015
0.39214723 -0.37327108 -0.00000027
-0.38146615 -0.63868057 -0.00000010
0.59123877 -0.47245916 -0.00000041
-0.65150590 0.32947131 0.24067256
0.70114070 -0.34190694 -0.00000102
-0.23286382 -0.11129199 -0.00000043
0.00908789 0.72812659 0.00000003
-0.58903176 -0.38447136 -0.00000015
0.54860092 -0.26536003 -0.00000068
-0.69366569 0.25528396 0.19808102
0.58154633 -0.68947302 -0.00000007
0.17764084 0.31317029 0.00000423
0.45691759 -0.43475085 -0.00000023
0.23772747 -0.36376367 -0.00000027
0.17310959 0.62607082 -0.00000121
-0.53047898 -0.29116065 -0.00000023
-0.66863155 0.10682045 -0.00000016
-0.18988186 0.32652910 -0.00000070
0.29598303 0.19368600 0.00000420
0.44525828 0.14028611 0.00000229
0.15075816 0.00572837 0.00000963
0.76225340 -0.27502073 -0.00000131
0.02386710 -0.78333243 -0.00000001
-0.08598934 -0.77194681 -0.00000002
0.42324339 0.32326382 -0.00000142
0.72488037 -0.62911713 -0.00000043
0.49421658 -0.01334085 -0.00000100
0.39091911 -0.68813618 -0.00000007
-0.58166211 0.32234175 0.13830950
-0.01017713 0.79092809 0.00146748
-0.61216652 0.42109268 0.31019971
0.06595431 -0.36538677 -0.00000027
-0.39098383 -0.24464495 -0.00000035
-0.66827398 -0.33643547 -0.00000008
-0.63325798 -0.36307838 -0.00000011
-0.56503246 0.42652765 0.25474587
0.02766133 0.15498397 0.00000906
0.58730786 0.18412778 -0.00000168
-0.52866770 0.51654338 0.32609384
0.15694027 -0.37054216 -0.00000027
-0.12836799 0.30938970 -0.00000069
-0.40517232 0.50564181 0.14736531
-0.60517169 0.38082867 0.24735238
-0.45093539 0.63492481 0.38015116
0.11036011 0.51330216 -0.00000082
0.15190964 0.12537321 0.00000767
-0.10333042 0.46937348 -0.00000079
-0.15152232 -0.32516306 -0.00000030
-0.06460101 -0.35688687 -0.00000028
-0.43828765 -0.13507886 -0.00000036
0.68873550 -0.66083253 -0.00000035
0.04046252 0.21862889 0.00000784
0.26694345 -0.50031555 -0.00000019
0.01812096 0.17151510 0.00000894
0.29906643 -0.61198449 -0.00000012
-0.45932923 0.42277638 0.10918762
0.13330181 0.03431191 0.00000943
-0.03088855 0.70187616 -0.00000094
-0.38782262 0.27413028 -0.00000049
-0.24833028 -0.28736006 -0.00000032
-0.68976732 -0.52945417 -0.00000002
0.25224255 0.51078901 -0.00000124
-0.19974067 -0.49977934 -0.00000019
-0.46846562 0.56951611 0.31647975
0.30196537 -0.51737414 -0.00000018
0.76853308 -0.62460584 -0.00000044
-0.00969980 0.70899621 -0.00000094
0.31211884 0.11596214 -0.00000066
0.14908519 -0.45118092 -0.00000022
0.11539617 -0.71866949 -0.00000005
0.08186577 0.42594627 -0.00000077
-0.25824372 0.08153647 -0.00000055
-0.18141879 -0.48620767 -0.00000020
0.64578881 0.14541256 -0.00000179
0.13675675 -0.62878307 -0.00000011
0.62169699 -0.75115327 -0.00000003
-0.03262092 -0.00899540 -0.00000049
0.51021472 0.14400513 -0.00000135
0.20537668 0.45199354 0.00000130
-0.17881564 -0.58976144 -0.00000013
-0.54584270 -0.73179138 -0.00000004
0.72512393 -0.28774534 -0.00000120
0.53382934 0.19717751 -0.00000043
0.18866164 -0.14755601 -0.00000041
0.51285937 -0.04261280 -0.00000100
-0.15137710 -0.60377160 -0.00000012
-0.41777619 0.38466769 0.00324955
-0.53500061 0.47823672 0.28357338
-0.09269180 0.70937843 0.00275116
-0.03408915 0.37990498 -0.00000074
-0.50221275 0.51716575 0.29174019
0.19097395 0.17672430 0.00000625
0.03726723 -0.72917031 -0.00000004
0.59213063 -0.40560605 -0.00000054
0.06515210 0.30903411 -0.00000069
0.56423113 0.20848311 -0.00000165
-0.14334086 -0.79780946 -0.00000000
-0.09374434 0.68377462 -0.00000088
-0.67066570 0.06922578 -0.00000015
-0.20602173 -0.48635153 -0.00000020
0.27808364 -0.20743662 -0.00000037
-0.17554706 0.68756355 0.08392594
-0.33916513 0.58389193 0.16364633
0.25183771 -0.21959811 -0.00000036
-0.37238852 -0.58721705 -0.00000013
0.57164775 -0.20529972 -0.00000087
0.05667799 0.04478640 -0.00000053
0.19470080 -0.55996376 -0.00000015
0.19833113 -0.21290274 -0.00000037
-0.46506292 0.59219339 0.34211215
-0.31403153 0.54267471 0.07540970
0.36584254 -0.66191214 -0.00000009
-0.49525288 -0.60641323 -0.00000012
-0.47109643 0.06076193 -0.00000036
-0.49196446 0.12414102 -0.00000035
-0.19331845 0.42668710 -0.00000073
-0.17160131 0.58326369 -0.00000078
0.51500086 -0.06085584 -0.00000097
0.34482562 -0.58339195 -0.00000014
0.70509866 -0.07905653 -0.00000154
-0.30598460 0.18768888 -0.00000056
0.03775586 0.58141560 0.00000198
-0.19829637 -0.02528823 -0.00000048
-0.13408418 -0.56495097 -0.00000015
0.45478907 -0.26469900 -0.00000038
0.62143519 -0.69372974 -0.00000008
-0.15486732 0.15072949 -0.00000059
-0.40961122 -0.47084693 -0.00000021
0.09390792 0.34656155 0.00000495
-0.22711044 0.17170839 -0.00000061
-0.54579805 0.49046237 0.31419078
-0.33683102 0.66141013 0.26363029
-0.00335890 0.50055405 -0.00000081
0.09428825 0.43737599 0.00000347
0.35106740 0.42143181 -0.00000139
-0.11047808 -0.67232006 -0.00000008
0.11442469 -0.27922807 -0.00000033
-0.58994598 -0.64613105 -0.00000010
-0.29254365 -0.43642056 -0.00000023
-0.26020657 0.17435030 -0.00000061
-0.46846473 0.24126691 -0.00000040
0.12240387 0.56612629 0.00000085
-0.07899265 0.68980922 -0.00000090
-0.76971629 -0.24059773 0.00000000
0.34233695 0.01554789 0.00000651
-0.61456076 -0.41728984 -0.00000012
0.01767450 -0.65681829 -0.00000009
0.18371856 0.57832369 -0.00000055
0.51198840 -0.57145976 -0.00000014
0.00458818 0.43750215 -0.00000077
0.11810136 0.23181522 -0.00000064
-0.59057974 -0.25285199 -0.00000018
0.74348200 -0.16272491 -0.00000150
0.36233055 0.43423279 -0.00000139
0.77125255 -0.19157113 -0.00000152
0.42932767 0.30748993 -0.00000040
-0.25659798 0.07606841 -0.00000055
-0.75645825 -0.59391760 0.00000000
-0.13053196 0.71951524 0.06655342
0.57079574 0.13692220 -0.00000006
-0.10254744 0.50968097 -0.00000082
0.39187039 -0.35352776 -0.00000028
-0.77750564 -0.34959250 0.00000000
0.25071716 -0.07779662 -0.00000045
0.16467759 -0.45045764 -0.00000022
0.34332890 0.37327513 0.00000007
-0.75576483 -0.73635614 0.00000000
-0.29597571 -0.69571981 -0.00000007
0.52926926 0.24408280 -0.00000118
-0.03223060 -0.28759601 -0.00000032
-0.33645131 0.19899321 -0.00000053
0.17601312 -0.62442198 -0.00000011
-0.65305387 -0.47256931 -0.00000007
0.06653144 0.24956053 -0.00000066
-0.33760726 0.56598237 0.13775752
0.01812531 0.24311561 -0.00000065
-0.26570985 -0.53048011 -0.00000017
0.19550520 0.03308403 0.00000851
-0.01719236 -0.69048775 -0.00000007
0.09612751 0.60834010 0.00000060
0.24817576 -0.18390306 -0.00000039
-0.51598456 0.46993785 0.24724846
-0.00248390 -0.62874205 -0.00000011
0.23690598 0.44686035 0.00000079
0.61069985 -0.31695971 -0.00000078
-0.02607638 -0.24758567 -0.00000035
0.29354657 -0.39480245 -0.00000025
-0.27533161 0.10805038 -0.00000057
-0.45202717 0.47390671 0.16747247
-0.35934448 -0.04943293 -0.00000046
0.75427713 -0.42012398 -0.00000095
0.03948352 0.05601870 -0.00000054
0.02724164 -0.66843611 -0.00000008
-0.16898612 -0.29590201 -0.00000032
0.12244126 -0.77445225 -0.00000002
0.60864500 0.15838390 -0.00000170
0.49378494 -0.59938079 -0.00000013
-0.67316657 -0.70826755 -0.00000001
-0.21370669 0.34268104 -0.00000069
-0.59037072 -0.05953746 -0.00000021
-0.13907657 0.69225322 0.04166211
0.10390556 0.41540820 0.00000368
-0.68193371 -0.75523921 0.00000000
-0.11160236 -0.04259980 -0.00000047
0.02619081 -0.09030216 -0.00000044
0.03550068 0.26022841 -0.00000066
0.22045273 0.36037352 0.00000266
0.70724546 -0.00384730 -0.00000170
0.71058631 -0.54427256 -0.00000064
0.78477687 -0.40440177 -0.00000099
0.58835542 0.01397627 -0.00000135
0.29745682 0.41204917 -0.00000120
0.69019900 -0.75956871 -0.00000010
0.45115022 0.26404069 -0.00000004
-0.44552076 -0.74043777 -0.00000004
0.50055246 -0.64465055 -0.00000010
-0.63474345 -0.48150809 -0.00000009
0.21988576 -0.32447688 -0.00000030
-0.62134919 0.21881075 0.05340706
0.43244876 0.14127321 0.00000252
0.19321936 0.35210343 0.00000333
-0.65619645 -0.44271589 -0.00000007
0.04951162 0.42534107 0.00000434
-0.63693969 0.29179696 0.17120057
0.31113112 0.13919713 -0.00000071
-0.41346666 -0.40625123 -0.00000025
-0.65481954 0.07161859 -0.00000017
0.35705188 -0.26259765 -0.00000034
0.21426046 0.09105034 -0.00000056
0.04700874 0.17964181 -0.00000061
-0.05836415 -0.48881963 -0.00000019
0.08575641 -0.55921777 -0.00000015
-0.50289804 -0.51274926 -0.00000018
0.18032934 0.22712895 0.00000559
-0.17095753 -0.69353492 -0.00000007
0.17809130 -0.50045973 -0.00000019
-0.61891066 -0.42076768 -0.00000012
-0.06990827 -0.17560504 -0.00000039
-0.63512245 -0.08515314 -0.00000016
-0.51588363 -0.42842742 -0.00000022
-0.49685713 -0.12093710 -0.00000030
0.48784058 0.22408527 -0.00000144
-0.49808609 0.54498518 0.32324815
-0.06415534 -0.08027962 -0.00000045
0.09053513 0.46255430 -0.00000079
-0.30447763 0.26602109 -0.00000058
-0.40537026 0.29271619 -0.00000047
0.23743933 0.06769373 -0.00000054
-0.22891752 -0.23443618 -0.00000035
0.03507121 0.62069292 -0.00000089
0.57165437 0.01373387 -0.00000130
0.21375596 -0.05538270 -0.00000047
-0.60419120 0.13759452 -0.00000023
0.12895997 0.42449887 0.00000316
-0.36706671 -0.36604157 -0.00000027
0.13367570 0.52007775 -0.00000088
0.54197825 0.21509495 -0.00000091
-0.57391898 -0.26692723 -0.00000019
-0.54498469 -0.61568806 -0.00000012
0.26377272 0.29682098 0.00000297
-0.17804205 -0.50377781 -0.00000019
-0.64272050 -0.61535887 -0.00000006
0.31350150 -0.05464927 -0.00000047
0.66530469 -0.75776642 -0.00000009
-0.49935652 0.20062300 -0.00000036
0.09599149 0.56582659 0.00000136
-0.13355697 0.45844551 -0.00000079
0.33022346 -0.70696456 -0.00000006
0.14577314 -0.18707438 -0.00000038
-0.75784529 0.06775235 0.03404206
0.02612004 -0.04205879 -0.00000047
0.09998256 -0.30016084 -0.00000031
0.49920630 0.13741284 -0.00000131
0.07856772 0.09769986 0.00000923
-0.27458344 -0.73439370 -0.00000004
0.06078490 0.50432360 -0.00000082
0.19926460 0.08164611 -0.00000055
0.67595198 -0.40688911 -0.00000081
0.48268620 0.22412907 0.00000007
-0.42530378 0.38473535 0.01335010
-0.25296630 -0.64641968 -0.00000010
0.56910475 -0.65184709 -0.00000009
0.46145322 0.33234970 -0.00000156
-0.37942509 0.44225037 0.02882443
0.70866542 -0.75497277 -0.00000011
-0.03665595 -0.47546658 -0.00000020
-0.62620870 0.38683084 0.28331050
-0.26596701 0.47713537 -0.00000066
0.52500449 0.19380439 -0.00000150
-0.66759374 0.25176962 0.15873568
-0.15793893 0.22270627 -0.00000064
-0.53584430 -0.12180230 -0.00000026
-0.09570408 0.10514898 -0.00000057
0.07810844 0.17891180 0.00000791
0.04526314 0.25977439 0.00000710
0.04401458 -0.53554172 -0.00000017
0.45787541 0.10108519 -0.00000110
0.13570913 -0.66947718 -0.00000008
-0.75858392 -0.69093620 0.00000000
0.57303451 -0.34422954 -0.00000060
0.74656357 -0.25693137 -0.00000133
-0.01613014 0.15772507 -0.00000060
0.26814786 0.04631775 -0.00000053
0.59174814 -0.50305472 -0.00000035
-0.30085556 -0.21604963 -0.00000036
0.19613271 0.25234547 -0.00000066
0.52724060 0.06345206 -0.00000125
-0.23159747 0.42929917 -0.00000069
-0.72372012 -0.18289595 -0.00000005
-0.39777551 -0.61415593 -0.00000012
0.39900894 -0.59636666 -0.00000013
-0.79948485 -0.41039040 0.00000000
-0.17481773 -0.38749173 -0.00000026
-0.21927076 0.27992024 -0.00000067
0.57916942 -0.30662611 -0.00000069
0.72454762 -0.57248619 -0.00000057
-0.68567015 -0.51348730 -0.00000003
0.13467054 0.25627622 -0.00000066
0.12672741 0.13713369 0.00000786
0.20276420 0.57126420 -0.00000079
-0.10770469 -0.02696532 -0.00000048
0.03433384 0.75027501 -0.00000077
0.09592735 0.39238167 0.00000418
-0.71515796 -0.39770214 -0.00000002
-0.64465719 -0.20407401 -0.00000013
0.65646556 -0.25274667 -0.00000105
0.31634777 0.19880040 -0.00000084
0.03598812 0.50277709 0.00000329
-0.49807972 -0.34603880 -0.00000026
0.54239003 -0.07216145 -0.00000103
-0.35642729 -0.47494939 -0.00000020
-0.13331423 0.29564482 -0.00000068
-0.33821703 0.20296907 -0.00000053
0.44829338 -0.70999528 -0.00000006
0.05878728 0.56564126 -0.00000085
-0.57021478 -0.32592978 -0.00000019
-0.55923315 0.45284528 0.28203226
0.06417478 -0.30418111 -0.00000031
-0.04514938 -0.12472639 -0.00000042
-0.41927605 0.30009701 -0.00000046
-0.48032283 0.53140229 0.28156227
-0.57872586 -0.33535819 -0.00000017
0.09882047 -0.73018083 -0.00000004
0.06632190 0.13670531 0.00000878
0.43524153 0.23867972 -0.00000130
-0.45664220 -0.79714501 -0.00000000
-0.07987750 0.40004782 -0.00000075
0.61682250 -0.76772635 -0.00000002
0.27247579 0.14865637 -0.00000060
-0.36557249 0.30314109 -0.00000052
-0.46348044 -0.74102333 -0.00000004
0.66454967 -0.14206858 -0.00000129
-0.19367317 -0.38296544 -0.00000026
-0.62575036 -0.69882888 -0.00000006
0.74873814 -0.05950921 -0.00000172
0.21687367 -0.38423504 -0.00000026
0.06906719 -0.19432081 -0.00000038
0.69344168 -0.11894929 -0.00000143
0.71772225 -0.25639853 -0.00000124
-0.16337225 0.03744987 -0.00000052
0.59544768 -0.63413869 -0.00000011
0.77278622 0.01736678 -0.00000179
0.70667414 0.02353263 -0.00000175
0.35643963 -0.61893227 -0.00000011
0.59539404 -0.36928915 -0.00000062
-0.56358098 0.58029070 0.45729823
-0.07285111 0.33152895 -0.00000071
0.68733559 -0.71824231 -0.00000020
-0.21544710 -0.00670779 -0.00000050
-0.10832520 0.02998412 -0.00000052
-0.19469568 -0.25481614 -0.00000034
-0.74774548 0.14015184 0.11689102
-0.13952258 0.72864566 0.09065179
0.72746997 -0.27427174 -0.00000123
-0.35955150 -0.31026246 -0.00000031
0.05494126 0.68713454 -0.00000003
0.24290788 -0.74764557 -0.00000003
-0.61716451 -0.52824937 -0.00000010
-0.37140414 -0.05530606 -0.00000045
0.07941939 -0.54651485 -0.00000016
0.06504835 -0.69546680 -0.00000007
-0.01113409 -0.74711856 -0.00000003
0.27887951 0.25172587 -0.00000082
0.46045862 -0.45256095 -0.00000022
-0.15574843 0.30131701 -0.00000069
0.19367237 0.35390508 0.00000329
-0.44989354 -0.43872810 -0.00000023
-0.03947878 0.18788074 -0.00000062
0.18368452 -0.13806532 -0.00000041
0.57715544 0.18329695 -0.00000101
0.28306898 -0.63088720 -0.00000011
0.22610115 0.42947076 0.00000131
-0.03391329 -0.25810227 -0.00000034
0.10170694 0.40599786 -0.00000075
0.12603898 -0.24292666 -0.00000035
0.04368299 0.72721581 -0.00000053
0.72940710 -0.16348905 -0.00000146
0.29114616 0.30268430 0.00000234
-0.58562525 0.40392619 0.25207468
0.35548024 -0.74674125 -0.00000003
-0.16095562 -0.45936645 -0.00000021
-0.35227681 -0.24889491 -0.00000034
-0.04471041 -0.49209241 -0.00000019
0.10069443 0.41673970 0.00000371
0.19243479 0.45167640 0.00000156
0.54417900 -0.74381998 -0.00000004
-0.56228534 0.54650271 0.41064206
0.06839999 -0.48153924 -0.00000020
0.68467801 -0.42756059 -0.00000080
-0.53185086 0.46945941 0.26771212
-0.72590538 0.16691512 0.12343801
-0.61667295 0.27974432 0.12822066
0.53831036 -0.15896966 -0.00000085
-0.08340519 -0.22451847 -0.00000036
0.35041599 -0.20300651 -0.00000037
0.39839821 -0.37700254 -0.00000026
-0.76188478 -0.48563791 0.00000000
0.23106196 0.26324344 -0.00000069
-0.31054001 0.63781550 0.19728956
0.03589783 -0.33099714 -0.00000029
-0.36019455 0.66892218 0.30469038
0.67051798 -0.47432943 -0.00000066
-0.75756096 -0.27212952 0.00000000
-0.74860188 -0.02940961 -0.00000005
0.38357475 -0.49679384 -0.00000019
-0.03904092 0.67092928 -0.00000092
