ply
format ascii 1.0
element vertex 1401
property float x
property float y
property float z
end_header
0.01108987 -0.23865467 0.09732713
-0.23256895 0.44519426 0.00000146
0.03746456 -0.79817913 0.32879735
0.00325886 0.08179436 0.02860049
-0.45397731 0.13642897 0.00000237
-0.00278440 0.26282631 0.00000000
0.07972318 -0.69845524 0.69966652
-0.12212629 0.14606860 0.00000000
-0.25392409 -0.06217021 0.00000000
0.06210693 0.03471255 0.54505617
0.03166229 0.08960578 0.27793269
0.02754356 0.15426038 0.24178203
-0.65091316 -0.39734038 -0.00000066
-0.19666583 -0.66908261 0.00000000
-0.00548908 -0.33669892 0.00000000
-0.61327906 -0.56450742 -0.00000021
0.06667885 -0.67007432 0.58518843
-0.58665471 0.05184844 -0.00000118
0.06082704 0.18483878 0.53383219
0.06126101 -0.17973842 0.53763560
-0.30654215 0.15194321 -0.00000016
-0.04327855 0.36969533 0.00000000
0.05013748 0.32947132 0.44001279
-0.59317147 0.10793649 0.00000017
-0.76283576 -0.51239131 -0.00000072
0.00172732 0.03372825 0.01515931
-0.29498712 0.37324235 -0.00000050
-0.23528205 -0.14421576 0.00000000
-0.31343449 0.13760198 0.00000505
-0.52309859 -0.46707060 0.00000000
-0.59202822 -0.02362346 -0.00000107
-0.09401617 0.09124659 0.00000000
0.00815577 -0.79307551 0.07157688
0.02714888 0.30679618 0.23829718
-0.18877321 0.06062322 0.00000000
0.04170312 0.19726736 0.36599172
-0.01444539 0.51238647 0.00000410
-0.24786575 -0.31584354 0.00000000
0.06097152 -0.27924057 0.53509649
-0.26358261 0.38537453 0.00000186
0.05678456 -0.49050269 0.49835398
-0.08275281 -0.58753419 0.00000000
0.02331432 -0.26991049 0.20461167
-0.73572172 -0.28610436 -0.00000122
-0.29756222 0.01938689 0.00000000
0.08349938 -0.01809093 0.73279534
-0.74450864 0.00640880 -0.00000104
-0.75224584 -0.63879976 -0.00000040
-0.09199974 0.41962795 0.00000432
0.00879342 0.52163620 0.07719972
0.04821418 0.12723796 0.42316612
0.02121092 0.57099764 0.18614858
0.01662632 0.46340717 0.14594128
0.04890504 0.33623962 0.42919315
0.01643425 -0.78806843 0.14423061
-0.16690897 0.60435381 -0.00000037
-0.72308770 -0.79155552 -0.00000002
-0.04299225 0.63058280 0.00000000
-0.30069739 -0.22927193 0.00000000
0.02848721 -0.14821172 0.25001013
-0.46526113 0.16322434 -0.00000086
-0.57123469 0.07473602 0.00000114
0.01865818 -0.24912403 0.16374830
0.06956131 -0.38145131 0.61048121
-0.03411335 -0.19408431 0.00000000
0.06134546 -0.41619439 0.53838007
-0.09670576 0.28459020 0.00000000
-0.70597657 -0.09779621 -0.00000143
-0.38711183 -0.50408384 0.00000000
0.05374235 0.14804060 0.47167136
-0.51179974 -0.67860444 0.00000000
0.03321271 0.04556627 0.29148217
-0.79741411 -0.14401701 -0.00000164
0.07159219 -0.12292164 0.62830032
-0.40968372 -0.51770531 0.00000000
0.01508705 -0.45856081 0.13240735
-0.59757828 -0.61960721 -0.00000004
-0.54957998 -0.38384056 -0.00000025
-0.76467415 -0.60395483 -0.00000049
-0.76414295 -0.09931084 -0.00000167
0.04543185 -0.34642266 0.39872006
0.00235905 0.14899428 0.02078731
-0.27569749 -0.36138103 0.00000000
-0.34650040 0.14029567 0.00000437
0.00629911 0.19064470 0.05528239
0.00623252 0.45489465 0.05469798
-0.06359007 0.62063604 0.00000173
0.01538997 0.36175976 0.13510608
0.06753512 0.07124249 0.59271067
-0.22278608 -0.35805747 0.00000000
-0.31447718 -0.37157982 0.00000000
-0.30168742 0.30279295 -0.00000041
0.02790260 -0.48628068 0.24487943
-0.17782888 -0.47554022 0.00000000
-0.61688037 -0.52231880 -0.00000030
0.03445179 -0.40725621 0.30235657
0.00592001 0.48380350 0.05199039
-0.39397094 -0.50707474 0.00000000
0.07286190 -0.04446572 0.63944205
-0.48836093 -0.77775293 0.00000000
0.07627451 -0.23316026 0.66939352
0.00193762 -0.60847573 0.01700500
-0.18119188 -0.46466508 0.00000000
-0.59931165 -0.46234511 -0.00000033
0.04697227 -0.12764912 0.41223807
0.05305168 -0.34441777 0.46559335
0.07417544 -0.79046333 0.65098022
0.00551511 -0.22949575 0.04840180
-0.69865998 -0.38305021 -0.00000089
-0.53228213 -0.13833362 -0.00000061
0.01700895 -0.71525751 0.14927429
0.00531400 0.41703950 0.04663680
-0.43497515 0.24972447 0.00000084
0.02780000 0.27398825 0.24401541
0.02494995 0.39293392 0.21898939
0.03820342 0.42003120 0.33527549
0.02266714 -0.66946134 0.19893187
-0.45044590 -0.54307948 0.00000000
0.02337712 0.26168079 0.20516281
-0.17797864 0.42982308 0.00000277
-0.26334308 -0.58498365 0.00000000
-0.03498560 0.62778124 0.00000206
-0.04624954 0.37903262 0.00000000
0.03550829 0.17286052 0.31162682
-0.34486535 -0.01934108 -0.00000002
0.03885285 -0.77745356 0.34098129
-0.65844108 -0.72441976 -0.00000012
0.02084305 0.07455694 0.18299530
-0.20679533 -0.56820317 0.00000000
-0.17180645 -0.51120056 0.00000000
-0.08549759 0.05668796 0.00000000
-0.56420319 -0.69827324 0.00000000
0.03967895 -0.35804607 0.34823134
0.01670609 -0.60594679 0.14661633
0.03607045 0.06468673 0.31656178
0.01663147 0.03804740 0.14596146
0.07894688 -0.63424664 0.69285211
0.05287106 0.22979171 0.46401397
0.00815286 -0.23768084 0.07155127
0.01924091 0.46913973 0.16886136
-0.07111167 0.18245504 0.00000819
0.00705372 0.13856596 0.06190505
0.03751128 -0.74206459 0.32920731
0.05823491 0.11585849 0.51107451
0.03184776 -0.59320525 0.27950306
0.02369348 0.45093492 0.20793703
0.04075734 -0.41539346 0.35769554
0.01981933 0.34770056 0.17397582
-0.20784932 0.00977581 0.00000872
-0.30712667 -0.41461390 0.00000000
0.05856486 -0.30964708 0.51397627
-0.23974026 0.26467339 0.00000434
-0.38305852 -0.25715465 0.00000000
0.06792994 -0.37115709 0.59616431
-0.07576206 -0.00103198 0.00000000
-0.27602801 -0.30315605 0.00000000
0.00217508 0.44965433 0.01908898
-0.02260813 0.34973890 0.00000641
-0.65016106 -0.29999593 -0.00000083
0.07645963 -0.52100795 0.67102232
-0.27934799 0.05153427 0.00000701
-0.66544937 -0.67259868 -0.00000024
0.05515117 -0.68533316 0.48401900
-0.30562839 -0.40721065 0.00000000
0.02585748 -0.21557552 0.22693103
0.00223934 0.10166956 0.01965291
-0.54322095 -0.73138673 0.00000000
-0.65577686 -0.43196955 -0.00000062
0.04210975 0.13270558 0.36960060
-0.67609987 -0.75352003 -0.00000012
-0.00001083 0.77470580 0.00000000
-0.13222380 0.39717085 0.00000000
-0.04376200 0.34861297 0.00000000
-0.04408667 0.73961746 0.00000016
-0.22160277 -0.77424750 0.00000000
-0.20951260 -0.56407874 0.00000000
0.05479534 0.17439179 0.48090720
0.00590548 0.24928085 0.05182777
0.08141452 -0.20064683 0.71450136
-0.24135720 0.25442446 -0.00000007
-0.69539253 -0.16608668 -0.00000126
-0.55236420 0.03493030 -0.00000100
0.02727966 0.03306401 0.23948238
0.01092762 0.06170833 0.09590320
-0.31474776 -0.28357996 0.00000000
0.01231191 -0.19134107 0.10805203
0.07437194 -0.52121721 0.65270095
0.00147388 -0.20780966 0.01293512
-0.52845142 0.16585063 -0.00000113
0.01305460 -0.71337270 0.11457012
0.00228310 0.52257584 0.02003699
0.03114850 0.12483613 0.27336617
-0.09973479 0.59761663 0.00000147
0.07657702 -0.44355449 0.67205140
0.00203291 0.49092022 0.01787993
-0.16981734 -0.49644019 0.00000000
0.04299564 0.23140846 0.37733435
0.08968391 -0.34174849 0.78707716
0.03779448 0.35322592 0.33168757
-0.03755594 -0.22222433 0.00000000
-0.31550997 0.40234519 -0.00000064
0.05835494 0.27531249 0.51212560
-0.04061063 -0.74413009 0.00000000
0.01041358 0.19526818 0.09146006
-0.30729054 -0.03205964 0.00000000
0.01219090 0.62460487 0.10699790
0.03926875 -0.07922587 0.34463129
-0.14559908 -0.32256875 0.00000000
0.03257378 0.07353730 0.28593322
0.00813286 0.72138650 0.07137444
-0.13740201 -0.16648884 0.00000000
0.00132000 0.54929961 0.01158464
0.00404094 -0.65124206 0.03546418
-0.01593244 0.48103757 0.00000454
0.05155814 0.16553365 0.45247904
0.03075426 -0.10580867 0.26990626
0.03909035 -0.08736831 0.34306560
-0.15893645 0.39802846 0.00000363
-0.60153834 -0.77098505 0.00000000
-0.25763723 -0.16324507 0.00000000
0.00195064 0.73307445 0.01711926
0.00852284 -0.20784268 0.07479835
-0.18777322 -0.04595203 0.00000000
0.00084623 -0.57695716 0.00742674
0.08863140 -0.00219029 0.77783322
0.01837378 -0.34974851 0.16125240
0.06261229 0.22566155 0.54949127
0.03140977 -0.28573072 0.27565915
0.08251084 -0.09405113 0.72412103
-0.71252336 -0.18412036 -0.00000130
0.05986166 -0.21653758 0.52535554
0.01256864 0.22732443 0.11036658
0.03147455 0.08687773 0.27622766
-0.22148157 -0.02141119 0.00000000
0.08860891 -0.37414259 0.77764331
-0.27260000 -0.03547304 0.00000000
0.02020341 0.07536418 0.17738233
0.03910113 -0.02002120 0.34316001
0.02026773 -0.70478500 0.17787412
0.01473036 0.48252696 0.12927696
-0.11273759 0.01789773 0.00001003
0.02782802 0.07442516 0.24428876
0.01755853 0.25125305 0.15414995
0.00162809 0.46692181 0.01428849
-0.03167078 0.41288729 0.00000533
0.00251792 0.05242167 0.02209782
0.05127664 -0.00465503 0.45001107
0.03023720 -0.53677085 0.26536841
0.01143326 0.56686446 0.10034070
0.03085324 -0.26355264 0.27077492
0.08385973 -0.55263932 0.73596699
-0.54163081 -0.05710635 -0.00000080
-0.12168795 -0.48495461 0.00000000
-0.11951803 -0.57997923 0.00000000
-0.76188116 -0.65505767 -0.00000036
0.05775847 -0.69730093 0.50690121
0.08839649 -0.51472094 0.77578214
0.06190826 -0.54779150 0.54332071
-0.65280177 0.01669908 0.00000055
-0.72197698 0.01641027 -0.00000078
0.07886044 -0.04279871 0.69208469
0.08052201 -0.37152835 0.70667124
0.00873036 -0.12997740 0.07661963
0.00878846 0.35004499 0.07717896
-0.61517490 -0.06199555 -0.00000110
-0.32039461 0.40634094 -0.00000067
0.05355531 -0.55463559 0.47001333
0.02594373 -0.73943263 0.22768797
-0.34695672 -0.52579195 0.00000000
-0.23495289 -0.04073214 0.00000000
0.01597859 0.54429334 0.14023042
0.07838996 -0.63250782 0.68796432
-0.07319241 0.29044987 0.00000654
-0.02844273 0.07791551 0.00000000
-0.37381537 -0.26434588 0.00000000
0.00666200 0.39461583 0.05846716
0.07972667 -0.78486784 0.69969911
0.04180825 0.11946944 0.36691551
-0.35803268 0.20798904 -0.00000048
-0.12349208 0.42242727 0.00000380
0.03049091 0.14911807 0.26764583
0.03397406 -0.25700724 0.29816391
0.01836156 0.30432936 0.16118956
-0.43649980 -0.01365177 -0.00000042
-0.01471083 0.51880561 0.00000400
-0.07328015 0.20182407 0.00000000
0.01105420 -0.43393032 0.09701416
-0.04764999 0.11338278 0.00000958
-0.37375489 -0.23567188 0.00000000
-0.13380745 -0.68846874 0.00000000
0.05529492 0.13327013 0.48529691
0.00036270 0.19285938 0.00318311
-0.64093446 -0.37493357 -0.00000066
0.06513231 -0.71637106 0.57161562
-0.05293100 0.40788592 0.00000000
0.03789174 -0.35469319 0.33254637
-0.13392991 -0.48790725 0.00000000
0.00366827 0.41983907 0.03219357
0.02065505 0.27396110 0.18127329
0.06209255 -0.39972894 0.54493625
-0.45731102 0.20652819 -0.00000090
0.02932211 0.34375152 0.25733490
0.01868397 0.49769992 0.16399161
0.08308231 -0.34186173 0.72913982
0.04891945 0.26611871 0.42933423
-0.37805342 -0.18706253 0.00000000
-0.01857823 -0.08745192 0.00000000
-0.76205259 -0.01236626 -0.00000182
0.00404067 0.74418276 0.03546405
0.05739047 -0.49714654 0.50367152
-0.72090024 -0.71934244 -0.00000020
0.01588420 0.07915196 0.13940331
-0.23444643 -0.65960242 0.00000000
0.00131390 0.04042510 0.01163047
-0.54813797 -0.34726707 -0.00000031
-0.14677123 0.26234934 0.00000585
0.03508461 0.28856238 0.30793378
-0.30186560 0.24775184 -0.00000031
0.07246127 -0.04015987 0.63592614
-0.04540940 -0.52382288 0.00000000
-0.15082637 0.46503442 0.00000270
-0.06280087 -0.32492196 0.00000000
0.08798841 -0.39525207 0.77219805
0.08123977 -0.17812682 0.71296748
0.01540213 0.25963980 0.13522628
-0.44535262 0.12796599 0.00000267
-0.60880937 -0.37520749 -0.00000052
0.07502256 -0.15526382 0.65840543
-0.35052003 0.25875127 0.00000231
-0.66779577 0.09689669 -0.00000108
0.01439870 0.39711533 0.12640291
0.05489188 -0.57478594 0.48174340
-0.24218224 0.54753214 -0.00000059
0.02602013 0.13766605 0.22841607
-0.38558691 -0.44780256 0.00000000
-0.77111630 -0.65403850 -0.00000036
0.02014509 0.06043699 0.17679784
0.04151207 0.33322415 0.36431315
0.06779849 -0.52321302 0.59501287
0.05496180 0.05423242 0.48238553
0.03053421 0.29200614 0.26797294
-0.54987361 -0.78089804 0.00000000
0.07283106 -0.61710580 0.63917968
0.08986172 -0.49301815 0.78864099
-0.19091185 -0.51854673 0.00000000
-0.11487035 0.10964992 0.00000862
-0.13595590 -0.41082380 0.00000000
0.06736957 -0.64579362 0.59125039
-0.58665372 -0.57581902 -0.00000007
0.00902753 0.12950907 0.07922761
-0.01178751 -0.36102707 0.00000000
0.05459498 0.29672284 0.47913099
-0.40282575 -0.64910666 0.00000000
0.00280690 0.26967278 0.02463399
0.08180478 0.01486709 0.71792319
0.01457071 -0.30044364 0.12787579
-0.11506452 -0.22892815 0.00000000
-0.06873774 -0.34115728 0.00000000
-0.42826052 -0.10178568 -0.00000023
0.02699276 -0.60234784 0.23689451
-0.16213978 0.29521098 0.00000000
0.02037028 0.55638742 0.17877135
0.08239467 -0.24283287 0.72310373
0.04783855 0.00911977 0.41983849
0.03818448 0.07159261 0.33516639
-0.58700810 -0.16506128 -0.00000080
-0.58435749 -0.24008300 -0.00000066
-0.11402670 0.14232933 0.00000814
-0.69922867 -0.53135701 -0.00000063
0.02237787 0.37179887 0.19642314
-0.62016002 -0.78433873 0.00000000
0.04540684 -0.03294907 0.39849860
-0.23459315 0.28815395 0.00000404
0.04610514 -0.59504223 0.40462894
-0.72971453 -0.54412175 -0.00000064
-0.64846373 -0.12437204 -0.00000113
-0.02271578 0.63241999 0.00000000
-0.23645711 -0.04154608 0.00000000
0.07388446 -0.02513603 0.64841569
0.02625749 0.22372986 0.23044158
-0.17821422 0.03730266 0.00000875
0.04781127 -0.59996979 0.41960239
0.00804181 0.08177175 0.07066274
0.03300788 0.06980713 0.28968454
-0.37116234 -0.24830644 0.00000000
0.03204314 -0.25411179 0.28121775
-0.02666589 -0.74533027 0.00000000
-0.49059210 0.21585788 0.00000034
-0.20390545 0.07955250 0.00000000
-0.69568746 -0.42976361 -0.00000080
-0.27440229 0.31836097 -0.00000032
-0.02981942 -0.39629289 0.00000000
-0.15874955 0.42462912 -0.00000001
0.01601974 0.49951264 0.14061338
0.04287525 -0.53721629 0.37628275
-0.55695394 -0.42265137 -0.00000022
0.05103109 0.12674997 0.44788392
0.02658902 -0.15343243 0.23335116
-0.32548825 -0.27115164 0.00000000
0.01413432 -0.50665931 0.12404595
-0.10923644 -0.43134214 0.00000000
-0.02230893 0.40127375 0.00000564
0.03978646 -0.54070851 0.34917486
0.03308167 -0.78191125 0.29033208
-0.24700697 -0.45160569 0.00000000
0.03359391 -0.54924466 0.29482768
-0.33586128 0.30741731 -0.00000056
0.03867411 -0.75205125 0.33941262
0.00450369 -0.48150743 0.03952536
-0.45812731 0.20190453 -0.00000090
0.03195992 -0.48833450 0.28048742
0.02648022 -0.79158915 0.23239634
0.01615350 -0.51227592 0.14176675
-0.29891011 0.38796639 0.00000114
-0.31941109 0.10912002 0.00000541
0.02516622 0.03425969 0.22086439
-0.09251056 0.27546094 0.00000647
0.04078126 -0.53547574 0.35790539
-0.39045377 -0.62177928 0.00000000
-0.12853337 0.25488163 0.00000000
-0.03981958 -0.00892510 0.00000000
0.02970603 0.05872958 0.26077049
-0.27624218 -0.13958441 0.00000000
0.05016654 -0.73104002 0.44027270
0.08167820 -0.16669558 0.71681489
-0.72957765 -0.33232121 -0.00000111
0.04523049 -0.72673743 0.39695287
0.02625567 -0.60435821 0.23042560
-0.24664616 -0.41579038 0.00000000
0.02238615 0.45265796 0.19648387
0.05518884 -0.62202490 0.48434958
0.01420635 0.53078076 0.12467763
-0.09288283 0.18655714 0.00000000
0.08675749 -0.24977700 0.76139194
-0.60036519 0.04570537 -0.00000123
-0.75678439 -0.38617698 -0.00000103
-0.14161787 0.01581877 0.00000963
-0.42761164 -0.67287439 0.00000000
0.00237853 0.20053476 0.02087449
-0.04921092 -0.37017312 0.00000000
-0.65972648 -0.53424309 -0.00000046
-0.19893096 0.33424952 0.00000396
0.02905301 0.31541711 0.25500407
-0.52484771 0.01494580 -0.00000085
-0.02366866 0.11584637 0.00000991
-0.48630466 0.10541244 0.00000226
0.04836234 -0.44297403 0.42443867
-0.72138917 -0.51904713 -0.00000070
0.06479212 -0.63349792 0.56863006
0.07422642 -0.70237205 0.65142644
0.04269060 0.05889322 0.37470825
0.06457087 0.05115294 0.56667926
-0.39898315 0.09590540 -0.00000046
-0.03581677 0.29401985 0.00000000
-0.23979675 0.15952520 0.00000599
-0.35111035 0.17058581 -0.00000039
-0.16528073 0.46362714 0.00000244
-0.48278478 -0.69570081 0.00000000
0.00845761 -0.68937434 0.07422589
0.00782415 0.52478275 0.06866645
-0.39588822 -0.44311447 0.00000000
0.00306206 -0.30378333 0.02687335
0.06643482 0.06430546 0.58303699
-0.28731147 0.06117999 0.00000675
-0.16322202 -0.19961811 0.00000000
0.05016525 0.10948340 0.44028895
-0.08745593 0.17958372 0.00000000
-0.06191008 0.57184610 0.00000249
0.00356719 -0.38016560 0.03130645
-0.66004271 -0.57851174 -0.00000038
-0.56713393 0.13056820 0.00000029
-0.63953503 -0.37594464 -0.00000065
-0.73732618 -0.67375947 -0.00000032
0.00546019 0.67356311 0.04791982
0.00891374 0.48804068 0.07825998
-0.41974905 -0.67021943 0.00000000
-0.60448125 -0.46203759 -0.00000035
0.01118983 -0.05644103 0.09820443
-0.25707834 0.00984812 0.00000000
-0.32567075 -0.21169165 0.00000000
-0.37656561 0.33614228 -0.00000079
0.05495491 -0.25406625 0.48229486
0.07495051 -0.37197543 0.65777622
-0.09293304 -0.20704114 0.00000000
0.05117043 0.29104937 0.44907474
-0.61151468 0.01310741 0.00000140
-0.49525027 -0.47719048 0.00000000
0.01804915 0.18289914 0.15840340
0.03342928 0.50327917 0.29337700
0.00732802 0.10999909 0.06431230
-0.16096648 0.08969189 0.00000823
0.00943252 0.07523537 0.08278192
-0.36793794 -0.15602259 0.00000000
-0.27818375 0.02323394 0.00000000
-0.37389886 -0.29372395 0.00000000
0.01139475 0.27145559 0.10005981
0.04840458 -0.73731597 0.42480941
-0.07495578 -0.50255151 0.00000000
0.02892879 -0.56983493 0.25388553
-0.14905722 -0.75533961 0.00000000
0.02950043 0.48724875 0.25889779
-0.03993688 0.41622102 0.00000515
-0.60761587 0.15885432 -0.00000146
-0.54122022 0.05196862 0.00000210
0.00669263 0.09027871 0.05873602
0.06118304 -0.58871083 0.53695602
0.07801769 0.00298849 0.68468814
0.01209873 0.52945756 0.10620299
0.04983749 0.33171971 0.43738014
-0.32708120 0.36167988 0.00000104
-0.16429665 0.01130621 0.00000000
0.01435923 0.22626531 0.12607924
0.03351884 0.17903689 0.29416750
-0.01757610 0.20439240 0.00000867
0.05754513 -0.68931131 0.50502889
0.03662259 0.22077968 0.32143915
0.00954953 -0.76546156 0.08380884
0.00762824 0.09233708 0.06703221
0.03265821 0.22523250 0.28661402
-0.28286992 0.03045012 0.00000000
0.05266257 -0.08673189 0.46217505
-0.04235856 0.21924900 0.00000000
-0.49698536 0.25980933 -0.00000117
-0.27172632 -0.12734358 0.00000000
0.01705558 0.48840909 0.14970423
0.08393940 -0.73790980 0.73667026
-0.28773728 -0.29439711 0.00000000
-0.00337379 -0.41171135 0.00000000
0.01646264 0.36648419 0.14451818
-0.22894817 -0.34503483 0.00000000
-0.35503173 0.08657706 -0.00000025
0.03474771 0.13946251 0.30499960
0.02296237 0.02207862 0.20159941
0.00296140 -0.22787490 0.02598988
0.06576747 -0.45492028 0.57718783
-0.14442072 0.00476322 0.00000000
0.06522615 -0.03906881 0.57243131
-0.21449358 0.26960160 0.00000000
-0.09878794 -0.48361468 0.00000000
0.00015477 0.45103246 0.00140449
0.06449530 -0.49099276 0.56602388
-0.44302951 0.17850500 0.00000187
-0.35050861 0.42051353 -0.00000083
0.00538331 0.72055584 0.04724463
-0.40093548 -0.44963154 0.00000000
-0.24859322 -0.78674208 0.00000000
0.06627793 0.11291154 0.58167294
0.01259811 0.11697084 0.11063984
-0.22258060 -0.60866819 0.00000000
0.03648111 -0.06238409 0.32016633
0.01515959 0.29905495 0.13309278
0.02827254 -0.73010917 0.24812611
-0.16412543 -0.52933345 0.00000000
-0.49853235 -0.23454131 -0.00000030
-0.03975009 -0.06457341 0.00000000
0.06624285 -0.76012185 0.58136201
-0.01760023 0.36413880 0.00000627
0.08651954 -0.20821629 0.75930273
-0.67612383 0.07279883 -0.00000160
0.06291029 -0.08102763 0.55210812
-0.74882484 -0.62100624 -0.00000045
0.03122709 -0.08046266 0.27405594
-0.65107630 0.09057843 -0.00000152
0.04355720 0.22523241 0.38226259
0.02522046 -0.33600110 0.22134038
-0.13593702 -0.31245233 0.00000000
0.08232149 -0.15578203 0.72246019
-0.23901143 0.02886943 0.00000000
-0.59179392 -0.57102077 -0.00000010
-0.04728445 0.56912082 0.00000275
-0.07152642 0.25735194 0.00000706
-0.27192908 -0.47496698 0.00000000
0.04484758 -0.58536311 0.39359233
-0.15144883 -0.74572217 0.00000000
0.00623692 0.06744454 0.05482667
0.01318525 -0.66017962 0.11571669
-0.52141670 -0.76899326 0.00000000
0.00836488 0.42835373 0.07341201
-0.38196025 -0.32013396 0.00000000
-0.04878925 0.24152776 0.00000764
0.03477404 0.12743039 0.30523243
-0.02470849 0.09681842 0.00000000
-0.36460792 0.25292152 -0.00000059
0.03342271 -0.20505937 0.29332518
-0.34297550 0.35343921 -0.00000067
-0.09643166 0.31801740 0.00000000
-0.31981699 0.04940541 -0.00000004
0.02725939 0.54504550 0.23922975
0.05682556 0.16364640 0.49872337
-0.36442435 0.20030980 0.00000302
0.01140415 0.03229853 0.10008539
-0.04956012 0.46022866 0.00000000
-0.44315937 0.32442240 -0.00000057
0.04437676 -0.50420957 0.38946036
0.03866342 -0.36970582 0.33931878
-0.59584432 -0.25106483 -0.00000068
-0.31540619 0.36159631 0.00000127
0.02775615 0.07505548 0.24365801
-0.22685079 -0.20863915 0.00000000
0.00508414 -0.67515112 0.04461953
0.04931361 0.29327054 0.43278884
0.02312447 -0.57036210 0.20294549
-0.19981901 0.52477889 -0.00000037
0.08302926 -0.44594376 0.72867614
-0.04431667 -0.52620856 0.00000000
-0.36877023 0.16410668 0.00000354
-0.29504316 0.29989363 -0.00000038
0.02168205 0.03960505 0.19028649
-0.36524974 -0.26177167 0.00000000
-0.56611460 -0.43566660 -0.00000023
0.01965601 0.24231968 0.17250549
0.06382457 -0.73280196 0.56013867
0.03299051 -0.21008701 0.28953210
0.07576897 -0.30754165 0.66495808
0.02058606 0.36909159 0.18066770
0.00933628 -0.45725154 0.08193726
-0.08921380 0.36915223 0.00000000
0.05974448 0.21242251 0.52432102
-0.12036321 0.29637053 0.00000574
0.06878840 -0.35847257 0.60369790
-0.75872372 -0.70847624 -0.00000023
-0.39227345 -0.30428865 0.00000000
0.02641106 0.14613362 0.23178938
0.02798793 0.24072275 0.24562773
0.07031778 0.05223398 0.61711372
0.09039347 -0.61510875 0.79331041
0.03766779 0.21174100 0.33057786
-0.71530402 -0.25408811 -0.00000119
0.04044935 0.24439730 0.35501454
-0.18292200 0.50829461 -0.00000027
0.03623470 -0.48406225 0.31800384
0.02134821 0.15178874 0.18735661
-0.49178723 0.00293224 -0.00000069
0.05649977 0.12727457 0.49584693
0.06196966 -0.25577158 0.54385571
-0.16421045 0.02618762 0.00000000
-0.62079045 0.02809520 0.00000097
-0.35268859 0.30038993 0.00000157
0.01339514 0.54655755 0.11755830
0.00430334 -0.72778180 0.03776709
-0.25125343 0.08856131 0.00000688
-0.36370083 0.04703425 -0.00000022
0.00704902 -0.30147612 0.06186379
-0.16806520 -0.13097813 0.00000000
0.01359348 0.54718522 0.11929884
0.04542435 -0.25677965 0.39865421
-0.43474850 0.11570500 0.00000308
-0.20122845 0.57233277 -0.00000046
-0.34128822 0.31556363 0.00000154
0.00287550 0.34192666 0.02523600
-0.28420314 0.44932901 -0.00000059
-0.30125567 0.44456871 -0.00000066
-0.45479872 0.31807404 -0.00000068
-0.74633999 -0.30333397 -0.00000123
0.04466944 0.37249045 0.39202583
-0.31405073 0.01896299 0.00000698
0.00193781 0.27783249 0.01707379
0.02768561 0.29697199 0.24297381
0.03889386 -0.42273689 0.34134114
-0.76567789 -0.53291626 -0.00000067
0.08386060 -0.72859986 0.73597844
-0.07671902 0.49363836 0.00000344
-0.59702100 -0.18608068 -0.00000080
0.02074197 0.45692660 0.18203475
-0.48987551 -0.26770527 -0.00000020
0.04501045 0.33311328 0.39501462
-0.34996725 -0.55303948 0.00000000
-0.25264750 0.07318992 0.00000709
-0.70891656 -0.76411465 -0.00000009
0.00800018 -0.44168961 0.07021134
0.05685668 0.19400393 0.49897819
0.05573160 -0.69522737 0.48911293
-0.06971290 -0.04032122 0.00000000
0.08341778 -0.28399456 0.73208306
0.06415120 -0.70082758 0.56300524
-0.18144734 -0.40003332 0.00000000
0.00288513 0.41715439 0.02532050
-0.11942696 0.05026864 0.00000000
-0.52315573 -0.70878439 0.00000000
0.01022004 0.51047573 0.08971984
0.06338806 0.14003782 0.55631108
0.02811970 0.33311311 0.24681195
-0.53307033 0.22636229 -0.00000126
0.03278713 0.44090032 0.28775150
0.06570558 -0.48322737 0.57664511
-0.22023828 0.20355473 0.00000562
0.00331765 -0.24406683 0.02911642
-0.22004270 0.10925561 0.00000704
-0.45996466 0.15807518 0.00000189
-0.16815822 -0.09764435 0.00000000
-0.02496220 -0.65773413 0.00000000
-0.00970510 -0.29519266 0.00000000
-0.45173700 -0.19802891 -0.00000016
-0.68358099 -0.35464018 -0.00000088
-0.38536483 0.13882674 0.00000364
0.01194369 -0.35178629 0.10482050
-0.38006188 0.19134802 0.00000287
-0.04099987 0.04581217 0.00001069
0.04975683 0.12025196 0.43670353
-0.30653393 -0.21179211 0.00000000
0.02777565 0.29321054 0.24379890
0.03073500 0.48013829 0.26973881
0.04217413 -0.04722822 0.37012884
-0.03300687 0.39260933 0.00000000
-0.30953779 0.30774275 0.00000228
-0.23527338 -0.55682719 0.00000000
-0.29915004 0.22594763 0.00000384
-0.64979090 0.00909444 -0.00000138
-0.73240205 -0.06729720 -0.00000159
-0.74926414 -0.09053038 -0.00000162
-0.25980453 0.33405186 -0.00000029
0.00605239 0.02705781 0.05311708
0.04249106 -0.77099888 0.37291105
-0.39774243 -0.70237697 0.00000000
0.00873190 0.20935748 0.07670142
-0.01005695 0.50959340 0.00000000
0.02304074 -0.28725374 0.20221065
0.00873238 0.54524839 0.07663728
0.07488086 -0.07908920 0.65716078
0.03841373 0.04493099 0.33712651
-0.24193166 -0.77250994 0.00000000
0.02073383 -0.48173933 0.18196469
0.00787939 -0.06804508 0.06915130
0.00232509 0.65333667 0.02040546
0.01320735 -0.41927406 0.11591067
-0.53479632 -0.61792638 0.00000000
0.07935585 -0.58225339 0.69644020
0.03277731 0.37344080 0.28765702
-0.05919387 0.47639574 0.00000000
-0.10046534 0.18391938 0.00000000
-0.27320460 -0.59655149 0.00000000
0.05898418 0.13335426 0.51766923
0.00370450 0.62457430 0.03253051
0.00986189 -0.12652373 0.08655011
0.06577460 -0.42090274 0.57724990
0.03109489 -0.16450830 0.27289569
-0.66234679 -0.47879184 -0.00000057
0.05746158 -0.02826701 0.50428995
-0.25358412 0.53083410 -0.00000061
0.02376659 -0.01185906 0.20858086
0.07377980 -0.18084032 0.64749942
-0.29208920 0.01570427 0.00000000
0.04553421 -0.36696145 0.39961839
0.02209906 0.34783507 0.19394604
0.07144053 -0.37894110 0.62697303
-0.04678186 0.57016066 0.00000274
-0.35335164 0.28165381 0.00000187
0.02282335 -0.67754811 0.20030277
-0.19547001 0.06954544 0.00000801
-0.23952474 0.19323355 0.00000549
0.01255766 0.52291361 0.11020882
-0.32705041 0.33876423 0.00000142
-0.34309928 0.19974624 -0.00000040
0.08814833 -0.24044472 0.77359822
-0.14921941 -0.24213917 0.00000000
0.08043034 -0.20213297 0.70586436
0.01295408 0.02021809 0.11377636
-0.15081819 0.10953607 0.00000808
0.02398994 0.08797696 0.21060760
0.01808568 -0.68844861 0.15872395
0.04924765 -0.13848106 0.43220673
-0.01578333 0.36154683 0.00000000
0.01842527 0.26464800 0.16175388
0.06919647 -0.42249291 0.60727999
-0.09423170 0.35337925 0.00000528
-0.35489310 0.02673211 -0.00000015
-0.76630155 -0.36096129 -0.00000110
0.07813656 -0.05222183 0.68573215
-0.69606508 0.06415388 -0.00000167
0.02681162 -0.57882420 0.23530476
0.03908678 0.44018853 0.34302744
0.00133464 0.76813195 0.01171306
0.00503203 0.54774199 0.04418986
0.00592439 -0.10342313 0.05199376
-0.18969875 -0.12998773 0.00000000
0.01594660 0.64057084 0.13994832
0.05546827 -0.10427758 0.48679792
-0.01565501 0.76485825 -0.00000000
0.03107020 0.30506237 0.27267655
-0.42963297 -0.18715723 -0.00000009
-0.16424861 0.00505819 0.00000945
0.03961815 0.07835875 0.34769594
-0.22867185 -0.46282384 0.00000000
-0.24962043 -0.56316530 0.00000000
0.05482311 0.22976076 0.48113120
0.06661416 0.09691566 0.58461035
-0.35285457 -0.07733537 0.00000000
0.00164338 -0.66921107 0.01442267
0.04155391 -0.67032405 0.36468640
0.08745627 -0.65816829 0.76753363
-0.42663381 -0.12300776 -0.00000019
0.08135417 -0.30265664 0.71397325
0.02701265 -0.18493722 0.23706902
0.02219622 0.15755820 0.19479900
0.08026445 -0.50700049 0.70441289
-0.17435050 -0.01699677 0.00000000
-0.22888105 0.48008467 0.00000095
0.02462279 0.31915876 0.21609441
-0.70413231 0.01357495 -0.00000161
0.00063152 -0.65615686 0.00554233
0.03302066 -0.30616628 0.28979667
0.06711983 0.18531439 0.58904680
-0.29044817 -0.56049460 0.00000000
-0.04137755 -0.31207747 0.00000000
-0.28141856 -0.65666366 0.00000000
-0.37043777 0.24932951 -0.00000061
-0.13526831 -0.79393316 0.00000000
-0.00341278 0.26540466 0.00000000
-0.19703693 -0.18495796 0.00000000
-0.73680392 -0.02492931 -0.00000169
-0.10289258 0.33078444 0.00000000
-0.57197494 -0.66968798 0.00000000
-0.21648483 0.38065794 -0.00000018
-0.25968828 -0.16000431 0.00000000
0.03857641 0.35790608 0.33856319
-0.75918496 -0.19730040 -0.00000148
0.06333052 -0.77062872 0.55580277
-0.36187173 -0.23251641 0.00000000
0.04611681 -0.43213143 0.40473138
-0.05566152 0.24766786 0.00000745
0.04571210 -0.46725296 0.40117957
0.04645283 0.28911174 0.40767347
-0.58966553 0.20447236 -0.00000138
-0.31078049 0.07657739 0.00000612
-0.03240027 -0.49478315 0.00000000
-0.24549763 -0.37653923 0.00000000
-0.38551689 -0.07761949 -0.00000009
-0.48026049 -0.07156696 -0.00000051
-0.06438829 -0.45298428 0.00000000
0.00823756 -0.63426038 0.07229467
0.00459141 0.24705524 0.04029525
0.03251423 -0.72861195 0.28535213
-0.43394147 -0.53176257 0.00000000
0.01857174 0.14949956 0.16305446
0.04737902 -0.17048753 0.41580822
-0.78085084 -0.62699948 -0.00000043
0.05183072 -0.60140501 0.45487792
-0.18118146 0.18787159 0.00000645
0.00573087 -0.37866762 0.05029537
-0.00327177 0.22572129 0.00000856
0.07474302 0.05524048 0.65594919
-0.79258787 -0.43766758 -0.00000091
-0.19508525 0.58770840 -0.00000046
0.00939642 -0.63061663 0.08246504
-0.36501783 -0.72688433 0.00000000
0.00691843 0.57721942 0.06071769
0.02965887 0.42547305 0.26028914
-0.29835981 -0.66422578 0.00000000
-0.08730118 -0.40496554 0.00000000
0.01700881 0.63908019 0.14927158
0.08764375 -0.73613885 0.76918073
-0.49164752 -0.64440272 0.00000000
0.04575289 0.13799077 0.40156742
0.02565045 0.13528452 0.22517242
-0.09727343 0.60379956 0.00000141
-0.00514479 -0.19972659 0.00000000
-0.04280629 -0.78197502 0.00000000
-0.48964536 -0.14002111 -0.00000043
0.07100368 -0.08532646 0.62313507
-0.73610731 -0.10571794 -0.00000154
0.01688745 0.16469150 0.14827272
-0.16900580 0.54071670 -0.00000026
-0.48171078 -0.26464893 -0.00000017
0.05636236 0.18745096 0.49465543
-0.10187891 0.08158643 0.00000924
-0.78334271 -0.07022109 -0.00000180
0.05133065 0.12988788 0.45051199
-0.04493699 0.31270046 0.00000000
0.00808284 0.47939888 0.07093681
-0.27421964 -0.28435889 0.00000000
0.02506888 0.06721600 0.22007809
-0.13083134 0.44730795 0.00000000
-0.24364446 0.00149454 0.00000830
0.06091948 -0.34852618 0.53464079
-0.01563193 0.23344333 0.00000000
-0.25069985 -0.55683283 0.00000000
0.00181840 0.15167232 0.01595868
-0.32421541 -0.62584945 0.00000000
-0.03993622 0.31146722 0.00000000
0.04606111 -0.68479799 0.40424252
0.08827538 -0.53842168 0.77471974
0.02147624 0.46031066 0.18849852
0.01901909 0.19037505 0.16697452
-0.62083464 0.04498869 0.00000069
-0.42126992 0.33352881 -0.00000030
0.02396436 -0.05200165 0.21031656
-0.77790195 -0.67674701 -0.00000031
-0.28415436 0.37862304 -0.00000047
-0.14943807 0.38132684 0.00000000
-0.54070181 0.04147978 0.00000229
-0.57975301 -0.32724940 -0.00000048
-0.13878042 0.31511840 0.00000000
-0.58059783 -0.63161732 0.00000000
-0.44919833 -0.27137621 -0.00000002
0.02774525 -0.12685089 0.24349847
-0.67242174 -0.06280898 -0.00000134
0.00066058 0.28720496 0.00579739
-0.55475468 -0.37172667 -0.00000030
-0.39170310 0.04096285 0.00000516
-0.32560866 0.27312777 0.00000255
-0.29701311 -0.27365850 0.00000000
0.01179308 0.32715028 0.10349871
0.02636741 0.51053566 0.23140232
0.06324186 -0.74424484 0.55502466
0.01633610 -0.49938209 0.14336926
-0.51120224 -0.73830774 0.00000000
-0.19057763 0.31180411 0.00000445
0.05097237 0.30798428 0.44734189
0.03044977 -0.42742589 0.26723394
-0.72414380 -0.43571606 -0.00000091
0.03488525 0.26921501 0.30615762
-0.19571768 0.06145038 0.00000813
0.00040649 -0.11359594 0.00356741
-0.32813197 -0.15562839 0.00000000
0.04381382 0.27502243 0.38453232
-0.01337580 0.10585087 0.00001021
0.04609760 -0.63522796 0.40456279
-0.13625302 0.02425153 0.00000000
0.03365198 -0.75823879 0.29533729
0.04533931 -0.57025079 0.39790789
0.00757667 0.05436939 0.06649456
0.02325710 0.43606159 0.20412873
0.00692831 0.40101106 0.06084929
-0.68268039 0.01035888 -0.00000152
0.07683347 -0.20516825 0.67429851
-0.53711092 -0.20287839 -0.00000052
-0.58853302 -0.15170468 -0.00000083
-0.16377387 -0.73129046 0.00000000
0.05849707 0.21701423 0.51337380
-0.22418370 0.03266757 0.00000000
0.01175586 0.05925800 0.10325675
-0.53070573 -0.07205220 -0.00000072
-0.38653603 -0.76680822 0.00000000
0.06063206 0.17836475 0.53212224
0.02024382 0.34710633 0.17770082
0.07333979 0.01705705 0.64365310
-0.02145461 -0.02134195 0.00000000
-0.04933231 0.27864483 0.00000708
-0.51930796 -0.39809458 -0.00000010
-0.67563896 0.04794098 -0.00000041
-0.13141213 0.65766257 -0.00000015
-0.37205410 0.27614286 -0.00000066
0.07763506 0.11186250 0.68132895
-0.13822313 -0.28369280 0.00000000
0.02484237 0.47447378 0.21801923
-0.25162208 0.18791358 0.00000000
0.01586144 -0.76937333 0.13920352
-0.63682070 0.05413291 -0.00000140
0.08882311 -0.40414200 0.77952383
0.08589106 -0.70828137 0.75379795
-0.09289184 0.23381677 0.00000709
0.01242899 -0.16173899 0.10907963
0.00901578 -0.10662928 0.07912446
0.06628319 0.12644664 0.58170536
-0.16151740 -0.78688592 0.00000000
0.01745399 -0.43419911 0.15318011
0.05009022 0.18425150 0.43961952
0.04855093 0.12926149 0.42608853
0.02379562 -0.77019708 0.20883563
0.03476764 -0.50216183 0.30512853
0.05068773 0.02092031 0.44484243
-0.20557564 -0.58729525 0.00000000
-0.37368934 0.16293198 0.00000347
0.05868213 -0.19259871 0.51500373
0.00069421 0.53557082 0.00609250
-0.67801647 -0.42504372 -0.00000073
-0.04213254 0.17659962 0.00000872
-0.63051286 -0.07226583 -0.00000115
0.00916386 0.37682355 0.08042404
0.02044312 0.30563013 0.17941339
0.03728619 -0.55889326 0.32723189
-0.02869058 -0.63694100 0.00000000
-0.54345121 0.16475055 0.00000017
-0.76971552 -0.43939218 -0.00000090
-0.21699213 -0.32690632 0.00000000
0.03179182 0.09149255 0.27906904
0.02660340 0.19470757 0.23352673
0.08514510 -0.79975640 0.74725325
-0.44666409 0.29589816 -0.00000102
0.06125148 -0.30698716 0.53755376
0.06088127 -0.74110605 0.53430756
-0.27275060 0.41759763 -0.00000049
-0.39609296 0.08659297 0.00000431
0.02038011 0.39503059 0.17888993
-0.03833777 0.49271805 0.00000000
0.03103118 -0.48815306 0.27233659
0.07098412 -0.68269915 0.62297197
0.02540952 0.22423034 0.22299963
0.03532636 -0.15422429 0.31003197
0.07342079 -0.41553944 0.64435220
0.01134756 -0.10453978 0.09958868
-0.02927886 -0.29122089 0.00000000
-0.13440827 -0.36098882 0.00000000
-0.29711341 0.46610379 -0.00000068
0.06328565 -0.15950285 0.55540331
0.03761768 -0.27019429 0.33014117
-0.08167676 0.71646972 -0.00000020
0.02366037 0.07440132 0.20764865
-0.21506457 -0.13120921 0.00000000
-0.45775409 0.33733385 -0.00000106
0.07216297 -0.11513453 0.63330932
-0.24114124 -0.74952955 0.00000000
-0.20996374 0.14976392 0.00000000
0.03762991 0.14509242 0.33024637
-0.23053329 0.42615996 0.00000182
0.08562031 -0.48854598 0.75141694
-0.74863319 -0.77247573 -0.00000007
0.01318670 0.49773473 0.11575414
0.05248934 -0.27388489 0.46065745
-0.24483682 -0.51570636 0.00000000
-0.56996777 0.01571830 -0.00000105
-0.27250549 0.45547447 -0.00000055
0.04022758 0.31997094 0.35305737
0.02028123 0.32395973 0.17803214
-0.34201455 -0.18587727 0.00000000
-0.37547193 -0.08768957 -0.00000003
0.06300048 -0.67026277 0.55290624
0.06770452 0.01724878 0.59420504
-0.18203312 -0.31149889 0.00000000
-0.14131391 0.43168076 0.00000000
-0.26685314 0.10992377 0.00000632
0.03803374 -0.13101444 0.33379261
-0.53908028 0.25063229 -0.00000133
-0.25853640 0.24129229 -0.00000012
-0.30430856 0.33305829 -0.00000047
0.01819931 -0.60006037 0.15972119
-0.77074802 -0.70050466 -0.00000025
0.00153665 -0.05734750 0.01348597
-0.77826191 -0.02785143 -0.00000186
-0.18319535 0.13784936 0.00000717
-0.73088473 -0.11241552 -0.00000151
-0.40852865 0.28714436 0.00000072
0.00350382 0.16484125 0.03083058
0.05405455 -0.26341004 0.47439348
0.06693779 -0.41788604 0.58745790
0.00425589 0.43050444 0.03735065
-0.27952113 -0.51795767 0.00000000
0.02952103 0.37849510 0.25908015
0.01499018 0.30083958 0.13160599
-0.78371015 -0.65843732 -0.00000035
0.01524973 0.54569119 0.13384994
0.01996860 -0.22713307 0.17524889
-0.69770241 -0.59193531 -0.00000052
0.00119329 0.61032569 0.01047258
0.05131132 0.32424097 0.45031064
0.02513969 -0.57137713 0.22063149
0.05056389 -0.56758304 0.44375996
-0.29362794 -0.16930671 0.00000000
0.03576958 0.25872231 0.31394863
-0.39903087 -0.53030611 0.00000000
0.00996875 0.65509438 0.08748699
-0.07942392 -0.27268224 0.00000000
0.05538499 -0.77918824 0.48607106
0.01752025 0.47822573 0.15376085
-0.05932193 0.28249254 0.00000000
0.08788763 -0.71509713 0.77132063
-0.34390805 -0.74916941 0.00000000
-0.04290747 0.52608834 0.00000000
-0.27422498 0.20115242 0.00000474
0.00794230 -0.76698142 0.06970336
0.03351874 0.43244474 0.29416295
0.04734151 0.21562322 0.41549567
0.00613185 0.41903204 0.05385790
-0.27351396 0.13168459 0.00000590
0.06808565 0.06939174 0.59754169
-0.27655349 -0.29240823 0.00000000
0.00685107 0.42261329 0.06012653
0.03476066 0.34578680 0.30506317
0.00015394 0.60794791 0.00137636
0.08145363 -0.10198685 0.71484316
-0.57789917 0.11454037 0.00000035
-0.02574646 0.43225285 0.00000000
0.02004179 -0.74659872 0.17589125
0.01637426 0.44771727 0.14370415
-0.16951014 0.51536115 -0.00000022
-0.17145050 0.12596613 0.00000000
0.08215335 -0.11070499 0.72098401
-0.01228265 0.63725084 0.00000000
-0.17308145 0.34207025 0.00000000
-0.57326747 -0.27560201 -0.00000055
-0.79442673 -0.31024049 -0.00000122
0.03873988 -0.58432709 0.33998982
0.03307523 0.43836383 0.29027991
0.00740422 0.33906894 0.06498105
-0.35704084 0.40977748 -0.00000034
-0.24225072 -0.06754926 0.00000000
0.02518349 0.49039131 0.22102425
-0.00860144 0.23684440 0.00000000
-0.37187717 0.17368525 -0.00000048
0.03767987 -0.18760468 0.33068697
-0.22137919 0.23756463 0.00000510
0.01103768 -0.37120104 0.09686911
0.03887866 0.27885798 0.34120334
-0.36463103 -0.48526439 0.00000000
-0.57529364 -0.14769513 -0.00000078
-0.21783424 -0.62528550 0.00000000
-0.43260343 -0.07476084 -0.00000030
-0.14703929 -0.17312751 0.00000000
-0.42836767 -0.31896327 0.00000000
0.01237517 0.40304309 0.10864550
-0.15482241 0.58688722 -0.00000028
0.07917931 -0.07720087 0.69488355
0.06379322 -0.60334161 0.55986356
-0.15107068 0.28854692 0.00000539
0.05573973 -0.63346959 0.48918431
-0.70549445 -0.34257040 -0.00000099
0.00341385 0.00339100 0.02996074
0.04101547 0.04578436 0.35995921
-0.07456306 0.31679252 0.00000612
0.02137374 0.43584228 0.18760273
-0.12560029 -0.03119023 0.00000000
0.02091608 0.31000832 0.18356420
0.00310932 0.28048884 0.02735344
-0.23855613 0.30879703 0.00000362
-0.13559031 0.03488911 0.00000943
0.07466143 -0.16362205 0.65523629
0.04028232 0.06184642 0.35357582
0.00884151 0.57710842 0.07759505
-0.43682629 -0.48857929 0.00000000
-0.37663902 -0.11764701 0.00000000
0.01110944 0.15960217 0.09749895
0.00842608 0.48730752 0.07398083
0.02779488 -0.65317003 0.24393406
-0.14097526 -0.46433584 0.00000000
0.01492118 -0.17478907 0.13095160
0.00431974 0.12534060 0.03799558
-0.72777422 -0.04342748 -0.00000161
-0.32761887 -0.76041649 0.00000000
-0.59745549 0.18770430 -0.00000147
0.07334245 -0.68932862 0.64366859
-0.20339461 -0.13781251 0.00000000
0.02727675 0.33083827 0.23941562
-0.15025724 -0.09434986 0.00000000
0.06368449 0.06749318 0.55890029
0.06862064 -0.01964830 0.60222072
-0.26219492 -0.78535356 0.00000000
0.06863746 0.13185262 0.60236621
0.07190713 -0.47118044 0.63106919
-0.40101231 0.26754026 -0.00000077
0.07436310 -0.57533184 0.65262409
0.02361913 0.24794163 0.20733245
-0.34210107 -0.40255640 0.00000000
-0.56406364 -0.22888778 -0.00000059
-0.43628994 -0.29690436 0.00000000
0.00407455 0.32954664 0.03581689
-0.22220995 0.36843212 -0.00000019
0.00990422 0.17895409 0.08692163
-0.20927629 0.58863222 -0.00000049
0.06970721 0.12111109 0.61175440
0.02161548 0.23104238 0.18970230
-0.74902409 -0.50531575 -0.00000074
-0.13774734 0.46006699 0.00000000
-0.46655702 -0.39888401 0.00000000
-0.41110173 -0.54855201 0.00000000
0.05179929 0.17068171 0.45461818
0.02033279 0.50979245 0.17845774
0.01122758 0.00436486 0.09853578
-0.34073656 -0.73591121 0.00000000
0.02196690 -0.13765709 0.19278642
0.05212663 0.01285748 0.45747026
0.07304762 -0.01087861 0.64107140
-0.16221527 0.56044881 0.00000089
-0.06648853 -0.57408546 0.00000000
-0.15118670 -0.33152592 0.00000000
0.07058861 -0.79495088 0.61950135
0.02579746 0.23845463 0.22640427
-0.29408098 0.34283151 0.00000199
-0.33564869 -0.67450467 0.00000000
0.03147555 -0.23747650 0.27623643
-0.02985278 0.43534825 0.00000000
-0.11122914 0.14637643 0.00000813
-0.60356876 -0.35511695 -0.00000053
0.00344033 0.69692273 0.03019310
0.08712442 -0.42139190 0.76461603
-0.23493556 0.10503072 0.00000000
-0.50408679 -0.00344617 -0.00000073
-0.27002668 0.09021129 0.00000657
0.02244687 0.05239701 0.19707186
0.07559852 0.00365542 0.66347481
0.07414868 -0.42181251 0.65074017
-0.52208981 -0.04125479 -0.00000074
-0.53894286 -0.44273830 -0.00000010
-0.31627541 -0.31623210 0.00000000
-0.08737977 0.65476231 -0.00000012
0.08748592 -0.77849439 0.76779648
-0.11855292 0.28675661 0.00000591
-0.54846377 0.08746273 -0.00000108
-0.26012606 -0.08385868 0.00000000
-0.38443256 -0.42833287 0.00000000
-0.71998324 0.01296497 -0.00000168
-0.28843298 -0.44651148 0.00000000
-0.67102351 -0.70589472 -0.00000020
-0.23460864 -0.37084220 0.00000000
-0.12451497 0.17772414 0.00000000
-0.45731213 -0.13684667 -0.00000030
0.00576087 0.35121180 0.05061153
-0.06629668 0.45220588 0.00000422
-0.51066771 0.13888647 -0.00000101
0.02163473 0.42805394 0.18989399
0.02811712 0.25595047 0.24680069
0.03138589 0.22209934 0.27544821
0.01919940 0.37048236 0.16849820
-0.47298115 -0.67093321 0.00000000
-0.17005785 -0.64452067 0.00000000
-0.42171490 0.35871212 -0.00000102
0.09014593 -0.21327264 0.79112914
-0.61003689 0.09610661 0.00000004
-0.33837044 -0.33843293 0.00000000
0.05622612 -0.60626283 0.49345296
-0.69537583 -0.24184454 -0.00000113
-0.18252244 -0.52906370 0.00000000
0.05912790 -0.69211559 0.51891962
0.02759085 0.37364538 0.24216547
-0.27658849 0.45472169 -0.00000057
-0.57336841 -0.27052354 -0.00000055
0.06200405 0.17362769 0.54416180
0.01770497 -0.32420236 0.15538276
-0.19548765 0.03403381 0.00000000
0.02676312 0.41756543 0.23489584
0.04852333 0.12414455 0.42587936
-0.19233829 0.12314603 0.00000000
-0.10427965 0.06237580 0.00000949
0.01610162 0.64810201 0.14130991
-0.10984817 -0.43024720 0.00000000
-0.24244534 -0.23359940 0.00000000
0.04611364 -0.30091026 0.40470359
0.04840795 -0.65217981 0.42483891
-0.24862061 -0.24591271 0.00000000
-0.29834151 0.02252466 0.00000716
-0.73572940 -0.68531297 -0.00000029
-0.37390685 0.02804260 -0.00000023
-0.08117429 0.07156788 0.00000970
-0.48887675 0.30106972 -0.00000120
0.04994250 0.34503173 0.43829776
-0.35949196 0.27346804 0.00000189
0.06007009 -0.26856615 0.52718541
0.03862399 -0.59258682 0.33897273
0.00095693 0.55642831 0.00842952
-0.75364248 -0.34578662 -0.00000114
0.05918000 -0.08724338 0.51937144
0.02697287 0.49968409 0.23672427
0.07814969 0.00314458 0.68584659
-0.23071771 -0.59004633 0.00000000
-0.10492073 -0.52255069 0.00000000
-0.27198287 -0.07466508 0.00000000
0.01328546 -0.18788994 0.11659615
0.07744864 0.02129087 0.67970658
-0.54920411 -0.46554714 -0.00000011
-0.51290462 -0.75054581 0.00000000
0.03972104 -0.06143638 0.34860069
-0.00455339 0.36322282 0.00000648
0.03651286 0.06027785 0.32050000
0.01117298 -0.64691582 0.09805659
-0.40717988 -0.45727859 0.00000000
-0.18174347 -0.70403226 0.00000000
0.02234373 0.14101530 0.19609351
-0.17517941 0.01327199 0.00000000
0.03147302 -0.41980374 0.27621421
0.04778678 -0.34639130 0.41938744
0.03160794 -0.20728201 0.27739834
-0.11259473 -0.09369907 0.00000000
0.04443042 0.31276519 0.38992462
0.00345283 0.23608934 0.03030278
0.07451575 0.01066981 0.65395536
0.08669407 -0.19476438 0.76083421
0.06223574 -0.54544138 0.54619468
-0.24644585 0.41850815 0.00000164
0.01071392 -0.02906978 0.09402774
-0.25374201 0.34833349 -0.00000028
0.04313520 -0.52453573 0.37856410
0.02462677 0.23493100 0.21613000
0.07030615 0.14245942 0.61701036
-0.60208049 -0.37548905 -0.00000049
0.01868794 -0.67646996 0.16400951
-0.63320713 -0.71736190 -0.00000002
0.07248985 -0.46778801 0.63618308
0.00496349 0.61781788 0.04356073
-0.23305239 0.31897907 0.00000356
0.02691702 -0.07709411 0.23622973
-0.41902058 0.18848084 0.00000217
0.02666406 0.03425772 0.23408031
0.06458877 -0.61834426 0.56684546
0.00504941 -0.11107559 0.04431474
0.03242119 -0.08391992 0.28453560
-0.08798148 0.17588233 0.00000000
0.04688938 0.31612927 0.41150421
0.02051666 -0.72372993 0.18005878
0.06023324 -0.31750894 0.52861794
0.02021463 0.07642279 0.17740807
-0.15323602 0.45921404 -0.00000005
-0.12145363 -0.42551436 0.00000000
0.03592122 0.27561478 0.31524912
0.01874272 0.39856320 0.16452174
0.07482342 -0.63957911 0.65666476
-0.10192615 0.36440072 0.00000000
0.03562121 -0.46657464 0.31261963
0.01284114 -0.69976002 0.11269672
0.06335374 -0.25018747 0.55600217
-0.02379269 -0.67176408 0.00000000
-0.74758658 0.04046177 -0.00000167
0.05411841 0.28452696 0.47494600
-0.07143133 -0.77842109 0.00000000
-0.07257721 -0.21857844 0.00000000
0.07305645 -0.10358122 0.64115023
0.00579247 0.49639389 0.05086962
0.02227286 0.58040275 0.19547092
-0.30366314 0.22812251 -0.00000029
-0.19026506 -0.59082907 0.00000000
0.01071488 0.55073717 0.09405681
0.07833405 -0.31518320 0.68746906
-0.24124916 -0.54281223 0.00000000
-0.32764612 0.36572687 -0.00000063
-0.19261138 -0.23043830 0.00000000
0.00812062 -0.47549902 0.07126840
-0.08710967 -0.58500750 0.00000000
0.02301433 0.22810263 0.20202797
-0.26102521 0.17637363 0.00000540
0.05876607 0.04467593 0.51573699
-0.78432754 -0.74808948 -0.00000013
0.02119978 0.26339250 0.18605396
0.03401349 0.22473939 0.29850777
-0.16365846 -0.65672446 0.00000000
0.04519759 -0.44625980 0.39666411
-0.65672949 -0.11883598 -0.00000118
0.04672145 0.13942215 0.41003298
0.01174422 0.38544179 0.10306985
0.00169061 0.68945199 0.01484991
-0.47907316 -0.46318673 0.00000000
0.00016306 0.08158756 0.00143106
0.04410601 -0.14576808 0.38708419
-0.78181174 -0.35599673 -0.00000111
0.01849728 0.51836128 0.16235041
0.03409137 -0.02228939 0.29919342
-0.26246160 0.04739531 0.00000000
-0.05928097 -0.70228520 0.00000000
-0.52803659 -0.04349980 -0.00000076
0.03602712 -0.16940066 0.31618201
-0.41604993 -0.24067121 0.00000000
0.07855447 -0.41145605 0.68940481
-0.12295425 0.48429772 0.00000288
0.03737699 0.11873630 0.32802716
-0.15808262 -0.36097120 0.00000000
0.01431215 0.08191542 0.12568529
0.02030662 -0.75985112 0.17821546
0.05987567 -0.53949677 0.52548224
0.02555876 0.13124471 0.22436832
-0.22066149 0.05191829 0.00000789
-0.58151726 -0.22214951 -0.00000067
0.08022987 -0.14551499 0.70410415
-0.03202890 0.75640296 0.00000011
-0.46054000 -0.26301428 -0.00000009
-0.42232725 -0.50629066 0.00000000
0.03671874 -0.48267924 0.32225184
0.01849368 0.17594140 0.16236595
-0.00489172 0.35415020 0.00000661
-0.48165863 -0.26062876 -0.00000018
0.04646677 -0.37982949 0.40780275
-0.27010713 0.22737794 0.00000438
-0.23380836 0.24646702 -0.00000002
-0.32455720 0.41297631 0.00000023
-0.60601645 -0.01248434 -0.00000115
0.01756914 0.01181275 0.15427486
0.03138729 -0.76469684 0.27546183
-0.08777852 -0.31990319 0.00000000
-0.13741811 0.17860123 0.00000000
-0.08006098 0.55545132 0.00000000
-0.15445385 0.04093397 0.00000906
-0.01163211 0.34329478 0.00000668
0.07585476 -0.72778318 0.66571697
-0.01716989 0.62102598 0.00000000
0.01263830 -0.54186933 0.11091657
-0.29961991 0.08498749 -0.00000001
-0.48227224 -0.62784101 0.00000000
0.07220396 0.03344988 0.63366692
-0.22844464 0.40815571 0.00000216
-0.69384843 -0.50715452 -0.00000065
0.03519728 0.28182936 0.30892341
0.07215008 -0.17827444 0.63319708
-0.12476085 0.49559418 0.00000000
-0.31921131 -0.73811437 0.00000000
0.00402657 0.67498174 0.03533812
0.03398654 -0.48078959 0.29827344
-0.24545361 -0.68520757 0.00000000
-0.27836365 0.39388360 0.00000144
-0.77295590 -0.15772298 -0.00000161
-0.23673555 0.40222062 0.00000210
0.02355349 -0.79039222 0.20671067
-0.09688263 0.62063413 0.00000114
-0.26041859 -0.60807807 0.00000000
-0.03291252 -0.16124685 0.00000000
-0.19192460 -0.60715342 0.00000000
0.04467836 0.12505276 0.39214056
0.03145513 0.35208116 0.27605399
0.07800178 -0.64912321 0.68455796
0.00607194 0.45875303 0.05328869
-0.16225762 0.23294640 0.00000000
0.01498881 0.63993717 0.13154286
-0.43292467 -0.45540395 0.00000000
-0.46895542 0.27986063 -0.00000032
-0.01583617 -0.52956699 0.00000000
0.00716063 -0.34605363 0.06284327
