ply
format ascii 1.0
element vertex 1378
property float x
property float y
property float z
end_header
-0.55335708 -0.64399471 -0.00000010
-0.53912490 -0.50317485 -0.00000019
-0.01459038 -0.33387884 -0.00000029
-0.28911226 -0.72868940 -0.00000004
0.28357928 -0.16177567 -0.00000040
-0.50996473 -0.61946399 -0.00000011
0.04082083 0.04454520 0.00001066
-0.74713846 -0.32002085 0.00000000
-0.26646752 0.38834844 -0.00000064
0.32273745 0.43951164 -0.00000073
-0.63013388 0.27093500 0.16435794
0.51830514 -0.29675286 -0.00000052
0.65836423 -0.14147235 -0.00000127
0.01343516 0.13169615 -0.00000058
-0.40890768 -0.30221237 -0.00000031
0.58455299 0.00986509 -0.00000133
0.18274392 0.06093102 -0.00000054
0.68880674 -0.08320831 -0.00000148
0.70030565 -0.37037723 -0.00000096
0.31078741 -0.66602043 -0.00000008
-0.33757778 -0.76177122 -0.00000002
-0.01154450 0.72761433 -0.00000095
-0.43281723 0.16638416 -0.00000042
-0.62497889 -0.72185915 -0.00000005
-0.62190019 0.11577976 -0.00000021
-0.05304727 -0.72202190 -0.00000005
0.61121082 -0.42646967 -0.00000056
0.24165403 -0.77803170 -0.00000001
-0.10933344 0.17415204 -0.00000061
-0.22899490 -0.28433145 -0.00000032
0.37520549 0.18193223 -0.00000100
0.02725809 0.11616407 0.00000970
-0.29567676 0.61400771 0.17836725
-0.45167761 0.60526593 0.41784138
-0.11321410 0.43926448 -0.00000077
-0.10066968 -0.55140875 -0.00000016
0.62380175 0.01846525 0.00000105
0.30673748 0.24523596 0.00000307
-0.39155414 0.60227442 0.31520319
0.41376204 0.00968880 0.00000524
0.38704519 -0.65563517 -0.00000009
0.15097852 -0.23095008 -0.00000036
0.75070293 -0.79103799 -0.00000002
0.24518114 0.17434888 0.00000547
-0.51260645 0.57330657 0.46495182
-0.52687824 -0.78148008 -0.00000001
0.14610544 0.32695984 -0.00000070
0.25825503 0.29239055 0.00000315
0.11126545 -0.04309608 -0.00000047
0.10125889 0.06658860 -0.00000054
0.08924558 0.51609648 0.00000227
0.61045604 0.09236059 -0.00000157
0.60855223 -0.50729018 -0.00000040
0.77262404 -0.62433577 -0.00000044
-0.12431375 -0.62038030 -0.00000011
-0.65516819 0.19317126 0.07860999
-0.41416955 -0.77529608 -0.00000002
-0.52388427 -0.10175641 -0.00000028
-0.67268650 -0.71427692 -0.00000001
-0.13037180 0.60803848 -0.00000083
-0.73258967 -0.35601769 -0.00000001
0.11486581 0.20164087 0.00000699
0.51095148 -0.17249517 -0.00000074
-0.24172446 0.34139094 -0.00000066
0.32089231 0.05700757 -0.00000058
-0.26709436 0.48564761 -0.00000066
0.21900446 -0.07026101 -0.00000046
-0.60183864 -0.56102019 -0.00000011
-0.34669214 0.60496266 0.24661981
0.36065750 -0.22250881 -0.00000036
-0.69782050 -0.79819910 0.00000000
-0.32383671 0.55207179 0.12344073
-0.71897964 -0.30527444 -0.00000003
-0.39640983 0.13254932 -0.00000045
0.07536058 -0.14380674 -0.00000041
0.43346450 0.31431730 -0.00000060
0.31678073 -0.33879924 -0.00000029
0.30076419 0.38043192 0.00000076
-0.07094578 0.10400314 -0.00000057
-0.34652825 0.46884459 0.02499836
-0.76062705 0.06753449 0.04579742
-0.77148562 0.05186057 0.03796681
0.11880341 0.44077682 -0.00000078
0.16917424 -0.46379631 -0.00000021
-0.52153055 -0.72642088 -0.00000005
-0.77624631 -0.71215949 0.00000000
0.10857672 0.52924652 -0.00000083
-0.68778636 -0.27902007 -0.00000007
0.52698965 -0.66765734 -0.00000008
-0.10562886 -0.36506897 -0.00000027
0.04214593 0.15671483 0.00000882
-0.12269096 0.71180753 0.05609911
0.39623667 -0.68934469 -0.00000007
0.35029368 0.39414237 -0.00000044
-0.54086390 -0.02508294 -0.00000027
0.44352370 0.04492102 -0.00000095
0.01234682 -0.63025287 -0.00000011
0.18531366 -0.40645188 -0.00000025
-0.47331457 -0.33054652 -0.00000029
-0.38943299 0.59063325 0.29282277
-0.30730113 -0.09085551 -0.00000044
0.78704724 -0.19502038 -0.00000151
0.44257564 -0.51191745 -0.00000018
-0.22783019 0.29515272 -0.00000066
0.78894578 -0.12248890 -0.00000169
0.48594743 -0.70532529 -0.00000006
-0.32549392 -0.06653756 -0.00000046
-0.40070759 -0.43629929 -0.00000023
0.11657257 -0.09819705 -0.00000044
-0.34689208 -0.13534853 -0.00000042
-0.43522319 -0.47757435 -0.00000020
0.74484459 -0.59348365 -0.00000052
0.08632876 -0.54720698 -0.00000016
0.75242220 -0.10056958 -0.00000165
-0.49588520 -0.35378236 -0.00000026
-0.58965994 0.32061616 0.17933042
-0.07808513 0.35301937 -0.00000072
0.72037766 0.02315144 -0.00000179
-0.22598844 0.62768062 0.08727465
0.11269734 -0.43289307 -0.00000023
-0.69293967 -0.13260941 -0.00000009
-0.66834212 -0.31074305 -0.00000008
0.10314166 0.01762143 -0.00000051
0.25467914 0.13812514 0.00000591
0.09787657 0.42096346 0.00000368
-0.36473138 0.62363953 0.30632791
0.22773772 0.42483861 0.00000136
-0.05657275 0.01052467 -0.00000051
-0.08472516 0.10581298 -0.00000057
-0.00977502 0.15378159 -0.00000060
0.68182319 0.10945592 -0.00000184
-0.41233106 0.45844223 0.11509038
0.01591327 -0.67094143 -0.00000008
-0.11217508 0.03709337 -0.00000052
0.26413474 0.16526906 -0.00000061
-0.74900880 0.07471270 0.03857701
-0.72906638 -0.60287930 0.00000000
-0.54943927 -0.22556190 -0.00000023
-0.24150582 0.16877742 -0.00000061
-0.32516717 -0.73125805 -0.00000004
0.47101339 -0.60488950 -0.00000012
-0.62920163 0.35376837 0.29754481
0.54352377 -0.13305182 -0.00000092
0.15652867 -0.28480188 -0.00000032
0.01383219 0.69719152 -0.00000094
-0.17755379 -0.75787089 -0.00000003
0.54251771 0.18246061 -0.00000033
0.76621878 -0.24898914 -0.00000138
0.49344272 -0.45001731 -0.00000022
-0.22119575 0.65402867 0.12232798
0.08635168 0.42971356 0.00000371
0.70326970 0.00684432 -0.00000027
0.75591594 -0.40066756 -0.00000100
0.09287714 0.14867250 0.00000818
0.59642933 0.08655248 0.00000036
-0.08296401 -0.57391747 -0.00000014
0.16438400 0.53190098 -0.00000100
0.44185058 -0.21865481 -0.00000043
-0.67178525 -0.40770365 -0.00000006
-0.70508167 0.07482195 -0.00000011
-0.42418346 0.08735470 -0.00000042
0.06797998 0.60505111 0.00000114
-0.49813408 0.38205569 0.13040382
0.16843683 0.55130875 0.00000023
-0.52224072 0.50753359 0.37365848
-0.53650429 0.22750683 -0.00000032
-0.34974856 0.34155235 -0.00000054
-0.24056380 0.69256137 0.21648676
-0.19741734 0.21392459 -0.00000063
-0.73679856 -0.74180390 0.00000000
-0.44252536 -0.25064729 -0.00000034
0.60530712 -0.43203566 -0.00000053
-0.75471245 -0.33991377 0.00000000
-0.73497491 -0.26504246 -0.00000002
0.71299709 -0.23753074 -0.00000126
-0.09063876 -0.76361862 -0.00000002
0.57681049 0.01658339 0.00000199
0.48522725 -0.23042187 -0.00000054
0.13602401 -0.68955769 -0.00000007
0.15151348 0.62978733 -0.00000085
-0.44827144 0.14128170 -0.00000040
0.01753517 0.60380883 0.00000192
-0.00889875 0.19004291 -0.00000062
-0.13631451 -0.72936068 -0.00000004
0.46250793 0.08646391 0.00000293
-0.63676352 -0.62603163 -0.00000006
0.09650783 0.57375570 -0.00000087
-0.22199003 0.39322897 -0.00000069
0.04887183 0.31194796 -0.00000069
-0.39708251 0.57076387 0.27295069
0.47916532 0.17417621 -0.00000131
0.23699116 0.42008197 0.00000127
-0.06620096 0.60910038 -0.00000088
0.44551422 -0.51558269 -0.00000018
0.42374942 0.36444499 -0.00000151
-0.32268323 0.50759269 0.04923348
0.34787959 0.28016506 -0.00000110
0.22206449 0.14407297 0.00000631
-0.60040546 0.28386688 0.13704340
-0.10421333 -0.25030691 -0.00000034
0.23663502 0.12994347 0.00000632
0.11769477 -0.35169508 -0.00000028
-0.18303593 -0.38992333 -0.00000026
0.04919909 0.22073873 0.00000767
-0.60445470 -0.38607458 -0.00000014
0.59101965 -0.48036446 -0.00000039
-0.06337449 0.52171100 -0.00000083
0.02046897 0.12665114 0.00000963
-0.06401970 -0.57600714 -0.00000014
0.07037826 -0.08905503 -0.00000044
-0.01103860 0.04924236 -0.00000053
0.34086160 -0.11503908 -0.00000043
0.45936521 0.27645910 -0.00000042
0.00688361 0.45132574 -0.00000078
0.08496828 0.47410882 0.00000301
-0.08396573 0.73109157 0.02448383
0.10519911 0.28067806 -0.00000068
0.52539553 -0.38986961 -0.00000036
-0.55204105 -0.78290312 -0.00000001
0.25432841 -0.56218811 -0.00000015
0.55477334 0.08033669 0.00000127
0.11277373 -0.13520248 -0.00000042
0.75162732 0.02141583 -0.00000189
-0.47221923 -0.37972221 -0.00000026
0.61221490 0.14025661 -0.00000091
-0.10964114 -0.68730801 -0.00000007
0.33295262 0.04279749 -0.00000059
0.05711145 -0.50698525 -0.00000018
-0.05698451 0.22579795 -0.00000064
0.74602594 -0.15119217 -0.00000153
0.16465518 -0.49979539 -0.00000019
0.22932827 0.39445893 0.00000188
0.07630288 0.32253096 0.00000561
-0.34808972 0.28055885 -0.00000053
-0.40988700 0.59364402 0.33098142
0.12380408 0.33949334 -0.00000071
-0.74418323 -0.11619129 -0.00000004
-0.11804987 0.28356244 -0.00000068
0.37114432 0.29614223 -0.00000121
-0.15561782 -0.26551550 -0.00000033
-0.55663106 0.31153233 0.11084695
0.18209847 0.00720104 0.00000914
-0.26604251 0.68109344 0.23927123
0.01381459 0.57358919 0.00000247
-0.27056909 0.63737302 0.17553381
0.56903388 -0.51224959 -0.00000026
0.36127195 -0.19320655 -0.00000038
-0.27160686 0.15088131 -0.00000059
0.71306520 -0.06394293 -0.00000160
-0.38039609 0.43416228 0.02367405
0.36924574 -0.00536317 -0.00000061
-0.33074449 -0.44632972 -0.00000022
-0.67621241 0.05286399 -0.00000014
-0.50056110 0.36331412 0.10387327
0.07122361 0.33599096 0.00000547
-0.06600900 0.19119535 -0.00000062
0.29789849 0.15000379 0.00000495
-0.30184224 -0.33628682 -0.00000029
0.08831298 0.36292819 0.00000477
0.04374113 -0.35851543 -0.00000028
0.15626191 0.63268039 -0.00000117
0.30467309 0.38889879 -0.00000117
0.17999561 0.13192428 0.00000714
0.45888241 -0.31693395 -0.00000030
0.47625579 0.27838361 -0.00000078
0.28822223 0.26516838 -0.00000088
-0.67195458 0.13615568 0.01318975
0.03566709 -0.05666489 -0.00000046
0.05897438 -0.55575723 -0.00000015
-0.22401156 0.07343204 -0.00000055
0.18493851 -0.35689005 -0.00000028
-0.36853625 -0.44687098 -0.00000022
-0.41651372 0.53858352 0.25221792
-0.79210972 -0.25939921 0.00000000
-0.54803006 -0.06314142 -0.00000026
-0.62937809 0.34054349 0.27632551
0.47720229 0.19310723 -0.00000134
-0.13001479 -0.28371897 -0.00000032
0.52169849 -0.69146325 -0.00000007
0.06957858 0.03442107 0.00001039
-0.20082997 -0.39825846 -0.00000025
0.15803971 0.54303771 0.00000058
0.08154036 -0.28656310 -0.00000032
0.37092041 -0.67678651 -0.00000008
-0.01501185 0.64071331 -0.00000090
-0.03231213 0.65143553 -0.00000091
-0.66294753 0.18136334 0.07205879
-0.22693652 0.32338243 -0.00000067
-0.69139412 0.18501831 0.12426218
-0.46243524 -0.12780395 -0.00000034
0.62606287 0.15159858 -0.00000174
0.19245264 0.34340914 0.00000350
-0.47247258 0.19890554 -0.00000039
-0.62580149 -0.78372323 -0.00000001
0.30264500 -0.58135548 -0.00000014
-0.56276084 0.33268706 0.15521678
0.36444792 -0.42157531 -0.00000024
-0.77803414 -0.76684729 0.00000000
0.45748580 0.06444291 -0.00000103
-0.10510416 -0.18831792 -0.00000038
0.68144869 0.06546916 -0.00000090
-0.45829069 0.05260990 -0.00000037
-0.57857040 -0.78564284 -0.00000001
0.71238564 -0.78857727 -0.00000003
-0.17386227 -0.37292442 -0.00000027
-0.43430765 -0.00618251 -0.00000039
0.78100990 -0.76310326 -0.00000009
0.49204555 0.21710365 0.00000002
0.34098805 0.28608494 0.00000168
-0.32902071 0.50364158 0.05311420
-0.12319929 0.13059468 -0.00000058
0.77088582 -0.78872228 -0.00000003
-0.46447349 -0.71141746 -0.00000006
0.27079618 0.39720887 -0.00000108
-0.38202784 -0.27539239 -0.00000033
0.22275981 0.35414404 0.00000273
0.04706213 -0.24504199 -0.00000035
0.55162118 -0.19270882 -0.00000083
0.28558082 0.01134970 -0.00000051
-0.14166474 0.20903976 -0.00000063
-0.60272963 0.25673520 0.09670169
-0.40020050 -0.59601226 -0.00000013
0.58514648 -0.33097732 -0.00000067
0.72077704 -0.56241299 -0.00000059
-0.42756158 0.07995847 -0.00000041
0.08022025 0.57499026 0.00000145
0.04809708 -0.23270500 -0.00000035
-0.13613329 0.08720430 -0.00000055
-0.63296069 0.33980434 0.28094952
-0.14597412 0.41805777 -0.00000076
-0.17280031 -0.43631805 -0.00000023
-0.25742817 0.66925653 0.20601321
0.15410149 0.33902712 0.00000417
0.70284762 -0.32727885 -0.00000105
-0.37708029 0.49603405 0.11889719
-0.56616690 -0.78222349 -0.00000001
0.08208262 0.64345873 -0.00000096
0.00750417 0.10910384 -0.00000057
-0.34323230 0.57378517 0.19029225
-0.05961460 -0.46968101 -0.00000021
-0.75106282 -0.08600588 -0.00000004
0.29544231 -0.52044335 -0.00000017
0.41004511 -0.54207613 -0.00000016
0.42442707 0.13574755 0.00000278
-0.64417372 0.28650688 0.21251228
-0.45567621 -0.05873245 -0.00000036
-0.29979542 0.65274383 0.24805812
0.55440103 -0.30156314 -0.00000063
-0.71789414 -0.48151201 0.00000000
-0.43339996 0.20004205 -0.00000043
-0.21590652 -0.06219111 -0.00000046
-0.60032524 -0.11537603 -0.00000019
-0.14818596 0.73231859 0.13091462
0.15906147 0.46467166 0.00000197
0.16425011 -0.68014875 -0.00000007
-0.38101594 -0.44984727 -0.00000022
-0.62575534 -0.72608147 -0.00000005
0.21906461 0.35413688 -0.00000083
0.13978692 -0.37265332 -0.00000027
-0.61354169 0.14884104 -0.00000023
0.17305819 -0.34373273 -0.00000029
0.24957181 0.03632729 0.00000764
0.32710846 0.25625818 -0.00000099
0.78922517 -0.55191985 -0.00000062
0.00327067 0.28375755 0.00000734
-0.07746124 -0.12009432 -0.00000042
-0.42952783 -0.75452176 -0.00000003
-0.22733066 -0.78753751 -0.00000001
0.08694175 -0.51569108 -0.00000018
0.58857298 -0.28649512 -0.00000076
0.73532689 -0.54674589 -0.00000063
-0.32523446 0.64189274 0.27178119
0.33293738 0.11157537 -0.00000072
-0.30659254 -0.25657639 -0.00000034
0.17545351 -0.37045665 -0.00000027
-0.67154857 -0.69670684 -0.00000001
0.42872820 -0.30476009 -0.00000031
-0.43734677 0.26067865 -0.00000043
0.75037829 0.01498948 -0.00000132
-0.49176715 0.08884770 -0.00000035
0.22842765 -0.47941977 -0.00000020
-0.47794536 -0.45959366 -0.00000021
0.07739318 0.20819645 0.00000745
-0.14126983 -0.23821217 -0.00000035
0.24338936 -0.45524937 -0.00000022
0.26534725 0.37919820 0.00000146
-0.52253043 -0.66686945 -0.00000008
-0.18800430 0.64450026 0.05285695
0.12863157 -0.29445764 -0.00000032
-0.51982347 0.56373858 0.46112866
-0.28591938 0.20731353 -0.00000059
0.33254441 0.19552443 0.00000347
0.19603454 0.22353614 0.00000541
0.73720767 -0.48745628 -0.00000078
-0.47467375 0.12559011 -0.00000037
0.54310615 -0.39260778 -0.00000041
0.63754073 0.13563332 -0.00000132
-0.20362154 -0.58724092 -0.00000013
0.52898287 -0.43299442 -0.00000029
-0.16983087 0.16296383 -0.00000060
0.27063016 0.00516425 -0.00000050
0.13230459 0.42090279 0.00000316
-0.30224811 -0.43418199 -0.00000023
-0.23969249 0.46016481 -0.00000068
-0.66085736 0.23420347 0.15458786
0.44445432 -0.64669033 -0.00000010
-0.54915596 -0.39272351 -0.00000020
0.69411740 -0.04633546 -0.00000157
0.79135131 -0.03967143 -0.00000189
0.19839744 -0.34370610 -0.00000029
0.46547103 -0.33130202 -0.00000029
0.31950651 -0.68855140 -0.00000007
-0.13730995 -0.45146645 -0.00000022
-0.47331593 0.56488837 0.38736743
-0.29058902 -0.20200771 -0.00000037
-0.42046415 0.50961560 0.21153421
0.07730032 -0.17990781 -0.00000039
0.70540741 -0.09764045 -0.00000151
0.39307991 0.07967467 -0.00000085
-0.34535512 -0.54348096 -0.00000016
-0.54519497 -0.52354588 -0.00000017
-0.79837854 -0.24108500 0.00000000
0.60921727 0.11028799 -0.00000032
-0.41800466 0.02563608 -0.00000041
0.15592787 -0.72758494 -0.00000005
-0.15007775 -0.60227577 -0.00000012
-0.19331467 -0.37595040 -0.00000027
-0.19926599 0.69885190 0.15955759
-0.23492648 0.29964552 -0.00000066
-0.30337436 0.56931759 0.11820991
0.08254433 -0.61859053 -0.00000011
-0.64737441 -0.53959209 -0.00000006
-0.01587767 0.11309821 -0.00000057
-0.72723302 -0.62950947 0.00000000
-0.56940153 0.48125634 0.40761952
-0.69363603 -0.28429710 -0.00000006
0.23774926 -0.21889854 -0.00000036
-0.49437228 -0.47837494 -0.00000020
-0.13176759 -0.13713896 -0.00000041
0.48233048 -0.04162998 -0.00000090
0.13523184 -0.39706741 -0.00000025
-0.48815345 -0.00562019 -0.00000033
-0.09325783 -0.35968017 -0.00000028
0.08971057 0.38571128 0.00000438
-0.18103356 0.21118259 -0.00000063
0.73739976 -0.25776351 -0.00000130
0.26747608 0.04159132 0.00000729
-0.43640406 0.31557345 -0.00000045
-0.55672857 -0.53371472 -0.00000016
0.48660572 0.24316910 -0.00000035
-0.45388597 0.50704117 0.26169855
-0.33859131 0.22998455 -0.00000053
-0.67943618 -0.07213369 -0.00000012
0.09482188 0.30880066 0.00000555
0.36201422 -0.69832493 -0.00000006
0.36985749 0.07428326 0.00000493
-0.27523289 0.61525211 0.14714488
0.63187345 -0.55879912 -0.00000037
-0.60532265 0.24781919 0.08641932
0.25234373 0.37651639 -0.00000098
-0.59595808 -0.45449325 -0.00000013
0.43765815 -0.71295800 -0.00000005
-0.37355935 -0.19542967 -0.00000038
-0.15325026 0.60966737 -0.00000080
-0.36268744 -0.19042722 -0.00000038
0.52065154 0.00121754 -0.00000111
0.00724198 0.77922536 -0.00000099
-0.17120417 0.35242026 -0.00000072
0.39704490 0.05668146 -0.00000082
-0.36998931 0.16803160 -0.00000049
0.69990692 0.08021517 -0.00000152
-0.72024308 -0.39826472 -0.00000001
-0.38003864 -0.34813759 -0.00000028
-0.08827769 -0.31738448 -0.00000030
0.02733151 0.22273604 0.00000797
0.79230803 -0.55722258 -0.00000061
0.18596251 0.37066551 0.00000314
0.20209699 0.42377415 0.00000187
-0.47882807 0.57219938 0.40822056
0.03458202 -0.61836982 -0.00000011
0.13093393 -0.71462178 -0.00000005
0.73504249 0.03502583 -0.00000186
-0.38755240 0.57395090 0.26263553
-0.28561069 0.11663886 -0.00000057
0.04910606 -0.27239992 -0.00000033
0.45673741 -0.44739762 -0.00000022
-0.18793805 0.14633229 -0.00000059
-0.29758112 -0.27257146 -0.00000033
0.22448249 -0.25327034 -0.00000034
0.02186288 -0.49490752 -0.00000019
-0.78164483 -0.38122918 0.00000000
0.13178586 -0.44984918 -0.00000022
0.59948853 0.02315328 0.00000144
-0.17944077 -0.60236831 -0.00000012
0.01261220 0.26574853 0.00000749
-0.07192614 0.13997642 -0.00000059
-0.61579985 0.28132206 0.15793934
0.34210754 -0.52754578 -0.00000017
-0.79775526 -0.44441126 0.00000000
-0.11838048 -0.05375664 -0.00000047
-0.54162648 0.02835173 -0.00000028
0.75391611 -0.27167634 -0.00000132
-0.18794794 0.66415476 0.08472725
0.00423537 0.25080150 -0.00000066
-0.26494465 -0.78607198 -0.00000001
0.57003433 -0.71985053 -0.00000005
0.32200332 -0.62082755 -0.00000011
0.06142575 0.25608729 0.00000691
-0.04354313 -0.14405410 -0.00000041
-0.44300947 -0.79479129 -0.00000000
0.11804687 0.10950216 -0.00000057
0.29414647 0.16727166 -0.00000071
-0.07349690 -0.75664102 -0.00000003
0.24147085 0.27442463 0.00000380
0.60597091 -0.68062026 -0.00000007
-0.58821587 -0.04423234 -0.00000022
-0.55691777 0.35174842 0.17671220
-0.04084547 0.64134973 -0.00000090
0.01689072 -0.29889634 -0.00000031
0.54438968 -0.65473945 -0.00000009
-0.36171511 0.47461815 0.05908406
0.49004505 -0.60890065 -0.00000012
-0.02651029 0.68015829 -0.00000093
0.31608225 -0.71359020 -0.00000005
0.48203151 0.27430798 -0.00000152
0.13679463 -0.35116761 -0.00000028
0.12853959 0.65736040 -0.00000091
0.28518938 -0.64284815 -0.00000010
0.53718693 -0.32013814 -0.00000053
-0.52913004 0.38206078 0.18081759
0.44063094 0.08615344 0.00000335
-0.03261314 -0.25617879 -0.00000034
-0.09292538 -0.38737572 -0.00000026
-0.46530006 0.50214099 0.27229153
0.61687412 0.13219540 -0.00000086
-0.27518279 -0.41790113 -0.00000024
-0.26989197 -0.51460091 -0.00000018
0.66556724 -0.46426435 -0.00000066
0.08457030 0.28213692 -0.00000068
0.46472512 0.30971727 -0.00000153
0.52674194 -0.03506267 -0.00000106
-0.64504714 0.33136814 0.28688560
0.13070250 0.24144485 0.00000610
0.78793285 -0.66190228 -0.00000035
-0.60424896 0.00317897 -0.00000021
-0.08599292 0.60976642 -0.00000087
0.50356475 -0.38700850 -0.00000030
0.04997826 0.27715458 0.00000674
0.50253253 -0.00057364 -0.00000105
0.10524326 -0.00341261 -0.00000050
-0.63942748 0.14884706 -0.00000020
0.72147228 -0.47288000 -0.00000082
-0.18247140 0.00549790 -0.00000050
0.06235766 0.26471962 -0.00000067
0.52531413 -0.64581996 -0.00000010
-0.07493044 -0.56133902 -0.00000015
0.00039000 -0.36982451 -0.00000027
0.77441473 -0.42769267 -0.00000093
0.43791338 -0.60030408 -0.00000012
-0.50932226 -0.33885748 -0.00000025
0.44301557 -0.31604675 -0.00000030
0.41852173 0.32450933 -0.00000050
-0.37801667 -0.09616983 -0.00000043
-0.26640166 -0.07924209 -0.00000045
0.02056318 0.55852459 0.00000261
-0.57294845 0.37932047 0.24761863
-0.42229380 -0.65768491 -0.00000009
-0.45631589 0.24272651 -0.00000041
-0.14038523 -0.24919633 -0.00000034
-0.19383481 -0.64783619 -0.00000010
0.40810595 -0.10841678 -0.00000053
-0.28701642 -0.61358203 -0.00000012
-0.42236875 -0.72256041 -0.00000005
-0.71392393 0.19525788 0.17755153
0.22836721 0.21528066 0.00000506
-0.12890861 -0.31197578 -0.00000031
0.24361013 0.33734060 -0.00000088
0.05931136 -0.10668824 -0.00000043
0.70236614 -0.10127308 -0.00000149
0.20735204 -0.59570876 -0.00000013
0.07310838 0.66025856 -0.00000096
-0.24441529 -0.24219654 -0.00000035
-0.00094900 0.68263629 -0.00000093
-0.40651435 -0.61106116 -0.00000012
0.08415346 -0.36535002 -0.00000027
-0.56668263 -0.74191420 -0.00000004
-0.17506944 -0.49822334 -0.00000019
-0.46249125 -0.13408025 -0.00000034
-0.25098981 -0.57683760 -0.00000014
0.06886534 0.68748101 -0.00000100
0.00276456 -0.70354449 -0.00000006
-0.18844961 0.51413800 -0.00000075
0.58029837 -0.58227459 -0.00000016
0.08654772 0.45525582 -0.00000078
0.46597443 0.28251557 -0.00000148
-0.47223309 0.31728266 -0.00000041
0.19871384 0.07584996 0.00000777
-0.43821287 0.34449264 -0.00000045
-0.51621297 -0.13827411 -0.00000028
0.29681727 0.27033847 0.00000281
0.54843582 -0.29242519 -0.00000062
0.07888084 -0.51751330 -0.00000018
0.11571704 0.19381275 -0.00000062
0.17411319 -0.78351641 -0.00000001
0.11146499 0.06101016 0.00000933
-0.07421847 -0.06371248 -0.00000046
0.35583401 0.07859094 -0.00000073
0.40892658 -0.35281630 -0.00000028
0.13059381 -0.22532165 -0.00000036
0.68639127 -0.48037469 -0.00000070
0.23740037 0.40173300 0.00000159
-0.45454940 -0.69434237 -0.00000007
0.69154585 0.02719969 -0.00000041
-0.01205322 -0.55642919 -0.00000015
-0.57962631 0.18511034 -0.00000027
-0.54753830 0.27438821 0.03565693
0.19581448 -0.67271257 -0.00000008
-0.00055589 0.27030766 -0.00000067
0.77403709 -0.23956850 -0.00000140
0.16160958 -0.09954406 -0.00000044
-0.55108488 0.54717304 0.48502722
-0.02191643 -0.35364884 -0.00000028
0.25442044 0.22905379 -0.00000070
0.02554343 0.70384584 0.00000018
-0.24194589 0.68644152 0.20878218
0.70134774 -0.10763571 -0.00000147
0.13822041 0.16201550 0.00000728
0.13841751 -0.64784119 -0.00000010
0.21347581 -0.06382643 -0.00000046
0.52276283 -0.21717056 -0.00000069
0.15594919 0.59111723 -0.00000024
0.42597776 0.01574657 -0.00000083
0.45676360 -0.27488627 -0.00000037
-0.51902723 0.30532263 0.03959761
-0.58302487 -0.28810994 -0.00000018
0.26794558 -0.68826473 -0.00000007
-0.43418373 -0.64533195 -0.00000010
-0.40872877 0.13679034 -0.00000044
0.40376781 0.10017324 -0.00000093
0.29109360 0.07891970 0.00000633
-0.07053719 -0.48675891 -0.00000020
-0.45676965 0.40053654 0.09319055
0.50417383 -0.77394751 -0.00000002
-0.68442501 -0.56491116 -0.00000002
0.60182728 0.18928413 -0.00000159
0.61275082 -0.31204071 -0.00000079
-0.63719191 -0.21345022 -0.00000013
0.09398613 0.70053572 -0.00000102
-0.45653372 -0.10405128 -0.00000035
0.41676239 0.13878866 0.00000287
-0.49418084 -0.66083629 -0.00000009
-0.37573012 -0.50382135 -0.00000019
0.69217728 -0.06067487 -0.00000154
-0.06283496 0.29276072 -0.00000068
-0.43535343 -0.70411883 -0.00000006
0.32452120 0.17169679 0.00000405
-0.22385308 -0.33776610 -0.00000029
0.19133414 0.29505862 -0.00000068
0.06999502 0.61876172 0.00000089
0.04522031 0.05950215 0.00001035
-0.56518785 0.23929048 0.00728297
0.64561164 -0.40569835 -0.00000071
0.24564877 0.13972836 -0.00000059
-0.56576033 0.53192819 0.48410125
0.13005039 0.01331909 -0.00000051
0.68147267 -0.51269682 -0.00000062
-0.39717477 0.01750996 -0.00000043
-0.44549851 0.53673255 0.29634321
-0.33153810 -0.71779101 -0.00000005
-0.75231652 -0.24629172 -0.00000001
-0.12665223 0.26305146 -0.00000066
-0.62110056 -0.49763590 -0.00000010
0.14279118 -0.41500561 -0.00000024
-0.13099490 0.38481930 -0.00000074
-0.01643943 -0.68992517 -0.00000007
0.66040850 -0.77601817 -0.00000004
-0.09622666 0.52944269 -0.00000083
-0.40776760 0.54953421 0.25580301
-0.13216586 0.05203482 -0.00000053
-0.15312005 0.69587292 0.07967017
0.67574266 0.04497923 -0.00000169
-0.65982171 0.11977555 -0.00000017
0.10249777 -0.01042455 -0.00000049
-0.35592915 -0.63348970 -0.00000010
-0.38973727 0.19992369 -0.00000047
0.57959772 -0.16228143 -0.00000098
0.10384802 0.65203579 -0.00000034
-0.10670609 -0.22678276 -0.00000036
0.13539647 -0.32351270 -0.00000030
-0.10835852 -0.49600584 -0.00000019
0.49720534 0.18799486 -0.00000140
0.21881106 0.03155537 0.00000819
-0.27233307 0.46977867 -0.00000065
0.19773418 0.52826818 -0.00000110
-0.40086746 0.56485962 0.26950428
-0.08153112 -0.64553581 -0.00000010
-0.21185817 0.46856033 -0.00000071
-0.13893850 -0.01095929 -0.00000049
0.78963014 -0.29756026 -0.00000126
0.21221779 -0.66007724 -0.00000009
0.12504109 0.00356777 0.00001006
-0.53653744 -0.58311163 -0.00000014
-0.50319053 -0.77890426 -0.00000001
0.33993058 0.23014003 0.00000270
-0.63755312 -0.08955983 -0.00000016
0.73128428 -0.39126955 -0.00000102
0.47268466 -0.67755768 -0.00000008
0.43963286 -0.14345618 -0.00000057
-0.03722028 0.21341905 -0.00000063
-0.31992103 0.55200664 0.11696711
0.54689078 -0.67269187 -0.00000008
-0.19825034 0.14093608 -0.00000059
0.71364736 -0.45348368 -0.00000084
-0.43075195 -0.38031542 -0.00000026
-0.03984691 -0.23313438 -0.00000035
0.44456175 0.10702371 0.00000290
0.43523880 0.26894293 -0.00000136
-0.69390496 -0.54880754 -0.00000001
-0.00967721 -0.24599207 -0.00000035
-0.35636761 -0.23556457 -0.00000035
0.77491030 -0.22472479 -0.00000144
-0.27113701 0.26245878 -0.00000061
-0.19618886 -0.22641157 -0.00000036
0.02275629 0.63756135 0.00000130
0.02015021 0.59260363 0.00000207
-0.42160324 0.39496682 0.02694566
0.42109210 -0.69385951 -0.00000007
-0.37094339 0.63115587 0.32865310
0.56508770 -0.27321561 -0.00000072
-0.52033110 0.42640800 0.23862582
-0.18197820 0.49430042 -0.00000075
0.41968144 0.26867140 0.00000048
-0.60032254 -0.19226285 -0.00000018
0.15374234 -0.24707089 -0.00000035
0.54772342 -0.50378472 -0.00000021
0.75262779 -0.41359497 -0.00000097
-0.07585125 0.23185444 -0.00000064
-0.19055432 -0.25240065 -0.00000034
0.32480716 0.27126494 0.00000226
-0.33923062 0.62541177 0.26774037
0.26095130 -0.30405884 -0.00000031
0.45903259 0.23013046 0.00000042
0.12721647 0.15442188 0.00000757
-0.09934817 -0.77307821 -0.00000002
0.26428761 -0.28019631 -0.00000032
-0.09467793 0.28203615 -0.00000068
0.45386161 -0.17246033 -0.00000056
-0.04094052 0.13598630 -0.00000058
0.11091498 -0.45694729 -0.00000021
0.36558237 0.23558818 0.00000211
-0.38298158 0.16514449 -0.00000048
0.41045464 0.05250776 -0.00000086
-0.10311891 -0.39056677 -0.00000026
-0.32159418 -0.34616987 -0.00000028
-0.24326335 0.56396594 0.01175486
-0.56335041 0.44501763 0.33884740
-0.54684497 -0.65476159 -0.00000009
0.42929092 0.04589413 -0.00000090
0.02447508 -0.49393761 -0.00000019
0.42572277 0.37072810 -0.00000147
-0.50099523 0.46010221 0.26197547
-0.33894186 -0.50596970 -0.00000018
-0.59674656 0.06499875 -0.00000023
-0.24977956 0.46564754 -0.00000067
0.25166825 -0.30271660 -0.00000031
-0.25656624 0.56794121 0.03985249
-0.74135180 -0.57730523 0.00000000
0.44982039 0.18330288 0.00000143
-0.62499168 0.30334783 0.20870514
-0.29487964 -0.00931821 -0.00000049
-0.20140198 -0.72399596 -0.00000005
0.01906051 0.09177153 -0.00000056
0.05517934 0.34501788 -0.00000072
-0.35796458 -0.15705245 -0.00000040
-0.70605914 -0.14306835 -0.00000007
-0.40130160 -0.38859576 -0.00000026
0.41717201 0.19791511 -0.00000116
-0.35375541 -0.28741923 -0.00000032
0.32768463 -0.50141009 -0.00000019
-0.58614493 -0.01325203 -0.00000023
0.61205537 0.15886338 -0.00000171
-0.59015912 0.36898335 0.25879641
-0.71297439 0.05116759 -0.00000010
0.37097595 0.26775598 0.00000143
0.18383383 0.49864882 0.00000088
-0.23806800 0.64566587 0.13616613
0.41000409 -0.44770231 -0.00000022
0.54149444 -0.59008551 -0.00000013
0.29203235 -0.78296978 -0.00000001
0.34785576 -0.03206300 -0.00000049
-0.10774569 0.47351592 -0.00000080
0.19761766 0.11353620 -0.00000057
-0.11833832 -0.42217025 -0.00000024
-0.54749934 0.45562301 0.33031679
0.74962222 -0.27933766 -0.00000129
-0.16064149 0.44525864 -0.00000076
0.39535986 0.00335071 -0.00000071
-0.55409431 0.44728330 0.32747948
0.10014938 0.01217578 -0.00000051
0.25653313 -0.51722320 -0.00000018
0.39845141 0.16853393 -0.00000104
0.37469325 0.30179631 -0.00000123
0.24154106 -0.58976443 -0.00000013
-0.52330342 0.43682226 0.26039520
0.03105418 0.47689450 0.00000378
-0.79644903 -0.31806035 0.00000000
-0.65627527 0.18560310 0.06810304
0.14971932 0.34069111 0.00000420
0.01222196 0.33847618 -0.00000071
-0.06251206 0.40575922 -0.00000075
0.54467522 0.02977916 -0.00000124
0.47791104 -0.72894342 -0.00000004
-0.25711938 -0.24133047 -0.00000035
0.17972060 0.27113860 -0.00000067
-0.15056852 0.49835674 -0.00000078
0.42224927 -0.60350596 -0.00000012
-0.46482499 -0.55454383 -0.00000015
0.42611141 0.33872502 -0.00000146
-0.02276974 0.11635587 -0.00000057
0.40552752 0.27934434 -0.00000128
0.28983716 -0.37967386 -0.00000026
0.68674666 -0.58897131 -0.00000049
-0.16052803 -0.45891078 -0.00000021
0.39770440 0.05721851 -0.00000082
0.57432074 -0.14362247 -0.00000100
-0.31515245 -0.71543921 -0.00000005
0.21154020 0.04326070 0.00000811
0.08595216 0.10193653 -0.00000056
-0.14047268 0.70935965 0.08103515
-0.46089922 -0.42640157 -0.00000023
0.28760383 0.29463827 0.00000255
-0.15564525 -0.15948772 -0.00000040
-0.52297063 -0.48693227 -0.00000020
0.23799523 0.29853009 -0.00000078
0.55403922 -0.74625670 -0.00000003
-0.19011763 0.42247777 -0.00000073
-0.62623711 -0.20708000 -0.00000015
0.40273085 0.11933767 -0.00000096
0.64327010 -0.12364994 -0.00000126
-0.34104208 0.60338518 0.23486631
0.19133060 -0.10697451 -0.00000043
-0.32282277 0.13704746 -0.00000053
-0.46405529 -0.47373074 -0.00000020
-0.60518875 0.40781183 0.34638086
-0.18799507 0.70078977 0.14438009
0.00560981 0.72134423 0.00000019
0.64642081 -0.64712448 -0.00000025
-0.58594204 0.30087638 0.14118373
-0.21969362 -0.14962149 -0.00000041
0.72477686 -0.73433087 -0.00000016
0.46681160 -0.62449583 -0.00000011
0.24461676 0.21929876 0.00000473
-0.35939655 0.55843035 0.19160852
0.59368464 -0.15693052 -0.00000103
-0.31555513 -0.43731003 -0.00000023
-0.60728932 0.31171568 0.19352535
-0.54271707 -0.47603115 -0.00000019
-0.03858737 -0.25456502 -0.00000034
0.59270014 -0.59215838 -0.00000018
-0.77958139 -0.75037657 0.00000000
0.18898345 0.48022406 0.00000111
-0.40643631 -0.14842959 -0.00000039
0.60891277 -0.11038334 -0.00000117
0.47598746 0.16654031 0.00000123
-0.20882490 0.36163815 -0.00000070
0.22375020 0.50593378 -0.00000002
-0.00236320 -0.31408841 -0.00000030
0.42124371 -0.64471361 -0.00000010
0.02257035 0.58875891 0.00000209
0.45566340 -0.70698327 -0.00000006
0.14798345 -0.70950544 -0.00000006
0.20142468 0.00257938 -0.00000050
0.16527902 0.49744686 0.00000126
-0.03238607 -0.77321261 -0.00000002
0.09372968 -0.46675525 -0.00000021
0.16636688 0.23650872 -0.00000065
0.17734444 -0.75646918 -0.00000003
0.67818403 -0.74574853 -0.00000014
0.39269932 -0.60649355 -0.00000012
-0.24758982 -0.58349437 -0.00000014
-0.29152308 0.01223118 -0.00000051
-0.15069358 -0.24527215 -0.00000035
0.01938450 0.01560712 -0.00000051
0.16215185 0.08453079 0.00000818
-0.55075621 0.29800733 0.07929907
0.42851909 0.19505131 0.00000163
-0.37923202 0.42215370 0.00225283
-0.38344769 0.35307089 -0.00000051
-0.60591569 -0.46005920 -0.00000012
-0.14738244 -0.65434849 -0.00000009
-0.55339989 0.37357108 0.20647926
-0.61377091 0.36396930 0.28904010
-0.25352073 0.65694216 0.17963314
0.32631362 0.00313313 0.00000703
-0.63591278 -0.55464552 -0.00000007
0.34846553 0.27398077 0.00000175
0.45996299 0.03422800 0.00000392
-0.28200933 -0.16450680 -0.00000040
-0.23167526 0.54452664 -0.00000071
0.55051493 0.20080875 -0.00000081
-0.41910155 -0.01113129 -0.00000040
0.27714034 0.09674795 0.00000625
-0.26769419 -0.10874824 -0.00000043
-0.14799140 -0.27131475 -0.00000033
0.45568808 -0.65471499 -0.00000009
-0.46009619 0.50343259 0.26592935
0.52483773 0.21647083 -0.00000154
-0.62174771 -0.05693705 -0.00000018
0.42335407 0.05686205 -0.00000091
0.57277406 0.11450435 -0.00000150
-0.15904533 0.70568888 0.10526873
0.07586269 -0.56725845 -0.00000015
0.01806745 0.52689864 -0.00000083
-0.17993054 0.04806469 -0.00000053
0.15283506 0.28456899 -0.00000068
-0.49783223 0.47262341 0.27719388
0.07831736 0.62644034 0.00000061
-0.12485989 0.20435784 -0.00000063
-0.46263510 0.54248743 0.33356954
0.22778477 0.06899354 -0.00000054
0.53307392 0.14380371 -0.00000143
-0.12544111 0.61297867 -0.00000083
0.20675507 0.39180989 -0.00000087
0.33672607 -0.62901966 -0.00000011
-0.64376915 0.24419677 0.14305010
-0.62502059 0.08891140 -0.00000020
-0.12723891 0.65854415 -0.00000084
-0.57626841 0.33027795 0.17326507
-0.59780889 -0.53990018 -0.00000012
-0.21411050 -0.53759573 -0.00000016
0.52910388 -0.22630814 -0.00000069
-0.41762043 0.50400992 0.19779372
-0.12051273 0.33277372 -0.00000071
0.27899363 -0.56314724 -0.00000015
0.04998022 0.54574557 -0.00000084
0.16793751 0.50447217 -0.00000096
-0.37182246 0.51785219 0.14582738
0.15722962 -0.28737126 -0.00000032
0.04724362 -0.54428681 -0.00000016
0.73324629 -0.45504990 -0.00000086
0.41892914 -0.71598157 -0.00000005
-0.58629888 -0.76830189 -0.00000002
0.11153698 -0.43530947 -0.00000023
0.06107456 -0.21601539 -0.00000036
-0.69118986 -0.38219890 -0.00000005
0.28683109 0.51270565 -0.00000136
0.71399028 -0.30626933 -0.00000113
-0.49045689 -0.52612988 -0.00000017
0.62199163 -0.42751063 -0.00000060
-0.45775254 0.45694723 0.18652342
0.22911730 0.33637022 0.00000292
0.46685536 -0.76203338 -0.00000002
0.05231082 0.64217474 0.00000078
0.38704939 -0.53972451 -0.00000016
-0.38173382 -0.62133375 -0.00000011
-0.55097047 -0.36632279 -0.00000020
0.63034383 -0.34529914 -0.00000078
0.21930389 0.28919500 -0.00000071
0.23994915 -0.12328076 -0.00000042
-0.47362812 0.51343906 0.30420774
0.30263709 0.40408538 0.00000030
0.26297262 0.42080828 -0.00000110
0.54262648 -0.66747279 -0.00000008
0.55005833 0.02244138 -0.00000124
0.21920099 0.19728459 0.00000549
0.44530093 0.00435500 -0.00000087
-0.75389510 -0.23558940 -0.00000001
-0.06837810 -0.29605332 -0.00000031
-0.35065122 0.50281178 0.08694023
0.69258438 -0.77041105 -0.00000007
-0.73540724 0.14779839 0.13530945
-0.78857093 0.00428338 -0.00000001
0.01279263 -0.10509587 -0.00000043
0.06488270 0.42341693 -0.00000076
-0.33272876 -0.48816767 -0.00000019
0.42512724 -0.43791077 -0.00000023
0.56077961 0.04332895 0.00000182
-0.16163320 -0.04201447 -0.00000047
-0.35195676 -0.52631853 -0.00000017
0.35379930 -0.34389937 -0.00000029
0.66628824 -0.44534923 -0.00000070
-0.41375913 0.36061547 -0.00000048
0.01850607 0.50869006 0.00000345
-0.18641712 0.21560737 -0.00000063
0.21048579 0.27316750 -0.00000067
0.23053632 0.05449161 -0.00000053
0.26538608 0.23174767 -0.00000074
-0.22312611 0.26700970 -0.00000066
-0.46120657 -0.67731085 -0.00000008
-0.48822251 -0.02653343 -0.00000033
0.40318626 -0.49425910 -0.00000019
-0.00370056 0.74063795 -0.00000096
0.78948589 -0.24559775 -0.00000139
0.14564534 0.59717733 -0.00000107
-0.54537316 0.42331540 0.27432023
-0.17370118 -0.49845242 -0.00000019
-0.23349574 -0.49936758 -0.00000019
-0.00187328 -0.05123627 -0.00000047
-0.59283610 -0.58968336 -0.00000011
-0.57488100 -0.43372419 -0.00000016
0.37291234 0.15833546 0.00000336
-0.14146685 -0.67181245 -0.00000008
0.45331618 0.03752767 -0.00000096
-0.31665008 -0.32254583 -0.00000030
0.35444137 0.13538656 -0.00000084
-0.23656394 0.51133610 -0.00000069
0.33437174 0.09728989 -0.00000070
0.78719941 -0.17893302 -0.00000155
0.53741243 0.05846006 0.00000199
0.57070551 0.21584477 -0.00000147
-0.16773171 0.21317603 -0.00000063
0.37210927 0.18485839 -0.00000099
-0.61732438 0.35328506 0.27744403
-0.30046597 0.48359275 -0.00000062
-0.56726430 0.50266447 0.43895807
0.04088425 -0.04758811 -0.00000047
0.55858874 -0.02418029 -0.00000118
-0.06672600 -0.36549054 -0.00000027
-0.46362596 0.15410665 -0.00000039
-0.69496648 -0.31777553 -0.00000005
0.03712291 0.02618350 -0.00000052
0.12303471 0.43912607 -0.00000077
-0.19516796 0.55800104 -0.00000075
0.38020568 0.33616759 0.00000003
0.05259811 0.17112459 0.00000843
-0.23665610 -0.77449834 -0.00000002
-0.05758608 0.46678228 -0.00000079
-0.20257075 -0.40552063 -0.00000025
-0.20848596 0.64242921 0.08279622
0.11867339 0.04584622 0.00000946
0.20172755 0.18708129 -0.00000062
-0.36999650 0.63539374 0.33400491
-0.34473141 0.42962762 -0.00000056
0.39561804 0.10900409 -0.00000092
0.27746691 0.18554156 0.00000470
0.01585241 -0.61921202 -0.00000011
-0.42460714 -0.12519505 -0.00000038
-0.27058717 -0.04508929 -0.00000047
0.46174074 -0.45389307 -0.00000022
-0.45416765 -0.76867422 -0.00000002
0.40005554 0.22830717 0.00000158
0.63193084 -0.77847957 -0.00000001
0.16717935 0.28712013 -0.00000068
-0.54012893 -0.67565963 -0.00000008
-0.26463963 0.19392144 -0.00000061
-0.49322643 -0.08077821 -0.00000031
-0.47580104 -0.56865880 -0.00000014
0.07789123 -0.55811878 -0.00000015
0.42599041 -0.15458487 -0.00000050
0.43198111 -0.30385658 -0.00000031
-0.75782214 -0.70140232 0.00000000
0.23022298 -0.04043377 -0.00000047
0.61104713 -0.23509072 -0.00000094
-0.56774988 0.30316841 0.11532700
0.47010455 -0.55346892 -0.00000015
0.49989498 0.29676791 -0.00000156
0.06499799 -0.64240543 -0.00000010
-0.27411043 -0.13736682 -0.00000041
-0.36223979 -0.58485170 -0.00000013
0.03786225 0.70393806 -0.00000094
0.16089621 -0.68900424 -0.00000007
0.52529210 -0.10588604 -0.00000091
0.52054749 -0.77820402 -0.00000001
-0.23550445 -0.78549251 -0.00000001
-0.56030810 0.48814076 0.40402722
0.28186539 0.25984844 -0.00000085
0.16204100 0.33775425 0.00000407
-0.77488693 -0.11953359 -0.00000000
-0.06223751 0.02113632 -0.00000051
-0.62651417 0.07565257 -0.00000020
0.42625941 -0.11454477 -0.00000058
0.02271506 -0.15466178 -0.00000040
-0.21236753 -0.32679660 -0.00000030
-0.34555881 -0.43734209 -0.00000023
0.37808288 -0.04752207 -0.00000056
0.04456461 0.71923991 -0.00000099
0.18068271 -0.03612325 -0.00000048
-0.61102527 -0.32242278 -0.00000014
-0.01427674 -0.53300754 -0.00000017
0.10053659 0.06542974 0.00000942
0.31750643 0.06144059 0.00000616
-0.37076058 0.18854056 -0.00000049
0.52413876 -0.49232995 -0.00000019
0.43777562 0.14718180 -0.00000113
-0.58903824 -0.55501270 -0.00000012
0.28507721 0.14670956 -0.00000064
-0.00784683 -0.49967816 -0.00000019
-0.14813549 0.61614621 -0.00000081
-0.16493642 -0.73237964 -0.00000004
-0.23282084 0.17806304 -0.00000061
0.40910046 0.27826345 0.00000051
0.03171031 0.23808079 0.00000765
-0.69107106 -0.30758056 -0.00000006
0.64067003 0.11282561 -0.00000097
0.05596080 0.37177080 -0.00000073
0.55397137 -0.60674271 -0.00000012
-0.21716170 -0.52664620 -0.00000017
-0.52044201 -0.01933757 -0.00000029
0.16412892 0.40542738 0.00000293
0.63032817 -0.31879820 -0.00000083
0.39268947 0.02499217 0.00000537
-0.02892120 0.13532753 -0.00000058
-0.26540682 0.64699482 0.18278594
-0.20680633 -0.10956269 -0.00000043
-0.09103458 0.11776720 -0.00000057
0.53605920 -0.78260952 -0.00000001
-0.07703788 0.07873867 -0.00000055
-0.58242913 0.29899517 0.13241185
0.35172798 -0.09021135 -0.00000044
0.02615510 -0.10207699 -0.00000044
0.56770112 -0.12862989 -0.00000101
-0.21524128 -0.31755465 -0.00000030
-0.74919683 -0.21645239 -0.00000001
-0.69613306 -0.48938988 -0.00000002
-0.18026321 0.68285863 0.10264666
-0.18705976 -0.75204782 -0.00000003
-0.56453535 0.28619815 0.08250268
0.48901181 0.29414723 -0.00000158
-0.55702411 -0.42266271 -0.00000018
-0.15113366 -0.47386786 -0.00000020
-0.34195494 0.15982802 -0.00000052
-0.21751401 0.68116732 0.16047386
0.22179142 -0.27210714 -0.00000033
-0.59618559 -0.51562944 -0.00000012
0.07366625 -0.65242452 -0.00000009
-0.32550085 0.49421176 0.03205555
-0.22905931 -0.02291215 -0.00000049
0.10778694 -0.73507949 -0.00000004
0.19838910 -0.09188262 -0.00000044
-0.34159558 0.13191847 -0.00000051
-0.32186074 0.23195522 -0.00000055
0.60907630 -0.21247084 -0.00000097
-0.66443168 -0.24611853 -0.00000010
0.37755575 -0.34228221 -0.00000029
-0.45436863 0.58337572 0.38661947
0.20305337 0.13960211 0.00000667
-0.43919380 0.41117491 0.08190880
-0.79705491 -0.51487968 0.00000000
0.63381771 -0.41293167 -0.00000066
-0.66662663 -0.42399239 -0.00000006
0.15808749 -0.07574362 -0.00000045
-0.11141009 -0.69690177 -0.00000006
0.14435623 0.29881281 0.00000497
0.07155021 -0.52337596 -0.00000017
0.36417978 -0.02679139 -0.00000055
-0.00702018 -0.74268161 -0.00000004
-0.48367496 0.51567983 0.32418998
-0.12380918 -0.27860643 -0.00000033
0.20880173 -0.32874016 -0.00000029
0.34659532 0.33429820 -0.00000120
-0.11707067 0.73069734 0.07767814
-0.27143284 0.68196309 0.24945128
0.35754457 0.15449122 -0.00000089
-0.38745574 -0.71388795 -0.00000005
0.09835799 0.64517792 -0.00000011
-0.45394517 0.42248781 0.12429433
0.60040613 0.09716078 -0.00000155
-0.03926438 -0.78784652 -0.00000001
0.51017696 -0.34082698 -0.00000041
-0.15502289 -0.43573972 -0.00000023
0.30924207 0.20198398 0.00000380
0.08813917 0.53331139 -0.00000083
-0.54757555 -0.58618528 -0.00000013
0.14857360 0.37090475 -0.00000073
-0.25120626 0.57599424 0.04423189
0.24952223 0.11032351 0.00000644
-0.68468298 -0.58804634 -0.00000002
0.02587990 -0.34588377 -0.00000028
0.00368080 -0.44754960 -0.00000022
-0.05049320 -0.30446512 -0.00000031
-0.60575198 -0.14795917 -0.00000018
0.48264492 0.01674727 0.00000379
0.29626750 -0.16812725 -0.00000039
0.04594296 -0.22417382 -0.00000036
-0.44096907 -0.32195127 -0.00000030
-0.03063712 0.48827300 -0.00000081
-0.36692991 -0.16584147 -0.00000040
0.60575948 0.07819009 0.00000033
-0.40054890 -0.64724406 -0.00000010
0.64833501 -0.24168466 -0.00000104
0.39650714 0.30360129 0.00000030
-0.62569151 -0.48357046 -0.00000010
0.32127709 -0.38703163 -0.00000026
0.72735605 -0.00966280 -0.00000175
0.30439927 -0.65446728 -0.00000009
0.38575166 0.31931092 -0.00000130
-0.38722562 0.57921708 0.27066804
-0.48918976 -0.27463627 -0.00000028
0.56698012 0.03897528 0.00000178
-0.51123248 -0.52959260 -0.00000017
0.04082512 0.05376323 0.00001051
-0.36771581 0.45178623 0.03171333
0.08095581 0.19126800 -0.00000062
0.04098633 0.01651978 -0.00000051
0.37091494 -0.48167726 -0.00000020
0.02598557 -0.24831147 -0.00000034
0.32732932 0.28887298 -0.00000105
-0.25902524 -0.44490577 -0.00000022
-0.00166586 0.48978487 -0.00000081
-0.15740969 -0.55093420 -0.00000016
0.32442747 0.14785394 0.00000448
0.53560424 0.18213540 -0.00000019
0.41782002 -0.07690989 -0.00000063
0.10611680 -0.59311186 -0.00000013
0.38960017 -0.17779048 -0.00000039
0.28367526 0.27572978 -0.00000089
-0.64040727 -0.27034547 -0.00000012
0.19188700 0.23366009 0.00000531
-0.00810882 0.66253493 -0.00000091
-0.52384981 -0.59637311 -0.00000013
-0.51457712 0.16732760 -0.00000034
-0.76193516 0.07177713 0.05482400
-0.76476823 -0.72789571 0.00000000
-0.58882541 -0.47939398 -0.00000014
-0.39212561 0.35510755 -0.00000050
-0.62272876 0.38891556 0.34417528
0.09616588 -0.74412191 -0.00000003
-0.27416875 -0.19947393 -0.00000038
-0.43891181 0.39181101 0.04996083
-0.11183429 0.45291847 -0.00000078
0.16731270 0.36773311 0.00000350
-0.16895450 -0.09090084 -0.00000044
0.24699617 -0.69499934 -0.00000007
0.58899127 -0.72884139 -0.00000004
-0.11019356 -0.64005299 -0.00000010
-0.08044044 -0.73386620 -0.00000004
-0.29325346 -0.39414969 -0.00000025
0.10739241 0.05909915 -0.00000054
0.14128464 0.61137347 -0.00000033
-0.31911289 0.60395286 0.20012802
0.22523005 0.25888105 -0.00000067
-0.40057764 -0.66829435 -0.00000008
0.71517930 -0.69603140 -0.00000026
0.23199114 -0.14578742 -0.00000041
0.42522178 -0.23577252 -0.00000035
0.16417901 0.20222117 -0.00000063
-0.28871458 -0.14676563 -0.00000041
0.45861050 0.15725201 -0.00000121
0.60524804 -0.40543696 -0.00000059
0.04766759 0.34301541 -0.00000071
0.75665228 -0.08213681 -0.00000170
0.18284821 0.15286178 -0.00000060
-0.12859666 0.23351885 -0.00000065
-0.23210775 0.67768100 0.17853685
-0.29346776 0.15193986 -0.00000057
0.45692486 -0.00912705 -0.00000088
-0.39957984 0.55272434 0.24767582
0.59081645 -0.69206670 -0.00000007
-0.37639343 0.14842715 -0.00000048
-0.41481791 -0.06483797 -0.00000040
0.36595433 -0.35258081 -0.00000028
0.07556567 -0.66293217 -0.00000009
0.30107126 -0.40411882 -0.00000025
-0.33439763 0.05617427 -0.00000051
0.19525679 -0.34463936 -0.00000028
0.11566888 0.40959926 0.00000360
-0.62226739 0.30214370 0.20231675
-0.43271420 0.26981640 -0.00000044
-0.15971317 -0.65221070 -0.00000009
0.70461086 -0.54501631 -0.00000063
0.50514064 -0.28729040 -0.00000050
-0.59927890 -0.27957116 -0.00000016
-0.38276965 0.40455774 -0.00000052
0.46758601 -0.37855964 -0.00000026
-0.53646354 -0.02730687 -0.00000028
-0.20878317 -0.06111016 -0.00000046
0.24972662 0.43503506 0.00000076
0.47756615 0.11763108 0.00000208
-0.65349009 -0.23920584 -0.00000011
-0.71092169 -0.38498843 -0.00000002
0.32896992 -0.65231866 -0.00000009
0.18300503 -0.24360118 -0.00000035
-0.58639831 0.25878739 0.07348103
0.58316419 -0.76691369 -0.00000002
0.05115729 0.12793122 0.00000915
-0.77265881 -0.49457895 0.00000000
0.13751144 0.62243121 -0.00000045
0.36929231 0.10455854 -0.00000083
0.50932215 0.27482654 -0.00000161
-0.18476561 -0.56165906 -0.00000015
0.40690432 -0.63238880 -0.00000010
0.51775898 0.16427793 0.00000047
0.05692031 0.58564736 -0.00000087
-0.27774506 -0.63987340 -0.00000010
-0.29480024 -0.11074670 -0.00000043
-0.18602272 0.42200764 -0.00000073
-0.01619256 0.70515622 -0.00000094
0.48486570 0.00311702 -0.00000100
0.42346650 -0.36015126 -0.00000027
-0.44172443 -0.35465131 -0.00000028
-0.70487914 -0.30243688 -0.00000005
0.41244206 0.32728646 -0.00000043
-0.77516620 -0.29594594 0.00000000
0.34149282 -0.21655492 -0.00000036
0.73046889 -0.31420175 -0.00000116
-0.66240545 0.21615319 0.12775217
0.45450262 -0.31620288 -0.00000030
-0.60729367 0.43272218 0.39031335
-0.15924880 0.62803533 -0.00000080
0.09669756 0.59684272 0.00000079
-0.20352359 0.47984266 -0.00000072
-0.35332700 0.22960140 -0.00000052
-0.49551161 0.07886297 -0.00000034
-0.25935824 0.64427693 0.16852982
-0.51719899 0.35883370 0.12364371
-0.72529215 -0.44346289 0.00000000
-0.72202356 0.09789617 0.03239446
-0.63464823 -0.17841703 -0.00000014
-0.40835629 -0.30867906 -0.00000031
-0.14965522 -0.08547521 -0.00000045
0.15673602 0.24652070 0.00000563
-0.48068140 0.42196195 0.16691752
-0.42474417 0.55793578 0.29707319
-0.31111551 0.55810026 0.11255701
0.38636712 0.06432111 -0.00000080
-0.42063029 -0.10774564 -0.00000039
0.00649774 -0.44350138 -0.00000022
-0.10721295 -0.07311517 -0.00000045
-0.46226247 -0.46191617 -0.00000021
-0.01124332 -0.68991891 -0.00000007
0.32056785 -0.64212006 -0.00000010
0.03849567 -0.66871954 -0.00000008
-0.18925293 -0.64424206 -0.00000010
-0.03118214 -0.48617665 -0.00000020
0.21064753 0.07141099 0.00000766
0.29641217 0.11933480 -0.00000062
-0.31836654 0.09875636 -0.00000053
0.48651424 0.28668637 -0.00000156
0.01390278 -0.14661339 -0.00000041
0.68884544 -0.50570095 -0.00000066
-0.26721459 -0.57692844 -0.00000014
0.27367081 -0.56747123 -0.00000015
0.64685343 -0.36780898 -0.00000079
-0.35545859 -0.32559041 -0.00000030
0.08677786 0.46800679 0.00000309
0.16695173 0.41467223 -0.00000078
-0.40568804 0.51366070 0.19408334
0.00469056 0.33866281 -0.00000071
-0.60316949 0.08479490 -0.00000023
-0.54324622 0.56422969 0.50001761
0.15185998 0.59232410 -0.00000019
0.18508283 0.06214411 0.00000820
0.14216011 0.29388900 0.00000508
-0.04977780 0.42207446 -0.00000076
-0.43501070 0.46812699 0.16772117
0.04303346 0.59642903 0.00000166
0.14660004 0.37506088 0.00000369
-0.55923577 0.49816344 0.41858238
-0.66246116 -0.63060057 -0.00000003
0.65532994 -0.57036024 -0.00000042
-0.25822252 0.65260355 0.18022376
-0.10548752 0.27699402 -0.00000067
0.11124968 -0.44152400 -0.00000022
0.68903803 0.07572217 -0.00000179
-0.33589638 -0.79399616 -0.00000000
-0.63116575 -0.05794913 -0.00000017
0.36483994 -0.39863442 -0.00000025
0.07148764 0.29833638 0.00000607
0.45288108 0.21048433 -0.00000130
-0.29865898 0.53726000 0.05841003
-0.41309431 0.07342444 -0.00000043
0.25083810 -0.32392701 -0.00000030
0.36315485 -0.08502708 -0.00000045
-0.38910682 -0.31449858 -0.00000030
-0.55731054 -0.64376289 -0.00000010
-0.37472873 -0.31977076 -0.00000030
0.22950557 0.36150739 0.00000247
-0.69182494 -0.45770653 -0.00000003
-0.32327563 0.06199360 -0.00000052
0.44115198 -0.56949682 -0.00000014
-0.35582801 0.56011383 0.18854304
0.39273639 -0.00492936 -0.00000069
0.26913562 0.08481196 -0.00000055
0.01686396 0.59056669 -0.00000087
-0.16583604 -0.20725856 -0.00000037
-0.18462226 0.07633693 -0.00000055
-0.13124592 -0.50861095 -0.00000018
0.37313237 -0.57546612 -0.00000014
