ply
format ascii 1.0
element vertex 1399
property float x
property float y
property float z
end_header
0.23879558 -0.21337475 0.16106821
-0.21908431 -0.02641451 0.00000000
0.00556641 0.36116328 0.00376216
-0.05405257 0.42192093 0.00000000
-0.09267667 -0.13866014 0.00000000
0.05347176 0.52375309 0.03607071
0.55839419 -0.18133412 0.37663733
0.29867824 -0.74088481 0.20145922
0.36833868 0.13157871 0.24844477
0.30382002 -0.34907140 0.20492736
-0.22792579 0.29120629 0.00000412
0.44159924 0.04867345 0.29786322
0.00361316 0.28112677 0.00244613
-0.26235175 0.10949220 0.00000000
0.62577442 -0.49220525 0.42208606
-0.58985958 -0.08221172 -0.00000096
0.24959088 -0.69615656 0.16834967
-0.62697322 -0.37095307 -0.00000061
0.60680226 -0.18688249 0.40928849
0.13517504 0.10208524 0.09118569
0.02818570 0.19528060 0.01902143
-0.06005523 -0.79267836 0.00000000
0.18258520 -0.55024280 0.12315418
0.64310770 -0.40952942 0.43377728
-0.12304372 0.09412953 0.00000000
0.16613390 -0.13973463 0.11205773
0.21696998 0.13657990 0.14634680
-0.00004697 0.58633819 0.00000320
-0.29730238 0.10720395 -0.00000004
-0.44542518 0.19549729 -0.00000083
-0.50294473 -0.34284779 -0.00000013
0.50303202 -0.49621484 0.33929610
0.14584980 0.00539268 0.09838735
0.24192530 0.07244138 0.16318759
-0.37651449 -0.02484739 -0.00000015
-0.10942451 -0.67111873 0.00000000
0.05115067 -0.06247451 0.03450126
0.49354203 0.15379583 0.33289515
-0.26425226 -0.13284790 0.00000000
0.61306460 0.02092184 0.41351289
0.09922300 0.64040917 0.06692674
-0.71848471 -0.57789936 -0.00000056
0.05848652 -0.42078457 0.03944931
0.59035129 -0.30298596 0.39819251
-0.30913267 0.02378360 0.00000698
-0.23512669 -0.47550846 0.00000000
-0.45098749 0.24519299 0.00000061
-0.46388160 0.22023977 -0.00000095
0.19540384 0.09708056 0.13180916
-0.01258800 -0.69756030 0.00000000
0.49789006 0.17911217 0.33582726
-0.36907368 -0.40455895 0.00000000
-0.04466059 0.13703501 0.00000927
-0.09330477 -0.38915334 0.00000000
0.42182457 -0.72784405 0.28452173
-0.36749116 0.27157718 -0.00000063
0.44699463 0.14622558 0.30149804
0.14013540 0.47955649 0.09452155
0.58852324 0.03361234 0.39695900
-0.75583077 -0.36290824 -0.00000109
0.25426982 -0.62857822 0.17150563
-0.42332772 0.21913398 -0.00000078
-0.53453748 0.03658305 0.00000249
-0.10572755 0.14248495 0.00000827
-0.78268638 -0.68382183 -0.00000029
0.43474391 0.01400087 0.29323515
0.27091620 -0.04396776 0.18273365
0.18770469 0.34467702 0.12660715
-0.50912579 -0.55081016 0.00000000
-0.25589021 0.10465961 0.00000000
0.27593312 0.37836465 0.18611873
0.17694326 -0.11355217 0.11934867
0.01434855 -0.33388248 0.00967813
-0.66714918 -0.78634682 -0.00000003
0.24686817 -0.33630053 0.16651320
0.50488152 0.01506050 0.34054284
0.50859264 -0.66445454 0.34304698
-0.44419940 -0.65405065 0.00000000
-0.40517834 0.04565109 -0.00000040
0.12430823 -0.29159452 0.08384621
0.09997492 0.14275765 0.06743333
0.19034067 0.06291534 0.12838526
-0.01016445 -0.13315196 0.00000000
0.43649237 -0.20717318 0.29441481
0.15406248 0.59884426 0.10391517
-0.16958434 0.03005831 0.00000000
-0.59517008 -0.20212238 -0.00000077
0.39199071 0.12410378 0.26439803
-0.54313802 -0.67040422 0.00000000
-0.13873176 -0.75974140 0.00000000
0.64393690 -0.11736955 0.43433564
0.16485149 0.25622052 0.11119929
-0.41199237 0.08725418 0.00000399
-0.53779795 -0.43792451 -0.00000011
-0.30949911 0.15676713 0.00000480
-0.01215279 0.47213459 0.00000000
-0.21213583 0.44740638 0.00000182
-0.52798619 -0.15102578 -0.00000057
0.27118542 0.33302914 0.18291746
-0.09005453 -0.37421955 0.00000000
-0.40230491 0.25643139 -0.00000076
0.35669818 -0.17722138 0.24059372
-0.23561113 -0.02785393 0.00000000
-0.37863717 0.25052363 -0.00000064
0.31793797 -0.07593246 0.21444988
0.20518714 0.35268792 0.13839901
-0.22577549 0.07853553 0.00000742
-0.32718163 0.15696346 0.00000446
-0.44296536 -0.13972413 -0.00000023
-0.76074930 -0.15352918 -0.00000156
-0.74683004 -0.45306024 -0.00000087
0.19979322 -0.11185059 0.13476103
0.20968149 0.13008348 0.14143863
0.31839351 -0.37271569 0.21475722
-0.66493426 -0.62386680 -0.00000032
-0.25346776 -0.01996780 0.00000000
0.42403313 0.03120893 0.28601569
-0.37041070 0.03939861 -0.00000024
-0.39937383 -0.02271644 -0.00000025
-0.52612485 0.13816681 -0.00000108
0.02172419 0.44220153 0.01465302
0.05715216 0.02315261 0.03856187
0.05345748 -0.14457997 0.03605721
-0.35413254 0.22626948 -0.00000050
-0.05673857 -0.39725890 0.00000000
0.06822159 0.30645341 0.04601563
-0.03024602 -0.56033547 0.00000000
-0.30725296 -0.51518218 0.00000000
-0.21401082 0.27104675 0.00000000
-0.31117304 0.26236843 0.00000301
-0.44494414 -0.60628834 0.00000000
0.20284472 -0.32635461 0.13681927
0.50445963 -0.10260478 0.34025844
0.08981367 0.08814845 0.06057954
-0.22428738 -0.42379123 0.00000000
-0.71026291 -0.03196554 -0.00000156
-0.14725270 -0.05194611 0.00000000
-0.49054841 0.14020238 -0.00000093
0.09913850 0.01701628 0.06686917
-0.20405293 -0.45589871 0.00000000
0.65420215 -0.59620984 0.44126124
0.34413749 -0.40998725 0.23212160
0.64740947 -0.29499271 0.43667848
-0.05397008 0.71863416 0.00000032
-0.70545216 -0.19742456 -0.00000125
0.40256943 0.02224998 0.27153351
0.13076314 0.43360590 0.08820407
-0.35332303 0.24505949 0.00000248
-0.16444721 -0.46146773 0.00000000
-0.48949529 -0.67172147 0.00000000
0.51279163 -0.36723421 0.34587876
-0.65746228 0.03825114 -0.00000146
0.24339813 0.26644269 0.16417702
-0.28695693 0.48967980 -0.00000033
0.57202911 -0.13037638 0.38583398
-0.36378318 -0.04621763 -0.00000006
0.50177414 -0.37350618 0.33844749
0.37507861 0.20726289 0.25299343
-0.22379701 0.31854855 -0.00000010
0.33087276 -0.01859013 0.22317429
0.28398575 -0.46845405 0.19154910
0.39718570 0.21097266 0.26790403
0.29973289 -0.44482021 0.20217059
-0.74226681 -0.07525746 -0.00000162
-0.25164400 -0.29362117 0.00000000
0.29055138 -0.02984462 0.19597761
-0.02946276 0.34429730 0.00000639
0.02069448 0.38550153 0.01395848
0.08031132 0.62641505 0.05417010
0.37566782 -0.66405332 0.25338888
-0.33097665 0.43009644 -0.00000018
-0.64235117 -0.06501156 -0.00000121
-0.27670516 0.08997174 0.00000000
-0.73804318 -0.23818561 -0.00000131
0.49796092 -0.07701993 0.33587504
-0.79755588 -0.67589695 -0.00000031
0.55300567 -0.63937033 0.37300345
-0.50900202 0.10723168 -0.00000095
0.16404828 -0.59465759 0.11065097
-0.37806752 -0.25792650 0.00000000
-0.53020993 -0.08923535 -0.00000069
0.14410330 0.42822562 0.09720179
0.07459541 0.51148692 0.05031479
-0.58007314 -0.01874555 -0.00000103
-0.48054711 -0.32534354 -0.00000006
0.03193860 0.24051410 0.02154267
-0.58249204 -0.02654295 -0.00000102
-0.17292041 0.42785984 -0.00000008
-0.02392359 0.31891374 0.00000000
0.09480263 -0.71928201 0.06394461
-0.61621749 -0.52880193 -0.00000028
-0.33940316 0.33054045 0.00000132
0.11758130 0.18966659 0.07931745
-0.41798963 0.37204165 -0.00000088
0.27484673 -0.30674746 0.18538480
-0.29547719 0.05251275 0.00000675
-0.20033866 0.49773161 0.00000120
0.00596430 0.16841352 0.00402294
-0.30529972 -0.09221355 0.00000000
-0.66112607 -0.25271925 -0.00000096
-0.60581460 -0.63624959 -0.00000005
-0.20025235 0.35884400 0.00000352
-0.57307909 0.04178693 -0.00000111
-0.26591432 0.10493795 0.00000000
-0.04468615 -0.03245837 0.00000000
-0.48059226 0.20636936 -0.00000100
-0.36957279 -0.53844894 0.00000000
-0.04886045 -0.46821183 0.00000000
-0.40387588 -0.64970136 0.00000000
-0.43285669 -0.13753496 -0.00000019
-0.49146664 -0.75354181 0.00000000
-0.05286409 0.02138638 0.00000000
-0.24832598 0.12911023 0.00000632
-0.10529553 -0.76025648 0.00000000
-0.25881404 0.31422962 0.00000314
-0.05013615 0.69888828 0.00000073
-0.26840819 0.07224259 0.00000000
0.14202829 0.41079039 0.09580261
-0.74559218 -0.53456618 -0.00000066
-0.17098583 -0.42342941 0.00000000
0.28485908 -0.25615167 0.19213816
0.16407271 0.33752529 0.11066743
0.60575822 0.04707025 0.40858438
0.23339587 0.46646155 0.15742559
0.35382868 -0.48052791 0.23865833
-0.42511495 0.22360851 -0.00000080
0.49881290 -0.76088839 0.33645055
-0.24390716 0.40624533 0.00000189
-0.74347500 -0.22860303 -0.00000135
0.33228470 -0.44079677 0.22412686
-0.51438200 -0.77714734 0.00000000
0.24419212 0.43508103 0.16470905
0.31662482 0.16131145 0.21356381
0.00353539 0.05772380 0.00239760
0.06919858 -0.52811472 0.04667461
0.13677684 0.06326878 0.09226677
-0.51588724 0.15861196 -0.00000107
-0.03789680 -0.30672891 0.00000000
0.09601498 -0.07431358 0.06476235
0.57313473 -0.15697551 0.38657976
0.58260871 -0.09646549 0.39296985
0.24242093 0.02457777 0.16351352
-0.19718408 0.57266900 0.00000001
0.48275989 0.04490701 0.32562180
0.26533931 -0.08831247 0.17897203
-0.10935795 -0.09500856 0.00000000
-0.04276526 -0.33130247 0.00000000
0.16369939 -0.07364205 0.11041565
-0.33505297 -0.59238586 0.00000000
-0.16677194 -0.69677802 0.00000000
-0.61213317 -0.07474282 -0.00000107
0.06120243 0.26709498 0.04128943
0.47062567 -0.79206863 0.31743819
0.40592016 0.02268823 0.27379912
0.26004584 -0.31602318 0.17540157
-0.44700557 0.24988310 0.00000060
0.29737415 0.28462402 0.20057909
0.55252229 -0.32520367 0.37267695
0.58867175 -0.35260778 0.39705974
-0.15432404 -0.01642113 0.00000000
-0.04751899 0.12423072 0.00000942
-0.08402874 0.05597656 0.00000000
-0.77689161 -0.60693725 -0.00000048
0.06313146 0.65655218 0.04258357
0.07909843 -0.76586142 0.05335209
-0.19634970 0.58726976 -0.00000022
0.04473427 0.30584321 0.03017338
0.14445349 0.42833406 0.09743417
-0.06908633 0.70376702 0.00000028
-0.55658202 -0.68972005 0.00000000
-0.16925981 0.43030561 -0.00000007
0.12121796 0.40410830 0.08176182
0.56072945 -0.77749960 0.37821344
0.17228017 0.13596922 0.11621193
0.19186240 -0.04191146 0.12941167
-0.57048711 -0.09345863 -0.00000086
0.01185095 -0.68544338 0.00799350
-0.03311484 -0.38787233 0.00000000
-0.14736694 -0.03002875 0.00000000
-0.60596693 0.12843885 -0.00000042
-0.12127184 0.01399935 0.00000996
0.03781177 0.51520234 0.02550413
-0.26486531 -0.39586493 0.00000000
-0.17511884 0.52355884 -0.00000026
-0.04319318 -0.16845474 0.00000000
0.64507914 -0.08933379 0.43510604
0.61709626 -0.25975849 0.41623189
-0.16695589 0.24583445 0.00000000
0.08669384 0.62939429 0.05847509
-0.22849738 0.52107894 -0.00000048
-0.21688695 0.38525006 -0.00000019
-0.27543073 0.38040704 -0.00000043
0.26068848 -0.14681449 0.17583503
-0.71848015 -0.26451809 -0.00000118
-0.21231332 0.48629287 -0.00000035
0.28715673 0.21526645 0.19368756
-0.56040353 0.03414080 -0.00000104
-0.29577590 -0.66481818 0.00000000
0.55680405 0.02817210 0.37556641
0.44199927 0.08343654 0.29812877
-0.24394520 -0.04338089 0.00000000
0.44248639 -0.67063514 0.29845818
-0.46051622 -0.13304830 -0.00000032
0.48998667 -0.29057638 0.33049674
0.35026806 -0.59030858 0.23625668
-0.34586744 0.15446170 0.00000414
-0.02580099 0.11614055 0.00000987
-0.66499308 -0.32959359 -0.00000084
-0.78126019 -0.35352101 -0.00000112
0.12738919 0.37696695 0.08592943
0.04950317 0.25719306 0.03339002
-0.34074235 -0.41677970 0.00000000
-0.18830276 -0.50709616 0.00000000
0.53648370 0.08012590 0.36185976
0.15465013 -0.34175452 0.10431190
0.03505695 -0.71868977 0.02364600
-0.22711152 -0.15613162 0.00000000
-0.55742387 -0.46536315 -0.00000014
-0.16672891 -0.53549560 0.00000000
0.20283410 0.28233489 0.13681200
-0.04640170 0.07921317 0.00001011
0.12651089 0.44440534 0.08533189
0.14160927 -0.16487439 0.09551581
0.44482244 -0.45514687 0.30003379
-0.15753625 -0.45505304 0.00000000
0.06022987 0.47099316 0.04062988
0.14534118 0.02223857 0.09804399
0.64225674 -0.18792666 0.43320255
0.20110727 0.03809690 0.13564736
0.08101030 -0.30460018 0.05464165
0.57205995 -0.40647174 0.38585519
0.11371514 -0.23988032 0.07670115
0.24614391 -0.35027418 0.16602468
0.58445161 0.08064276 0.39421290
0.03545476 -0.50856185 0.02391433
0.39834970 0.15477254 0.26869029
-0.42601790 0.00980816 -0.00000042
0.16575741 -0.45651747 0.11180378
-0.24240817 -0.07363148 0.00000000
-0.38673453 0.40445068 -0.00000082
-0.47070749 -0.12728149 -0.00000037
0.38038913 -0.27000698 0.25657336
-0.01064689 0.61131976 0.00000267
-0.33295512 -0.41453026 0.00000000
0.61503001 -0.33036346 0.41483830
-0.08901053 0.29724798 0.00000620
0.28542700 -0.27703611 0.19252123
0.19554451 -0.70717377 0.13189526
0.24871033 0.16327363 0.16776210
-0.32327197 0.08999943 -0.00000012
-0.07671581 0.68926936 -0.00000013
0.13227791 -0.72236097 0.08922178
-0.21411075 0.08400201 0.00000751
-0.19847807 -0.43749698 0.00000000
0.53724788 -0.33776866 0.36237441
0.31865385 -0.37669956 0.21493282
0.00397087 0.28301955 0.00267836
0.64709211 -0.12530465 0.43646385
-0.08048812 0.29691077 0.00000633
-0.27298738 -0.06694186 0.00000000
-0.02873806 -0.38251458 0.00000000
-0.39329903 -0.06438280 -0.00000015
0.09882508 -0.62844558 0.06665777
0.11430962 -0.35399192 0.07710212
-0.78913405 0.00790535 -0.00000192
-0.59497032 -0.31555717 -0.00000057
-0.36401970 -0.24426372 0.00000000
-0.02587158 -0.46472649 0.00000000
-0.21491432 -0.44764974 0.00000000
0.49261651 0.06679583 0.33227003
0.36350915 0.13679331 0.24518725
0.44931352 0.04004899 0.30306649
0.51776201 -0.03308871 0.34923078
0.10012294 0.62060300 0.06753414
-0.55049325 -0.61501217 0.00000000
-0.13045886 0.55004297 0.00000167
-0.07647509 0.36915509 0.00000000
0.29805796 0.23034950 0.20104445
-0.01462545 0.51130593 0.00000000
-0.19847276 0.50636288 0.00000109
-0.00428376 -0.76219993 0.00000000
-0.47740470 -0.78624871 0.00000000
-0.45620047 -0.41000831 0.00000000
0.38868488 0.00212831 0.26217478
0.29655963 -0.69857177 0.20003021
0.21834148 0.28208028 0.14727170
0.17016266 0.10400893 0.11477514
-0.22253211 0.14561303 0.00000000
0.52640708 -0.45013038 0.35506247
0.51803421 -0.21179427 0.34941464
0.39796375 -0.67939168 0.26842755
0.21899278 -0.51299208 0.14771118
0.27516140 0.04600734 0.18559698
0.13901144 0.14187717 0.09376357
0.08376812 0.47252706 0.05650603
-0.43912110 -0.62501953 0.00000000
-0.14237685 -0.04832036 0.00000000
0.21190097 -0.52513139 0.14292774
-0.49188106 -0.32306910 -0.00000011
0.10174868 0.44828600 0.06863406
-0.47254183 0.14576507 -0.00000086
-0.20735880 -0.27939161 0.00000000
-0.33418713 0.38106894 0.00000058
0.34846019 0.23493529 0.23503660
0.24144626 -0.16276266 0.16285610
0.38786734 -0.16663967 0.26161725
-0.76244621 -0.13620973 -0.00000160
0.13329717 -0.79277958 0.08990927
0.41878084 -0.75737824 0.28246872
-0.38440170 0.14538685 -0.00000048
-0.36223388 -0.68032365 0.00000000
0.30640881 0.22043767 0.20667710
0.01771773 0.41844948 0.01195065
-0.01476874 0.09610191 0.00000000
-0.10266408 0.10188169 0.00000000
-0.15222693 0.34910819 0.00000000
0.52855067 0.11402097 0.35650749
-0.26348677 -0.34319924 0.00000000
0.44417167 -0.24612251 0.29959454
-0.43201246 0.27985891 0.00000039
0.64693649 -0.53927837 0.43636028
0.42853411 0.01350794 0.28904665
-0.34847829 -0.73782101 0.00000000
0.01486231 -0.08045005 0.01002466
0.51139105 -0.54981107 0.34493434
-0.56543978 -0.12853077 -0.00000077
0.02160147 -0.34985347 0.01457025
-0.31692188 0.24788567 -0.00000038
0.10411701 -0.13293859 0.07022718
-0.12449906 0.37314804 0.00000000
0.65590017 -0.71439755 0.44240696
0.31682637 -0.18847512 0.21370018
0.15032998 0.55346609 0.10139892
0.25382638 -0.55560205 0.17120653
-0.09382294 0.57554570 -0.00000000
-0.22669963 -0.00362862 0.00000000
-0.00120553 -0.25301389 0.00000000
-0.71720359 -0.03318663 -0.00000159
0.34571317 -0.60457606 0.23318440
0.42696312 -0.08450167 0.28798716
-0.26499085 0.09507974 0.00000658
-0.03569079 -0.64561141 0.00000000
-0.28194078 0.19693659 0.00000466
0.03187152 -0.54069453 0.02149742
0.11307979 0.57614591 0.07627413
-0.33655230 -0.16875678 0.00000000
-0.34060448 -0.41916759 0.00000000
0.48274571 -0.52691481 0.32561308
-0.30243852 0.11160093 0.00000569
-0.52129653 -0.14702857 -0.00000055
0.34037125 0.12737569 0.22958584
0.27721475 -0.73372382 0.18698204
-0.23371577 -0.16979032 0.00000000
0.60997390 -0.72467561 0.41142921
0.47815470 -0.37112670 0.32251621
-0.28973637 -0.62227746 0.00000000
0.06461380 0.58874608 0.04358217
-0.62908566 -0.05244124 -0.00000118
0.40311519 0.18552912 0.27190138
0.12143965 0.50243644 0.08191418
0.06441301 -0.42529397 0.04344673
0.09506870 -0.62900218 0.06412408
0.36277637 -0.38424598 0.24469357
-0.28466471 0.08877040 0.00000637
-0.59635123 -0.09282212 -0.00000097
-0.19202043 0.23737138 0.00000000
0.08196604 -0.50450012 0.05528630
-0.00209738 0.40380481 0.00000591
-0.13724364 0.44283835 0.00000000
-0.13943594 -0.38433698 0.00000000
-0.75025886 -0.55665924 -0.00000061
0.52786066 -0.56169557 0.35604308
0.15988681 -0.72083128 0.10784405
0.05111968 -0.56267386 0.03448035
-0.35277727 -0.63889641 0.00000000
-0.06202624 0.40151180 0.00000000
0.11383998 -0.51995145 0.07678535
0.20496038 0.40779463 0.13824599
-0.01948496 -0.39730850 0.00000000
0.16938399 -0.03395677 0.11424993
-0.19545899 -0.13219335 0.00000000
-0.30206916 0.11475381 -0.00000008
0.01923739 0.19351693 0.01297567
0.48186943 0.15577472 0.32502102
-0.53109346 -0.20849738 -0.00000048
-0.52011030 -0.18130720 -0.00000048
-0.08952683 0.38475185 0.00000000
0.64700492 -0.54203151 0.43640644
0.21880324 -0.63390019 0.14758333
-0.43738202 -0.67476156 0.00000000
-0.39314442 -0.00449095 -0.00000026
-0.00489379 -0.62396997 0.00000000
0.02229078 0.00372635 0.01504877
-0.18698480 0.16950754 0.00000000
0.23951388 0.50972836 0.16155211
0.43769347 -0.19924797 0.29522493
0.40406602 -0.04630708 0.27254305
-0.06399979 0.25571936 0.00000000
0.61651248 0.00844541 0.41583773
0.07436068 -0.35153396 0.05015647
-0.41952703 -0.52507363 0.00000000
0.35275576 0.30103772 0.23793528
0.22557325 -0.09439765 0.15214972
0.27698744 0.19005224 0.18682843
-0.28229233 -0.30550076 0.00000000
0.47474592 -0.77443429 0.32021731
0.47558935 -0.12219007 0.32078553
0.48184083 0.01888970 0.32500579
0.17923210 -0.73598283 0.12089250
0.17449649 0.08675673 0.11770766
0.30367566 0.24185089 0.20483321
0.05519518 -0.76096167 0.03722929
0.29566266 -0.66787255 0.19942520
0.34599703 0.32984671 0.23337609
-0.11675150 -0.78427856 0.00000000
0.24604524 0.40010788 0.16595965
0.15866574 0.05279052 0.10703067
0.10925506 0.53673315 0.07369527
-0.15061307 0.15279971 0.00000000
-0.05418563 0.42394886 0.00000000
0.54567256 0.03474913 0.36805836
0.50946652 0.02949986 0.34363539
-0.32050632 0.12805846 0.00000507
0.56880918 0.00798183 0.38366194
-0.18350047 -0.27400102 0.00000000
-0.49874777 -0.33064693 -0.00000013
0.13195241 0.47938367 0.08900525
-0.36298454 0.43669205 -0.00000091
-0.11137987 0.51902047 0.00000000
0.64131653 -0.44702899 0.43256924
0.45838390 -0.50058042 0.30918104
0.02918918 0.21243029 0.01969796
0.27292494 0.17784524 0.18408830
0.39408140 -0.18590186 0.26580865
0.05388889 0.20209226 0.03634819
0.47318816 0.16333628 0.31916678
0.00857440 0.70456428 0.00578345
-0.02646768 0.18519740 0.00000000
-0.11233784 0.20086862 0.00000000
0.23494693 -0.43894452 0.15847229
0.64566383 -0.67566463 0.43550231
0.01098061 0.70163426 0.00740645
-0.26852531 0.48044157 -0.00000058
0.49266465 0.17514595 0.33230234
0.32609008 0.04424403 0.21994829
0.00781245 0.04273977 0.00528267
-0.44801925 -0.59329010 0.00000000
-0.10288080 -0.56577094 0.00000000
0.05257590 -0.18447332 0.03546257
0.18142436 0.07045630 0.12237118
-0.26949979 0.09125116 0.00000656
0.10671969 0.47971163 0.07198638
-0.05380205 0.67481137 0.00000106
0.40275607 -0.30451593 0.27165988
-0.70054018 -0.02742251 -0.00000153
-0.03985394 0.67643700 0.00000000
0.44421658 0.13998003 0.29962666
0.56476467 0.02470804 0.38093390
-0.15553210 -0.27127200 0.00000000
-0.46811151 -0.30032083 -0.00000005
-0.38027820 0.18887920 -0.00000054
-0.54906121 -0.20055252 -0.00000057
0.04867180 0.49476999 0.03283372
0.64993428 -0.47434886 0.43838210
-0.33501421 0.24333925 -0.00000045
0.16590718 -0.59153235 0.11190481
-0.20439108 -0.60926100 0.00000000
-0.18829892 -0.20677950 0.00000000
-0.42257574 0.05059957 0.00000440
0.49556315 -0.73008872 0.33425859
0.36192757 -0.28767823 0.24412105
-0.33046736 0.40423847 -0.00000071
0.62084561 -0.75983672 0.41876242
0.43115907 -0.32007506 0.29081767
0.28893601 -0.09014614 0.19488806
-0.76723659 -0.23861855 -0.00000140
-0.44445010 -0.12809398 -0.00000026
0.10712099 0.34444955 0.07225942
0.15049978 -0.34399683 0.10151248
0.13838648 0.54385183 0.09334353
-0.25802639 0.00339881 0.00000000
0.15768024 -0.28770214 0.10635571
-0.22753819 -0.33849038 0.00000000
0.06848843 0.18421560 0.04620518
0.33217508 0.37010602 0.22405213
-0.46531762 -0.11124166 -0.00000038
-0.00616683 0.74577731 0.00000000
0.52891019 -0.43851309 0.35675080
-0.43818708 -0.30151011 0.00000000
0.22729068 0.37484684 0.15330778
-0.39810970 0.23737168 -0.00000070
0.09126388 -0.68903436 0.06155771
-0.34415144 0.41051282 -0.00000078
-0.08291603 0.09815961 0.00000928
0.42512267 0.26075297 0.28674528
0.01425224 0.49445962 0.00961317
-0.60713959 -0.28204157 -0.00000068
0.46634466 -0.54448819 0.31455062
-0.24449199 0.03696984 0.00000776
-0.21783386 -0.00959065 0.00000000
0.50390729 -0.59464841 0.33988662
0.19813024 0.09278263 0.13364815
0.05719420 0.01986744 0.03857763
-0.34589260 0.09036234 0.00000521
-0.22564589 0.10597697 0.00000000
-0.04635377 0.53992208 0.00000320
-0.08857094 0.08655909 0.00000000
-0.11966284 -0.50175174 0.00000000
0.35984746 0.06989248 0.24272325
-0.66786531 -0.06000545 -0.00000133
0.27798784 0.22356800 0.18750780
-0.08714504 0.49353042 0.00000000
0.28894400 -0.73039956 0.19489345
-0.56974020 -0.23148481 -0.00000061
0.21269971 0.36950350 0.14346621
-0.24854244 0.37139313 -0.00000030
0.33990886 -0.76625315 0.22926937
-0.13170850 -0.03434659 0.00000000
0.44811613 0.07881552 0.30225459
0.00469995 -0.31914701 0.00317013
0.01382494 0.01482757 0.00933849
0.39387266 0.03775221 0.26566753
0.25858306 0.16232516 0.17442104
0.04488970 0.45830249 0.03027822
0.30752077 -0.61068010 0.20742353
0.13299204 0.29880658 0.08970346
-0.34507862 -0.27891499 0.00000000
-0.79868329 -0.60897847 -0.00000048
0.16397321 0.47730406 0.11060252
-0.31081881 -0.07889807 0.00000000
0.20879968 -0.67369058 0.14083591
-0.19882041 -0.33632959 0.00000000
0.35497427 0.36876358 0.23943020
-0.15883147 0.35453026 0.00000000
-0.19767483 0.01999136 0.00000872
-0.09730977 0.33832421 0.00000000
0.40555856 0.10374608 0.27354955
-0.59515521 -0.23192506 -0.00000072
-0.02873717 0.74613420 -0.00000003
-0.36814460 0.21727153 0.00000266
0.38823895 -0.18626434 0.26186793
-0.22870109 -0.18264210 0.00000000
0.60131097 -0.69147652 0.40558585
0.14995860 0.12594172 0.10114745
0.15224247 0.30878735 0.10269378
0.16669996 -0.71983224 0.11243954
-0.21003669 -0.36120182 0.00000000
-0.20257461 -0.43974554 0.00000000
-0.38295232 0.29416497 0.00000110
-0.74750367 -0.62712817 -0.00000043
-0.14055992 0.10458316 0.00000000
0.37682990 -0.19971845 0.25417256
0.34408209 -0.24888420 0.23208423
-0.37278563 -0.65916636 0.00000000
0.25739795 0.19728612 0.17361535
-0.28074278 0.08036074 0.00000656
0.22940367 0.13385644 0.15473334
0.03079500 0.52309961 0.02077131
-0.40377078 0.04318082 -0.00000039
0.54906740 -0.22391015 0.37034649
-0.69565531 -0.77961455 -0.00000005
-0.01900087 0.69909810 0.00000000
0.33125863 -0.27996156 0.22343477
0.04286071 -0.72971861 0.02890965
0.05499115 0.38520781 0.03709167
-0.51764559 0.26254322 -0.00000126
-0.54536369 -0.35181119 -0.00000029
0.14897999 -0.56146718 0.10048738
-0.34039275 -0.55619467 0.00000000
0.62447370 -0.48525802 0.42120869
-0.19022297 0.31681276 0.00000438
0.24066489 0.23192220 0.16233423
-0.02800755 -0.27592051 0.00000000
0.00729490 0.49461551 0.00492043
0.04408711 0.65929349 0.02973686
0.22560405 -0.72608124 0.15217050
-0.66601528 -0.77210816 -0.00000006
-0.16327431 -0.62685436 0.00000000
-0.71073373 0.07480774 -0.00000154
-0.14283530 0.54226677 0.00000156
0.19664655 -0.58320633 0.13263859
0.26841631 0.39594331 0.18104846
0.54190427 -0.05382579 0.36551472
-0.64380251 0.06837133 -0.00000014
-0.14608341 -0.16062192 0.00000000
0.23526233 -0.15420967 0.15868503
0.06903654 0.22688634 0.04657412
0.42632780 -0.55129390 0.28755917
0.29456861 -0.05208277 0.19868725
0.34626271 0.17264821 0.23355450
-0.00383931 0.06095962 0.00001103
0.03884422 -0.27066389 0.02620052
-0.42490342 -0.53969936 0.00000000
-0.24929992 -0.59935331 0.00000000
-0.31099592 -0.71802480 0.00000000
-0.14733241 0.63333985 -0.00000005
0.24865014 -0.40721776 0.16771514
-0.07701189 0.28842876 0.00000651
-0.34094706 0.18070598 -0.00000036
-0.54950206 -0.67895060 0.00000000
-0.25992862 -0.55857919 0.00000000
-0.27345060 0.32074346 -0.00000032
0.11008810 0.01639920 0.07425470
0.26366446 -0.15754621 0.17784234
-0.15226290 -0.25292367 0.00000000
-0.14984193 -0.23462627 0.00000000
0.17587244 0.54785957 0.11862602
0.40115518 -0.14007077 0.27057984
-0.34740549 0.08516888 0.00000527
0.30903601 -0.29770189 0.20844556
-0.36146132 -0.26424175 0.00000000
-0.11471745 0.58449230 -0.00000011
-0.16915121 0.48788965 -0.00000017
-0.15009652 0.10819153 0.00000811
-0.12634924 -0.73876800 0.00000000
-0.08937746 -0.27766614 0.00000000
-0.31250595 -0.24949819 0.00000000
0.01565307 0.36862978 0.01056532
-0.29411084 0.50061664 -0.00000073
0.49831381 0.06474679 0.33611545
-0.69518332 -0.44925704 -0.00000076
-0.43432128 0.11806935 0.00000305
-0.57663931 -0.28145416 -0.00000055
0.27533505 0.19266393 0.18571920
-0.23171472 -0.23304867 0.00000000
0.26070684 0.25993700 0.17585145
-0.27870720 0.18755037 0.00000488
-0.75386872 -0.42948634 -0.00000093
-0.09068098 0.19871127 0.00000000
0.26766871 0.21255195 0.18054804
-0.09296221 -0.30176693 0.00000000
-0.66742369 -0.02133231 -0.00000140
-0.23562589 0.10461604 0.00000000
0.51178161 -0.27992593 0.34519737
0.48175355 -0.24065009 0.32494344
0.33489553 -0.75110486 0.22588787
-0.43549797 -0.79095273 0.00000000
-0.74711442 -0.77535460 -0.00000006
0.33087922 -0.33687570 0.22317886
0.40181089 -0.52814882 0.27102245
-0.12162034 0.27556319 0.00000603
0.16306278 0.43667616 0.10998930
0.35518058 -0.02839925 0.23956989
-0.55229195 0.00908629 -0.00000096
0.27721724 0.13832361 0.18698982
-0.58658044 0.07071382 -0.00000121
0.26056046 -0.46455812 0.17574868
0.36385701 0.12960436 0.24542635
-0.27712069 0.29314942 -0.00000029
-0.78930525 -0.30632598 -0.00000123
-0.60148190 0.01526763 0.00000156
-0.50563420 -0.00958249 -0.00000073
0.01677753 0.47905892 0.01132181
0.03516504 -0.72315796 0.02371891
-0.42732670 0.11418812 0.00000325
-0.34036616 -0.46933491 0.00000000
-0.63195504 0.05139092 0.00000037
0.33368538 -0.32050146 0.22507162
-0.54102909 -0.04095579 -0.00000082
0.22096692 -0.54705428 0.14904274
-0.07140799 0.59261826 0.00000203
0.47499790 -0.17859137 0.32038668
-0.10396769 0.04267722 0.00000000
-0.23828978 0.48938601 -0.00000047
-0.20014285 0.29907069 0.00000000
-0.26697997 0.26982167 0.00000373
0.43081654 -0.25885232 0.29058655
0.29228855 0.06685597 0.19715652
-0.15454861 0.29495181 0.00000000
-0.79960671 -0.33836085 -0.00000115
-0.62774284 0.14103447 -0.00000105
0.18200158 -0.64893256 0.12276052
-0.45588291 -0.33109512 0.00000000
0.60656304 -0.08740753 0.40912699
0.61157800 -0.26643131 0.41250984
0.38605220 -0.48674437 0.26039317
0.32619360 -0.27892894 0.22001840
-0.28327911 -0.74805177 0.00000000
0.49240959 0.05790227 0.33213048
0.07931014 -0.50850101 0.05349489
-0.09644948 -0.05205891 0.00000000
-0.01150691 0.66676833 0.00000182
0.26559073 -0.31943173 0.17914161
0.38188826 -0.24212738 0.25758448
-0.39225067 -0.27192512 0.00000000
-0.26607019 -0.73578134 0.00000000
0.42813725 0.23693736 0.28877954
0.40698444 -0.44926618 0.27451202
-0.25801338 -0.60522570 0.00000000
-0.31738224 -0.37372568 0.00000000
-0.10418791 0.26528319 0.00000645
0.02367710 -0.32750181 0.01597027
-0.02074462 -0.48317586 0.00000000
0.57345294 -0.55946097 0.38679498
-0.65173717 -0.69545349 -0.00000014
0.52299205 0.13170127 0.35275819
-0.01405439 0.58362933 0.00000303
-0.50334509 -0.10459339 -0.00000055
-0.05093675 0.43107912 0.00000477
-0.22204769 0.55561648 -0.00000018
0.60221576 -0.66152478 0.40619604
0.39466745 -0.77581639 0.26620418
0.17919220 0.31925201 0.12087063
0.33288501 0.26961345 0.22453113
0.08860678 0.41566591 0.05976550
0.12796138 0.41709107 0.08631466
0.33637917 -0.49471551 0.22688859
0.31011291 0.19762324 0.20917590
-0.30908537 0.40022736 0.00000074
-0.04957435 0.10355038 0.00000000
0.36927140 0.08464630 0.24907396
0.46850292 0.08003075 0.31600544
0.10293919 -0.63048593 0.06943274
0.03863119 -0.34206736 0.02605683
0.45956198 -0.30505953 0.30997536
0.19369547 0.48764634 0.13064923
-0.58879312 0.19026713 -0.00000143
0.32999243 0.04812482 0.22258724
-0.21295048 0.47285584 0.00000138
-0.76361642 -0.03772160 -0.00000178
0.44887753 -0.74122833 0.30276901
0.00162302 -0.78409353 0.00109473
0.46081068 -0.34028860 0.31081766
-0.17887310 -0.48313455 0.00000000
-0.27711072 0.45034547 -0.00000056
-0.31381868 -0.59201377 0.00000000
-0.51890274 0.16071765 0.00000071
0.58270989 -0.29001950 0.39303838
0.18233650 0.32808356 0.12298634
0.07551928 0.37592667 0.05094401
-0.65401261 -0.38278354 -0.00000070
-0.55815692 -0.04957720 -0.00000088
-0.62229225 -0.26701717 -0.00000077
-0.63008543 -0.09487446 -0.00000111
-0.46230839 -0.10670251 -0.00000037
-0.01222077 0.35193362 0.00000654
0.11113260 0.22972758 0.07496721
0.29803232 -0.51978815 0.20102354
-0.08724565 -0.71538609 0.00000000
-0.22169594 -0.24405274 0.00000000
-0.31739432 0.37519990 0.00000100
0.56972883 0.04113112 0.38428220
0.64679749 -0.38185689 0.43626599
0.59899977 -0.58933795 0.40402658
-0.62700828 -0.71622665 0.00000000
0.12334259 0.48608838 0.08319482
0.35958053 0.11773972 0.24253743
-0.56800997 -0.45655276 -0.00000020
-0.48627797 -0.13314891 -0.00000043
0.57626358 0.05659166 0.38868985
-0.35147633 0.08271518 -0.00000023
-0.02810366 -0.63021924 0.00000000
0.13325663 -0.23008055 0.08988193
0.22502728 0.29388965 0.15178577
-0.28276613 0.48569533 -0.00000065
-0.55892220 -0.70643312 0.00000000
-0.17325853 -0.36209243 0.00000000
0.39575132 0.26097305 0.26693554
-0.44162013 0.17364660 0.00000198
0.21600569 -0.52158718 0.14569638
0.11706441 0.10172009 0.07897037
0.42192413 -0.48924286 0.28458888
0.36009931 0.11685808 0.24288734
-0.34079997 0.34422396 -0.00000065
-0.59222857 0.18919716 -0.00000117
-0.00856673 0.77671094 0.00000022
-0.06510156 0.72967942 -0.00000008
-0.37892240 0.13298486 -0.00000044
0.22468342 0.22115923 0.15154942
-0.06428113 -0.38461398 0.00000000
0.13127825 0.56297302 0.08854729
-0.09802740 0.08123686 0.00000930
-0.61093998 -0.36549244 -0.00000055
0.44533190 -0.62202131 0.30037748
0.01529403 -0.24272531 0.01031586
0.03124700 0.02344444 0.02107618
0.14678688 0.01452870 0.09900812
-0.16391950 -0.26948002 0.00000000
-0.58141871 -0.10549984 -0.00000088
0.54260033 -0.22847197 0.36598447
-0.62530731 -0.51757531 -0.00000034
-0.76098589 -0.56873374 -0.00000058
-0.08737487 -0.55722112 0.00000000
-0.46534189 -0.09576217 -0.00000040
-0.74309974 -0.47437988 -0.00000081
-0.78991261 -0.10318031 -0.00000174
0.41290831 0.13076067 0.27850691
0.62607546 -0.50366956 0.42228915
-0.07392465 -0.22541451 0.00000000
-0.77799642 -0.12730400 -0.00000168
-0.43429160 0.20851901 -0.00000081
0.10539345 -0.67195879 0.07108814
0.34273925 0.09438446 0.23118369
0.41488284 -0.17772613 0.27983918
-0.03339183 0.49857539 0.00000000
0.20518723 0.26029484 0.13840485
-0.67083465 0.05421354 -0.00000043
0.43300598 -0.26249136 0.29206333
0.03663187 0.13549281 0.02471929
0.36325041 -0.76186994 0.24501331
0.62185832 0.00956029 0.41944426
0.02550556 0.27512219 0.01720357
0.16323595 -0.32808001 0.11010306
-0.21492414 0.18747465 0.00000594
0.19509848 0.56279913 0.13159392
0.11034964 0.31059937 0.07443111
-0.51882158 -0.08302716 -0.00000065
-0.27566593 0.05664760 0.00000000
0.15455403 0.40904119 0.10425094
0.25105337 -0.11458832 0.16933613
-0.01804536 0.08133443 0.00001051
-0.62514329 -0.44137493 -0.00000047
0.03631206 -0.35392255 0.02449258
-0.31734715 0.25657326 0.00000298
-0.36669519 -0.03284799 -0.00000009
0.03247166 0.74769696 0.02190216
0.14394063 0.37656323 0.09708832
-0.51883400 -0.43131694 -0.00000004
0.04055116 0.74063167 0.02735177
-0.12370199 -0.31509829 0.00000000
0.18726905 0.46668967 0.12631313
0.35740581 -0.54869646 0.24107111
0.13825638 -0.14304892 0.09325427
-0.17341285 0.20392847 0.00000000
-0.11793378 0.67700147 -0.00000021
-0.08968637 0.69747393 -0.00000020
-0.43716829 0.33631874 -0.00000065
0.10966642 0.26628498 0.07397028
0.57755836 -0.51466617 0.38956402
-0.19524042 0.06014530 0.00000815
-0.48710631 -0.15728176 -0.00000039
-0.70835313 -0.76206505 -0.00000009
0.03667559 0.22668815 0.02473778
0.02641314 0.62582945 0.01781830
0.08797468 0.32295101 0.05934591
-0.52997674 -0.21628828 -0.00000047
0.05520140 0.63699133 0.03723348
-0.25002451 -0.57528250 0.00000000
0.04010336 0.72999240 0.02705017
-0.17297259 0.51871601 0.00000138
-0.63640263 0.06063398 -0.00000141
-0.71021979 0.07340661 -0.00000150
-0.44074448 -0.04877216 -0.00000038
-0.16183413 -0.08773920 0.00000000
0.46072075 -0.66384428 0.31075730
-0.41889278 0.36908354 -0.00000103
-0.26324207 0.31168903 -0.00000026
0.00612425 0.15750140 0.00414199
-0.14421258 0.05641287 0.00000000
0.06399034 0.36936997 0.04316164
0.53526225 -0.60768958 0.36103550
-0.20608451 0.51429642 -0.00000037
-0.42768215 -0.55400493 0.00000000
-0.74152317 -0.09617923 -0.00000158
0.35996875 0.18706488 0.24279918
-0.38502249 -0.26363827 0.00000000
-0.23939747 0.01861643 0.00000811
-0.28788074 0.01862025 0.00000000
-0.18901544 0.37214287 -0.00000005
0.15312320 -0.04001693 0.10328198
0.03758375 -0.75149737 0.02535033
-0.09590209 0.20270470 0.00000000
0.64650532 0.01284152 0.43606784
-0.45264576 0.31147712 -0.00000053
0.27838729 -0.44628296 0.18777292
0.02806993 -0.32749524 0.01893324
0.15173485 0.39041676 0.10234549
-0.64425978 -0.58573786 -0.00000030
0.58388902 -0.31942311 0.39383375
-0.58872336 0.13357068 -0.00000017
-0.24428313 0.01050033 0.00000816
-0.14746213 -0.13345305 0.00000000
-0.03603242 -0.44052901 0.00000000
0.13365873 -0.51338513 0.09015315
-0.57222374 0.14790781 -0.00000010
-0.01795508 0.30644821 0.00000713
-0.18315171 0.42491426 0.00000275
-0.11604619 -0.32338972 0.00000000
0.43011160 0.00321426 0.29011068
-0.07278784 0.15273888 0.00000861
0.07578097 -0.62642123 0.05111446
-0.31486275 -0.56244710 0.00000000
-0.28241679 0.47765337 -0.00000064
-0.05540671 0.15800018 0.00000879
-0.25405441 0.37295797 -0.00000033
-0.50856582 0.04731333 -0.00000084
-0.44633137 0.27529136 0.00000019
0.06560687 0.05112084 0.04425200
0.38762746 -0.31880522 0.26145568
-0.03892156 0.24798632 0.00000769
-0.01813121 0.63813510 0.00000215
-0.22453293 0.39509882 -0.00000024
0.07520102 0.22033103 0.05072327
0.18005238 0.31627479 0.12144572
0.24512128 0.04617111 0.16533492
-0.05388956 0.40223671 0.00000515
0.42471717 0.04851009 0.28647669
-0.38073024 0.08193026 -0.00000036
-0.27683124 -0.77446247 0.00000000
-0.04527416 0.73669294 0.00000019
-0.37014329 0.05215180 -0.00000026
0.08984885 0.58670734 0.06060523
0.41994486 0.08132238 0.28325721
-0.52893641 0.02667833 -0.00000089
-0.00117298 0.64441809 0.00000232
-0.70437050 -0.52693796 -0.00000066
0.42877819 -0.78570127 0.28921196
-0.02552796 -0.02320332 0.00000000
-0.28914677 -0.15352563 0.00000000
0.46513260 -0.65048399 0.31373310
-0.13710230 -0.24399355 0.00000000
-0.28950252 0.25967675 0.00000347
0.19042074 -0.64616282 0.12843927
0.62716488 0.03693914 0.42302284
-0.54269097 -0.15389260 -0.00000063
0.00621412 0.33984649 0.00419941
0.20230655 0.25258386 0.13645622
0.52493383 -0.10773881 0.35406826
-0.75161558 -0.77758147 -0.00000006
0.60805180 -0.65358892 0.41013249
0.06398856 -0.27616389 0.04316044
0.10199048 0.06151812 0.06879283
0.11527691 0.27971270 0.07776160
-0.27259100 0.39333341 0.00000156
0.39201221 -0.10983009 0.26441288
-0.16760430 -0.71825635 0.00000000
-0.20083843 0.14758585 0.00000676
-0.66147134 -0.04928566 -0.00000132
-0.16675156 0.39199798 0.00000360
-0.17960152 -0.51639255 0.00000000
-0.43075422 0.08848007 -0.00000058
-0.58897636 0.13234489 -0.00000016
0.05911028 0.27154436 0.03987003
-0.20986107 -0.03146902 0.00000000
0.05076625 0.21031878 0.03424197
-0.36929258 -0.01437326 -0.00000014
0.22440617 0.12671011 0.15136253
0.22772077 0.13830511 0.15360569
-0.08559608 0.14903526 0.00000000
-0.01514066 -0.03907851 0.00000000
-0.34312205 -0.33956284 0.00000000
0.60922529 -0.74567356 0.41092433
0.35464345 -0.00572738 0.23920756
0.52850398 -0.29434212 0.35647660
0.22601131 -0.23113649 0.15244519
0.04300562 -0.60561617 0.02900740
0.09534206 0.55590947 0.06431090
-0.42200390 0.28062466 0.00000057
-0.08841873 0.24968037 0.00000000
0.06231892 -0.73737951 0.04203427
0.15901479 0.19331509 0.10725587
0.17414682 0.55255272 0.11746281
-0.07069351 0.67398931 0.00000075
-0.42799708 0.04307429 0.00000442
0.26912953 0.29720331 0.18153157
-0.25852495 0.42179205 -0.00000043
0.36246166 -0.31082846 0.24448130
-0.17803107 0.03110828 0.00000000
0.08359438 -0.22043252 0.05638462
-0.58687680 0.20281572 -0.00000130
0.16690269 0.08802552 0.11257628
0.35749502 -0.65946891 0.24113128
-0.32788062 -0.23018723 0.00000000
0.65533975 -0.47472274 0.44202815
-0.02863094 0.52659494 0.00000367
-0.09051965 0.65305240 -0.00000013
-0.39820679 -0.64789542 0.00000000
0.08222712 0.57051865 0.05546238
-0.17381799 -0.13287517 0.00000000
-0.12552539 0.44869668 0.00000338
0.22644586 0.39308781 0.15273792
0.24202008 0.22646267 0.16324839
-0.34636682 -0.67696833 0.00000000
-0.23277614 -0.26772008 0.00000000
-0.63035917 0.05432120 -0.00000137
0.53075708 -0.24212481 0.35799623
0.14396672 -0.69907391 0.09710591
-0.11092670 0.46049642 0.00000000
-0.51177406 0.25025836 -0.00000121
0.14275495 -0.67014688 0.09628857
-0.01949148 0.76583484 0.00000020
-0.19513893 0.04783882 0.00000000
0.22192453 0.17787849 0.14969545
-0.33745938 0.27455572 -0.00000051
0.61729395 -0.46110269 0.41636578
-0.65919698 -0.64168324 -0.00000026
-0.01794921 -0.17430170 0.00000000
-0.79919317 -0.22315093 -0.00000144
0.44174824 0.19890193 0.29795928
-0.28597207 0.02227393 0.00000000
0.33908365 0.04766847 0.22871242
0.23796069 -0.30875075 0.16050508
-0.00468598 0.77038073 0.00000000
0.11032965 -0.29569903 0.07441762
0.01685483 0.67612955 0.01137049
-0.47556857 -0.30282263 -0.00000008
0.39480314 -0.09061464 0.26629533
-0.10039795 0.12544280 0.00000000
0.17062087 0.16990873 0.11508420
0.16806695 0.16727965 0.11336158
0.25322207 -0.28170016 0.17079892
-0.66727856 0.07023289 -0.00000156
-0.64629447 0.13841518 -0.00000136
0.24079032 -0.67435404 0.16241368
-0.21472112 -0.00062676 0.00000000
-0.25070033 0.38430392 -0.00000034
-0.45171194 -0.38005329 0.00000000
0.48659785 0.14621176 0.32821164
-0.53040930 -0.62533133 0.00000000
0.07100562 0.69012640 0.04789379
0.01862841 0.68353961 0.01256661
0.34356761 0.19236957 0.23174036
0.06995940 0.13113845 0.04718779
-0.27688654 -0.35661221 0.00000000
0.06331037 0.03073176 0.04271536
-0.05085696 0.36948139 0.00000000
-0.12645142 -0.35741379 0.00000000
0.33767014 0.27246018 0.22776100
-0.41595405 -0.33356659 0.00000000
-0.64009919 -0.59387111 -0.00000027
-0.24310852 -0.65505967 0.00000000
-0.31609758 0.30653689 -0.00000048
-0.33244540 0.29019773 0.00000213
0.30785619 0.22152033 0.20764930
-0.17286100 0.29302352 0.00000000
0.24752628 -0.41948585 0.16695710
0.11039792 0.19652589 0.07447226
-0.53131169 -0.50478732 0.00000000
-0.73884902 -0.13688189 -0.00000150
0.09777634 -0.38111755 0.06595038
-0.51753222 0.05622360 -0.00000089
0.25347886 0.45816970 0.17097154
0.59882872 -0.18800610 0.40391035
0.32376494 -0.72582858 0.21838026
0.35268146 -0.33382946 0.23788453
-0.23206990 0.29180598 0.00000403
0.31767579 -0.46425360 0.21427312
-0.61740548 0.13063843 -0.00000068
0.11785860 -0.71129819 0.07949592
0.24031883 0.41065946 0.16209711
0.16232109 0.45233354 0.10948580
0.26812596 -0.56950236 0.18085163
-0.10221100 -0.33348167 0.00000000
-0.35578083 -0.27823098 0.00000000
-0.26721294 0.12780992 0.00000605
-0.27036836 0.18407249 0.00000510
0.08082307 -0.40396499 0.05451536
-0.14999097 0.12080888 0.00000000
-0.13127483 -0.61773247 0.00000000
0.00448857 0.10961661 0.00302755
0.03314000 0.27758979 0.02236158
-0.48768590 0.26389433 -0.00000113
0.42221986 -0.68227351 0.28478835
-0.75067794 -0.48186655 -0.00000080
0.12806559 0.52199600 0.08638280
0.12622538 -0.70622654 0.08513933
-0.33255550 0.40712142 0.00000018
0.03347894 0.68078744 0.02258311
-0.69214203 -0.60160253 -0.00000048
-0.66040683 0.05751556 -0.00000151
-0.15478772 0.00514742 0.00000000
-0.42938404 -0.53503847 0.00000000
-0.47170592 0.17937733 0.00000131
-0.19132173 0.20845139 0.00000599
-0.33572392 0.01655384 -0.00000005
-0.36691590 -0.45824899 0.00000000
0.52834468 -0.59907957 0.35636960
0.30670793 0.01275858 0.20687511
-0.48972976 -0.20432121 -0.00000031
0.63893932 -0.22735060 0.43096505
-0.18740649 0.53816906 0.00000077
-0.67129257 -0.19389660 -0.00000111
0.25950182 -0.51708160 0.17503463
0.08660609 -0.44866311 0.05841602
-0.68659178 -0.55842832 -0.00000053
-0.10742049 -0.51436546 0.00000000
-0.74363417 -0.35372258 -0.00000112
-0.06779290 0.37017408 0.00000542
-0.19386170 0.02964856 0.00000000
-0.35692274 0.24573803 0.00000240
0.34157132 -0.02063773 0.23039045
0.10719519 0.14788786 0.07231292
-0.42117682 -0.77610623 0.00000000
-0.33016924 -0.34687169 0.00000000
0.65086092 0.00177479 0.43900570
0.22085199 -0.75892411 0.14896522
0.36937462 -0.41742207 0.24914410
0.08905700 -0.22816428 0.06006917
-0.03922002 0.04300582 0.00000000
-0.71680463 -0.42716733 -0.00000089
-0.42928181 -0.11940835 -0.00000021
-0.12447431 -0.61068109 0.00000000
0.22539908 -0.44823656 0.15203224
-0.62443604 0.07423082 -0.00000138
-0.51153810 0.12192431 -0.00000098
0.64875894 -0.47125395 0.43758931
-0.26386441 0.26610534 0.00000385
-0.59203605 -0.61270952 -0.00000003
0.26552497 -0.20093197 0.17909725
-0.22347295 0.32215391 -0.00000011
0.24725077 0.39725016 0.16677080
-0.19026449 0.57663992 -0.00000042
-0.14179598 -0.73342308 0.00000000
-0.03219138 0.51616869 0.00000377
0.43134887 -0.57998438 0.29094589
-0.21244472 -0.21992836 0.00000000
-0.11085041 0.21079532 0.00000717
-0.61390428 -0.75397034 0.00000000
-0.10148892 0.67538124 0.00000013
-0.38356048 0.38114292 -0.00000090
-0.05935259 -0.78324087 0.00000000
0.54244242 -0.07978623 0.36587774
0.06792129 0.46658058 0.04581308
0.13108512 0.30048438 0.08842363
0.00851544 -0.41331198 0.00574369
-0.00442550 -0.50511049 0.00000000
-0.19106697 -0.59741743 0.00000000
0.28819255 0.19642127 0.19438625
-0.00421775 -0.69741470 0.00000000
-0.29354795 -0.45710573 0.00000000
0.04302251 0.69269026 0.02901983
-0.29027780 -0.41650940 0.00000000
-0.38866806 0.26077993 -0.00000071
-0.25714616 0.48959054 0.00000025
0.06808261 0.06979408 0.04592189
-0.51412342 -0.23731554 -0.00000036
-0.59444673 0.14719763 -0.00000138
-0.10753714 0.62588305 -0.00000015
-0.13990789 0.58576066 0.00000089
0.27825737 0.17501116 0.18768502
0.18602603 -0.59164609 0.12547502
-0.54538974 -0.78006759 0.00000000
-0.63527579 -0.26215833 -0.00000083
-0.10942084 -0.47170827 0.00000000
-0.51786119 -0.59526861 0.00000000
0.01329659 0.07927122 0.00896858
0.30309882 -0.29516756 0.20444091
0.36059026 0.23001049 0.24321833
0.26721085 -0.41237587 0.18023438
-0.55659002 -0.08478075 -0.00000081
-0.25397372 0.09673825 0.00000000
-0.05588609 0.24349031 0.00000000
0.41323275 -0.19858672 0.27872622
-0.03042134 0.57890711 0.00000000
0.34166580 -0.36237248 0.23045444
-0.25687751 0.05165577 0.00000735
0.08891908 -0.58190347 0.05997614
-0.14091418 0.46013392 0.00000297
-0.16785457 0.29703243 0.00000000
0.22063052 0.29053417 0.14881564
-0.05742141 -0.19820965 0.00000000
0.18304787 0.54136981 0.12346584
-0.17595173 -0.41938921 0.00000000
0.16107980 0.50518212 0.10865041
-0.14913828 0.60784664 0.00000035
-0.11041166 0.24740168 0.00000000
0.23986675 -0.03343068 0.16179073
-0.20833866 0.36680731 0.00000324
0.41454343 -0.50119174 0.27961058
-0.27777619 -0.58181674 0.00000000
0.00115184 -0.50536926 0.00077692
0.21735945 -0.52803097 0.14660950
0.63900823 0.01067728 0.43101143
-0.74892642 -0.31901128 -0.00000120
0.06672808 0.27768481 0.04501621
-0.59357516 0.06361082 0.00000090
-0.02239723 -0.12866578 0.00000000
-0.10773971 0.55307258 0.00000206
-0.72292737 0.06576575 -0.00000179
-0.12894949 0.22469395 0.00000000
-0.53078535 0.26714410 -0.00000132
-0.39509476 -0.55865877 0.00000000
-0.42875258 -0.01920158 -0.00000038
-0.22437755 0.34179646 0.00000335
0.33431214 -0.59129165 0.22549437
-0.01710907 0.56198065 0.00000000
-0.01789607 -0.58559555 0.00000000
-0.04561446 -0.57870301 0.00000000
-0.75619395 -0.59073976 -0.00000052
-0.31565069 -0.34258326 0.00000000
0.19792112 0.51406654 0.13349877
-0.02628225 0.08403068 0.00000000
-0.27011925 -0.32391850 0.00000000
-0.05985958 -0.07104627 0.00000000
-0.51164424 -0.55434018 0.00000000
-0.71666695 0.06524128 -0.00000149
0.25306239 -0.38313756 0.17069121
-0.00391337 0.54623349 0.00000000
0.07604689 -0.39542722 0.05129382
-0.19196956 0.29021316 0.00000000
-0.73838948 -0.18993393 -0.00000140
0.39669913 -0.43261545 0.26757456
-0.13260948 0.11916883 0.00000821
0.31109334 0.21194527 0.20983277
0.18392694 -0.53597154 0.12405918
0.13741526 -0.76710503 0.09268693
-0.13029371 -0.18468306 0.00000000
-0.62729247 -0.46623022 -0.00000044
0.05074212 0.19326726 0.03422569
0.38103761 -0.29729798 0.25701080
0.02822539 -0.76538514 0.01903810
-0.18634529 0.35064951 0.00000393
-0.65718295 -0.39896927 -0.00000069
0.47397997 -0.79166349 0.31970068
-0.40776929 -0.67386530 0.00000000
0.25951124 0.09467438 0.17504847
0.14571638 0.36709364 0.09829101
-0.07049654 0.21246882 0.00000775
0.17888456 -0.34330211 0.12065809
0.56958620 -0.24064708 0.38418641
-0.23053317 0.06984052 0.00000000
0.04136788 0.49600913 0.02790274
-0.34995872 -0.12354155 0.00000000
0.17170249 0.24290720 0.11581376
-0.24447906 0.37259516 -0.00000029
-0.20983699 -0.54519082 0.00000000
0.30328951 -0.10403209 0.20456953
0.11115897 -0.57209289 0.07497700
0.22289898 -0.33110947 0.15034592
0.22091418 0.17368033 0.14900714
0.65491816 -0.41960127 0.44174360
0.13364424 0.19247455 0.09015160
-0.12538260 -0.52302115 0.00000000
-0.08734098 0.22537123 0.00000730
0.17366116 0.05090223 0.11714487
-0.54217635 0.10605321 0.00000118
-0.10962246 0.61832103 -0.00000015
0.21274525 -0.37335018 0.14349720
0.65356853 -0.46062453 0.44083340
0.28757757 -0.24659564 0.19397179
0.15520720 -0.17684421 0.10468764
0.64669719 -0.36457005 0.43619828
0.20197062 0.53763618 0.13622957
0.08549605 0.65178110 0.05766802
0.44344002 0.10719361 0.29910356
-0.67113261 -0.16798778 -0.00000115
-0.19995393 -0.32292569 0.00000000
-0.13517521 -0.26495474 0.00000000
0.48922721 -0.59425725 0.32998494
0.01004026 -0.32141951 0.00677218
-0.14459661 0.15565038 0.00000000
-0.10686464 0.47751387 0.00000000
0.37526777 -0.16049838 0.25311886
0.46828616 -0.49894444 0.31586009
-0.31466589 0.10455643 0.00000557
0.21977412 0.08756702 0.14824670
-0.61840711 -0.53723424 -0.00000028
0.06803870 -0.37003094 0.04589227
-0.10518701 -0.53290781 0.00000000
0.13998533 0.43396107 0.09442420
-0.29198442 0.30652216 -0.00000037
0.26263950 -0.09443866 0.17715100
-0.14449633 0.60959335 0.00000041
0.65244184 -0.48639676 0.44007352
0.38019424 -0.16533204 0.25644175
0.45737210 0.07661482 0.30849773
0.48686819 0.16161952 0.32839267
-0.78656632 -0.53756781 -0.00000066
-0.01907402 -0.20474615 0.00000000
-0.28354330 -0.57019454 0.00000000
-0.24178340 -0.67750674 0.00000000
-0.13320156 -0.21952226 0.00000000
0.02214325 0.38467060 0.01493567
-0.69266538 0.05054955 -0.00000078
-0.15218142 -0.22107783 0.00000000
-0.51445533 -0.46785049 0.00000000
-0.05024829 0.65686008 0.00000139
0.37730998 0.13155369 0.25449589
-0.05426668 0.66342664 0.00000123
0.63326970 -0.45101749 0.42714157
0.09565886 0.53525768 0.06452500
-0.38152774 0.03799136 0.00000540
-0.42121124 0.36320880 -0.00000103
0.03394988 0.38215834 0.02290600
-0.05963717 -0.32077487 0.00000000
0.15561523 0.35317236 0.10496285
-0.26391614 -0.32484977 0.00000000
-0.08050451 0.29255294 0.00000640
-0.55280764 0.07302243 0.00000153
0.15775075 0.31115506 0.10640327
-0.41212851 -0.34720939 0.00000000
-0.25676087 -0.33338694 0.00000000
0.06953656 0.55468593 0.04690258
-0.06449617 0.40520119 0.00000495
-0.56888201 -0.06645770 -0.00000090
0.26353415 -0.52541589 0.17775445
0.17406259 0.31153542 0.11741100
-0.13599396 0.41041585 0.00000000
-0.25693380 0.29745777 -0.00000021
0.22000272 0.09911312 0.14839238
-0.30724822 0.34541524 -0.00000051
0.41871830 -0.28021650 0.28242634
0.12673407 -0.54701489 0.08548245
-0.56736407 -0.78790129 0.00000000
-0.72081033 -0.31112229 -0.00000111
0.11014882 0.47311937 0.07429939
-0.30753195 -0.22511707 0.00000000
0.29011973 0.01443658 0.19569480
-0.49082430 0.06235812 0.00000290
