ply
format ascii 1.0
element vertex 1409
property float x
property float y
property float z
end_header
-0.03923014 0.13773278 0.00000000
0.66901256 0.13054032 0.00000000
0.08279076 0.05832878 0.00000000
0.66495625 0.45855864 0.28249046
0.50989260 -0.00169201 0.00000000
0.52973595 0.48001883 0.18315608
-0.40409618 -0.10655981 0.00000000
0.37807607 0.64486408 0.19467004
-0.11252235 -0.62402479 0.00000000
-0.77780305 0.36222268 0.00000000
0.02665232 0.48554902 0.00000000
0.29683242 0.25540468 0.00000000
0.02095157 -0.35993180 0.00000000
0.04536139 -0.62854183 0.00000000
0.29275024 0.45661015 0.00000000
-0.18686779 0.54231705 0.00000000
-0.45197668 0.35543772 0.00000000
-0.26625197 0.61089262 0.00000000
-0.09917632 0.09939265 0.00000000
-0.76952567 0.74449540 0.00000000
-0.37127455 -0.30301915 0.00000000
-0.47381180 -0.44898576 0.00000000
0.48213503 0.39607613 0.06829386
0.01260755 0.31199544 0.00000000
-0.61227681 0.14371899 0.00000000
-0.73731895 -0.15672003 0.00000000
0.79482123 -0.38695317 0.00000000
0.24126273 -0.30708100 0.00000000
-0.63879834 -0.13552402 0.00000000
0.14851110 0.14347251 0.00000000
0.13316000 -0.40470452 0.00000000
-0.67151923 -0.78136566 0.00000000
-0.49342300 0.50061759 0.00000000
-0.25316209 -0.79955240 0.00000000
-0.75025473 0.29850814 0.00000000
0.79317274 -0.77213196 0.00000000
-0.71796193 0.40458763 0.00000000
-0.63893338 -0.60152021 0.00000000
-0.50754895 -0.40034198 0.00000000
0.46033378 0.08369589 0.00000000
0.18869182 0.73760100 0.11027864
0.47420469 0.52358043 0.17270434
-0.37879098 -0.31276167 0.00000000
-0.35478268 0.50908818 0.00000000
-0.73562961 -0.03673833 0.00000000
-0.10659618 0.45409433 0.00000000
-0.07998308 0.35950474 0.00000000
-0.47572118 0.14322218 0.00000000
0.59187825 0.45375048 0.21448077
0.22440580 0.04879617 0.00000000
0.45486005 -0.47551591 0.00000000
-0.16431302 -0.62052342 0.00000000
0.34258270 -0.65619422 0.00000000
-0.46432781 0.60633544 0.00000000
-0.36437284 -0.16551042 0.00000000
0.01090192 -0.57534213 0.00000000
-0.00386474 0.46596591 0.00000000
0.33294116 0.59964058 0.11576957
-0.68800634 0.63545597 0.00000000
-0.14451882 0.77400364 0.00000000
-0.34310226 0.53848431 0.00000000
-0.68230342 -0.15001672 0.00000000
0.29574596 -0.37788293 0.00000000
0.49787970 0.16718247 0.00000000
-0.49093415 -0.54095259 0.00000000
0.66383141 0.02358469 0.00000000
0.47313786 0.27333638 0.00000000
0.26284432 -0.60189522 0.00000000
-0.35047870 0.35636510 0.00000000
-0.22799596 -0.16015156 0.00000000
-0.52736835 0.01890150 0.00000000
0.22832946 -0.10718970 0.00000000
-0.48381805 0.68493946 0.00000000
-0.17506909 0.20056661 0.00000000
-0.56146596 -0.43310245 0.00000000
-0.77365181 0.57098044 0.00000000
0.50179522 0.03569689 0.00000000
0.11730196 -0.73867539 0.00000000
0.06942488 -0.39356054 0.00000000
0.70190374 0.10514426 0.00615508
0.75390295 -0.63729485 0.00000000
-0.04415583 0.57360120 0.00000000
0.74423572 0.10999421 0.04735375
0.45627699 -0.48731875 0.00000000
0.63297754 0.59373862 0.37260567
-0.20857634 0.18247969 0.00000000
0.22222529 -0.19083562 0.00000000
-0.52437529 0.08164667 0.00000000
-0.25750093 0.63924980 0.00000000
0.74191536 -0.72638640 0.00000000
-0.02440387 -0.07579453 0.00000000
-0.68199218 -0.60812466 0.00000000
-0.35246290 0.12175006 0.00000000
-0.78056151 0.16899550 0.00000000
0.71062488 -0.23332587 0.00000000
-0.57609368 0.02899771 0.00000000
-0.34225464 -0.35802102 0.00000000
0.53844965 -0.26861051 0.00000000
0.37429605 -0.33481593 0.00000000
0.26037930 -0.67613327 0.00000000
-0.64749534 0.50186322 0.00000000
0.41419126 -0.60226186 0.00000000
-0.54456633 0.43376937 0.00000000
-0.17950161 0.59057877 0.00000000
0.67216040 0.29997608 0.15030826
0.43302434 -0.71760537 0.00000000
0.17862987 0.69047482 0.06034220
-0.47245684 0.49075358 0.00000000
0.32703608 -0.32064431 0.00000000
0.68194800 0.01644373 0.00000000
0.31031893 -0.27027994 0.00000000
-0.49773339 -0.40644058 0.00000000
0.62812469 0.20214514 0.02643210
-0.01866948 -0.30485488 0.00000000
0.31765667 -0.02065134 0.00000000
-0.49638317 -0.04063311 0.00000000
-0.78758771 -0.29826728 0.00000000
-0.07953943 0.10974073 0.00000000
-0.42176593 -0.78030614 0.00000000
0.01003715 -0.62107021 0.00000000
0.10757786 0.60370353 0.00000000
-0.74890347 -0.64409329 0.00000000
0.25879807 0.63106767 0.07847049
0.20185593 -0.53618918 0.00000000
-0.76475672 0.25254693 0.00000000
0.47206261 -0.57757017 0.00000000
-0.00520382 0.01749423 0.00000000
-0.75696478 -0.62538304 0.00000000
-0.74250017 0.11806422 0.00000000
0.27736716 -0.74362121 0.00000000
0.07294258 -0.11806656 0.00000000
-0.71109714 0.37996218 0.00000000
-0.12046237 -0.36541306 0.00000000
-0.74346878 -0.19280005 0.00000000
-0.10426078 0.07757641 0.00000000
0.71440396 0.12274806 0.03244154
-0.45550396 0.78419574 0.00000000
-0.29029655 -0.66501277 0.00000000
0.38123427 0.45035705 0.02758601
0.49134726 0.59216456 0.24756060
0.47167377 -0.53381771 0.00000000
-0.43863373 -0.76542956 0.00000000
-0.02179812 0.62662838 0.00000000
-0.70657864 0.00663194 0.00000000
0.78219876 -0.30825341 0.00000000
0.27783447 -0.07547287 0.00000000
-0.48170475 0.49849486 0.00000000
-0.32073114 0.70651471 0.00000000
0.31887355 0.66246956 0.15834787
-0.01228767 -0.00239410 0.00000000
0.46390686 -0.06276483 0.00000000
0.64464622 -0.25379471 0.00000000
-0.27232249 0.53879889 0.00000000
-0.76857429 0.69926950 0.00000000
-0.69040513 0.58686360 0.00000000
-0.17188015 0.03524270 0.00000000
0.09471040 -0.13987418 0.00000000
-0.75613662 0.45868557 0.00000000
0.21887754 0.14907988 0.00000000
0.11455618 0.15576324 0.00000000
-0.69556036 0.23531961 0.00000000
0.42718351 0.67991131 0.26815348
0.46052345 -0.46885135 0.00000000
0.21982413 0.70606746 0.10992816
0.45075003 0.43955515 0.07885420
0.43837139 -0.32268076 0.00000000
0.03930870 0.18568065 0.00000000
0.13312669 -0.43968864 0.00000000
0.54161537 -0.74213552 0.00000000
-0.46860967 -0.71345556 0.00000000
-0.76922169 -0.12500451 0.00000000
-0.17990898 0.17958739 0.00000000
0.07001615 -0.62293747 0.00000000
-0.73323805 -0.05916333 0.00000000
-0.05410948 -0.39824739 0.00000000
0.36471257 -0.47213613 0.00000000
-0.60632916 -0.38655382 0.00000000
0.02822237 0.47238750 0.00000000
-0.71698095 -0.48014969 0.00000000
-0.60864456 0.24460709 0.00000000
0.50183253 0.10482491 0.00000000
0.51664443 -0.37752496 0.00000000
-0.18248247 -0.40419517 0.00000000
-0.22198233 -0.74802048 0.00000000
0.30162865 -0.34537016 0.00000000
-0.48339355 0.20853848 0.00000000
-0.34541243 -0.48796670 0.00000000
-0.60877024 0.56837606 0.00000000
0.52191808 0.25498802 0.00000000
-0.28767548 0.33306027 0.00000000
-0.61730593 -0.13891735 0.00000000
0.72661595 -0.47973123 0.00000000
0.04884735 0.47600213 0.00000000
0.17973774 -0.25813642 0.00000000
0.07208758 0.41120422 0.00000000
0.56661259 -0.61031431 0.00000000
-0.64663318 0.03627240 0.00000000
0.62468731 0.63317748 0.39980461
-0.79968482 -0.55284483 0.00000000
-0.45697506 -0.21582856 0.00000000
-0.78395045 -0.49924870 0.00000000
-0.74559965 -0.17789141 0.00000000
-0.25161202 0.03672435 0.00000000
0.30857350 -0.29342268 0.00000000
-0.44393047 0.36151594 0.00000000
0.14635214 0.13610249 0.00000000
0.51318211 0.24118474 0.00000000
-0.72815244 0.11791357 0.00000000
-0.49455640 0.20561654 0.00000000
0.21412836 0.69799040 0.09790179
-0.45884816 0.75198985 0.00000000
-0.24892745 0.56126073 0.00000000
0.18516912 -0.58958523 0.00000000
-0.43464242 0.43060443 0.00000000
0.71582389 0.19044254 0.09279136
-0.39377412 0.42292516 0.00000000
0.53040822 0.54808629 0.24317934
-0.36144786 -0.20035723 0.00000000
0.23400213 -0.23457809 0.00000000
0.60305704 -0.33660103 0.00000000
0.64067197 -0.37314952 0.00000000
-0.26597024 0.10800540 0.00000000
0.62718865 0.51339625 0.29739610
0.67632274 -0.06919543 0.00000000
-0.05029282 0.74577978 0.00000000
-0.53148047 -0.37158690 0.00000000
0.24891029 0.15327841 0.00000000
-0.18701178 0.15843358 0.00000000
-0.65118875 -0.18806388 0.00000000
-0.31172077 0.71477179 0.00000000
-0.68460507 0.39537569 0.00000000
-0.59396850 0.02149540 0.00000000
0.64221985 0.25473981 0.08466481
0.41884340 0.48630454 0.09181471
-0.62769328 0.12247245 0.00000000
0.26513069 0.14550025 0.00000000
-0.50395200 0.62273351 0.00000000
-0.21441356 0.07759278 0.00000000
0.11317759 0.40189389 0.00000000
0.44744906 -0.54392327 0.00000000
-0.63494745 -0.69118610 0.00000000
-0.55811462 0.34700916 0.00000000
0.15640585 0.13936540 0.00000000
-0.43162875 0.13155282 0.00000000
0.18956077 0.69542511 0.07420952
0.02545352 0.07677611 0.00000000
-0.49749055 0.22784555 0.00000000
0.11490687 -0.09914063 0.00000000
0.37039670 -0.28092970 0.00000000
0.27992694 -0.23183447 0.00000000
0.22717444 0.38375759 0.00000000
0.63619184 -0.75342177 0.00000000
-0.22624257 0.47134597 0.00000000
-0.55383498 -0.55318551 0.00000000
-0.17880969 -0.33344321 0.00000000
-0.32122374 0.17436651 0.00000000
0.05081282 0.73949023 0.00000000
-0.51574851 -0.35861600 0.00000000
-0.60554460 -0.68643853 0.00000000
0.53337224 0.46521369 0.17340358
-0.41558069 0.17934200 0.00000000
0.60480353 0.05081830 0.00000000
0.22654702 -0.43901306 0.00000000
-0.43065483 0.53684069 0.00000000
0.00787682 0.53769946 0.00000000
-0.73960852 0.30994383 0.00000000
-0.08572282 -0.01919441 0.00000000
-0.41787786 -0.67694985 0.00000000
0.20159784 0.18300124 0.00000000
0.44075532 0.09347549 0.00000000
-0.44427771 -0.21983983 0.00000000
0.00766860 -0.07406599 0.00000000
0.67639057 -0.51904195 0.00000000
-0.24996905 -0.27421573 0.00000000
-0.25917711 -0.19091206 0.00000000
0.01254867 -0.36591832 0.00000000
-0.18146328 0.49682028 0.00000000
-0.37516743 0.14877939 0.00000000
0.73988065 0.10201859 0.03658674
-0.20368758 0.27409021 0.00000000
-0.36991148 -0.20103601 0.00000000
0.66992430 0.03068219 0.00000000
-0.66211158 -0.66096481 0.00000000
0.46033589 -0.72090079 0.00000000
-0.22535320 -0.13873979 0.00000000
-0.06705541 -0.20038081 0.00000000
-0.18710801 0.35584138 0.00000000
0.05266365 0.00373653 0.00000000
-0.02929407 -0.28999641 0.00000000
-0.61299563 0.78320769 0.00000000
0.33245704 -0.16001242 0.00000000
-0.24758328 0.26639907 0.00000000
-0.49197150 0.56378502 0.00000000
-0.28618755 -0.46085922 0.00000000
-0.09230001 -0.27147201 0.00000000
-0.26186620 -0.75507711 0.00000000
0.30245584 -0.03650795 0.00000000
-0.20606333 0.37819038 0.00000000
0.65658986 0.13702602 0.00000000
-0.77077986 0.15767361 0.00000000
-0.20866210 -0.77407397 0.00000000
-0.75886712 0.66226573 0.00000000
-0.77442129 0.59714802 0.00000000
0.26384575 -0.74313967 0.00000000
-0.70424779 0.11229054 0.00000000
0.48014122 0.29214821 0.00000000
-0.47583664 -0.27954250 0.00000000
-0.51162003 0.10064492 0.00000000
0.74797613 -0.09736134 0.00000000
-0.24132079 0.59085446 0.00000000
0.65603298 -0.35930005 0.00000000
0.25920885 0.07968729 0.00000000
0.29238636 0.72129808 0.18658835
-0.63140796 0.17733720 0.00000000
0.09829919 0.29042953 0.00000000
0.17328693 -0.12996433 0.00000000
-0.42837703 -0.53680190 0.00000000
0.47832255 0.12806257 0.00000000
0.18133997 0.27266567 0.00000000
-0.12298125 0.58672349 0.00000000
0.45597375 0.04983236 0.00000000
0.13444985 0.13285842 0.00000000
-0.43679042 -0.50546036 0.00000000
-0.34694099 0.09337751 0.00000000
0.49028955 -0.13019083 0.00000000
-0.34513617 -0.58692031 0.00000000
0.52206323 0.07799292 0.00000000
0.52885138 0.65753180 0.33738745
0.55040143 0.58826015 0.29571699
0.55612599 -0.09615562 0.00000000
-0.27052906 0.49213843 0.00000000
0.65238267 0.11512749 0.00000000
-0.56847947 0.19577324 0.00000000
0.07859720 0.73705023 0.01366400
-0.68912185 0.31911642 0.00000000
-0.44207306 0.64205148 0.00000000
0.65043890 -0.31578089 0.00000000
-0.72748526 0.58093857 0.00000000
0.37350404 0.70563751 0.24374499
-0.29795155 -0.40862949 0.00000000
-0.77135004 0.68508342 0.00000000
-0.75573564 0.17939140 0.00000000
0.36833134 -0.35073921 0.00000000
-0.39349929 -0.32449000 0.00000000
-0.59892672 0.70681033 0.00000000
-0.24557991 -0.79950679 0.00000000
-0.06656617 0.43037443 0.00000000
-0.59212302 0.07613128 0.00000000
-0.61572317 0.26875666 0.00000000
0.16799695 0.15053608 0.00000000
0.24772648 -0.31648835 0.00000000
-0.65372494 -0.23695876 0.00000000
0.72674624 0.24399720 0.14909188
-0.26636470 -0.37458272 0.00000000
-0.53689819 0.06625054 0.00000000
-0.54024200 0.65189280 0.00000000
-0.08202238 -0.47500351 0.00000000
-0.15974490 -0.79701221 0.00000000
0.36216245 -0.73703192 0.00000000
-0.66001194 0.53187003 0.00000000
0.40248838 0.09755745 0.00000000
-0.03113962 0.61513108 0.00000000
0.61390735 -0.33152504 0.00000000
-0.52407920 0.12207925 0.00000000
-0.13452970 0.55141831 0.00000000
-0.08995704 0.18120198 0.00000000
0.08492442 0.40541675 0.00000000
-0.21954254 0.42993006 0.00000000
-0.72830344 -0.76311866 0.00000000
0.69660171 -0.79988342 0.00000000
0.21887434 -0.34505134 0.00000000
-0.34878038 -0.45536276 0.00000000
-0.79909917 -0.77849242 0.00000000
0.76907318 -0.36180284 0.00000000
-0.31050477 0.50509342 0.00000000
0.57135507 -0.67950627 0.00000000
-0.28584770 0.65536033 0.00000000
0.51111694 0.58658965 0.25995536
0.34699050 0.63525833 0.15913863
-0.01865662 0.67573523 0.00000000
-0.17115732 0.39047803 0.00000000
-0.10255512 0.27852346 0.00000000
-0.74973286 0.58972670 0.00000000
-0.22979776 -0.32964623 0.00000000
0.78313089 -0.25527585 0.00000000
-0.45235286 0.40228977 0.00000000
0.30224869 -0.03606549 0.00000000
-0.25281698 -0.68161110 0.00000000
-0.34560244 -0.54313278 0.00000000
-0.54773603 -0.57273782 0.00000000
0.47600331 0.09175368 0.00000000
0.20293855 0.61383305 0.01464561
-0.65565811 0.50615540 0.00000000
0.29830347 0.48978273 0.00000000
0.58167141 -0.42113770 0.00000000
0.47693529 0.44400627 0.10560550
-0.57952436 -0.45501378 0.00000000
0.06568560 -0.16642143 0.00000000
-0.77698440 -0.01793805 0.00000000
0.11932296 -0.77093117 0.00000000
0.15421618 -0.22290277 0.00000000
-0.11934384 -0.14321036 0.00000000
-0.20126928 -0.44433875 0.00000000
0.12805170 -0.62354146 0.00000000
0.66297199 -0.01437040 0.00000000
-0.07935609 -0.79571259 0.00000000
0.09989110 -0.07251876 0.00000000
0.64128801 -0.40955772 0.00000000
-0.75975606 -0.12539092 0.00000000
-0.77003827 -0.44688714 0.00000000
-0.20934705 0.05426489 0.00000000
-0.23211570 0.72397520 0.00000000
-0.11742166 -0.18975891 0.00000000
0.00872324 -0.73265744 0.00000000
0.73303719 0.03437297 0.00000000
0.02336287 0.76926285 0.00000000
0.45362289 -0.17506442 0.00000000
0.55090485 0.62591211 0.32903417
-0.17408329 -0.64456796 0.00000000
-0.54912073 -0.30334712 0.00000000
0.75322665 0.13146424 0.07395187
0.54503208 -0.37408906 0.00000000
0.40613442 -0.65457033 0.00000000
0.64717088 0.59662201 0.38751697
-0.07595855 0.57549813 0.00000000
-0.69072781 -0.63630864 0.00000000
-0.39878995 0.71993738 0.00000000
-0.40804304 -0.29690588 0.00000000
-0.73586091 0.35305700 0.00000000
0.58276675 -0.31334464 0.00000000
0.18458787 0.61991787 0.00393522
0.31923135 0.15459182 0.00000000
0.73724307 -0.11750169 0.00000000
-0.51647006 -0.27936943 0.00000000
0.37115953 0.19193740 0.00000000
0.15650715 0.23652320 0.00000000
0.16859359 0.53163383 0.00000000
-0.09386501 0.26310175 0.00000000
-0.06491355 0.52648007 0.00000000
-0.41054316 -0.22522343 0.00000000
-0.56365418 0.06809430 0.00000000
-0.12686436 0.60277366 0.00000000
0.19664237 0.45880503 0.00000000
0.44557545 0.69393121 0.29645535
0.27033604 -0.03953057 0.00000000
-0.47831855 0.22544508 0.00000000
0.71872325 0.01613867 0.00000000
0.74513607 0.06676349 0.01039141
-0.21315074 -0.44064568 0.00000000
-0.31272168 -0.51946709 0.00000000
0.60370108 -0.30862616 0.00000000
-0.30202674 -0.74384661 0.00000000
0.75607168 -0.71743138 0.00000000
-0.33233981 -0.06958830 0.00000000
-0.23348306 0.75257743 0.00000000
-0.42242458 -0.33886497 0.00000000
-0.30772991 0.18986891 0.00000000
-0.51170083 0.59841470 0.00000000
0.52214449 0.48722432 0.18281906
0.66063149 0.46327700 0.28283417
-0.30355034 0.36887170 0.00000000
-0.24046094 0.20316539 0.00000000
0.16906383 -0.03609869 0.00000000
-0.49843925 0.55126712 0.00000000
-0.73543975 -0.53302975 0.00000000
-0.14405717 -0.45209094 0.00000000
0.08860050 0.64559738 0.00000000
0.03651084 -0.60260794 0.00000000
-0.49986027 0.58721980 0.00000000
0.24330218 -0.38799775 0.00000000
-0.37919201 0.73626719 0.00000000
0.25603064 -0.18847395 0.00000000
-0.16102219 -0.56605729 0.00000000
0.58384190 0.20420286 0.00000000
0.51200870 0.65950445 0.32440305
-0.33107606 0.42368287 0.00000000
0.20079976 -0.18537338 0.00000000
0.40447278 -0.46971360 0.00000000
-0.10255366 0.42230277 0.00000000
0.03746546 -0.34585526 0.00000000
0.20658418 -0.63566031 0.00000000
-0.28442031 0.53810558 0.00000000
0.42477045 0.38207135 0.00597504
-0.63207345 0.16630468 0.00000000
-0.71408530 -0.45973034 0.00000000
0.15085326 -0.07606843 0.00000000
-0.33748473 0.58212112 0.00000000
0.05585208 0.26504971 0.00000000
0.43778498 -0.39534229 0.00000000
0.56414186 -0.37833182 0.00000000
-0.54047655 -0.70671907 0.00000000
0.06645425 0.49116565 0.00000000
-0.78642304 0.78935536 0.00000000
-0.75415990 -0.26648907 0.00000000
-0.00449885 0.71103594 0.00000000
0.53796935 0.36506504 0.08996919
-0.21862406 -0.04033021 0.00000000
-0.22106306 0.21278432 0.00000000
-0.14111679 -0.31362106 0.00000000
0.67823789 0.13810833 0.01427418
0.55889906 -0.18528060 0.00000000
-0.54127210 0.69383659 0.00000000
0.09963076 0.50070736 0.00000000
0.05936302 -0.34374177 0.00000000
0.68420855 0.08153815 0.00000000
0.73112866 0.04937584 0.00000000
0.06257817 0.11153212 0.00000000
-0.10731277 -0.16762139 0.00000000
-0.31678562 0.13292920 0.00000000
-0.30401109 0.76174723 0.00000000
-0.24582349 -0.78454575 0.00000000
-0.10901709 0.66536141 0.00000000
-0.52697955 -0.09452318 0.00000000
-0.13182829 -0.33726126 0.00000000
0.57463970 -0.78816522 0.00000000
-0.47488970 0.64137771 0.00000000
-0.47446144 -0.33885324 0.00000000
0.13710923 0.55635235 0.00000000
-0.53864740 0.37340025 0.00000000
-0.31516068 0.49665215 0.00000000
0.01667926 -0.21831644 0.00000000
-0.47388528 0.47755234 0.00000000
0.60183027 -0.49486291 0.00000000
0.13820962 0.72506853 0.05525460
-0.17609964 -0.76393907 0.00000000
0.41014187 0.59865923 0.18232374
0.08948783 -0.53982951 0.00000000
-0.75330637 0.31877176 0.00000000
0.44604278 0.48610218 0.11538817
0.37497958 0.35631632 0.00000000
0.36507422 -0.42004811 0.00000000
0.14187192 -0.38413248 0.00000000
0.62758252 0.16660770 0.00000000
-0.74334436 0.03323217 0.00000000
0.76241289 0.10946090 0.06276015
-0.62894832 -0.25171177 0.00000000
0.22660572 -0.55942774 0.00000000
0.40705180 -0.12783577 0.00000000
0.11805386 -0.79068060 0.00000000
-0.03293567 -0.57919698 0.00000000
-0.60579491 -0.77548979 0.00000000
0.72598325 -0.38457987 0.00000000
0.43327852 0.40886841 0.03680303
0.41973983 0.01035007 0.00000000
-0.44785281 -0.46548109 0.00000000
0.76514644 -0.75405181 0.00000000
0.50815403 0.17869832 0.00000000
0.26382960 -0.26660233 0.00000000
-0.61808213 0.60602179 0.00000000
0.45321614 -0.57768041 0.00000000
-0.69017941 0.46625571 0.00000000
-0.75893412 0.28705211 0.00000000
0.64800323 -0.32561844 0.00000000
-0.79743310 0.54314818 0.00000000
-0.36925775 0.47102713 0.00000000
-0.35190022 -0.79012531 0.00000000
0.34964161 -0.77850944 0.00000000
0.17073049 0.05093907 0.00000000
0.37130357 -0.22541581 0.00000000
0.51311250 0.33507364 0.04207639
-0.41804443 -0.75740470 0.00000000
-0.79778212 0.79123672 0.00000000
-0.77527167 -0.54588267 0.00000000
-0.00204105 -0.22550700 0.00000000
-0.03587553 0.60478824 0.00000000
0.20510212 -0.19276608 0.00000000
0.21487600 -0.00604130 0.00000000
0.34464982 -0.26241005 0.00000000
0.37795932 0.21166206 0.00000000
-0.06975829 0.39073206 0.00000000
0.64932981 0.14475816 0.00000000
-0.58859949 -0.41584936 0.00000000
0.43659355 -0.51213351 0.00000000
0.12295754 -0.32508736 0.00000000
-0.74811491 -0.49311860 0.00000000
-0.03522405 0.09286950 0.00000000
0.21091839 -0.20718647 0.00000000
0.64745753 0.49406102 0.29821128
-0.07413390 0.26364177 0.00000000
-0.53871482 0.58426124 0.00000000
-0.17170678 -0.19663604 0.00000000
-0.03687638 0.10156687 0.00000000
-0.54545931 0.58880790 0.00000000
0.62369559 0.47925428 0.26453331
0.51903857 0.28510892 0.00362240
0.28303539 0.54746427 0.02663279
0.52885304 0.28808437 0.01479040
-0.10020102 -0.28219939 0.00000000
-0.59631075 0.04517883 0.00000000
0.47504331 0.63966044 0.27479738
0.69532947 -0.57961349 0.00000000
0.26909653 0.62501715 0.08217973
-0.38398409 -0.03894944 0.00000000
0.41636992 0.23499226 0.00000000
0.47142666 0.28811075 0.00000000
0.01754026 0.55599784 0.00000000
-0.73035571 0.02489136 0.00000000
-0.10342414 -0.02718387 0.00000000
-0.06044005 0.58570114 0.00000000
-0.54795248 0.51968507 0.00000000
-0.53528812 0.61120094 0.00000000
0.50226699 0.55762944 0.22693966
-0.40755691 -0.34221179 0.00000000
0.15975118 -0.70802637 0.00000000
0.41362601 0.64085693 0.22221299
-0.35001144 -0.19772725 0.00000000
0.22628410 -0.01139874 0.00000000
-0.41589609 0.16043738 0.00000000
-0.42322399 0.04876499 0.00000000
-0.01300062 -0.73710042 0.00000000
-0.64596835 0.59957184 0.00000000
-0.39035868 -0.08347384 0.00000000
0.54660005 -0.08564180 0.00000000
0.58796423 -0.60766736 0.00000000
0.34399650 -0.59264495 0.00000000
-0.65718336 0.09956654 0.00000000
-0.73171537 -0.42873181 0.00000000
-0.12034101 -0.33838671 0.00000000
-0.53103245 -0.35067447 0.00000000
-0.38945590 0.41072269 0.00000000
0.49953666 0.53768017 0.20713591
-0.07315583 0.48290477 0.00000000
-0.40864357 0.04325159 0.00000000
0.69054335 -0.56395569 0.00000000
0.21642593 -0.19726418 0.00000000
-0.66646867 -0.50691085 0.00000000
0.57029346 0.52010553 0.25357414
-0.54395147 0.52618090 0.00000000
-0.46526829 -0.25835733 0.00000000
-0.38039562 -0.47177798 0.00000000
-0.54719389 -0.04798248 0.00000000
0.40594086 0.03007604 0.00000000
0.18301568 0.33659819 0.00000000
0.00469125 0.66639112 0.00000000
0.58815265 -0.77364857 0.00000000
0.36283992 0.53123939 0.08214972
-0.40951129 0.29707455 0.00000000
-0.45218360 0.78567179 0.00000000
0.48383055 0.18854672 0.00000000
-0.27599826 0.24120729 0.00000000
-0.46610215 0.11348508 0.00000000
-0.39086110 -0.51865422 0.00000000
-0.03076142 -0.11824166 0.00000000
0.65743318 0.24488492 0.08934373
0.79541272 -0.61851988 0.00000000
-0.79425310 -0.30698099 0.00000000
0.48508519 -0.03096219 0.00000000
0.71449975 -0.25468403 0.00000000
0.60043549 0.65680167 0.39925667
0.40831517 -0.70773891 0.00000000
-0.62073760 0.39838753 0.00000000
-0.18201077 0.09913662 0.00000000
-0.59964071 0.44609868 0.00000000
-0.08293369 -0.33569716 0.00000000
0.74294502 0.07064049 0.01186356
0.31871624 -0.16536603 0.00000000
-0.69962096 -0.49939092 0.00000000
-0.54053027 -0.62801506 0.00000000
0.34483737 -0.09346771 0.00000000
-0.31794937 0.72484967 0.00000000
0.63226271 0.21791215 0.04381292
-0.66422610 -0.32056720 0.00000000
0.72311608 0.16348972 0.07562396
0.11057035 -0.57209367 0.00000000
0.58107248 -0.58606697 0.00000000
-0.49121209 0.75474677 0.00000000
-0.46326675 -0.29123933 0.00000000
-0.19248578 0.24827035 0.00000000
-0.72101896 -0.54474961 0.00000000
-0.29614306 -0.31976708 0.00000000
0.64365458 -0.49326365 0.00000000
-0.71665453 0.76488978 0.00000000
0.51978387 0.01156362 0.00000000
0.29317161 0.13271400 0.00000000
0.61224737 0.19543036 0.00670496
-0.61999270 -0.72273954 0.00000000
-0.11804302 0.43902625 0.00000000
0.04665359 -0.52820683 0.00000000
-0.13408795 -0.73482730 0.00000000
-0.26995669 -0.55523767 0.00000000
0.73983399 -0.65662284 0.00000000
0.32467189 0.51851933 0.03771489
-0.60878124 0.69503273 0.00000000
0.00066980 -0.53354074 0.00000000
-0.09013025 -0.45376182 0.00000000
0.55329744 -0.78342539 0.00000000
0.52376133 -0.09316913 0.00000000
-0.69499478 -0.33524837 0.00000000
0.42957949 -0.71001823 0.00000000
0.07458301 -0.06314461 0.00000000
-0.54484682 0.14724009 0.00000000
-0.66465568 0.79085855 0.00000000
-0.67464494 -0.04817619 0.00000000
0.23610654 0.34033779 0.00000000
-0.40488609 0.26185800 0.00000000
-0.13047825 0.30027060 0.00000000
-0.73529931 0.22232970 0.00000000
0.39950494 -0.43542248 0.00000000
0.40879994 -0.20572926 0.00000000
0.66220050 0.54884379 0.35892092
-0.69930398 0.34105850 0.00000000
-0.50429243 -0.69085276 0.00000000
-0.79112422 -0.15484383 0.00000000
0.22605448 0.68570188 0.09758529
-0.53195417 -0.45181564 0.00000000
-0.61184059 -0.47047347 0.00000000
-0.40642276 -0.50026203 0.00000000
0.40922589 0.45351127 0.05478215
0.17123635 -0.38010206 0.00000000
0.34727315 0.51040808 0.05036738
0.43776752 0.45701189 0.08276105
0.19777769 0.32970112 0.00000000
0.11995467 -0.31566574 0.00000000
0.08112987 0.27815288 0.00000000
-0.23999144 0.00875571 0.00000000
-0.08563314 -0.15180511 0.00000000
-0.36781557 0.57552129 0.00000000
-0.47510881 0.73480258 0.00000000
-0.30224140 0.55852217 0.00000000
-0.31633668 0.17751867 0.00000000
-0.66529187 -0.33739047 0.00000000
-0.11859531 -0.73944532 0.00000000
-0.35173477 0.40100491 0.00000000
-0.25885864 -0.62583260 0.00000000
-0.33873385 -0.43514662 0.00000000
0.31601136 0.44193183 0.00000000
-0.00246074 0.18836569 0.00000000
-0.14857246 -0.53813535 0.00000000
-0.39490618 0.63295302 0.00000000
-0.02523431 -0.75326379 0.00000000
0.40808923 0.60068802 0.18230292
-0.65223633 -0.65424867 0.00000000
0.33521542 -0.50273226 0.00000000
-0.33995210 0.74172890 0.00000000
0.41148210 0.63195616 0.21256881
-0.06596547 -0.27881060 0.00000000
-0.45038907 0.44134398 0.00000000
0.50881899 0.45600613 0.14392407
-0.27242263 -0.60509240 0.00000000
0.09594038 0.17791878 0.00000000
0.35957584 0.47233581 0.02786571
0.59104291 -0.53335852 0.00000000
0.25752327 0.45543928 0.00000000
0.57635038 -0.08621556 0.00000000
-0.43693753 -0.58986359 0.00000000
0.17511229 0.30225282 0.00000000
-0.66593250 0.68775105 0.00000000
0.47654268 -0.71707948 0.00000000
0.48661221 0.49276334 0.15662933
-0.70255009 0.79497362 0.00000000
0.28388608 0.49161237 0.00000000
-0.71721039 -0.18502250 0.00000000
-0.03551112 -0.66552487 0.00000000
0.44764446 0.57434649 0.19384093
-0.67665242 0.47984808 0.00000000
0.70631600 0.10666357 0.01133446
0.61201291 0.24685066 0.05139978
0.38294962 0.14348567 0.00000000
0.07155425 0.51511713 0.00000000
0.08019551 -0.32051816 0.00000000
-0.66365432 0.49326567 0.00000000
-0.48518109 0.20021479 0.00000000
0.51571886 0.15963596 0.00000000
-0.51407787 0.23032575 0.00000000
-0.30426625 -0.42523471 0.00000000
-0.43384621 0.04289012 0.00000000
0.58177180 0.27269429 0.04755997
0.78056857 -0.39052296 0.00000000
0.39926302 -0.22617956 0.00000000
-0.08437376 -0.12501604 0.00000000
-0.10686773 0.52908190 0.00000000
-0.65745965 -0.75048792 0.00000000
-0.09678154 0.22059995 0.00000000
-0.52090739 0.07687872 0.00000000
0.65278779 0.25179778 0.09132366
0.07188890 -0.67031372 0.00000000
0.32974643 0.37748173 0.00000000
-0.64760504 0.51967785 0.00000000
0.70792211 0.35736641 0.23164744
0.13295954 0.30699303 0.00000000
-0.13401578 0.43110947 0.00000000
0.79096435 -0.60025904 0.00000000
-0.34230031 -0.55175680 0.00000000
-0.41113500 -0.24635165 0.00000000
0.54489817 0.25630390 0.00105049
0.13358294 -0.54114484 0.00000000
-0.03893435 -0.23318743 0.00000000
-0.50447831 -0.54650368 0.00000000
-0.27941499 -0.72829991 0.00000000
-0.29800442 0.78349541 0.00000000
-0.39183162 0.09354397 0.00000000
0.12192860 -0.71189353 0.00000000
0.65120106 0.46613803 0.27709782
-0.78883119 0.49813488 0.00000000
0.54814428 0.53857870 0.25036435
0.06245407 -0.08317512 0.00000000
0.13915626 0.52513424 0.00000000
0.57262182 0.37817363 0.13167354
0.40183800 0.27539659 0.00000000
-0.16746200 0.48057758 0.00000000
0.12045942 0.05813372 0.00000000
0.20881686 -0.01763216 0.00000000
0.57515559 0.09068899 0.00000000
-0.25416670 0.11789248 0.00000000
0.03139104 0.78154582 0.01129717
-0.77155699 -0.02446758 0.00000000
-0.24133441 0.15143621 0.00000000
-0.53836057 -0.40576530 0.00000000
-0.63354886 -0.18788349 0.00000000
0.32632545 -0.04014634 0.00000000
-0.55642722 -0.53351433 0.00000000
-0.77917575 -0.53347393 0.00000000
-0.58151674 0.46877005 0.00000000
0.11756915 -0.73319285 0.00000000
0.10803837 0.42029537 0.00000000
-0.29214439 -0.30522001 0.00000000
0.51187601 -0.69416307 0.00000000
-0.07248183 0.38950124 0.00000000
-0.39606860 -0.34573876 0.00000000
0.72057108 0.27976293 0.17492998
0.43118673 -0.78788996 0.00000000
-0.06178394 0.06965275 0.00000000
0.10720276 0.41110360 0.00000000
-0.55336063 -0.34754251 0.00000000
-0.38695842 -0.31058977 0.00000000
0.50945473 0.19743006 0.00000000
0.50860354 -0.13076930 0.00000000
0.50265896 -0.63242320 0.00000000
-0.67480660 0.56145075 0.00000000
-0.32589763 0.52430176 0.00000000
0.13436906 -0.53781545 0.00000000
0.31859192 -0.20605857 0.00000000
-0.04454576 0.01509086 0.00000000
0.02834886 -0.30507464 0.00000000
0.13479082 -0.39405841 0.00000000
-0.76424904 -0.64935660 0.00000000
0.30445456 -0.31775476 0.00000000
-0.74352814 -0.44976559 0.00000000
-0.30638574 0.77733278 0.00000000
-0.12243187 -0.01788683 0.00000000
0.61470024 0.24261453 0.05004739
-0.35919283 0.29642132 0.00000000
-0.65332417 0.23523646 0.00000000
-0.78750600 0.22065901 0.00000000
-0.77372786 0.15286991 0.00000000
0.35450155 -0.25578798 0.00000000
-0.17198740 0.47085240 0.00000000
0.07162101 0.54041963 0.00000000
0.16903685 -0.34145437 0.00000000
0.20980325 0.71668196 0.11044655
-0.35167858 0.32688114 0.00000000
-0.61697525 -0.38696152 0.00000000
-0.17571428 0.01011055 0.00000000
0.53065330 0.56312090 0.25652153
0.51952472 0.26686223 0.00000000
-0.45428703 -0.28143479 0.00000000
0.69708946 0.26539626 0.14188134
0.32338980 -0.74637689 0.00000000
-0.19735043 0.13011687 0.00000000
0.66360261 -0.02050383 0.00000000
-0.07131198 0.72130742 0.00000000
0.61930521 -0.15040089 0.00000000
-0.07953457 -0.08188962 0.00000000
-0.51011828 0.70946210 0.00000000
0.00969518 0.61834277 0.00000000
-0.05349182 -0.34748430 0.00000000
0.54369774 0.12248422 0.00000000
-0.62067230 -0.75471906 0.00000000
-0.69946764 0.44726552 0.00000000
0.54718135 0.44733254 0.16984792
0.12649419 -0.16915111 0.00000000
0.36925209 -0.57945417 0.00000000
-0.44456552 -0.54776835 0.00000000
-0.29950500 0.23379730 0.00000000
-0.32847716 -0.31872546 0.00000000
0.61684065 -0.18980183 0.00000000
0.44134078 -0.03114569 0.00000000
0.38245084 0.43879912 0.01855606
0.42553814 -0.79395325 0.00000000
-0.72513217 -0.39890609 0.00000000
0.44531354 0.31773309 0.00000000
0.31778373 0.68712033 0.17892124
-0.26912192 0.79798207 0.00000000
-0.12091084 0.18643899 0.00000000
0.27678992 -0.19608899 0.00000000
-0.75691242 -0.15507529 0.00000000
0.29205365 0.56541237 0.05017946
0.06857361 0.47802446 0.00000000
-0.72182471 -0.55407987 0.00000000
0.56386827 0.42139601 0.16177128
-0.16262663 -0.41779014 0.00000000
-0.31065026 -0.68344673 0.00000000
0.27935645 0.50478303 0.00000000
0.70294124 -0.34680619 0.00000000
-0.63124419 -0.65708782 0.00000000
0.22909385 0.72488796 0.13445643
-0.27047555 -0.64957115 0.00000000
0.54943984 0.12191236 0.00000000
0.72377425 0.30729931 0.20177137
-0.31842282 0.59857112 0.00000000
0.26474964 -0.44683011 0.00000000
-0.17512574 -0.74769388 0.00000000
0.46236245 0.53668342 0.17380527
0.40777780 -0.49947517 0.00000000
-0.11262895 -0.11800478 0.00000000
-0.29740039 -0.37542921 0.00000000
0.73711092 -0.01749622 0.00000000
-0.32073092 -0.20014735 0.00000000
0.52592535 0.01810430 0.00000000
-0.44758658 0.62033519 0.00000000
0.63891040 0.45443577 0.25614732
-0.75409184 -0.70324742 0.00000000
0.11665201 0.58520394 0.00000000
0.15628492 -0.36293957 0.00000000
-0.64510727 -0.05650941 0.00000000
-0.40549797 0.75801566 0.00000000
-0.23858810 0.26236577 0.00000000
-0.57030211 -0.43269638 0.00000000
0.16735747 0.35298537 0.00000000
0.44568967 -0.49860848 0.00000000
-0.61808972 -0.20280287 0.00000000
0.34692324 -0.41884758 0.00000000
0.20085660 -0.01470274 0.00000000
0.70879446 0.36892784 0.24250446
0.69431133 0.22452944 0.10377112
0.04793724 -0.57844139 0.00000000
-0.13191176 0.33536252 0.00000000
-0.15319906 0.55604145 0.00000000
-0.00780504 0.30195856 0.00000000
0.56239198 -0.52173905 0.00000000
-0.12764883 -0.41567201 0.00000000
0.52811499 0.43327149 0.14092149
-0.51156802 -0.67942342 0.00000000
-0.69354995 -0.78181636 0.00000000
-0.61670522 0.44637609 0.00000000
0.55796384 -0.59704860 0.00000000
-0.08902659 0.63566214 0.00000000
0.11740722 0.60840314 0.00000000
0.67651411 0.34131487 0.19020637
-0.25416357 0.17083476 0.00000000
-0.39791177 -0.30842929 0.00000000
0.38145568 0.64887874 0.20112669
0.55602494 -0.76190434 0.00000000
0.52916429 0.10501019 0.00000000
0.53115985 0.51793875 0.21751090
-0.24775636 -0.48203504 0.00000000
-0.74992355 -0.40938809 0.00000000
0.19947488 0.38429127 0.00000000
-0.50133413 -0.39385367 0.00000000
-0.63003221 0.41011132 0.00000000
0.58491904 0.12959307 0.00000000
0.14552704 0.16099626 0.00000000
-0.77254869 0.49568437 0.00000000
0.78086613 -0.70196339 0.00000000
0.61101353 0.51186697 0.28193673
-0.71304926 0.73663832 0.00000000
0.74322591 -0.35003882 0.00000000
-0.13327187 -0.39063073 0.00000000
0.72724181 -0.74408712 0.00000000
0.53113237 0.42219070 0.13388063
-0.38708114 0.28336918 0.00000000
0.03930352 -0.69727177 0.00000000
-0.00535411 -0.49525943 0.00000000
0.17951861 0.24912306 0.00000000
-0.09333519 -0.38078858 0.00000000
-0.51984314 -0.01561968 0.00000000
0.52638165 -0.30950748 0.00000000
0.36746127 0.48648278 0.04710412
0.58732683 0.33370629 0.10568545
-0.52700787 -0.10559599 0.00000000
-0.42709827 0.32852509 0.00000000
0.51265942 0.62969047 0.29893777
0.52203889 0.34715554 0.06042056
-0.50956971 0.26415988 0.00000000
-0.17428940 -0.54146274 0.00000000
0.34127272 0.57569796 0.10213818
0.68163757 0.08919815 0.00000000
-0.46570453 -0.11839240 0.00000000
0.69079249 -0.70210131 0.00000000
0.78520558 -0.54545599 0.00000000
-0.20171855 -0.57797691 0.00000000
-0.09695276 0.11699880 0.00000000
-0.22795610 0.11274993 0.00000000
0.70129251 -0.37895892 0.00000000
-0.09714365 0.10042488 0.00000000
-0.02429401 0.16065653 0.00000000
-0.71503049 -0.46926345 0.00000000
0.65324375 -0.71298366 0.00000000
0.22298202 0.52197821 0.00000000
0.06486997 -0.60948836 0.00000000
0.03405661 -0.44899445 0.00000000
-0.14116687 0.30851145 0.00000000
-0.49333845 0.55585831 0.00000000
0.32866333 0.58913793 0.10286343
-0.72457329 -0.01490687 0.00000000
-0.47026918 0.74604294 0.00000000
0.13379080 -0.01693526 0.00000000
-0.58474379 -0.33869415 0.00000000
-0.48834398 0.30073657 0.00000000
0.56259696 0.22121823 0.00000000
0.15178767 -0.10059881 0.00000000
0.52712464 -0.24679527 0.00000000
0.47360884 0.19965435 0.00000000
0.68717496 -0.18416625 0.00000000
-0.35641139 -0.27005595 0.00000000
-0.01899856 0.71570929 0.00000000
0.28176645 -0.72098905 0.00000000
-0.20644359 -0.77293509 0.00000000
0.28677802 -0.72248409 0.00000000
0.55962341 -0.12151338 0.00000000
0.30043939 -0.00935941 0.00000000
-0.23585935 0.58688163 0.00000000
-0.64317902 0.69535733 0.00000000
0.00672194 0.21592668 0.00000000
-0.68739346 -0.35361792 0.00000000
-0.23544888 0.28977456 0.00000000
-0.42512565 0.46565542 0.00000000
0.35633745 -0.13213926 0.00000000
0.68238039 0.47725566 0.31403128
0.46714140 0.10628259 0.00000000
-0.16974914 -0.45262178 0.00000000
0.32974514 0.40718126 0.00000000
0.22178963 -0.02066044 0.00000000
-0.40443259 0.45216924 0.00000000
-0.53030830 -0.06659324 0.00000000
-0.39731909 0.24509132 0.00000000
0.44821112 -0.78226222 0.00000000
0.04733744 -0.01014616 0.00000000
0.66358729 0.42347077 0.25065645
0.23283550 0.68487814 0.10278714
0.35079488 0.36534758 0.00000000
-0.01706425 0.65024285 0.00000000
-0.18060050 0.31483239 0.00000000
0.30242167 0.08532335 0.00000000
-0.26491406 -0.36687912 0.00000000
-0.35884119 0.40676884 0.00000000
-0.70338594 -0.71604190 0.00000000
-0.22821650 0.40999489 0.00000000
0.27290708 -0.39263349 0.00000000
0.14657233 -0.22262145 0.00000000
-0.42275147 0.42133075 0.00000000
-0.56971867 0.44388089 0.00000000
-0.41891519 0.39263658 0.00000000
0.38786128 0.58926077 0.15466177
0.06359174 0.21182398 0.00000000
-0.32315520 0.65390065 0.00000000
0.71582860 0.13834080 0.04730090
0.30901614 -0.34066410 0.00000000
-0.24013540 0.76210813 0.00000000
0.36664141 0.40935392 0.00000000
0.15050686 0.47955115 0.00000000
0.08083873 -0.43922837 0.00000000
-0.52220077 0.41980653 0.00000000
0.34711957 0.07404593 0.00000000
0.21184351 0.25254196 0.00000000
0.13227361 -0.30517027 0.00000000
0.53865020 -0.21460626 0.00000000
-0.18663873 0.00107061 0.00000000
-0.71398974 -0.78523503 0.00000000
-0.58088982 -0.12424292 0.00000000
-0.64202004 -0.76237708 0.00000000
-0.59089360 -0.12692242 0.00000000
0.44619010 -0.02313296 0.00000000
-0.05151071 0.38273811 0.00000000
-0.29891490 -0.75300526 0.00000000
0.62654964 0.23929232 0.05749323
0.21975214 -0.43289279 0.00000000
0.18282023 -0.00640655 0.00000000
-0.01858605 -0.77708229 0.00000000
0.47721740 -0.78190169 0.00000000
0.41192660 0.13077929 0.00000000
0.75244485 -0.60628373 0.00000000
0.04062505 -0.68820409 0.00000000
0.66973828 -0.00058237 0.00000000
-0.78911951 0.74776953 0.00000000
0.23759768 -0.42802444 0.00000000
0.75209542 -0.18694233 0.00000000
-0.11225864 0.73114270 0.00000000
0.59210319 -0.79988346 0.00000000
-0.76906540 -0.50999126 0.00000000
-0.56685670 -0.52848240 0.00000000
0.70478822 0.24248138 0.12859481
0.61570562 0.47732297 0.25587010
-0.37993613 -0.47382791 0.00000000
0.08024259 -0.71203280 0.00000000
0.45279695 0.49339083 0.12765018
0.64711188 0.07606997 0.00000000
-0.62302333 -0.16530615 0.00000000
0.13132602 -0.70254669 0.00000000
-0.75145526 0.50900289 0.00000000
-0.64625278 -0.59240854 0.00000000
0.66291418 0.25233368 0.10063383
-0.08343313 -0.75389701 0.00000000
-0.38156708 -0.57979265 0.00000000
0.54138341 -0.72174980 0.00000000
-0.36403412 -0.44139930 0.00000000
-0.45568546 0.11049670 0.00000000
-0.50351732 -0.28301450 0.00000000
0.56130211 -0.41749196 0.00000000
-0.32571486 0.74910035 0.00000000
0.53826162 -0.30876681 0.00000000
0.40531870 0.70509991 0.27105590
-0.38360792 -0.74647626 0.00000000
0.40063988 -0.50793834 0.00000000
-0.14682946 0.61271161 0.00000000
-0.40123945 0.18523147 0.00000000
-0.78803130 -0.10444807 0.00000000
0.58126245 -0.28255258 0.00000000
-0.31121298 0.64833463 0.00000000
-0.34907077 0.71959303 0.00000000
-0.73891323 -0.10373554 0.00000000
-0.38570331 0.32659460 0.00000000
0.12527904 -0.47955361 0.00000000
0.56692775 0.62377570 0.34115975
0.50806879 0.43129800 0.12169418
0.11647967 -0.09541250 0.00000000
-0.78694824 0.02498478 0.00000000
0.01005358 0.45670576 0.00000000
-0.72436999 0.31818263 0.00000000
0.06531390 0.03828537 0.00000000
0.20184720 -0.35816647 0.00000000
0.25761896 0.55528957 0.01127243
0.55657740 -0.73951103 0.00000000
-0.59352523 -0.36987733 0.00000000
-0.57836849 -0.18595532 0.00000000
0.05681673 0.33539141 0.00000000
0.38135120 -0.55627615 0.00000000
-0.64280301 -0.78197086 0.00000000
-0.77104143 -0.16213344 0.00000000
-0.58290917 -0.27337911 0.00000000
-0.40098554 0.76063758 0.00000000
-0.42293680 -0.23361727 0.00000000
-0.59495990 0.25755932 0.00000000
0.68388504 -0.53044817 0.00000000
0.47375117 0.05272544 0.00000000
-0.71930841 0.20839044 0.00000000
-0.66890529 -0.03552825 0.00000000
0.01511827 0.66923578 0.00000000
0.13531168 0.52271744 0.00000000
-0.25610745 0.33790041 0.00000000
0.48820292 0.06202448 0.00000000
0.17684913 -0.46152791 0.00000000
0.32916794 -0.62160111 0.00000000
0.68786288 0.33404991 0.19377230
-0.32847314 -0.61264432 0.00000000
-0.72553886 -0.40690105 0.00000000
-0.30745253 -0.07809379 0.00000000
0.61944207 0.12730462 0.00000000
-0.42776221 -0.62074059 0.00000000
-0.51328517 -0.02590893 0.00000000
-0.43638423 0.58301540 0.00000000
-0.68921317 -0.76331971 0.00000000
-0.79975283 0.09828127 0.00000000
-0.09155387 -0.77163557 0.00000000
0.75435834 -0.04023274 0.00000000
-0.58036189 -0.29153734 0.00000000
0.12231323 -0.20124133 0.00000000
0.48298216 -0.23308203 0.00000000
0.29913779 0.10075214 0.00000000
-0.45641566 0.59217970 0.00000000
-0.22894870 0.36155756 0.00000000
0.66041020 0.37752602 0.20776375
-0.27275367 0.19728438 0.00000000
0.51278559 -0.45656007 0.00000000
0.32625113 0.21838525 0.00000000
0.53107206 -0.57069537 0.00000000
-0.49288134 0.36137814 0.00000000
0.41731574 0.42370784 0.03582213
-0.43372042 0.03004279 0.00000000
0.10201522 -0.21705824 0.00000000
0.75232700 -0.48961663 0.00000000
0.47970127 -0.12742019 0.00000000
0.43829285 0.50507220 0.12518541
-0.64964104 0.32321408 0.00000000
-0.70449691 -0.25311588 0.00000000
-0.19698178 0.02554689 0.00000000
-0.44254279 0.07237993 0.00000000
0.67833446 0.49019586 0.32179776
0.08737638 0.70403613 0.00000000
0.26475984 0.06323837 0.00000000
0.65732665 -0.41526369 0.00000000
0.49192138 -0.25768621 0.00000000
-0.12639410 -0.66425952 0.00000000
-0.34439726 -0.17836763 0.00000000
-0.14247375 0.27655252 0.00000000
0.52135856 0.42945509 0.13168943
0.51153142 0.60301512 0.27465996
0.16984953 0.29803393 0.00000000
0.53899175 -0.54435598 0.00000000
0.19767100 -0.19077277 0.00000000
0.66539367 0.50846504 0.32645055
-0.35645822 -0.11988731 0.00000000
0.27598953 -0.52447798 0.00000000
-0.47910629 -0.14901427 0.00000000
0.64196340 0.06105362 0.00000000
0.23608402 -0.39541575 0.00000000
-0.15508163 0.13712431 0.00000000
0.29318202 -0.43288523 0.00000000
0.73808905 0.15869111 0.08450807
-0.01369989 0.39122854 0.00000000
0.02006153 -0.40180229 0.00000000
0.33022738 0.53950248 0.06088810
0.54119446 -0.08508234 0.00000000
0.14479103 0.66476784 0.00834755
-0.59116587 0.57345278 0.00000000
0.75009762 -0.14346249 0.00000000
0.43297642 -0.66874027 0.00000000
0.49659799 0.37891918 0.06594150
0.57110008 0.24674711 0.01558480
0.09730360 0.07101727 0.00000000
-0.27767786 -0.20163810 0.00000000
0.47738957 0.19179149 0.00000000
0.78716542 -0.23213559 0.00000000
-0.12401078 0.27839653 0.00000000
-0.31837707 -0.76395638 0.00000000
-0.74313750 -0.54538977 0.00000000
-0.58360607 0.09987882 0.00000000
0.52285757 -0.76509540 0.00000000
-0.17958219 -0.39009654 0.00000000
-0.46881150 0.73941538 0.00000000
0.32518524 -0.28177374 0.00000000
0.09726370 -0.22870557 0.00000000
0.49195960 -0.11490043 0.00000000
-0.07812319 0.11616416 0.00000000
0.32347915 0.04436506 0.00000000
-0.42299267 -0.47098041 0.00000000
0.43204649 -0.17814354 0.00000000
-0.73104357 0.40252211 0.00000000
0.56947486 0.44361081 0.18606458
0.59973665 0.00353820 0.00000000
0.13052175 0.15391132 0.00000000
0.60089375 0.65464858 0.39777675
0.40604553 0.46102718 0.05856791
0.72155698 0.29743061 0.19121806
-0.18129624 -0.41489649 0.00000000
-0.73042951 0.72700514 0.00000000
-0.49203242 -0.02355872 0.00000000
0.35485665 -0.55645807 0.00000000
-0.32517328 -0.06003944 0.00000000
0.14117833 0.01978572 0.00000000
-0.75744642 0.15194352 0.00000000
0.39916265 -0.76310255 0.00000000
-0.09470317 0.33651491 0.00000000
-0.46600115 0.32854336 0.00000000
-0.74184926 0.14282314 0.00000000
-0.39642244 -0.47384030 0.00000000
0.75262836 0.06825821 0.01823875
-0.63330267 -0.72585123 0.00000000
-0.76040489 0.74994055 0.00000000
0.18150712 -0.31707268 0.00000000
0.07152091 -0.33276776 0.00000000
-0.64131742 0.01618143 0.00000000
0.49242067 0.02926019 0.00000000
0.64322972 -0.79057712 0.00000000
-0.13730987 -0.09098342 0.00000000
-0.73320989 0.40282556 0.00000000
-0.64897202 -0.10327581 0.00000000
0.79648627 -0.79918627 0.00000000
-0.37973679 0.06439206 0.00000000
-0.42422388 -0.68221504 0.00000000
0.45050169 0.67907712 0.28778634
0.71989147 -0.54277417 0.00000000
-0.73317841 0.23967884 0.00000000
-0.60277883 0.08866876 0.00000000
-0.36994189 -0.41715148 0.00000000
-0.65996442 0.37194167 0.00000000
0.77491003 -0.49850612 0.00000000
-0.31590920 0.35719972 0.00000000
-0.60425152 0.48010658 0.00000000
-0.79011379 0.05170127 0.00000000
-0.40383016 0.53268019 0.00000000
0.19111550 0.68107900 0.06304019
0.65349224 -0.25316599 0.00000000
0.42582983 -0.63252945 0.00000000
0.59057660 -0.36424523 0.00000000
0.57178135 -0.64803195 0.00000000
0.29063149 0.40755266 0.00000000
-0.06471280 -0.22015058 0.00000000
0.09730674 -0.76655894 0.00000000
0.50511199 -0.68953744 0.00000000
0.47132525 0.36349893 0.03040890
0.11862556 0.34204551 0.00000000
0.19853269 -0.23295293 0.00000000
-0.43419480 0.55655942 0.00000000
0.63526997 0.21676496 0.04543711
-0.68093649 0.11769335 0.00000000
0.61974050 -0.28885644 0.00000000
-0.07078421 0.12538306 0.00000000
-0.00214484 -0.46150279 0.00000000
0.38763983 0.44953828 0.03246433
0.06247665 -0.62271845 0.00000000
-0.38540113 0.11832943 0.00000000
-0.57126269 -0.00310437 0.00000000
0.51138530 -0.42136306 0.00000000
0.00316620 -0.62656527 0.00000000
-0.40459230 -0.43509040 0.00000000
-0.37789624 -0.78531569 0.00000000
0.32067908 0.21131106 0.00000000
-0.11941462 -0.22426956 0.00000000
-0.37129835 -0.58642062 0.00000000
0.04018474 0.45496123 0.00000000
-0.36236132 -0.59879791 0.00000000
0.19782220 -0.23393765 0.00000000
-0.27496334 0.07848055 0.00000000
-0.08682943 0.65382505 0.00000000
0.26061991 -0.08114101 0.00000000
-0.47494737 -0.02644070 0.00000000
0.21154493 -0.35338856 0.00000000
0.01859492 -0.03333039 0.00000000
-0.10929304 -0.53855432 0.00000000
-0.51418379 -0.63095289 0.00000000
0.35421153 0.06270804 0.00000000
0.50820797 0.20756752 0.00000000
-0.64287021 0.32710755 0.00000000
0.34533792 -0.12423837 0.00000000
0.08012977 -0.17643565 0.00000000
-0.77888031 -0.13884159 0.00000000
0.49705757 -0.43433957 0.00000000
-0.26049740 0.09385687 0.00000000
0.30540007 -0.51161301 0.00000000
0.29963030 0.09576121 0.00000000
0.43241432 -0.72555202 0.00000000
0.67178891 -0.47659511 0.00000000
0.33486155 -0.73273573 0.00000000
0.31205809 0.33628675 0.00000000
0.47514893 0.07783596 0.00000000
0.72152721 0.18554451 0.09349454
0.24142019 0.03523211 0.00000000
0.61118699 0.34417506 0.13566104
0.17441882 0.18670663 0.00000000
-0.52770160 -0.67956758 0.00000000
0.68910997 -0.06048200 0.00000000
-0.59632030 0.63185568 0.00000000
0.25794205 0.51753640 0.00000000
-0.11320477 -0.74295038 0.00000000
-0.52979452 -0.22223174 0.00000000
0.20603246 0.35176415 0.00000000
-0.78028781 0.20632508 0.00000000
0.19964416 0.03256635 0.00000000
-0.53166272 -0.09842744 0.00000000
0.18282884 0.30114381 0.00000000
0.30466191 -0.47313228 0.00000000
0.15227494 0.68155338 0.02953933
-0.06885444 -0.10326198 0.00000000
0.45732096 0.04774837 0.00000000
0.16032792 0.64679086 0.00621690
-0.74701142 0.27677627 0.00000000
-0.25903809 0.17034387 0.00000000
0.34523415 0.24220091 0.00000000
-0.12279094 0.64556808 0.00000000
0.11220519 0.02635540 0.00000000
0.67511360 0.52587568 0.35014085
-0.57209569 -0.29980817 0.00000000
0.08664019 -0.35927347 0.00000000
0.24596003 -0.30685406 0.00000000
0.03072457 0.10310284 0.00000000
-0.26418366 -0.08700444 0.00000000
0.41205918 0.57670763 0.16482984
-0.73498511 -0.79194481 0.00000000
-0.70670329 0.55526593 0.00000000
-0.41562811 0.53806054 0.00000000
0.06923541 0.18728212 0.00000000
-0.33937230 -0.56669448 0.00000000
-0.10085094 -0.78898030 0.00000000
0.13926129 -0.00781958 0.00000000
-0.05221071 -0.16906770 0.00000000
-0.60589514 0.18468681 0.00000000
-0.68850082 0.21514574 0.00000000
-0.49769745 -0.29897034 0.00000000
0.58192434 0.01300727 0.00000000
-0.33603026 0.28644098 0.00000000
0.52273963 -0.70458802 0.00000000
0.26604344 -0.63364673 0.00000000
0.10359511 -0.47426254 0.00000000
-0.20172323 -0.07302325 0.00000000
-0.04219660 -0.23319056 0.00000000
-0.07607091 -0.00250784 0.00000000
-0.30042405 -0.78030115 0.00000000
0.55520656 -0.47278166 0.00000000
0.63671502 0.63570922 0.41251783
-0.67289516 0.55345298 0.00000000
0.30371263 -0.30176197 0.00000000
0.17541089 -0.41134600 0.00000000
0.03566805 -0.11286994 0.00000000
-0.47390449 0.59865086 0.00000000
0.10350304 0.61617227 0.00000000
-0.67675474 -0.52644728 0.00000000
-0.05393354 0.46919663 0.00000000
-0.59893333 -0.30589481 0.00000000
-0.70216364 0.09654780 0.00000000
-0.47480526 0.79325068 0.00000000
0.73182365 0.13598882 0.05921385
0.60039198 0.14728090 0.00000000
-0.42773584 -0.50969209 0.00000000
-0.11984741 -0.23093356 0.00000000
-0.52814940 0.06483718 0.00000000
0.00837062 -0.40286274 0.00000000
-0.03733714 -0.25369164 0.00000000
-0.12038673 0.78623618 0.00000000
0.38393722 0.03913315 0.00000000
0.07209447 0.12582771 0.00000000
-0.53437022 0.71659140 0.00000000
-0.59150821 -0.17197714 0.00000000
0.09071656 0.54581815 0.00000000
0.70407356 0.14951915 0.04679734
0.01067477 -0.03769630 0.00000000
0.27206441 0.50433624 0.00000000
0.53619228 -0.04352465 0.00000000
0.37019184 -0.49943352 0.00000000
