ply
format ascii 1.0
element vertex 1367
property float x
property float y
property float z
end_header
-0.37632539 -0.10853552 0.01834334
-0.23657278 -0.15587196 0.00000259
-0.08811477 -0.69946678 -0.00000041
-0.22804964 0.05997851 -0.00000030
-0.18150853 0.00161449 -0.00000009
-0.50580259 -0.42113046 0.18998203
-0.26485018 0.05351250 0.00000306
-0.23560693 0.00568576 -0.00000479
-0.16864450 -0.08990733 -0.00000013
-0.23224313 0.15229962 -0.00000021
-0.06663890 0.26762920 0.00000184
-0.16971337 0.18427244 0.00000509
-0.43045636 -0.23923280 0.30647121
-0.20799986 0.30603636 -0.01128678
-0.54690550 -0.52036225 0.20854271
-0.02933677 0.49502505 -0.00000245
-0.28350919 0.11553936 0.20013667
-0.34249006 0.10457444 -0.18133091
-0.49980195 -0.40664479 0.21774796
-0.22894701 -0.69646984 0.00000186
-0.09036790 0.17675120 0.00000068
-0.04360548 0.23017841 0.00000102
-0.06819896 0.51050866 0.00000215
-0.39608391 0.06957551 -0.31157951
-0.28787714 0.01008513 0.00000318
-0.35879015 0.04878977 -0.15864939
-0.32204792 0.02249241 0.29071882
-0.24043719 -0.36515162 -0.00000091
-0.05613608 0.17762927 -0.00000720
-0.53531306 -0.65544618 0.00000422
-0.64109713 -0.68070463 -0.09247560
-0.09332254 -0.58828092 -0.00000030
-0.60170119 -0.48020167 -0.23791551
-0.61662214 -0.63435945 -0.07489245
-0.63491528 -0.63766076 -0.13127983
-0.31080083 0.13449497 -0.11704454
-0.07157784 0.65355675 -0.03637095
-0.01957293 -0.52665464 0.00000049
-0.06062480 0.65363550 0.05636764
-0.44078893 -0.03296409 -0.31901072
-0.68177633 -0.77888475 -0.09251256
-0.02400349 -0.34024436 0.00000043
-0.25699567 0.17954744 0.20733139
-0.45380574 -0.55889201 -0.00000244
-0.40401830 -0.17540245 0.24184909
-0.37727356 -0.27921287 -0.00000163
-0.27249152 0.08503657 -0.00000229
-0.12777221 -0.62778375 -0.00000056
-0.07699160 0.59954076 0.00000233
-0.10928784 0.55330759 -0.02366058
-0.07938874 0.21816944 0.00000079
-0.38649987 -0.13310711 0.19931922
-0.34218150 -0.02610491 0.17729852
-0.26432290 -0.03694232 0.00000295
-0.42840669 -0.23428775 0.38089399
-0.42858588 -0.23471823 0.33292801
-0.03993631 0.50006809 -0.00000204
-0.40980717 0.03921303 -0.31539837
-0.17789846 0.01910853 0.00000237
-0.34202359 -0.02571608 0.08068086
-0.61802481 -0.79728475 0.00000467
-0.16129589 -0.76298918 -0.00000093
-0.30243688 -0.21678827 -0.00000110
-0.08730857 0.55214849 0.00000235
-0.19784541 0.07207470 0.00000258
-0.63915397 -0.74306417 0.07159879
-0.41908708 -0.73875171 0.00000324
-0.23842898 -0.36321815 0.00000234
-0.21724623 -0.11740331 0.00000249
-0.18896571 -0.70272774 0.00000155
-0.19459519 -0.12183112 0.00000232
-0.64878060 -0.65511205 -0.15338972
-0.13714805 -0.72002245 0.00000113
-0.38639810 0.06359916 -0.27106311
-0.18808374 -0.41392463 0.00000190
-0.04337081 0.67591294 0.00000217
-0.25687699 0.10011511 0.00000377
-0.29306875 0.26606799 -0.23954027
-0.46208707 -0.31559529 0.27951393
-0.02128162 0.55075236 0.00000454
-0.23095971 -0.64983187 -0.00000121
-0.32109479 -0.58341148 -0.00000167
-0.25982589 -0.55925259 0.00000226
-0.29499324 0.08782379 0.08460032
-0.21620049 0.15518402 -0.00000276
-0.44141497 -0.30659257 0.00000395
-0.01813350 0.75622113 0.01505183
-0.56513352 -0.56436346 0.07080582
-0.50541928 -0.30330474 -0.16126650
-0.03153528 -0.29541160 0.00000044
-0.16922628 -0.49105670 -0.00000064
-0.23533522 -0.19684955 -0.00000067
-0.00415705 0.62896665 0.00000182
-0.51549344 -0.44452098 0.06902933
-0.07376270 -0.20564245 0.00000030
-0.02868586 -0.70239532 -0.00000005
-0.22209299 0.34610596 -0.11353450
-0.16906643 0.34140416 0.00000314
-0.24245156 0.11848617 -0.00000032
-0.05202353 0.67440111 0.05204023
-0.46945856 -0.17445681 -0.21926964
-0.31499877 0.03953104 0.02908836
-0.37800177 -0.21682943 0.00000358
-0.40286251 -0.64626463 -0.00000224
-0.16389224 0.16511523 -0.00000416
-0.20024268 0.22541614 0.00000279
-0.19456758 -0.70125828 0.00000159
-0.58570391 -0.58917028 -0.03424884
-0.27952643 0.12514982 0.22591654
-0.38896480 0.05858384 -0.27269302
-0.24883301 -0.47628568 0.00000228
-0.14815590 0.28851248 0.00000047
-0.60034349 -0.58765276 -0.08511410
-0.33453328 -0.68416299 -0.00000187
-0.44047616 -0.50074153 -0.00000228
-0.24043422 0.05153584 -0.00000384
-0.22230385 -0.07937168 0.00000258
-0.43066880 -0.02697287 -0.29356487
-0.58977459 -0.53258290 -0.12589838
-0.07217297 0.34177748 0.00000099
-0.62185817 -0.57127908 -0.17938462
-0.34828438 -0.37651416 -0.00000157
-0.27366535 -0.45257950 -0.00000122
-0.23877681 0.22353969 0.10012328
-0.51897822 -0.45293307 0.04770603
-0.08159557 -0.22352420 0.00000023
-0.29028572 0.15007501 -0.07019822
-0.57427297 -0.60454554 -0.00000322
-0.30131816 -0.22721804 -0.00000110
-0.37219306 0.09873798 -0.27223011
-0.30644654 0.06016706 0.16447811
-0.11175044 0.19675284 0.00000651
-0.10663951 0.04491188 0.00000854
-0.54382006 -0.51206471 -0.00111707
-0.44122438 -0.44714318 0.00000377
-0.30047478 0.00896387 -0.00000080
-0.38698985 -0.42875079 0.00000338
-0.28898707 0.10231053 0.25320833
-0.34240133 -0.76549019 0.00000263
-0.06199922 0.08806030 0.00000158
-0.17373648 -0.33790240 -0.00000047
-0.32929134 -0.47484571 -0.00000158
-0.48744760 -0.70663021 0.00000379
-0.62361487 -0.58268826 -0.16949278
-0.33142726 -0.00014492 0.09994690
-0.65690914 -0.78592755 0.00255187
-0.40440571 -0.06733217 -0.15037635
-0.14149819 0.28250514 0.00000463
-0.11386417 -0.64207344 0.00000106
-0.01447901 0.54354622 0.00000159
-0.25044309 -0.68375338 0.00000203
-0.33990742 -0.02061752 0.21099142
-0.12677395 -0.66192417 -0.00000059
-0.53340175 -0.48775863 0.13465965
-0.45407000 -0.67036426 -0.00000258
-0.25057673 -0.60690970 0.00000213
-0.07058384 -0.70830135 0.00000065
-0.17946207 0.35430262 0.00000280
-0.30186673 0.15100344 -0.11006196
-0.48229229 -0.36437608 0.31723746
-0.07400083 -0.55851129 0.00000086
-0.53260430 -0.67491342 0.00000417
-0.52796598 -0.47463596 0.14623621
-0.43830624 -0.38095087 -0.00000212
-0.21470110 -0.54853437 0.00000193
-0.17468813 0.37826210 0.02697881
-0.24195620 0.35562674 -0.19284809
-0.11459929 0.52333471 0.01169222
-0.28470560 0.22522648 -0.15531922
-0.01666565 0.75126922 0.00000216
-0.37729121 -0.11087537 0.29091585
-0.08063309 0.45218975 0.00000108
-0.21219233 0.28771524 0.15607559
-0.14809962 0.51764929 -0.10375342
-0.13027618 0.17467290 -0.00000501
-0.27452145 0.13725254 0.00894098
-0.46951971 -0.45322101 -0.00000240
-0.42647465 -0.51529456 -0.00000222
-0.39225695 -0.39085164 -0.00000186
-0.37342905 0.04341868 -0.20001046
-0.39132093 -0.14473909 0.03894766
-0.17602566 -0.45831945 -0.00000064
-0.33055134 -0.54223811 0.00000282
-0.52667753 -0.45865486 -0.01771080
-0.11026689 -0.40952968 -0.00000018
-0.24966538 0.19724906 0.04868397
-0.09235500 -0.14546260 0.00000026
-0.30011540 -0.46760570 -0.00000140
-0.14005602 0.46186988 0.07108470
-0.15394120 0.33922563 -0.00000142
-0.30934476 0.23188963 -0.24659840
-0.39687575 -0.15815738 0.21170772
-0.01348741 -0.21404665 0.00000083
-0.35312787 -0.01353932 -0.05377122
-0.57449648 -0.70749274 0.00000445
-0.15877420 0.06534003 -0.00000607
-0.70006519 -0.79127579 -0.13634236
-0.50416347 -0.41716949 0.10556292
-0.36183895 0.11028342 -0.25366909
-0.19440468 0.33066949 0.01029288
-0.04553227 0.14685669 0.00000893
-0.63132022 -0.72415231 0.08117982
-0.32527874 -0.59459046 -0.00000171
-0.02938793 0.53195419 0.00000455
-0.34049620 0.02705741 -0.06771183
-0.39189011 -0.14611721 0.12905490
-0.55128693 -0.40355027 -0.17573800
-0.30403796 0.19267713 -0.17480516
-0.20611129 -0.02349028 0.00000253
-0.03005230 0.10122519 0.00000992
-0.18863042 -0.64298880 0.00000162
-0.07648259 0.07696901 0.00000063
-0.53567623 -0.49324878 0.11348285
-0.13922888 0.04064921 -0.00000709
-0.19692503 0.30075107 -0.00000079
-0.16160667 -0.36897366 -0.00000044
-0.12812173 0.49067901 0.13748684
-0.23325493 -0.05317896 0.00000269
-0.31572160 0.18420768 -0.20204176
-0.46392909 -0.39808829 0.00000400
-0.27993943 -0.75895174 -0.00000164
-0.40260615 -0.69764968 -0.00000230
-0.00540687 -0.70351818 0.00000009
-0.51198217 -0.18249942 -0.34983679
-0.28883318 0.09312141 -0.00000165
-0.27387023 0.09066668 -0.00000215
-0.45819998 -0.25867245 -0.06554811
-0.05674015 0.01200702 0.00001031
-0.51164945 -0.70437537 -0.00000297
-0.51467798 -0.74006699 0.00000396
-0.46117746 -0.12808102 -0.25567816
-0.24144007 0.14824873 0.00000359
-0.13754529 0.46793421 0.06872500
-0.41500008 -0.20191254 0.18750528
-0.08064972 -0.32704171 0.00000010
-0.01379914 -0.75244830 0.00000016
-0.35889784 -0.18439847 0.00000348
-0.51839242 -0.29936178 -0.20992711
-0.45496577 -0.07341035 -0.31042550
-0.08213945 0.62445037 -0.03139095
-0.61035051 -0.59094525 -0.11390857
-0.12643515 0.18192254 -0.00000500
-0.14273189 0.13150895 0.00000648
-0.17571091 0.02920532 0.00000686
-0.17268552 -0.15607793 0.00000211
-0.16746239 0.39570477 0.06957114
-0.21830127 0.35694608 -0.11586352
-0.54132369 -0.50688693 0.24544215
-0.28985874 0.10554637 -0.00732624
-0.45877260 -0.30759179 0.24297072
-0.63863070 -0.59838394 -0.19785824
-0.28244223 -0.33269311 0.00000271
-0.36238430 -0.07488156 0.08529044
-0.12828587 0.50620873 -0.02195724
-0.38904795 -0.13926231 0.27915768
-0.13178396 0.16543332 -0.00000513
-0.51300570 -0.43852294 0.26725697
-0.36626676 -0.08425920 0.18625085
-0.13189613 -0.48941739 -0.00000041
-0.10004999 -0.74087582 -0.00000053
-0.17944687 0.02259178 0.00000684
-0.39252499 -0.47748038 -0.00000197
-0.26518749 -0.09087440 -0.00000071
-0.09448582 -0.42513156 -0.00000010
-0.10360954 0.36740956 0.00000224
-0.22646855 -0.15083918 -0.00000056
-0.24186564 -0.68444315 -0.00000132
-0.13002955 0.31106858 0.00000458
-0.42396386 -0.62108302 0.00000342
-0.17219409 0.45359145 -0.09562599
-0.35992862 -0.21648516 -0.00000144
-0.10776690 0.27533480 -0.00000393
-0.10267169 -0.08162394 0.00000028
-0.48593153 -0.68059380 0.00000382
-0.07973576 0.58559785 0.00000233
-0.49458062 -0.18661137 -0.28618994
-0.45549445 -0.53560984 -0.00000242
-0.22963226 0.24562226 0.02503846
-0.39805774 -0.64744027 -0.00000221
-0.06188154 0.25769461 0.00000179
-0.52119016 -0.33047618 -0.17631108
-0.06272917 -0.60716237 -0.00000014
-0.31095108 -0.03658245 -0.00000092
-0.42386045 -0.59486430 0.00000345
-0.18994906 0.12561000 0.00000001
-0.32684483 0.01092210 0.01064074
-0.19723133 -0.00446376 0.00000248
-0.55544668 -0.41399422 -0.17518380
-0.47405648 -0.44313773 0.00000402
-0.01734088 0.41032214 0.00000164
-0.15830158 0.41782193 0.04934394
-0.07678139 -0.76087633 -0.00000041
-0.48613943 -0.49668175 0.00000405
-0.12516214 -0.51216931 0.00000130
-0.02209964 0.35445575 0.00000161
-0.64598093 -0.60256673 -0.21657329
-0.36892396 -0.63869723 0.00000298
-0.18582236 -0.45532578 0.00000183
-0.36996359 -0.09318919 0.29844379
-0.34810666 -0.04041203 0.21109948
-0.29378822 -0.23821833 -0.00000107
-0.15489049 0.42605832 0.08515100
-0.12081593 -0.77327876 0.00000094
-0.36606044 0.00706711 -0.12529335
-0.32679230 -0.02704374 -0.00000101
-0.51551919 -0.28103834 -0.22564062
-0.37062835 -0.02446669 -0.09699487
-0.21320250 0.22884586 -0.00000000
-0.24365020 0.21177040 0.15052603
-0.16190191 -0.71319129 0.00000133
-0.28419857 0.11387125 0.20290482
-0.11760828 -0.58657454 -0.00000044
-0.43962990 -0.26137378 0.17153501
-0.23092381 0.24249581 0.13166677
-0.18452445 0.35451375 0.11801985
-0.27358018 0.11098101 0.00000320
-0.02699032 0.03857174 0.00001078
-0.39371042 -0.26595544 0.00000364
-0.49553667 -0.29512532 -0.13963028
-0.51696249 -0.15925007 -0.39851167
-0.04141536 -0.36130271 0.00000030
-0.02209386 -0.79267001 0.00000018
-0.10661950 -0.26069745 0.00000003
-0.57972644 -0.49886414 -0.13895385
-0.12993670 0.22589675 0.00000565
-0.58448090 -0.45538408 -0.21479383
-0.28871472 -0.55548304 -0.00000144
-0.40937568 -0.16165140 -0.03677700
-0.20330442 -0.14016391 0.00000236
-0.18253850 -0.25459262 0.00000206
-0.02820860 -0.15524580 0.00000102
-0.33579077 -0.01067681 0.04161981
-0.10491522 0.07778284 0.00000189
-0.23870208 -0.28593022 -0.00000080
-0.02126017 0.43145049 0.00000141
-0.31043839 0.11506950 -0.08902990
-0.15434378 0.42738006 0.06116617
-0.28015443 0.00089895 -0.00000353
-0.32382775 -0.45677426 0.00000287
-0.00881140 0.75615736 0.00000201
-0.30508978 0.06343892 0.21020801
-0.25671138 0.18023682 0.08490869
-0.02918577 -0.54631261 0.00000014
-0.23266052 -0.37503790 -0.00000087
-0.43088881 -0.50107215 -0.00000223
-0.22375419 0.25979799 0.21608012
-0.13069501 -0.66069549 -0.00000061
-0.26854986 0.30417473 -0.21044233
-0.34629404 0.16127146 -0.27224322
-0.19394702 0.33177135 0.04842802
-0.06359048 0.04509127 0.00000154
-0.27265965 -0.19200221 0.00000282
-0.36024919 -0.06973443 0.31286578
-0.36009575 -0.45024240 -0.00000174
-0.13889113 0.24988812 0.00000047
-0.04890835 -0.26131252 0.00000104
-0.60745456 -0.66546079 -0.00143250
-0.52984490 -0.52122629 -0.00000285
-0.68448828 -0.74264992 -0.15155011
-0.07068083 0.04722293 0.00000159
-0.09493666 0.60332333 -0.04486887
-0.43091430 -0.55471695 0.00000356
-0.04168686 0.23256753 0.00000161
-0.36889572 -0.09061143 0.34630600
-0.06287948 0.22883799 0.00000176
-0.24104632 0.21805723 0.05321481
-0.62096033 -0.61363389 -0.11794539
-0.38789512 0.06602330 -0.27939699
-0.25324383 0.27349677 -0.11711392
-0.15746230 -0.59847377 -0.00000070
-0.10117664 0.54016315 0.00000051
-0.03239542 0.26588207 0.00000780
-0.37604769 0.11084712 -0.30178253
-0.66324843 -0.80123192 0.06420193
-0.44777500 -0.77039800 0.00000342
-0.30816216 0.16789443 -0.15434494
-0.05884168 0.55437016 0.00000347
-0.21002488 -0.56286658 -0.00000097
-0.32369633 0.16726512 -0.20523091
-0.08603396 0.16606369 0.00000186
-0.19577814 0.23095579 0.00000277
-0.59065546 -0.62598138 0.20056681
-0.08215664 0.63447282 -0.04527877
-0.30882036 -0.04412741 -0.00000092
-0.22569500 -0.42814045 -0.00000090
-0.21846166 0.11116667 0.00000279
-0.57012284 -0.57495183 -0.00196205
-0.52326938 -0.22249335 -0.33224970
-0.17063625 -0.38721579 -0.00000051
-0.18977665 -0.08052042 -0.00000025
-0.42894447 -0.68316878 -0.00000244
-0.41535048 -0.20276087 0.24085496
-0.26763598 0.30387014 -0.20697745
-0.64793890 -0.76427238 0.12137800
-0.28908424 0.10208152 0.08228978
-0.06066706 0.11020444 0.00000160
-0.12277902 0.53831438 -0.04791587
-0.33354790 -0.00527591 0.35664191
-0.20131802 0.31396807 0.15369083
-0.27146291 0.14463561 0.01935124
-0.32488238 0.02772148 -0.01661780
-0.31679619 0.03519364 0.00474640
-0.03465699 0.71632885 0.03327835
-0.00464422 0.75941607 0.00000198
-0.22287606 0.00813475 0.00000585
-0.14288416 -0.57551986 0.00000136
-0.58036898 -0.60114506 0.06536360
-0.25713635 0.23532162 -0.07740428
-0.30674973 0.05942818 0.19103588
-0.10410268 -0.65269241 0.00000097
-0.49559925 -0.31631464 -0.11059836
-0.10891035 0.44904068 0.00000343
-0.32223972 0.02204995 0.02984132
-0.40189644 -0.17026978 0.01734109
-0.25056220 0.19508696 0.10691835
-0.15955514 0.49900385 -0.11618709
-0.29515315 0.10678359 -0.02667856
-0.14423433 0.47763616 -0.03565993
-0.18253708 0.02599817 0.00000672
-0.17408579 0.13092971 0.00000011
-0.54035547 -0.50454265 0.04865565
-0.39204335 0.02534168 -0.23707772
-0.20818924 -0.53849300 -0.00000093
-0.28177375 0.11973318 0.02650367
-0.29194975 0.09517116 0.08714012
-0.35228213 -0.05048676 0.13924170
-0.48967811 -0.59539758 -0.00000270
-0.44718758 -0.20885752 -0.09760328
-0.43807536 -0.08179645 -0.24258526
-0.66004805 -0.79350568 0.05428361
-0.37882643 -0.00530715 -0.15074720
-0.15866076 0.19220368 -0.00000385
-0.49918402 -0.69861926 0.00000389
-0.32837603 0.00721120 0.32956163
-0.54641622 -0.31881890 -0.27643718
-0.20869966 0.27959663 -0.00000081
-0.21225405 0.33076960 -0.05959504
-0.05453427 -0.60055359 0.00000066
-0.33214780 -0.00188966 0.21649471
-0.03012306 0.71079021 0.00000135
-0.16931582 -0.41632159 0.00000176
-0.00580124 0.41598223 -0.00000455
-0.52081288 -0.26823593 -0.26094314
-0.36102918 -0.36453937 -0.00000163
-0.22483360 -0.20659229 0.00000244
-0.04788149 0.17301990 0.00000158
-0.31872143 -0.14821364 -0.00000111
-0.20036434 0.11712371 0.00000266
-0.44959736 -0.28544552 0.37649635
-0.26829159 -0.13772202 -0.00000079
-0.61513103 -0.68506621 0.01331946
-0.09104536 -0.63448889 0.00000089
-0.15926487 0.10679132 0.00000234
-0.00123146 -0.09089842 0.00000090
-0.13469294 -0.59284439 0.00000128
-0.29791786 0.10207353 -0.02938937
-0.14026959 0.46135366 0.11405444
-0.01909811 0.24666070 0.00000145
-0.35931486 0.03452849 -0.14071689
-0.28518597 0.11149601 0.01099046
-0.30519038 0.20644112 -0.19763877
-0.04175892 0.33671005 0.00000174
-0.09459503 -0.27797576 0.00000137
-0.27819421 0.27697787 -0.20504084
-0.37939140 -0.01458746 -0.13982774
-0.28175393 -0.30084603 -0.00000108
-0.59308303 -0.63184187 0.14398835
-0.05665530 -0.12057068 0.00000128
-0.09827202 0.33546315 0.00000083
-0.55363314 -0.28472372 -0.34753017
-0.38672971 0.00201880 -0.18718703
-0.01650545 0.23726635 0.00000120
-0.54923808 -0.52599345 0.21905953
-0.02375541 -0.06116411 0.00000078
-0.22042825 -0.71373780 -0.00000122
-0.03795589 -0.66758038 0.00000045
-0.48217406 -0.58638635 -0.00000264
-0.26939590 0.14962054 0.08557768
-0.15514848 0.50706505 -0.11263059
-0.42766333 -0.10622934 -0.17418164
-0.54926341 -0.52718256 0.00000448
-0.24695353 0.20379427 0.08922501
-0.24261443 -0.34894700 0.00000239
-0.18798786 0.39115141 -0.06207487
-0.56372725 -0.44465067 -0.16046557
-0.20278542 -0.25929508 0.00000221
-0.24394944 0.35091637 -0.19298834
-0.36233296 0.00901029 -0.11555670
-0.03644346 0.41269226 0.00000179
-0.29168891 0.14740579 -0.07118946
-0.02861335 0.74016999 -0.01275924
-0.35937276 -0.06762214 0.35822475
-0.56919922 -0.49401531 -0.11057405
-0.02224953 0.38566711 0.00000657
-0.49426381 -0.47293891 0.00000414
-0.31366039 0.04274099 0.26438557
-0.18108658 0.36280948 0.14611777
-0.10190489 0.28099592 0.00000572
-0.34430851 0.16554649 -0.27152752
-0.34215972 -0.02605382 0.06200324
-0.41873518 -0.65746804 -0.00000235
-0.18093974 -0.57705171 -0.00000081
-0.19584712 -0.79949090 0.00000148
-0.64234070 -0.72889761 -0.03011404
-0.19822366 -0.42380041 0.00000197
-0.39367658 -0.31252204 -0.00000177
-0.47092303 -0.22237765 -0.15801970
-0.05571920 -0.36850289 0.00000096
-0.20183791 0.31271439 0.07169742
-0.22440457 -0.08913684 0.00000258
-0.15171723 0.26129050 0.00000247
-0.30189206 0.00279063 0.00000328
-0.38158580 -0.44870588 0.00000332
-0.00998879 -0.13776891 0.00000090
-0.05604347 0.57087950 -0.00000032
-0.28900062 -0.73586029 0.00000226
-0.14357452 0.14367241 0.00000226
-0.22399676 -0.16293565 -0.00000056
-0.19471735 0.32990231 0.13274381
-0.56029002 -0.39249169 -0.22099178
-0.27572553 0.13432440 0.27853735
-0.49032272 -0.19106851 -0.26585424
-0.34729732 -0.24108892 -0.00000140
-0.43630316 -0.23349344 -0.02734575
-0.19988860 0.31741470 0.20107787
-0.19768871 0.31219419 0.00000020
-0.29559171 0.24156018 -0.21412564
-0.45695562 -0.30320884 0.32466713
-0.13666900 0.10631505 -0.00000602
-0.00740282 0.20180845 0.00000131
-0.16126662 0.41066484 0.08878829
-0.25471990 0.24114679 -0.07739247
-0.22924353 0.24654850 0.12828547
-0.49501306 -0.39507604 0.05436181
-0.34677956 -0.36764195 -0.00000155
-0.30737524 0.05793767 0.00380219
-0.00814830 0.35993685 -0.00000546
-0.49701131 -0.39990414 0.14082698
-0.36089099 -0.57466281 0.00000300
-0.60804966 -0.66797002 0.00957128
-0.20747695 0.29909879 0.10922725
-0.25358482 0.12006939 -0.00000038
-0.09824988 -0.72765056 -0.00000050
-0.36356708 -0.07774246 0.20638758
-0.04503930 0.12755529 -0.00000841
-0.53802322 -0.49891909 0.25450676
-0.38519881 -0.12995717 0.00015004
-0.44675139 -0.27856118 0.04863333
-0.43650441 -0.25382221 0.03841929
-0.46566244 -0.58819939 0.00000378
-0.57546648 -0.55932147 -0.04133342
-0.44731634 -0.04037067 -0.33053591
-0.31132447 0.12862203 -0.11068440
-0.12884239 0.34347210 0.00000240
-0.41016192 -0.02291815 -0.23084242
-0.27698280 0.24795082 -0.16094965
-0.47623551 -0.34975410 0.34133924
-0.38067921 0.02361297 -0.19682954
-0.34802119 -0.07907495 0.00000353
-0.00016842 0.74241102 0.00000272
-0.19029569 0.34057837 0.14965427
-0.68138527 -0.80899945 -0.04965258
-0.07772860 0.61234325 0.06583654
-0.29977789 0.07625646 0.26530197
-0.13500216 0.29614016 -0.00000274
-0.01470912 -0.13762116 0.00000094
-0.12345451 0.14632500 0.00000044
-0.31975714 0.06706729 -0.05383887
-0.13943634 0.46336349 0.13683277
-0.54781318 -0.31459853 -0.28691501
-0.02855426 0.73106270 0.01924908
-0.09697951 0.21874934 -0.00000525
-0.55651922 -0.63971080 0.00000440
-0.17577712 -0.25061441 -0.00000037
-0.15360500 -0.15839206 -0.00000013
-0.20361549 -0.63277379 0.00000175
-0.58036510 -0.51452284 -0.11947318
-0.25488794 -0.23278148 0.00000263
-0.05476979 -0.35569267 0.00000097
-0.32622298 -0.79140391 -0.00000196
-0.01972486 -0.71978240 0.00000025
-0.41605346 -0.60435507 -0.00000227
-0.35124700 -0.04799664 0.25188014
-0.13830945 -0.08235084 0.00000194
-0.18114740 -0.29452236 0.00000200
-0.01282027 0.72589381 0.00000109
-0.29435947 0.08935719 0.04203642
-0.13344040 0.47783833 0.14198108
-0.28428145 0.11367731 0.06516080
-0.11892409 -0.64032646 0.00000110
-0.55739510 -0.54567804 0.00094053
-0.42537323 -0.07384236 -0.21124496
-0.48390724 -0.36019393 -0.01109535
-0.16068065 -0.06840755 -0.00000006
-0.41602212 -0.39874882 -0.00000201
-0.10595972 0.10870529 0.00000776
-0.24677415 0.20422766 0.08213186
-0.31785628 0.03261228 0.28485527
-0.25063936 0.25078268 -0.07709162
-0.24688056 0.02251191 0.00000501
-0.61042493 -0.67370787 0.10529291
-0.32433874 -0.65859537 0.00000262
-0.34263310 -0.02719013 0.11337297
-0.12799573 0.49098474 0.11849774
-0.14400324 0.45233773 0.14190987
-0.16986341 -0.65294252 -0.00000084
-0.56611998 -0.56674358 0.03926460
-0.42615202 -0.56730968 -0.00000228
-0.60995172 -0.59368779 -0.10879542
-0.63662845 -0.61779197 -0.16440542
-0.26525319 -0.71973174 -0.00000150
-0.04581610 0.17700714 -0.00000752
-0.06802929 0.46805920 -0.00000176
-0.04288222 0.69647192 0.01577962
-0.07387670 0.10140903 0.00000068
-0.24747655 -0.79769152 -0.00000149
-0.04345911 0.55418829 0.00000143
-0.40129297 -0.22980885 -0.00000171
-0.21020585 0.29250559 0.22195947
-0.45836302 -0.37487818 -0.00000224
-0.45833435 -0.36918039 -0.00000223
-0.04002308 -0.54541550 0.00000062
-0.45739157 -0.03666550 -0.36921500
-0.07599894 0.51517873 0.00000222
-0.25543997 -0.14770694 -0.00000073
-0.27690229 0.17105752 -0.05457192
-0.31672657 0.22213872 -0.25773472
-0.34709427 0.10462510 -0.19673688
-0.25678669 0.30909061 -0.17803752
-0.04725340 -0.74811813 -0.00000022
-0.02000432 -0.23900645 0.00000085
-0.06499690 0.39364152 0.00000198
-0.30520699 0.06314670 0.32522737
-0.31276116 -0.03095187 0.00000332
-0.67186617 -0.74506905 -0.10616150
-0.25385283 0.14719188 0.00000310
-0.29678476 0.08811013 -0.00634557
-0.02124592 0.25338236 -0.00000692
-0.15621179 0.42286920 0.00351902
-0.06775205 0.10478941 0.00000164
-0.29895726 -0.42212895 0.00000273
-0.09750153 -0.02449417 0.00000170
-0.14748275 -0.42135974 -0.00000042
-0.16528299 0.40096920 0.00526328
-0.07091801 0.42809943 -0.00000237
-0.09273834 0.27229478 0.00000608
-0.31028201 0.15050278 -0.13740682
-0.42715783 -0.12110155 -0.15197457
-0.30992763 0.05175023 0.32030978
-0.15703254 0.48133486 -0.08339930
-0.10885284 -0.66361037 -0.00000049
-0.55912380 -0.54985191 0.00980880
-0.10199242 0.43398606 -0.00000133
-0.51070376 -0.63920246 -0.00000288
-0.67629391 -0.83272574 0.12019202
-0.18718502 0.36500744 -0.02332541
-0.61237218 -0.65564386 -0.03136231
-0.39564371 -0.64467290 0.00000318
-0.40007848 -0.16588280 0.06181484
-0.13751986 0.46799582 0.06616604
-0.29458123 -0.22008774 0.00000295
-0.45181551 -0.23454735 -0.07757015
-0.38975797 -0.14098038 0.36717097
-0.29642361 0.08435737 0.19959816
-0.44333974 -0.16376670 -0.14700781
-0.15796910 -0.34165129 0.00000176
-0.22124610 0.00955337 -0.00000032
-0.40081052 -0.13091959 -0.05065115
-0.18076610 0.00497838 0.00000237
-0.12936706 0.08453783 -0.00000662
-0.55633708 -0.65240269 0.00000438
-0.38079926 -0.11934562 0.22334513
-0.70069916 -0.80576161 -0.11846451
-0.07762966 0.48443802 0.00000219
-0.10642003 0.00745540 0.00000037
-0.45139347 -0.63950856 0.00000361
-0.07041438 0.41797743 0.00000110
-0.16808859 0.08112440 0.00000642
-0.22028658 -0.26493314 -0.00000066
-0.19368682 0.33238895 0.16203933
-0.44183804 -0.12514138 -0.19530629
-0.25600883 0.17602805 -0.00000119
-0.42157746 -0.57106115 -0.00000226
-0.44521075 -0.27485557 0.36808938
-0.16216242 0.02713176 0.00000006
-0.32938118 0.16393644 -0.21957477
-0.08330263 0.20224946 0.00000721
-0.18784592 -0.77914224 0.00000144
-0.04632424 -0.42650341 0.00000019
-0.10366374 -0.44749373 -0.00000019
-0.39976438 -0.16512496 0.07211615
-0.13112261 -0.66007048 0.00000116
-0.26198025 -0.75188880 0.00000204
-0.18888501 -0.24127083 0.00000212
-0.07739950 0.08657336 0.00000169
-0.34418242 -0.03094983 0.35868325
-0.17607226 0.06719634 -0.00000551
-0.01574407 0.72141879 0.00000181
-0.49960795 -0.76673308 -0.00000297
-0.44644147 -0.57934084 0.00000364
-0.46132104 -0.53761955 0.00000381
-0.15349696 0.47977654 -0.06946991
-0.34043565 -0.44375284 -0.00000161
-0.35266646 0.04229272 -0.12928699
-0.08925545 0.00370437 -0.00000924
-0.22895353 0.24725576 0.08965214
-0.38961464 -0.14062318 0.11679866
-0.24531288 0.24303759 -0.04866262
-0.25261206 0.30091858 -0.15285286
-0.35226097 -0.70407079 0.00000278
-0.50786335 -0.31027669 -0.15978781
-0.58436666 -0.61079922 0.16946216
-0.00161266 0.67459673 0.00000183
-0.32370465 0.01849309 0.23725641
-0.44698296 -0.50817564 0.00000374
-0.33996857 -0.02077018 0.20344825
-0.32624135 0.01237665 0.18969669
-0.11255134 -0.46371281 -0.00000026
-0.33530075 0.09765847 -0.14783247
-0.25313138 0.18888118 0.05260364
-0.40382171 -0.47161995 0.00000346
-0.28957919 0.10088076 0.21296489
-0.08204602 0.64585773 -0.06062093
-0.05291804 0.03823900 0.00000145
-0.08259888 0.56553290 0.00000269
-0.31739592 0.00147264 -0.00000091
-0.42036686 -0.05075265 -0.22642571
-0.46155318 -0.18845766 -0.17361262
-0.37499945 -0.10534239 0.19709754
-0.00960582 0.10205883 -0.00000992
-0.40056505 -0.16706294 0.18361900
-0.05335676 -0.10752243 0.00000127
-0.18794535 0.43897566 -0.12793067
-0.38040617 0.09092209 -0.28880644
-0.07641158 0.25672104 0.00000086
-0.24533393 0.20770945 0.10139298
-0.23792487 0.00114967 -0.00000043
-0.23083605 0.24269892 0.23745396
-0.44283972 -0.26912205 0.14964777
-0.30603615 -0.39071449 -0.00000134
-0.41921711 -0.05335888 -0.21900244
-0.04442356 0.51852013 -0.00000159
-0.35162871 -0.59729161 -0.00000187
-0.33839126 -0.71471936 0.00000266
-0.39073830 -0.23126207 0.00000366
-0.02226312 0.10924590 -0.00000942
-0.30780985 0.06780748 -0.01505839
-0.41171629 0.02313792 -0.29957500
-0.30744437 0.05533523 -0.00000175
-0.07895812 0.50469541 0.00000355
-0.39292482 0.00640311 -0.21387984
-0.06287866 0.14763550 0.00000081
-0.07273490 -0.55373902 -0.00000013
-0.19932010 0.15636119 0.00000463
-0.41609774 -0.20457196 0.39881631
-0.49320363 -0.49225598 -0.00000259
-0.29748342 0.08179912 0.19153507
-0.59691425 -0.43690943 -0.28170963
-0.49334424 -0.39105584 0.24955262
-0.36378223 -0.40934465 -0.00000171
-0.12137759 0.02409610 0.00000840
-0.35968816 -0.06838182 0.33585503
-0.31420328 0.22378980 -0.25160692
-0.45419519 -0.29653782 0.17450861
-0.07112551 0.39786926 0.00000509
-0.54148044 -0.49583766 -0.01571535
-0.24420807 0.21042606 0.11945623
-0.45363975 -0.18659413 -0.14982095
-0.33917449 0.11507908 -0.18478119
-0.60157435 -0.65234124 0.18541509
-0.12394870 0.24699013 0.00000056
-0.17720312 0.36082582 -0.00000034
-0.18696985 0.34861143 0.02278884
-0.30588492 0.06153066 0.06624311
-0.40961446 0.01558407 -0.28215004
-0.18191778 -0.49087236 0.00000176
-0.28140907 -0.78740146 -0.00000168
-0.22111228 0.32698774 -0.08388411
-0.45679301 -0.30281527 0.30240924
-0.21718466 0.39320347 -0.16217727
-0.69854838 -0.79060230 -0.13221852
-0.13791163 0.28111600 0.00000474
-0.38430045 -0.05166517 -0.10501633
-0.36029634 0.00372306 -0.10148110
-0.53239423 -0.61722077 -0.00000298
-0.31805101 0.20890653 -0.24388663
-0.27224613 0.14273973 0.08314230
-0.05036698 0.42192662 0.00000191
-0.32418145 0.01733824 0.33409277
-0.17584707 0.15255298 -0.00000402
-0.36768261 -0.08768642 0.39283083
-0.26664615 0.15624792 0.17686866
-0.17813361 0.40879625 -0.05359776
-0.34052900 -0.43720350 -0.00000160
-0.08342547 0.24474939 0.00000080
-0.19077451 0.25747193 0.00000276
-0.14671142 0.44580978 0.01379122
-0.31377833 -0.69289024 -0.00000176
-0.36266429 0.02762656 -0.14235099
-0.60621539 -0.58059699 -0.11441276
-0.23040553 0.28146452 -0.05202696
-0.50876785 -0.40060320 -0.03815431
-0.38112213 -0.19957424 -0.00000155
-0.42926134 -0.23634598 0.26667951
-0.57258693 -0.58235635 0.04123811
-0.24339009 -0.48154154 -0.00000107
-0.47381905 -0.34390836 0.04217004
-0.22795178 -0.70369549 0.00000184
-0.19057673 -0.49395661 0.00000182
-0.09212984 0.61205294 -0.04756473
-0.02531991 0.57111111 0.00000190
-0.08282991 0.44918426 0.00000106
-0.36006147 -0.34135238 -0.00000160
-0.09584711 0.56860222 0.02587339
-0.40997559 -0.18977542 0.03363060
-0.06664272 -0.02063719 0.00000057
-0.16652397 0.39797700 0.03304393
-0.47300021 -0.67757262 0.00000372
-0.02155751 -0.21700645 0.00000089
-0.31975546 -0.37096436 -0.00000139
-0.46886870 -0.07497049 -0.35459057
-0.06659823 0.63291302 0.00000229
-0.14959151 0.46528244 -0.03645953
-0.19688941 0.40695561 -0.11354043
-0.25027109 -0.67821590 -0.00000136
-0.49030699 -0.39892414 -0.00000246
-0.21295280 -0.58798884 0.00000187
-0.35371913 0.00521951 -0.08162820
-0.61138526 -0.70271339 0.00000473
-0.39590403 -0.15580475 0.06226252
-0.31530268 0.09103301 -0.07207072
-0.08859575 -0.11041525 0.00000153
-0.40612036 -0.18048140 0.33344642
-0.28688743 0.17283353 -0.09028779
-0.33103457 0.00080660 0.16812981
-0.54611346 -0.51845017 0.25159997
-0.34648337 -0.22700961 0.00000333
-0.49111737 -0.25754849 -0.17676199
-0.39427330 -0.15186651 0.03311536
-0.08765169 0.49167412 0.00000109
-0.06032094 -0.64054614 -0.00000016
-0.35313964 0.01437473 -0.09233771
-0.37781055 -0.18813884 -0.00000152
-0.37805403 -0.11272202 0.35497948
-0.29213964 0.23036016 -0.18716806
-0.64716383 -0.66904920 -0.12877073
-0.19991316 0.26580105 0.00000013
-0.23695534 -0.17929234 -0.00000065
-0.29232125 0.09426802 0.05107104
-0.00789663 0.33679324 -0.00000587
-0.10076577 0.58601372 -0.04040277
-0.25803747 0.12572204 0.00000342
-0.10631848 0.38697408 0.00000229
-0.59217769 -0.62965627 0.16752661
-0.11252080 -0.52380692 0.00000119
-0.29919049 -0.16893890 -0.00000102
-0.47236793 -0.75989599 -0.00000280
-0.22719598 0.25148862 0.19801925
-0.18204636 -0.77322155 0.00000141
-0.13577228 -0.72784522 -0.00000073
-0.37008516 -0.00987662 -0.11531948
-0.63408101 -0.70331076 -0.03790601
-0.12313595 0.40107045 -0.00000127
-0.43872109 -0.25918441 0.27704646
-0.13305137 0.54188454 -0.08706378
-0.51835108 -0.52627288 -0.00000279
-0.09817527 -0.63015437 0.00000095
-0.41137200 -0.19314725 0.04681166
-0.46291162 -0.31758774 0.31961428
-0.44296795 -0.17989177 -0.12351728
-0.37245080 -0.09918606 0.12297935
-0.19042543 0.34026309 0.15245579
-0.05561336 -0.17455627 0.00000045
-0.02206698 0.38287221 0.00000661
-0.22209685 0.08550521 -0.00000380
-0.06275194 0.03027674 -0.00000958
-0.48126803 -0.08148867 -0.38690454
-0.33828619 0.14852344 -0.22797219
-0.40539004 0.06194831 -0.33205725
-0.15709662 -0.59146469 0.00000145
-0.43286804 -0.77061757 -0.00000258
-0.04719826 -0.56190110 0.00000065
-0.67744978 -0.83551616 0.09324335
-0.14290634 0.45499317 0.04911867
-0.48147512 -0.33034447 -0.04418385
-0.07568701 0.02226836 -0.00000933
-0.40604488 -0.75632335 0.00000312
-0.37831301 -0.11334842 0.37003804
-0.34590157 -0.03508986 0.11498660
-0.11925948 0.03325537 0.00000835
-0.29751728 0.19635058 -0.15815064
-0.46490058 -0.36348749 0.00000405
-0.65841409 -0.78956108 0.07571678
-0.56409855 -0.76434965 0.00000430
-0.54719378 -0.70757050 0.00000424
-0.00246519 0.44496348 0.00000154
-0.12416085 -0.45026064 0.00000137
-0.10992395 -0.03764806 0.00000029
-0.33023488 -0.58569387 -0.00000173
-0.37887100 -0.50368706 0.00000323
-0.53603938 -0.46187105 -0.04446118
-0.14983883 -0.06288104 0.00000002
-0.50539224 -0.15550727 -0.36513075
-0.27697368 0.28848863 -0.21685943
-0.55744107 -0.58106185 0.00000448
-0.15420390 0.42771257 0.09674908
-0.20984805 -0.14741487 0.00000240
-0.00471443 0.22633424 -0.00000790
-0.57715010 -0.59337738 0.23955065
-0.51877208 -0.42022674 -0.04440332
-0.40795066 -0.41140853 0.00000356
-0.58388832 -0.60964374 0.11468443
-0.15169361 -0.56075827 -0.00000062
-0.54053123 -0.50496943 0.10384176
-0.25827282 0.29834894 -0.16816413
-0.40749897 -0.06226781 -0.16767001
-0.52509339 -0.27847218 -0.26107786
-0.66506534 -0.80561824 0.12033563
-0.32770169 0.00886318 0.03671561
-0.59661822 -0.48625109 -0.21263374
-0.14965934 0.43868448 0.12108757
-0.27385052 -0.45468665 -0.00000122
-0.07241958 0.07977091 -0.00000842
-0.21981409 0.33237852 -0.08700123
-0.15588310 0.42365721 0.12744671
-0.13672546 -0.59814849 0.00000128
-0.42039905 -0.16236996 -0.07250930
-0.19289597 0.12308848 0.00000522
-0.34591652 -0.03513689 0.36035656
-0.24382207 -0.73183075 -0.00000139
-0.13323559 0.48410680 -0.00794428
-0.19951314 -0.31696369 0.00000211
-0.23329995 -0.11687896 0.00000261
-0.50111354 -0.29534506 -0.15790614
-0.28642349 0.10301941 -0.00000155
-0.41220660 -0.30087751 -0.00000186
-0.08171120 0.06445659 0.00000059
-0.21196441 0.21204877 0.00000359
-0.02794160 -0.75646700 -0.00000011
-0.02002470 0.28190994 -0.00000646
-0.23748685 0.10771929 0.00000293
-0.33085624 0.07067615 -0.09579514
-0.25362008 -0.00843277 -0.00000054
-0.30586438 0.06157504 0.13233186
-0.57938620 -0.41474061 -0.25390744
-0.29016588 0.25023279 -0.20801664
-0.16714727 -0.57559984 0.00000154
-0.33537079 -0.16605303 -0.00000123
-0.23640103 0.22926418 0.24048499
-0.07655936 -0.20233816 0.00000028
-0.36006416 -0.06927983 0.07646883
-0.57283975 -0.44652332 -0.18823931
-0.26335274 -0.34852949 0.00000255
-0.10943330 0.53580261 0.01448844
-0.57536779 -0.71999605 0.00000444
-0.20847624 0.09466559 -0.00000405
-0.20316828 0.30950328 0.05581185
-0.32164632 0.15645152 -0.18347664
-0.22767643 0.25033422 0.14937540
-0.39548760 -0.15481485 0.41688823
-0.15622079 -0.46852861 0.00000159
-0.23527542 0.20239728 -0.00000136
-0.48234154 -0.67646321 0.00000379
-0.27151382 -0.76518415 0.00000209
-0.05789809 -0.05340464 0.00000058
-0.27822498 -0.04784078 0.00000304
-0.27912456 0.02992896 0.00000314
-0.21533049 0.05941136 0.00000541
-0.07410399 0.38898073 0.00000513
-0.11819931 0.10532606 -0.00000659
-0.44275043 -0.26890665 0.15351774
-0.30625854 0.07711752 -0.02273087
-0.11446892 0.37382295 0.00000078
-0.25740152 0.17857515 0.11213510
-0.25493464 0.32078222 -0.18800144
-0.01692434 0.14715057 0.00000131
-0.29479994 0.16937681 -0.11187395
-0.09469364 0.62131745 -0.06889139
-0.26773321 0.15362227 0.24178099
-0.32573404 -0.05350708 -0.00000103
-0.66979223 -0.71756812 -0.13720247
-0.40949656 -0.43864104 0.00000354
-0.37056009 -0.09462323 0.16257092
-0.03694565 -0.34864450 0.00000034
-0.22438337 -0.13426715 -0.00000052
-0.33001247 0.17234409 -0.23328165
-0.40621645 -0.18071430 0.35448073
-0.58272403 -0.60683134 0.08027075
-0.43630988 -0.32319562 0.00000389
-0.41865255 -0.76415717 -0.00000248
-0.24887616 -0.62557029 0.00000210
-0.07838577 -0.60970375 -0.00000024
-0.66822221 -0.68340382 -0.17911747
-0.37378211 0.08103987 -0.25310231
-0.11175968 -0.79180340 0.00000085
-0.43998441 -0.19361557 -0.09463948
-0.22796023 0.32774896 -0.10775116
-0.10105538 -0.43769376 -0.00000016
-0.21703372 -0.46736525 0.00000205
-0.20600054 0.29458800 0.00000272
-0.08569943 -0.51877719 -0.00000017
-0.27521831 0.28171542 -0.20166433
-0.20179645 -0.34824442 0.00000209
-0.47361595 -0.13280953 -0.29059133
-0.37999415 -0.11740719 0.37211147
-0.40880115 -0.18694690 0.18736274
-0.24283584 0.21373266 0.19832689
-0.31721781 -0.58753002 0.00000266
-0.01967833 -0.36895117 0.00000042
-0.30113979 -0.51890786 0.00000262
-0.03889273 0.70610234 0.04112130
-0.13659977 -0.60288940 -0.00000058
-0.61779356 -0.78775730 0.00000468
-0.43640100 -0.03773627 -0.29780656
-0.09027045 -0.60890999 0.00000092
-0.59658939 -0.43651003 -0.28117853
-0.53228231 -0.29933190 -0.25624190
-0.35644027 -0.04297221 -0.02419725
-0.30620405 0.06076045 0.06336069
-0.02549065 0.54069851 -0.00000177
-0.57297077 -0.58328471 0.07892864
-0.20815642 0.01692362 -0.00000024
-0.32875722 0.16629445 -0.22075010
-0.50581743 -0.40928734 -0.01634137
-0.38132725 -0.65159562 0.00000306
-0.02285580 -0.57371511 0.00000014
-0.30733280 0.05802593 0.06957208
-0.21815889 -0.40332040 0.00000214
-0.21108959 -0.61087928 -0.00000104
-0.06910079 0.64729818 -0.01948223
-0.43025761 -0.08815510 -0.20776608
-0.44439407 -0.27287123 0.07445282
-0.38909094 -0.13936815 0.36685996
-0.13198793 0.14236114 0.00000217
-0.23634124 0.22941284 0.18598163
-0.18217051 -0.58601749 -0.00000083
-0.19464931 -0.46248422 -0.00000075
-0.04855399 0.63363018 0.00000216
-0.30490805 -0.02329598 0.00000327
-0.47805276 -0.13856559 -0.29742926
-0.61332163 -0.50820441 -0.23798604
-0.09287912 -0.54557694 0.00000102
-0.02492195 -0.76907998 -0.00000011
-0.43379012 -0.24727178 0.09436441
-0.17126028 -0.00127286 0.00000229
-0.10463008 -0.31113342 -0.00000002
-0.47700423 -0.55563076 -0.00000257
-0.17124778 0.34494556 0.00000040
-0.10062503 -0.33034008 -0.00000002
-0.07855085 -0.20264862 0.00000027
-0.05901472 0.28690566 -0.00000520
-0.59303282 -0.63171984 0.09667044
-0.01724847 0.44602181 0.00000145
-0.33715058 -0.01397035 0.31696963
-0.37537999 -0.41682474 -0.00000179
-0.00257406 0.04721865 0.00000108
-0.38003342 -0.11749223 0.12313544
-0.28774105 -0.27071502 -0.00000108
-0.35790578 -0.26676449 0.00000337
-0.33753243 -0.01488604 0.14200041
-0.36429215 -0.07949888 0.36324822
-0.32466000 0.14310893 -0.17510680
-0.47134504 -0.30506540 -0.04531997
-0.15926504 0.18547534 0.00000027
-0.43838590 -0.07097190 -0.25855419
-0.30916227 0.05361308 0.13526302
-0.34176303 -0.47968428 0.00000298
-0.15162914 0.12586168 -0.00000522
-0.60158355 -0.65235982 0.02045171
-0.16804671 -0.63078013 0.00000148
-0.28109773 0.02495260 -0.00000067
-0.11832655 0.43904100 -0.00000075
-0.08962014 0.45326817 -0.00000136
-0.29148159 0.09628950 0.23790019
-0.37595964 -0.53739482 0.00000316
-0.24219169 0.30495835 -0.12371030
-0.44513965 -0.52053706 0.00000371
-0.05131717 -0.76114332 -0.00000026
-0.16395232 0.19120706 0.00000025
-0.36324814 -0.07697948 0.37620845
-0.38884866 -0.26823939 0.00000360
-0.10501428 -0.17534747 0.00000015
-0.41295053 -0.19696008 0.08947159
-0.32603456 0.08308143 -0.09685066
-0.37859336 0.09689299 -0.29100745
-0.16969235 -0.16174656 0.00000208
-0.49814658 -0.27061793 -0.18214423
-0.24573374 -0.33904982 -0.00000091
-0.48011644 -0.35912016 0.23195871
-0.36777970 -0.41078841 0.00000326
-0.54425336 -0.42695133 -0.12001346
-0.67069602 -0.75831227 -0.08398800
-0.33549006 -0.42114829 -0.00000155
-0.02739441 -0.62605114 0.00000005
-0.22178324 0.07346114 -0.00000402
-0.05047143 -0.59690519 0.00000063
-0.03694166 -0.09436422 0.00000116
-0.00849643 0.68074795 0.00000017
-0.33919783 0.06650609 -0.11782545
-0.42658988 -0.76969375 0.00000326
-0.28551889 0.11068678 0.13378823
-0.43621137 -0.21915267 -0.04682961
-0.02251462 -0.66559379 0.00000034
-0.01062725 0.45817712 0.00000598
-0.09612236 0.34146399 0.00000215
-0.16072198 0.41197518 0.12500279
-0.32306339 0.02006049 0.04198715
-0.48305245 -0.36620265 0.10445649
-0.49665944 -0.64802338 0.00000394
-0.59282586 -0.63121996 0.09162756
-0.21701153 0.17636382 0.00000286
-0.48113228 -0.10003371 -0.36085987
-0.14130498 0.39780264 -0.00000077
-0.39615689 -0.01589112 -0.19387831
-0.55163657 -0.47387208 -0.07986166
-0.05347503 0.09908124 0.00000931
-0.02185501 -0.73090404 -0.00000005
-0.06208449 0.56381595 0.00000133
-0.17160397 -0.21556316 0.00000203
-0.45671123 -0.03388453 -0.37078632
-0.46897191 -0.14823423 -0.25383447
-0.28311489 -0.18833167 0.00000290
-0.52954249 -0.67228109 -0.00000304
-0.44481851 -0.07433436 -0.27534444
-0.03085540 0.47394320 0.00000183
-0.35125561 -0.04802335 0.28649898
-0.11952623 0.54809841 -0.05058091
-0.07043687 -0.22473319 0.00000029
-0.21538323 -0.06946162 0.00000254
-0.30455406 0.00047209 -0.00000280
-0.66779821 -0.72254318 -0.12369405
-0.62224461 -0.70224242 0.12062227
-0.03676326 0.06049290 0.00000085
-0.08063565 0.47918750 0.00000111
-0.09272719 0.21462156 0.00000071
-0.29528312 -0.27391361 0.00000289
-0.49166716 -0.29394935 -0.12836195
-0.02256898 0.38522331 0.00000657
-0.54161238 -0.50757872 0.08472894
-0.38500720 -0.03005749 -0.13718855
-0.32821152 -0.39979352 0.00000298
-0.08776488 0.58811463 0.05505435
-0.38934173 -0.13997636 0.38682318
-0.11160623 -0.51665048 -0.00000032
-0.58421500 -0.53300727 -0.10679122
-0.33025033 -0.33692454 0.00000307
-0.35247040 0.01400373 -0.08959021
-0.23009011 -0.57813809 -0.00000111
-0.37075769 0.08589725 -0.24972957
-0.32031061 -0.70533875 -0.00000181
-0.00674050 -0.10628390 0.00000083
-0.31160123 0.05822647 -0.01446062
-0.36795481 0.07505623 -0.22543176
-0.17832468 0.19144928 -0.00000327
-0.04990079 -0.18771693 0.00000046
-0.16278295 0.48109484 -0.10222668
-0.05543908 -0.56397524 0.00000071
-0.41542717 -0.20293617 0.02070345
-0.32143367 -0.76515771 -0.00000190
-0.25077347 0.19458433 0.01322691
-0.14276985 -0.27597457 -0.00000021
-0.04662093 0.10669647 0.00000940
-0.16265638 -0.51037902 -0.00000062
-0.14710642 0.44484752 0.09599623
-0.53535188 -0.49246627 0.12544000
-0.31448022 0.18816455 -0.20336818
-0.27638994 0.13273903 0.04196827
-0.10437359 0.59227111 -0.06105626
-0.04424284 0.67840916 0.00000218
-0.26575697 0.30716848 -0.20526917
-0.35286212 -0.01388791 -0.05241191
-0.34243642 -0.00199593 -0.03408957
-0.51120380 -0.50768944 0.00000422
-0.46149293 -0.18270855 -0.18134542
-0.17790835 0.37048745 0.03414652
-0.05034767 0.18626009 -0.00000722
-0.26535356 0.29972120 -0.19364759
-0.64328367 -0.77256631 0.00000489
-0.10594772 0.22704386 0.00000064
-0.06123953 0.24517577 0.00000177
-0.48302179 -0.19276333 -0.23919272
-0.09256806 -0.34839033 0.00000126
-0.41284239 -0.21356644 -0.00000176
-0.42750038 -0.76301939 0.00000327
-0.36040536 -0.75166428 -0.00000211
-0.31373498 -0.23033537 0.00000308
-0.56606527 -0.55878974 -0.01074744
-0.36343181 -0.07741377 0.15866517
-0.07436905 0.19472213 0.00000180
-0.24698508 -0.27788926 -0.00000084
-0.07786908 -0.31445895 0.00000119
-0.12929605 -0.11606209 0.00000183
-0.14991649 -0.72948359 -0.00000082
-0.26502414 0.07524774 0.00000309
-0.33143807 0.07336802 -0.10144812
-0.34675787 -0.00478918 -0.04463172
-0.60376612 -0.66132878 0.00000473
-0.24919827 0.19837424 0.17688146
-0.22059008 -0.01001522 0.00000265
-0.53994062 -0.37601236 -0.17593942
-0.10433809 -0.19957636 0.00000012
-0.18338507 -0.20853188 -0.00000037
-0.37283525 -0.37133680 -0.00000171
-0.29122684 0.14811867 -0.07063890
-0.52263899 -0.77076377 0.00000398
-0.17364438 0.10538516 0.00000244
-0.49376262 -0.39206198 0.16107459
-0.12125029 0.42513920 0.00000245
-0.42488755 -0.26668845 0.00000387
-0.35907914 0.01792673 -0.11702119
-0.24134183 0.25050800 -0.04574209
-0.20988707 0.28694195 -0.00000064
-0.31504326 -0.28835506 -0.00000126
-0.11360447 -0.66938079 0.00000102
-0.19876463 -0.63732404 -0.00000100
-0.63927585 -0.62601335 -0.16187998
-0.47361022 -0.46016406 0.00000400
-0.29788533 0.08082409 0.30833164
-0.28951399 0.10104106 0.14842724
-0.35436941 -0.05554066 0.28365996
-0.33372798 0.03743685 -0.05949335
-0.29036576 0.11002548 -0.01520322
-0.07415561 0.20262206 0.00000181
-0.08713227 0.62200576 -0.04465001
-0.21638776 -0.71924827 0.00000173
-0.05344511 0.69541646 -0.03372718
-0.46559046 -0.17180251 -0.21004604
-0.64851099 -0.74093845 -0.03405426
-0.27512384 0.13578636 0.05346741
-0.31145156 0.09789951 -0.06871636
-0.22829033 -0.00147123 -0.00000038
-0.05811780 -0.68203103 0.00000059
-0.34147014 -0.44720834 -0.00000162
-0.36015444 -0.56374984 0.00000301
-0.33231921 0.00016425 -0.00336546
-0.06647383 -0.55632759 0.00000081
-0.04819456 0.46946559 0.00000130
-0.57418787 -0.58622215 0.05823261
-0.26157378 0.16849982 0.14636970
-0.28892311 0.10247437 0.13363894
-0.08464645 0.59564071 0.08544621
-0.24040378 0.16044859 -0.00000194
-0.65790825 -0.77899561 -0.01284355
-0.24742042 -0.50175499 0.00000224
-0.59396504 -0.63397108 0.11146598
-0.28091037 -0.46255445 -0.00000127
-0.12420590 -0.39162119 -0.00000024
-0.37716081 -0.13370209 -0.00000144
-0.28755693 0.20939546 -0.14297215
-0.52740920 -0.49666381 -0.00000280
-0.11255091 0.28549518 -0.00000361
-0.26063027 -0.60890870 -0.00000133
-0.19659795 0.37821696 -0.07291010
-0.09179955 -0.68771087 0.00000083
-0.54164759 -0.75971167 0.00000414
-0.26412292 0.30329341 -0.19447798
-0.13285422 -0.61155236 -0.00000057
-0.47990879 -0.18582858 -0.23839158
-0.35833210 -0.06511093 0.37270798
-0.05127957 -0.07406017 0.00000129
-0.44614386 -0.16580254 -0.15354024
-0.26741728 0.26257175 -0.14925670
-0.01385083 0.35175509 0.00000723
-0.36184208 -0.07357617 0.16689244
-0.16942949 0.25391554 0.00000029
-0.40813529 -0.72273967 0.00000318
-0.53173477 -0.79627152 -0.00000320
-0.28078502 -0.44226007 -0.00000125
-0.21444589 -0.48128987 0.00000202
-0.01560933 0.48427233 0.00000172
-0.12796929 -0.13158176 0.00000006
-0.49170238 -0.10739172 -0.38592101
-0.36451255 -0.08002495 0.28689038
-0.49463849 -0.45214160 0.00000417
-0.07375399 0.55804026 0.00000225
-0.17151207 -0.25621401 -0.00000036
-0.42621691 -0.12289329 -0.14636740
-0.42998630 -0.04526481 -0.26604903
-0.36596678 0.02574729 -0.15076444
-0.17474629 0.44621692 -0.09395051
-0.13090632 -0.38630751 -0.00000027
-0.35086834 -0.04707274 0.12836169
-0.17294733 -0.28749202 0.00000195
-0.03092223 0.46913698 -0.00000286
-0.00744209 0.22588612 0.00000897
-0.20250433 0.07638736 -0.00000013
-0.20096521 0.31482378 0.10355513
-0.12266865 -0.20647670 0.00000167
-0.57959842 -0.59928799 0.22874075
-0.05410662 0.21977842 0.00000778
-0.24884208 -0.05471928 0.00000281
-0.50014997 -0.40748313 0.17592509
-0.51371836 -0.68265284 0.00000402
-0.09242939 0.58577897 -0.01230462
-0.08507550 0.59460717 0.02970155
-0.45748242 -0.30447153 0.12048902
-0.15502801 -0.12770338 -0.00000010
-0.26624411 0.15721972 0.15035476
-0.34862714 -0.04167344 0.27266730
-0.16140940 0.36493645 0.00000267
-0.00566317 -0.39631394 0.00000055
-0.31487627 0.03980710 0.23015579
-0.44810058 -0.24803172 -0.04658616
-0.36238493 0.03103255 -0.14612054
-0.55800558 -0.54715472 0.06468071
-0.18894422 0.12809921 -0.00000406
-0.14254833 -0.01517001 0.00000012
-0.54425326 -0.51395934 0.22343592
-0.44118501 -0.26512642 0.13238191
-0.51347058 -0.26676859 -0.23850743
-0.04564004 -0.62391677 0.00000056
-0.35615380 -0.27503903 -0.00000149
-0.07526926 -0.71352982 -0.00000035
-0.11834368 -0.66853807 -0.00000055
-0.57577286 -0.54762367 -0.05849658
-0.06030130 0.18082264 0.00000810
-0.23283881 0.23788117 0.02351279
-0.44400773 -0.63612933 -0.00000247
-0.24001605 -0.20991753 -0.00000071
-0.04193749 0.69262125 0.00000139
-0.05595389 0.48547476 -0.00000182
-0.28073440 0.12418742 -0.00265281
-0.44014145 -0.03704610 -0.31122196
-0.09756114 0.12162841 0.00000783
-0.58584257 -0.62783896 0.00000463
-0.16804353 0.39429957 0.11877569
-0.18403862 0.03735649 0.00000244
-0.07994817 0.64179897 -0.04803058
-0.04917956 0.70522508 -0.03305195
-0.23093289 0.24246923 0.19092031
-0.52168814 -0.18426930 -0.37972946
-0.41554698 -0.20324093 0.36814631
-0.18748256 0.36145827 -0.01941893
-0.37838485 -0.02285071 -0.12506593
-0.12062932 0.55917535 -0.06954152
-0.08898868 0.45353575 0.00000103
-0.07163787 0.40762206 0.00000496
-0.19609232 -0.61013941 -0.00000095
-0.35253812 0.01159006 -0.08648497
-0.33846819 0.10317739 -0.16600101
-0.37849397 0.06226971 -0.24289768
-0.12255011 0.42756183 0.00000246
-0.08353133 -0.38164512 0.00000002
-0.09834047 -0.17379013 0.00000152
-0.26049058 0.17110966 0.21249553
-0.29140290 0.10188697 -0.00742761
-0.61860766 -0.69346228 0.17212543
-0.39301381 -0.00061315 -0.20449419
-0.51170221 -0.43537614 0.29018836
-0.21167092 0.11488516 -0.00000013
-0.31636934 0.13498110 -0.13626707
-0.01236527 -0.16066174 0.00000089
-0.37791051 -0.11237060 0.20280367
-0.53201980 -0.36377713 -0.16643563
-0.14307831 0.22064584 -0.00000382
-0.07963636 0.48017220 0.00000220
-0.19580317 0.02277321 0.00000251
-0.38273124 -0.58132772 0.00000316
-0.60613109 -0.51486037 -0.20484589
-0.23367507 0.25980490 -0.03302517
-0.58061711 -0.79197604 0.00000439
-0.41721031 -0.73269874 0.00000323
-0.35285376 0.15104515 -0.27998445
-0.33336057 -0.00481206 0.09294732
-0.05356680 0.43646280 0.00000195
-0.03899904 0.24834705 0.00000108
-0.23558502 0.23124389 0.11751403
