ply
format ascii 1.0
element vertex 1373
property float x
property float y
property float z
end_header
-0.40377603 0.36579383 -0.00000049
0.01406002 0.65981073 -0.00000091
-0.09102953 -0.59841493 -0.00000013
0.04164677 -0.40625846 -0.00000025
0.33364196 -0.40885624 -0.00000024
-0.01654908 0.14521842 -0.00000059
0.00209877 0.41440162 -0.00000076
-0.17637669 -0.04716664 -0.00000047
-0.29540421 0.35864518 -0.00000060
0.15067661 0.37398958 -0.00000073
0.64356731 0.01931887 0.00593065
-0.48014079 0.39502388 -0.00000040
0.16508525 0.49717369 -0.00000094
-0.07990995 0.47004795 -0.00000079
-0.53022795 -0.78204030 -0.00000001
0.62921963 -0.44000645 -0.00000059
0.20053068 0.21297548 0.01672087
0.39709574 -0.01334965 -0.00000068
0.38173735 -0.31508697 -0.00000030
-0.45519819 -0.77144703 -0.00000002
0.27140027 -0.00049369 -0.00000050
0.58557575 0.19443835 -0.00000169
-0.65699777 -0.18749247 -0.00000012
0.12095664 0.41054937 -0.00000076
-0.55066718 -0.71655496 -0.00000005
-0.34380418 -0.75018859 -0.00000003
-0.10970614 0.46898104 -0.00000079
-0.61219867 -0.62833509 -0.00000009
0.08389453 -0.79773414 -0.00000000
-0.48228499 0.70661826 -0.00000040
-0.02051794 0.62419316 -0.00000089
0.78316844 -0.67027362 -0.00000032
0.22390598 -0.36642388 -0.00000027
0.24536020 0.10516170 0.01944595
0.42259892 0.32110964 -0.00000142
-0.40188459 -0.32071791 -0.00000030
0.53054053 0.09920231 -0.00000133
-0.62023230 0.12446171 -0.00000021
0.38840038 -0.34769136 -0.00000028
0.27625301 0.42979642 0.00406357
0.64930458 0.06237128 0.00381966
-0.65051294 -0.60077314 -0.00000005
0.20295325 0.36920789 -0.00000081
0.55626527 0.18519769 0.00253098
-0.03913335 -0.47096561 -0.00000021
0.16813955 0.40369671 -0.00000077
-0.73186877 0.63422649 -0.00000009
0.09209205 0.26306555 0.01924507
-0.41937143 -0.70253805 -0.00000006
0.07507867 0.30459158 0.01818451
-0.43899953 -0.61151410 -0.00000012
0.73820141 -0.58729309 -0.00000053
-0.49200229 0.45079766 -0.00000038
-0.71576987 0.44905533 -0.00000011
-0.55718033 -0.03902008 -0.00000025
0.40832996 -0.32349220 -0.00000030
0.15594459 0.25789338 0.01670642
0.03786695 0.07012808 0.02993835
0.19218511 0.13595307 -0.00000058
0.30838913 -0.16684575 -0.00000040
-0.44935692 -0.47829359 -0.00000020
0.07197919 0.53161265 -0.00000083
-0.43221870 -0.74149593 -0.00000004
-0.52282631 0.50912462 -0.00000035
-0.52576942 -0.05362059 -0.00000028
-0.39203942 0.47587898 -0.00000051
0.56629021 0.03162223 -0.00000131
-0.65230703 0.75943751 -0.00000018
-0.56932712 0.57224843 -0.00000029
0.09823374 -0.24518409 -0.00000035
-0.29405313 0.48139419 -0.00000063
0.74791130 -0.06765859 -0.00000170
0.18472221 -0.61395553 -0.00000012
-0.07499507 -0.76674468 -0.00000002
-0.61249627 -0.51816873 -0.00000011
-0.52958379 0.30067519 -0.00000034
-0.11610970 0.34654181 -0.00000072
-0.21639698 -0.02258874 -0.00000049
0.76576591 -0.48627992 -0.00000078
0.55855974 -0.00598372 -0.00000122
0.02613222 0.40685065 -0.00000075
0.63626317 -0.03865325 -0.00000140
-0.11209903 0.78917501 -0.00000086
-0.64719117 -0.07493787 -0.00000015
0.03870812 0.51686881 -0.00000082
-0.76772182 0.22959427 -0.00000004
-0.33536142 -0.17910308 -0.00000039
0.49790125 0.25550843 0.00201416
0.23838242 0.03340655 -0.00000052
0.69927590 0.03659390 0.00277280
-0.63630762 -0.45758053 -0.00000009
-0.63376135 -0.42645269 -0.00000010
0.34770625 0.21416296 0.01030171
0.04029441 -0.65744154 -0.00000009
0.16547226 0.03610153 0.02588997
0.33774652 0.08005780 -0.00000068
-0.71515472 0.31289667 -0.00000011
-0.61282800 -0.49855538 -0.00000011
-0.47776072 0.10924161 -0.00000036
-0.67978163 0.75086847 -0.00000015
0.18969781 0.27832929 0.01436202
-0.16380669 -0.70096540 -0.00000006
-0.75125899 -0.31851224 0.00000000
0.47362412 0.21672512 -0.00000138
0.33340967 0.40559828 -0.00000130
0.40998264 -0.14513664 -0.00000047
0.30182049 -0.53623896 -0.00000016
-0.54641757 -0.13573319 -0.00000025
0.05191700 0.37797307 0.01601172
0.23881292 0.53493332 -0.00000125
-0.18151310 0.02814463 -0.00000052
-0.58853928 -0.67757484 -0.00000008
-0.71920698 0.60340328 -0.00000010
-0.73943868 0.58921294 -0.00000008
-0.73507394 0.05164046 -0.00000008
0.08151594 0.43176218 -0.00000077
0.18986675 0.14459249 0.02014078
0.37511494 0.13834582 0.01239617
-0.60272812 -0.33834606 -0.00000015
0.79205890 -0.12419064 -0.00000169
0.32536033 0.36418710 -0.00000119
-0.48425782 0.33505585 -0.00000039
-0.21650633 0.22142285 -0.00000064
0.79898831 -0.45189244 -0.00000087
0.18152275 0.37477188 -0.00000075
-0.10418866 -0.54256589 -0.00000016
-0.30869211 0.60588603 -0.00000061
0.28573371 0.43177573 0.00356771
0.43264120 -0.24814819 -0.00000034
0.38990584 0.07103984 -0.00000083
-0.44941581 0.27513210 -0.00000042
-0.12519169 0.37390988 -0.00000073
-0.07680530 -0.08289674 -0.00000045
-0.50213346 -0.36422840 -0.00000025
-0.76294044 0.10694586 -0.00000005
-0.61516380 0.35910977 -0.00000023
0.65455919 0.04027183 -0.00000161
0.44425094 0.28092578 -0.00000141
0.30478939 0.06045913 0.01880893
0.45886991 0.17514464 -0.00000125
0.56959840 -0.00423996 -0.00000125
0.34173944 -0.04136618 -0.00000047
-0.38030292 -0.73197037 -0.00000004
-0.34059281 -0.66951661 -0.00000008
-0.01077381 -0.46812590 -0.00000021
-0.13114881 -0.15430267 -0.00000040
-0.24971615 0.10294123 -0.00000056
0.46530528 -0.53006650 -0.00000017
-0.12541606 -0.31341219 -0.00000030
0.09955363 -0.19515138 -0.00000038
-0.18452561 -0.58267186 -0.00000014
-0.67476310 -0.24828022 -0.00000009
-0.36289395 -0.59270004 -0.00000013
0.59124072 -0.22485993 -0.00000089
0.21768352 0.30101297 0.01216983
-0.26397017 0.21874603 -0.00000061
-0.16940400 -0.11712668 -0.00000043
0.60885203 0.06211750 -0.00000151
-0.22468974 -0.62842151 -0.00000011
0.38050720 -0.42284156 -0.00000024
-0.59454336 -0.39887296 -0.00000015
-0.19945200 0.42326776 -0.00000072
0.50169101 -0.66482745 -0.00000008
0.03389716 0.41576696 0.01515617
-0.64951472 0.04611992 -0.00000017
-0.20600407 -0.39988983 -0.00000025
0.20782868 0.57318252 0.00082028
0.43721538 0.30976812 -0.00000144
0.58409990 0.02119572 -0.00000135
-0.21791397 -0.05296862 -0.00000047
0.46213939 -0.36558576 -0.00000027
-0.79919143 0.44207181 -0.00000000
-0.55361395 0.33343736 -0.00000031
0.02492759 0.23406272 0.02340557
-0.65413146 0.76565083 -0.00000018
0.78865501 -0.60462059 -0.00000049
-0.12333441 -0.68416413 -0.00000007
0.26462437 0.09569361 0.01902217
-0.12111979 -0.02260471 -0.00000049
0.14673148 0.62349217 -0.00000113
0.05143696 -0.66011706 -0.00000009
-0.54998683 -0.71233553 -0.00000005
-0.77275120 0.35935163 -0.00000003
-0.79405287 0.71160852 -0.00000001
0.31727638 -0.23280048 -0.00000035
-0.64633081 0.29105726 -0.00000019
-0.52466116 -0.69635849 -0.00000006
-0.19197287 0.73289316 -0.00000076
-0.06421972 0.38093879 -0.00000074
-0.69708741 -0.41184704 -0.00000003
-0.59331414 -0.30063599 -0.00000017
0.15715132 -0.41232105 -0.00000024
0.77339359 -0.17418057 -0.00000156
0.33797272 -0.04023596 -0.00000047
0.07121721 -0.50163232 -0.00000019
-0.53282927 0.69080440 -0.00000033
0.19267192 -0.63560358 -0.00000010
0.73700883 -0.40366379 -0.00000099
0.28389781 0.17582581 -0.00000069
0.57404244 -0.11172035 -0.00000106
-0.58665700 -0.20442349 -0.00000019
-0.71625206 0.33122278 -0.00000010
0.05870516 0.15590038 -0.00000060
-0.11585984 0.51651522 -0.00000082
-0.37582192 -0.60481630 -0.00000012
-0.75439672 0.15398048 -0.00000006
-0.36362070 0.73694956 -0.00000055
0.57473165 -0.47126351 -0.00000036
-0.25941573 -0.57300904 -0.00000014
0.03971114 0.26815348 -0.00000067
-0.39800127 0.57007785 -0.00000050
-0.35858419 -0.10167333 -0.00000044
0.41190567 -0.07068321 -0.00000062
0.20521191 -0.14198865 -0.00000041
0.42146915 0.33494009 0.00188447
-0.78419969 -0.75759072 0.00000000
0.42032836 -0.25050905 -0.00000034
-0.29891226 0.29240290 -0.00000059
0.13467413 0.65503530 0.00044403
-0.38537498 -0.05339943 -0.00000043
0.51490653 0.09886957 -0.00000128
0.33322044 0.08159751 0.01666419
0.42593419 -0.15056815 -0.00000051
0.39378757 0.24386921 -0.00000118
-0.58213469 0.31792553 -0.00000027
0.10033242 -0.66824268 -0.00000008
-0.60158109 -0.74046961 -0.00000004
-0.27341627 -0.66432976 -0.00000008
0.06325566 -0.75840174 -0.00000003
-0.68356566 0.59170270 -0.00000015
-0.53333769 0.01316459 -0.00000029
-0.76227203 0.05108123 -0.00000005
0.32394743 0.07665223 -0.00000063
0.39240761 -0.11497137 -0.00000047
0.19793229 -0.62287553 -0.00000011
-0.11236228 -0.42588272 -0.00000023
-0.69028730 0.08348494 -0.00000013
-0.39396656 -0.44451067 -0.00000022
0.31085708 0.00384791 0.02099569
-0.78395641 0.71289957 -0.00000002
-0.49847697 -0.29431692 -0.00000027
0.13354961 -0.10932192 -0.00000043
-0.18069125 -0.52125199 -0.00000017
-0.46343889 0.41588082 -0.00000042
0.26604123 -0.17725209 -0.00000039
0.43762517 0.30799262 0.00235136
-0.37189918 0.27253102 -0.00000051
-0.18879510 -0.18824375 -0.00000038
0.32971045 0.21967277 -0.00000092
-0.22321764 -0.66891778 -0.00000008
0.11290080 0.18354349 0.02178532
-0.21761287 0.70641702 -0.00000073
0.11284550 0.32556675 -0.00000070
0.20357170 0.57007673 0.00113885
0.39528752 0.04241374 0.01567402
-0.09756051 0.54943795 -0.00000084
-0.76734208 0.14725544 -0.00000004
-0.41811902 0.09014996 -0.00000042
-0.70467383 -0.29548281 -0.00000005
-0.74211110 -0.33847977 0.00000000
0.17437896 -0.49129114 -0.00000019
-0.67169673 -0.75725369 0.00000000
0.48652060 -0.59909839 -0.00000013
-0.64330465 0.54909990 -0.00000020
-0.36145809 0.02476155 -0.00000047
-0.27068178 0.31434638 -0.00000062
0.17278016 0.15569199 0.02039977
-0.01260505 -0.60353066 -0.00000012
-0.22062444 0.24265769 -0.00000065
-0.40765476 -0.22236468 -0.00000036
-0.24883798 -0.49842935 -0.00000019
0.42939453 0.30669794 0.00276350
0.39778116 0.25500723 0.00636786
0.67620879 -0.26825047 -0.00000108
-0.58897194 -0.74168301 -0.00000004
0.42793356 -0.20988698 -0.00000040
0.60684209 -0.25052700 -0.00000089
-0.45771192 -0.39306390 -0.00000025
0.06902572 -0.43736204 -0.00000023
-0.17343137 -0.52371455 -0.00000017
0.00075942 0.34769404 -0.00000072
0.56571098 -0.33775728 -0.00000059
-0.49806483 0.47267490 -0.00000038
-0.08555920 -0.17649814 -0.00000039
-0.44785239 0.26988046 -0.00000043
0.49158579 0.02420345 0.01229527
0.17127112 0.39959337 -0.00000077
-0.05941672 0.67366302 -0.00000091
0.33830013 -0.55872509 -0.00000015
-0.76451558 -0.44699800 0.00000000
0.22914921 -0.13026205 -0.00000042
-0.04381119 0.67627662 -0.00000092
0.69498382 -0.06310435 -0.00000154
-0.25437849 0.31730263 -0.00000064
-0.57820534 0.26948463 -0.00000028
0.54247305 -0.45153543 -0.00000029
0.43523548 -0.28577538 -0.00000032
-0.27190628 -0.14556482 -0.00000041
-0.34541732 0.49336162 -0.00000057
-0.02572124 0.35921737 -0.00000072
-0.50199540 -0.43356245 -0.00000023
-0.78106300 -0.38293450 0.00000000
-0.47090994 0.38578587 -0.00000041
-0.06975870 -0.14291938 -0.00000041
-0.56981341 -0.54688809 -0.00000015
-0.30115758 -0.18483908 -0.00000038
-0.74127132 0.66601161 -0.00000007
0.31420190 -0.03187242 -0.00000048
-0.49200124 0.67213383 -0.00000038
-0.20433864 -0.48619367 -0.00000020
0.60529087 -0.31464575 -0.00000076
-0.18590430 -0.39413938 -0.00000025
0.38280401 -0.65218705 -0.00000009
-0.64361414 -0.63079553 -0.00000005
-0.16252121 -0.23284390 -0.00000035
0.12295273 0.45352642 -0.00000078
-0.16745854 -0.42395691 -0.00000024
0.50466062 -0.43685489 -0.00000023
-0.64828520 -0.69345243 -0.00000003
-0.43095064 0.10658229 -0.00000041
-0.47426524 0.00457034 -0.00000035
0.27374882 0.37471443 0.00655515
0.18615409 0.57474016 0.00169071
-0.60063353 0.54526393 -0.00000025
-0.37661597 -0.44600394 -0.00000022
0.38148440 0.11761269 0.01301763
-0.02005824 0.03719127 -0.00000052
0.55988210 0.20234505 0.00163257
-0.14505479 -0.05959338 -0.00000046
0.13834563 0.10466958 -0.00000057
0.78137753 -0.39350523 -0.00000102
-0.38055869 0.36453246 -0.00000051
0.52300285 -0.02651861 -0.00000106
-0.13160304 -0.62642452 -0.00000011
0.23359327 0.14112114 -0.00000059
0.27728769 0.17987546 -0.00000068
0.07858961 0.20993034 0.02212810
-0.73783736 -0.45651421 0.00000000
0.47201162 -0.26470281 -0.00000043
-0.38440180 0.57057183 -0.00000052
-0.56195762 0.60558072 -0.00000030
0.35809750 0.40397155 0.00163967
0.60758127 -0.33156832 -0.00000074
0.56301406 0.16282892 0.00320680
-0.26522131 0.17479438 -0.00000060
-0.78322399 -0.60452657 0.00000000
-0.34654677 -0.78614429 -0.00000001
0.34819755 0.44378021 -0.00000142
-0.64759981 -0.59314664 -0.00000005
-0.61490126 0.08760090 -0.00000021
-0.49651787 0.49546908 -0.00000038
-0.44115725 0.65733448 -0.00000045
-0.30817176 -0.67324855 -0.00000008
-0.39722599 -0.02911145 -0.00000042
-0.58748210 -0.47496274 -0.00000014
-0.46640285 0.35859091 -0.00000042
-0.70896505 0.38602153 -0.00000011
-0.17305420 0.43488731 -0.00000075
0.45564022 0.18317702 0.00697227
-0.33228246 0.35500031 -0.00000056
0.00463612 0.11515813 -0.00000057
-0.17500108 -0.56419950 -0.00000015
0.55954587 -0.48526652 -0.00000028
-0.16304158 0.07965041 -0.00000055
0.55477185 0.03014562 -0.00000127
-0.48266110 0.67527836 -0.00000040
0.00881121 0.56433417 -0.00000085
-0.58031493 -0.17688965 -0.00000020
-0.25180886 0.31923631 -0.00000064
0.77308894 -0.15706776 -0.00000161
0.70801766 -0.56760212 -0.00000058
-0.72540127 0.24305338 -0.00000009
-0.20955907 -0.43027336 -0.00000023
0.45616211 0.02099657 0.01396674
0.28379598 0.01052598 -0.00000051
0.66268206 -0.23042749 -0.00000111
-0.65091218 0.63707713 -0.00000019
0.00804157 0.16817597 0.02698667
-0.34684387 -0.16204224 -0.00000040
-0.08785312 -0.48908244 -0.00000019
-0.75339264 -0.17497379 -0.00000002
-0.15306402 -0.57905540 -0.00000014
-0.79639493 -0.14113526 0.00000000
0.10455769 0.38615939 -0.00000074
-0.43260418 -0.01750439 -0.00000039
0.50969216 -0.75405754 -0.00000003
-0.64586468 -0.70251760 -0.00000004
-0.24951008 -0.01509104 -0.00000049
-0.03294050 -0.77451109 -0.00000002
-0.25974138 -0.32652403 -0.00000030
-0.08219373 -0.42663789 -0.00000023
0.36529244 -0.64636737 -0.00000010
-0.63827072 -0.78328823 -0.00000001
0.38930613 0.25333089 -0.00000118
0.78439337 -0.57767243 -0.00000056
0.30332475 -0.73976815 -0.00000004
-0.20253272 -0.05987602 -0.00000046
0.61601139 -0.77462974 -0.00000002
0.00872959 -0.66082876 -0.00000009
0.46841088 -0.48730388 -0.00000020
-0.37405765 0.68136435 -0.00000053
0.04955496 0.49113073 -0.00000081
-0.19494573 -0.52609504 -0.00000017
-0.52933531 -0.20844354 -0.00000025
0.56363205 0.17706375 0.00256416
0.24031294 -0.02829108 -0.00000048
0.13471743 0.63366891 0.00136662
-0.45997288 0.26635914 -0.00000041
-0.00227884 -0.76568662 -0.00000002
-0.72265947 0.01223191 -0.00000008
-0.24181345 0.04678016 -0.00000053
-0.12096452 -0.14582278 -0.00000041
0.15513378 0.60554842 -0.00000112
-0.41490704 0.19527357 -0.00000045
-0.34205336 -0.69159986 -0.00000007
0.39091856 0.09063527 0.01377666
0.26004329 -0.45260166 -0.00000022
-0.12462230 -0.30096666 -0.00000031
0.03217013 0.26895671 0.02158257
-0.35825699 -0.45187421 -0.00000022
-0.02101144 -0.17370353 -0.00000039
0.25025381 0.52122517 0.00123266
-0.42788672 -0.49807006 -0.00000019
-0.58435321 0.08459267 -0.00000025
-0.51624807 -0.60726944 -0.00000012
0.18505190 0.16272134 0.01956475
0.42818119 0.21718264 -0.00000123
-0.07966551 -0.68683849 -0.00000007
-0.46188321 -0.29540416 -0.00000031
0.60190382 -0.76633071 -0.00000002
-0.68030988 0.31089608 -0.00000015
0.44925222 -0.09867796 -0.00000068
-0.12129754 0.04499590 -0.00000053
0.09129095 -0.39335771 -0.00000025
-0.34024016 -0.12343684 -0.00000042
-0.06859333 0.07247519 -0.00000055
-0.02058592 0.59519141 -0.00000087
0.31526936 0.02285543 -0.00000051
0.53279264 -0.22786346 -0.00000070
-0.32106535 -0.45036004 -0.00000022
0.28713534 -0.08302709 -0.00000045
-0.24259108 -0.39992197 -0.00000025
0.11864438 0.20834458 0.02046383
0.55349497 0.09406245 -0.00000139
-0.71490790 -0.13387674 -0.00000007
0.65205236 0.11008485 -0.00000174
-0.06611639 0.64610753 -0.00000090
0.38522806 -0.76064980 -0.00000002
-0.40684327 -0.72701779 -0.00000005
-0.45850014 0.16830114 -0.00000040
0.03301090 0.53196427 -0.00000083
0.65558525 0.07609584 -0.00000169
0.46536786 0.08475008 0.01081001
-0.21529049 -0.25592402 -0.00000034
-0.16986689 0.55380953 -0.00000077
0.26317766 0.07158704 0.02012772
-0.37497159 0.12395035 -0.00000048
-0.34620958 -0.21978268 -0.00000036
-0.68165659 0.00828095 -0.00000013
-0.03555021 -0.19604068 -0.00000038
0.22258110 0.27402064 0.01312579
-0.71645890 -0.23578159 -0.00000005
-0.31837491 0.04389564 -0.00000052
0.20660526 0.32674291 0.01153591
-0.08358980 0.64496884 -0.00000088
-0.66561581 0.49454286 -0.00000017
-0.60784647 -0.71560820 -0.00000005
0.39270677 0.00452564 0.01742499
0.43534873 -0.29562285 -0.00000032
0.09271371 0.27181842 0.01883949
-0.65231167 0.38707651 -0.00000018
-0.20190663 -0.28275919 -0.00000032
-0.78676025 0.36119037 -0.00000002
0.35524662 -0.24549400 -0.00000035
0.05651958 -0.70641204 -0.00000006
-0.17020987 -0.73981603 -0.00000004
-0.65698513 0.51130497 -0.00000018
0.06362430 -0.27807962 -0.00000033
-0.41758289 -0.20023957 -0.00000037
0.49957528 -0.29992008 -0.00000045
0.21996547 -0.61469090 -0.00000012
0.01607447 -0.61653404 -0.00000011
-0.69535916 -0.02065130 -0.00000011
-0.26142478 -0.64998372 -0.00000009
-0.74861803 -0.66549070 0.00000000
0.20718895 0.31884672 0.01185230
0.68027681 -0.61893690 -0.00000041
-0.64690379 0.23311870 -0.00000019
-0.16987364 -0.31609866 -0.00000030
0.76477820 -0.21167423 -0.00000147
0.02398175 -0.01263612 -0.00000049
-0.24617606 0.05647160 -0.00000054
0.48736434 -0.20790998 -0.00000059
0.55669553 -0.20429405 -0.00000082
-0.64817277 -0.57790709 -0.00000006
-0.22837313 -0.25945898 -0.00000034
-0.44422534 -0.55738067 -0.00000015
-0.22100625 -0.06815301 -0.00000046
-0.72211299 -0.16680379 -0.00000005
-0.04605318 -0.08602424 -0.00000045
0.02423966 0.04442874 -0.00000053
0.24749677 0.15551085 0.01717518
0.16279421 0.37017713 -0.00000073
-0.30700332 0.02640988 -0.00000052
0.64581163 -0.46743616 -0.00000059
0.07698592 0.18463973 0.02329166
0.50811705 -0.00147700 -0.00000106
0.31984885 -0.63844563 -0.00000010
-0.71378868 0.65100442 -0.00000011
-0.50277347 0.74790634 -0.00000037
-0.42746580 -0.44590828 -0.00000022
-0.56426040 0.56016743 -0.00000029
0.27001829 0.01388633 0.02232817
-0.11968941 0.48259718 -0.00000080
-0.03623696 0.79125482 -0.00000095
0.17113077 0.05271254 0.02492650
-0.35262385 0.23755595 -0.00000052
-0.49368764 -0.58988588 -0.00000013
0.74004974 -0.34852770 -0.00000113
-0.52923519 0.15453274 -0.00000032
0.16731971 -0.66895557 -0.00000008
0.06471734 0.42710201 0.01333240
0.24119403 0.38935846 0.00733013
0.28106810 -0.10412060 -0.00000043
0.62402477 -0.72439783 -0.00000005
0.00675974 0.65602713 0.00593544
0.40083192 0.19152700 0.00898245
0.12535513 -0.31910466 -0.00000030
-0.63846315 0.41600158 -0.00000020
-0.49689013 -0.75963118 -0.00000003
0.14378888 0.38615103 0.01168329
-0.36028166 0.37195737 -0.00000054
0.31799672 0.14363930 0.01463853
-0.23935388 -0.29301144 -0.00000032
-0.67827032 0.45987254 -0.00000015
-0.70645702 0.72910515 -0.00000012
0.24554090 0.49527528 0.00255935
0.58371082 -0.19493582 -0.00000093
0.19337787 0.20445506 0.01739895
-0.32288495 0.66562658 -0.00000060
-0.27512053 0.61358779 -0.00000066
0.32376601 -0.70738349 -0.00000006
-0.21803877 -0.19234623 -0.00000038
0.04997785 -0.16385987 -0.00000040
0.11892693 -0.77369868 -0.00000002
0.45779125 -0.03673033 -0.00000083
0.64141011 0.08463433 -0.00000166
-0.07420314 -0.71627175 -0.00000005
0.20488736 -0.10651292 -0.00000043
-0.37099152 -0.43756534 -0.00000023
-0.16213124 -0.36359610 -0.00000027
-0.27742218 0.13771607 -0.00000058
0.10113356 0.32711020 0.01608305
-0.43266336 0.61522525 -0.00000046
0.05142699 0.49488978 -0.00000081
0.05150496 0.04891027 -0.00000053
-0.17986255 0.49897133 -0.00000075
-0.04301658 0.25939377 -0.00000066
-0.74332107 -0.15045792 -0.00000003
-0.73287029 0.67366073 -0.00000008
-0.63692509 0.18283421 -0.00000020
-0.50117519 0.00320063 -0.00000032
0.25930295 0.21963705 -0.00000070
0.58304147 -0.48184095 -0.00000037
-0.39680801 0.76039717 -0.00000050
-0.05748790 0.02645464 -0.00000052
0.10802725 0.46163120 -0.00000079
-0.59472507 0.66102399 -0.00000026
0.65452888 -0.53325346 -0.00000049
0.47448369 -0.02419911 -0.00000091
-0.35972278 -0.74917326 -0.00000003
-0.22579883 -0.74700657 -0.00000003
-0.48942896 -0.21735594 -0.00000029
-0.30812247 0.52648923 -0.00000061
-0.78061281 0.33137001 -0.00000002
-0.47304316 -0.45836956 -0.00000021
0.56618075 -0.03994240 -0.00000117
-0.08179405 0.64496896 -0.00000088
-0.67512007 0.49474259 -0.00000016
0.68232827 -0.45864912 -0.00000073
-0.33802093 0.29352628 -0.00000055
-0.69376907 -0.16673939 -0.00000008
-0.78961942 0.36684278 -0.00000001
-0.33940335 0.55167427 -0.00000058
-0.19432708 0.21007937 -0.00000063
-0.64559518 -0.08934743 -0.00000015
0.71551717 -0.77485017 -0.00000006
-0.38292418 -0.41505439 -0.00000024
0.03998682 0.20498411 0.02401215
-0.74985343 -0.72793309 0.00000000
0.04785934 0.16651099 -0.00000060
0.06430683 0.10064553 0.02747417
-0.71717623 0.68185131 -0.00000010
0.16274737 -0.47927594 -0.00000020
-0.34864359 0.28744137 -0.00000053
-0.71331874 -0.04871146 -0.00000008
0.25459999 -0.25329466 -0.00000034
-0.75046340 -0.26379736 -0.00000000
-0.01446644 -0.07546194 -0.00000045
-0.31950413 -0.05208847 -0.00000047
0.39122997 -0.30066898 -0.00000031
0.11064535 -0.55574190 -0.00000015
-0.41615052 -0.53741017 -0.00000016
0.55228438 0.08856769 0.00688411
-0.24793494 -0.28378665 -0.00000032
0.43407363 -0.50754856 -0.00000018
0.57409667 -0.41138637 -0.00000047
-0.05615150 0.04481161 -0.00000053
0.08187476 -0.27671088 -0.00000033
0.74630586 -0.73654328 -0.00000016
0.09727555 -0.27062691 -0.00000033
0.07842537 -0.07004869 -0.00000046
-0.20318601 0.49136495 -0.00000073
-0.55418770 0.06212977 -0.00000027
-0.20380312 -0.04189925 -0.00000047
0.72333190 0.06512403 -0.00000188
0.08012445 0.60663635 0.00489837
-0.44451688 -0.71895175 -0.00000005
0.13818223 -0.15107291 -0.00000041
0.00677297 -0.09779906 -0.00000044
0.31511834 0.34989479 -0.00000113
-0.68339832 0.13618451 -0.00000015
-0.09496006 0.42442492 -0.00000077
-0.45080479 0.24966798 -0.00000042
-0.59434953 0.07957470 -0.00000023
-0.78930554 0.38174667 -0.00000001
-0.50180026 0.17184996 -0.00000035
-0.21585781 0.67815878 -0.00000073
0.60979439 0.00946309 0.00781837
-0.43459110 0.10079313 -0.00000041
-0.01204866 0.19198009 -0.00000062
0.52119863 -0.20056133 -0.00000072
-0.43949154 -0.37795208 -0.00000026
0.40118999 0.03798705 0.01561016
-0.32635062 0.65263486 -0.00000059
-0.05333637 0.30842640 -0.00000069
-0.58853618 -0.74022525 -0.00000004
0.08002674 0.29181225 0.01852334
-0.36735214 -0.54071803 -0.00000016
-0.53560951 0.17246022 -0.00000031
-0.09346540 -0.29162861 -0.00000032
0.18104795 0.49277902 -0.00000098
0.08067074 0.22748895 0.02127840
0.16048454 -0.51833663 -0.00000018
0.10490066 0.08686870 0.02631403
0.06430784 -0.05839146 -0.00000046
0.39064172 0.34729342 -0.00000137
-0.72792889 0.07943749 -0.00000009
0.00080800 0.53563646 0.01140158
-0.71670223 -0.31843781 -0.00000003
0.34003857 -0.11351883 -0.00000043
-0.23165665 -0.73342265 -0.00000004
-0.42290048 -0.08174059 -0.00000039
-0.75791654 -0.18330462 -0.00000001
0.15033058 -0.50241013 -0.00000019
0.27065388 0.39671370 0.00573722
0.70294199 -0.59362318 -0.00000052
0.71657422 -0.11458136 -0.00000151
-0.05672739 -0.63169541 -0.00000011
-0.75277924 0.14516175 -0.00000006
0.24005502 -0.36052376 -0.00000027
-0.06743796 0.75601774 -0.00000092
-0.19083662 0.66726248 -0.00000076
-0.04860198 0.12216920 -0.00000058
0.61377262 0.14095680 -0.00000168
-0.19243496 -0.46230867 -0.00000021
0.76521990 -0.38365566 -0.00000104
-0.12060819 0.00182971 -0.00000050
-0.75741265 -0.47123162 0.00000000
0.28712044 -0.35806574 -0.00000028
0.43819411 -0.47444119 -0.00000020
-0.39168562 -0.25776039 -0.00000034
0.01828288 0.60635350 -0.00000088
0.05555799 -0.34554254 -0.00000028
0.00015041 0.50086843 -0.00000081
-0.22760478 -0.29530673 -0.00000032
-0.32348457 -0.19690538 -0.00000038
-0.17919192 -0.69841065 -0.00000006
0.03842557 -0.29863128 -0.00000031
0.13426085 0.29764939 0.01592449
-0.75777993 0.47048682 -0.00000005
0.15258415 0.52590047 0.00525637
0.49807832 -0.34548701 -0.00000036
0.19877901 -0.64127990 -0.00000010
-0.03472569 0.19642874 -0.00000062
0.14223801 0.32702552 0.01430843
-0.31577543 0.46259105 -0.00000060
0.09451572 0.69969051 -0.00000111
0.39352321 -0.41398807 -0.00000024
-0.60082966 -0.00709140 -0.00000021
-0.58454661 0.66967605 -0.00000027
0.11571013 0.47280176 -0.00000080
0.33251228 -0.45841257 -0.00000021
0.01541325 0.28460066 0.02163069
0.03212799 0.31941401 0.01940138
-0.22631070 -0.75368732 -0.00000003
-0.61970294 0.58057199 -0.00000023
0.03320829 0.54173694 0.00973593
0.68284445 -0.26406374 -0.00000111
0.34069824 0.24543945 0.00925170
0.46057090 0.16099117 -0.00000123
-0.29066529 -0.34209906 -0.00000029
0.02133402 -0.07540306 -0.00000045
-0.11721945 0.14374345 -0.00000059
0.64314515 -0.14474500 -0.00000122
0.02527864 0.49171121 -0.00000081
-0.40757980 -0.25999122 -0.00000034
0.57882194 -0.75190788 -0.00000003
-0.13938387 -0.39350520 -0.00000025
-0.55788624 0.65482088 -0.00000030
0.09874099 0.27819470 -0.00000067
0.68746580 -0.41271560 -0.00000083
-0.77223656 -0.17191853 0.00000000
0.21927005 0.03844546 0.02346113
-0.64750226 0.02374292 -0.00000017
0.26924294 -0.41633705 -0.00000024
-0.75449647 -0.23443204 -0.00000001
-0.23214550 -0.31610947 -0.00000030
0.10595344 0.41368779 -0.00000076
0.64030726 -0.16523305 -0.00000117
-0.03294492 -0.01351039 -0.00000049
-0.17523145 -0.36146115 -0.00000027
-0.15896007 0.55538308 -0.00000079
-0.02587387 -0.58476850 -0.00000013
-0.30003354 0.52021647 -0.00000062
-0.35639757 0.60160413 -0.00000055
-0.66397245 0.13798240 -0.00000017
0.55572134 -0.17509128 -0.00000088
-0.25794475 -0.21369183 -0.00000037
-0.18998626 -0.31465919 -0.00000030
-0.57823492 0.07649095 -0.00000025
-0.68477123 0.43070924 -0.00000014
0.22059329 -0.24430016 -0.00000035
0.35694552 0.08486007 -0.00000075
0.50707573 0.25461465 0.00165586
0.23385812 0.07691463 0.02116566
-0.53839890 0.65230515 -0.00000033
0.30529442 0.38044540 0.00494226
0.12832073 -0.11960338 -0.00000043
0.16655916 -0.16409825 -0.00000040
0.34363594 0.45020006 -0.00000142
-0.48845738 -0.51524664 -0.00000018
-0.31326271 -0.51232129 -0.00000018
-0.06942518 0.53515210 -0.00000083
-0.43575866 0.05170000 -0.00000040
0.03213230 0.76214494 0.00024652
0.49970086 0.09392117 0.00892768
0.67069989 -0.04487467 -0.00000150
0.36227737 -0.13570283 -0.00000042
-0.62336813 0.49560153 -0.00000022
0.17844474 0.14101946 -0.00000059
-0.30917278 0.68476325 -0.00000061
0.37121901 0.11067486 -0.00000084
0.34991906 -0.12372926 -0.00000042
0.57354894 0.10421513 -0.00000148
0.57263194 -0.41420760 -0.00000046
-0.72799595 0.70871411 -0.00000009
-0.58029888 0.15982860 -0.00000026
0.01136059 -0.17392416 -0.00000039
0.16345961 -0.58251327 -0.00000014
-0.70250522 -0.66727325 0.00000000
0.17765785 -0.60847001 -0.00000012
-0.60536201 -0.44333766 -0.00000013
-0.25552296 -0.37063816 -0.00000027
0.35635438 0.29353271 0.00649344
-0.25974203 -0.15638192 -0.00000040
-0.66947927 0.26522299 -0.00000016
0.22855616 0.50522747 -0.00000116
0.65899871 -0.09004642 -0.00000137
0.12592434 -0.08084240 -0.00000045
-0.42544672 -0.49216997 -0.00000019
0.02342001 -0.59011459 -0.00000013
0.21300452 0.24509612 0.01479153
-0.36521692 -0.69234075 -0.00000007
0.04425476 -0.50536579 -0.00000018
0.33120744 -0.11427860 -0.00000043
0.33720965 -0.67001391 -0.00000008
-0.76923121 0.23725700 -0.00000004
0.73741745 0.02893394 0.00145391
-0.11125057 -0.44607296 -0.00000022
0.56218020 -0.49087238 -0.00000028
-0.02037352 0.31854202 -0.00000070
0.54027018 0.18761055 -0.00000153
-0.52727692 -0.46278654 -0.00000021
0.20371342 0.39062456 0.00889707
0.65599763 -0.50795049 -0.00000055
0.76539085 -0.11785060 -0.00000166
-0.55950354 0.40702832 -0.00000030
0.44408343 0.16071966 0.00844398
0.02447548 0.55402622 0.00958204
0.40148799 -0.55622587 -0.00000015
0.08699444 0.45025533 -0.00000078
0.24224353 -0.40781350 -0.00000025
-0.30840245 -0.23611762 -0.00000035
0.32751797 0.30765677 -0.00000109
0.50489052 0.24610110 -0.00000154
0.02168018 -0.04064444 -0.00000047
0.24687884 0.09938918 0.01963000
0.59528316 -0.66630647 -0.00000008
0.32079928 0.32766728 0.00655494
-0.00412478 -0.18136047 -0.00000039
0.05208913 -0.56978868 -0.00000014
0.15188368 0.30355104 0.01490675
0.26689223 0.34016122 -0.00000096
0.65143742 0.06687485 0.00353252
-0.69172136 -0.29527856 -0.00000006
0.05251041 0.68534156 -0.00000094
0.14334968 0.19619912 0.01992049
0.03827014 -0.22374365 -0.00000036
-0.38424823 0.74986051 -0.00000052
-0.24959420 0.13019596 -0.00000058
-0.57267598 0.49710753 -0.00000028
-0.56984953 -0.41837950 -0.00000017
-0.49930278 -0.18935758 -0.00000029
0.21392538 0.51115275 0.00324033
0.19263434 -0.59170937 -0.00000013
-0.55614462 -0.33595898 -0.00000020
0.65902433 -0.79804727 -0.00000000
-0.01146528 0.53006185 -0.00000083
-0.65249400 -0.13262383 -0.00000013
-0.33031850 -0.18739609 -0.00000038
-0.39125691 0.08046293 -0.00000045
0.71295647 -0.55987742 -0.00000060
0.11655454 -0.12589772 -0.00000042
0.10175686 0.58100454 0.00507139
0.37217165 0.36472822 0.00272864
0.00037355 -0.76959088 -0.00000002
0.33378889 -0.50963379 -0.00000018
-0.73533904 0.04032616 -0.00000008
-0.09118868 0.43801603 -0.00000077
-0.63954372 -0.01017993 -0.00000017
-0.76099082 -0.50089291 0.00000000
-0.50449033 -0.01463484 -0.00000031
0.00201870 -0.53759541 -0.00000016
0.52626511 -0.19508966 -0.00000074
-0.11668525 0.49495124 -0.00000081
-0.22555937 0.71226600 -0.00000072
-0.14036663 -0.60327378 -0.00000012
0.26062885 -0.43149783 -0.00000023
0.50744925 0.11668292 -0.00000129
-0.42972274 -0.26316299 -0.00000034
-0.77232340 0.34145982 -0.00000003
0.11942948 0.32389735 -0.00000070
0.48037740 0.17665180 0.00618427
0.72577674 -0.28786586 -0.00000120
-0.13190066 -0.31768163 -0.00000030
-0.39188829 0.47389132 -0.00000051
-0.23571720 0.29138061 -0.00000066
0.23770309 0.25695033 0.01321007
-0.00298630 -0.31529353 -0.00000030
-0.38340716 -0.11705038 -0.00000042
0.57790604 0.14037798 -0.00000156
0.16376860 0.44818627 -0.00000084
-0.37450956 0.06349591 -0.00000047
0.41264099 0.25110558 0.00589371
-0.31474340 -0.34083139 -0.00000029
0.04164962 -0.05624659 -0.00000046
-0.47345249 0.13928347 -0.00000037
-0.01313914 0.18317590 -0.00000061
-0.42502254 -0.23788280 -0.00000035
0.13137316 -0.41197865 -0.00000024
0.02293159 0.29602261 -0.00000069
0.55533717 -0.07441736 -0.00000107
-0.41039948 0.01054102 -0.00000042
0.25032825 0.25549920 0.01272659
-0.37350747 0.38279709 -0.00000053
0.09421701 0.54884757 -0.00000084
0.04567600 0.70285316 -0.00000096
-0.31983498 -0.52448145 -0.00000017
-0.15882819 -0.24379887 -0.00000035
-0.68583471 0.50226482 -0.00000014
-0.49678525 -0.55767542 -0.00000015
-0.67744901 -0.14749823 -0.00000010
0.46874022 -0.66317266 -0.00000009
-0.52586596 -0.42549260 -0.00000021
0.03579848 0.48534383 -0.00000080
-0.63627392 -0.29102289 -0.00000012
-0.74588918 -0.28816837 -0.00000000
0.47802210 0.11166963 0.00909776
-0.26725138 0.26320141 -0.00000062
0.75694365 -0.63897002 -0.00000040
-0.10644207 -0.79257153 -0.00000000
-0.31991689 0.04027049 -0.00000052
-0.33254038 0.63765278 -0.00000058
0.59359370 -0.08838003 -0.00000117
-0.40814779 -0.73082233 -0.00000004
-0.39726181 0.53094326 -0.00000050
0.73320486 -0.64185902 -0.00000040
-0.56057848 -0.20581283 -0.00000022
-0.01751695 -0.77961431 -0.00000001
-0.08325435 0.17160381 -0.00000061
0.52326770 -0.13293329 -0.00000085
0.67611294 -0.09410102 -0.00000142
-0.49930998 -0.39885456 -0.00000025
-0.60798654 0.54421531 -0.00000024
-0.41194945 -0.65073635 -0.00000009
-0.62707780 0.47437407 -0.00000022
0.76297687 -0.30409894 -0.00000124
0.39721450 -0.32834715 -0.00000029
0.09610918 0.39008322 -0.00000074
0.02842657 -0.75045111 -0.00000003
-0.79362048 0.41760953 -0.00000001
-0.07251563 -0.22324082 -0.00000036
-0.34905156 -0.25784613 -0.00000034
0.08727476 0.05299439 -0.00000053
0.72363105 -0.69365508 -0.00000027
0.56047536 -0.60793051 -0.00000012
-0.46736374 -0.18359410 -0.00000032
-0.45242207 0.51002066 -0.00000043
-0.51579132 -0.42394623 -0.00000023
0.04871261 0.42701860 -0.00000077
-0.61265439 0.57923397 -0.00000023
-0.41443991 0.00947129 -0.00000041
0.29386185 0.42950732 -0.00000122
0.58318719 0.11353067 0.00446693
0.58255253 -0.50988073 -0.00000031
-0.43272001 0.20309215 -0.00000043
0.53789884 -0.73916931 -0.00000004
-0.15228072 -0.57440908 -0.00000014
-0.71927331 0.78920379 -0.00000010
0.39264212 -0.60190701 -0.00000012
0.07045115 -0.56332421 -0.00000015
-0.42759244 0.40528262 -0.00000047
0.30740805 0.15942726 0.01441359
0.21937578 -0.15518258 -0.00000040
0.50883008 -0.53437657 -0.00000017
0.49589211 -0.14763639 -0.00000074
-0.19303112 0.23800387 -0.00000065
-0.66257091 0.60909477 -0.00000017
-0.56603821 0.46782188 -0.00000029
0.27559738 -0.24730800 -0.00000035
0.06309115 -0.04744881 -0.00000047
0.58846815 -0.06602278 -0.00000119
-0.06820520 -0.65858965 -0.00000009
-0.10642760 0.44701689 -0.00000078
0.22076987 0.28827459 -0.00000071
0.09278371 -0.74689829 -0.00000003
-0.32228973 0.75584245 -0.00000060
0.26824541 -0.12210037 -0.00000042
-0.37546187 0.57168413 -0.00000053
-0.46696395 -0.57933859 -0.00000014
0.75931646 -0.45969273 -0.00000085
-0.54636208 -0.71705017 -0.00000005
-0.42901341 -0.35375245 -0.00000028
0.34364063 -0.12992168 -0.00000042
0.02138105 -0.75502183 -0.00000003
-0.08881317 0.29340898 -0.00000068
0.06229008 0.08180149 0.02837670
-0.41715149 0.32188248 -0.00000047
-0.61613459 -0.18379802 -0.00000016
-0.50746833 -0.66121942 -0.00000009
0.17724439 -0.61296061 -0.00000012
0.16093352 0.05563251 -0.00000053
0.25046098 -0.33594096 -0.00000029
0.66279867 -0.27377179 -0.00000103
-0.26153451 -0.65626325 -0.00000009
-0.05665887 0.11318469 -0.00000057
-0.44379783 -0.16691424 -0.00000035
0.21143192 -0.64527097 -0.00000010
0.45703050 -0.46182026 -0.00000021
-0.30388144 -0.47020231 -0.00000021
-0.44025285 -0.10325088 -0.00000036
-0.08228825 0.55207519 -0.00000085
0.65205851 -0.22186204 -0.00000109
0.03231521 -0.25092721 -0.00000034
0.25472560 0.10620672 0.01899557
0.02933034 0.16071047 0.02638866
0.25529737 0.41925105 0.00542654
0.71338209 -0.37373243 -0.00000099
0.03850164 0.64590042 0.00500033
-0.52710390 0.43290865 -0.00000034
-0.11467841 -0.58144868 -0.00000014
-0.17212890 0.14696076 -0.00000059
-0.51495407 -0.15403165 -0.00000028
0.38090920 0.35686702 -0.00000135
-0.21813472 -0.08230262 -0.00000045
0.05343441 -0.79575629 -0.00000000
0.58943978 -0.09466900 -0.00000114
0.65933206 -0.73087277 -0.00000012
0.71615717 -0.56757647 -0.00000058
0.00964994 -0.59793292 -0.00000013
0.09106835 0.42892216 0.01211364
-0.75130727 0.17975807 -0.00000006
-0.46160271 0.32541410 -0.00000042
-0.04980308 0.17343148 -0.00000061
0.67062049 -0.77650281 -0.00000006
-0.04777585 0.31408305 -0.00000070
-0.40471184 -0.51759399 -0.00000018
-0.52706121 -0.68547031 -0.00000007
0.06404836 0.53351926 0.00875724
-0.50502463 0.57018755 -0.00000037
-0.64804956 0.03087092 -0.00000017
0.35185178 0.18181493 0.01152194
0.64332621 -0.00273460 -0.00000149
-0.17326574 -0.21755109 -0.00000036
0.20256701 -0.71552899 -0.00000005
-0.55393628 -0.42852508 -0.00000018
-0.34474580 -0.27419143 -0.00000033
0.43884385 -0.39814208 -0.00000025
0.74696408 -0.05940046 -0.00000171
-0.40867836 -0.06839732 -0.00000040
0.51742031 0.08552712 -0.00000126
0.73235263 -0.06757840 -0.00000165
-0.42361415 -0.16371198 -0.00000037
-0.73125042 0.28229418 -0.00000009
0.18071910 0.22849904 -0.00000064
-0.48979521 0.02810712 -0.00000034
-0.37538062 -0.47861919 -0.00000020
-0.24053796 0.20689604 -0.00000063
-0.04930566 -0.63121347 -0.00000011
0.15183043 0.33172897 0.01368994
-0.07344243 -0.52332097 -0.00000017
0.26172625 0.03820913 0.02163459
-0.45042204 -0.54082745 -0.00000016
0.19490535 0.30268262 -0.00000069
0.12452634 0.51752742 0.00683265
0.04588562 0.36211468 -0.00000073
-0.08555878 -0.50890743 -0.00000018
0.76948776 -0.44140770 -0.00000090
0.02375240 -0.40285311 -0.00000025
0.13411049 0.51798723 0.00639807
0.39390062 -0.68216073 -0.00000007
0.06919629 -0.77011377 -0.00000002
0.54180086 -0.23363717 -0.00000072
-0.43887514 -0.02128598 -0.00000038
0.01017296 0.35898071 -0.00000072
0.52280234 -0.18255136 -0.00000076
0.28439447 -0.18000250 -0.00000039
0.08520455 0.55631088 -0.00000085
0.56480237 -0.41456042 -0.00000044
0.67649499 -0.56466563 -0.00000050
-0.18133059 0.56469611 -0.00000076
-0.37672537 -0.48338510 -0.00000020
0.20047797 0.15295925 0.01931973
-0.10229687 -0.12049410 -0.00000042
-0.25318263 0.47292633 -0.00000067
0.20070222 0.17048888 -0.00000061
0.04872480 0.29756273 0.01962874
-0.09242409 -0.16386762 -0.00000040
0.31418279 0.46886005 -0.00000136
-0.73732380 -0.25122750 -0.00000002
0.05967413 0.63576535 0.00452285
0.12216190 -0.31720055 -0.00000030
-0.46116096 0.72873012 -0.00000042
0.16543170 0.12726085 0.02194775
0.00753333 -0.12214715 -0.00000042
-0.20152977 0.09640108 -0.00000056
-0.66232286 0.73208801 -0.00000017
0.64511021 -0.26345038 -0.00000099
0.12536304 -0.41386818 -0.00000024
-0.29404449 0.04450287 -0.00000053
-0.49443493 -0.72455871 -0.00000005
-0.33187036 -0.64653098 -0.00000010
0.07025381 0.16243717 0.02454350
-0.06332083 -0.61750115 -0.00000011
-0.07865564 -0.15147297 -0.00000041
-0.11379628 -0.74110620 -0.00000004
0.46272536 0.12568021 0.00915342
-0.26424299 -0.00729146 -0.00000050
-0.38215848 -0.40813640 -0.00000024
0.16642504 -0.59608802 -0.00000013
-0.29260606 -0.71976607 -0.00000005
0.14388367 0.27642056 -0.00000067
0.12698995 0.63223757 0.00176290
-0.35466747 -0.71822546 -0.00000005
-0.38302536 0.08291570 -0.00000046
-0.32257289 -0.51673024 -0.00000018
0.52720371 -0.73453837 -0.00000004
0.36935386 0.01641044 0.01792121
-0.71491314 0.77525151 -0.00000011
-0.29181505 0.52686506 -0.00000064
-0.53714579 0.25192076 -0.00000033
-0.12936936 0.69601521 -0.00000084
0.71558838 -0.51466138 -0.00000071
-0.14727928 -0.58790192 -0.00000013
-0.17664676 0.62058839 -0.00000078
0.19064223 0.06469645 0.02356390
0.37409408 0.14959032 0.01195382
-0.22243600 0.20747098 -0.00000063
0.03693068 0.60388799 0.00688595
0.19832089 0.47780077 0.00535855
0.76631714 -0.36685357 -0.00000108
0.00005666 -0.65690937 -0.00000009
0.14310409 0.25403084 0.01742905
0.12498508 -0.31439490 -0.00000030
0.71717663 -0.05159173 -0.00000163
-0.35548174 0.40565793 -0.00000055
-0.43039210 0.07520458 -0.00000041
-0.70590054 0.44116210 -0.00000012
0.61975530 -0.09673865 -0.00000123
0.36933544 -0.52287106 -0.00000017
-0.30112755 0.67391775 -0.00000062
0.08469759 0.40761448 0.01331113
0.60231695 0.09144869 0.00459464
-0.69138255 0.03395725 -0.00000012
-0.16931275 0.55038188 -0.00000077
0.46227553 -0.14116726 -0.00000064
0.30624168 0.08787670 0.01755983
-0.61247602 -0.56110385 -0.00000010
-0.74832124 0.43774119 -0.00000006
0.48385075 -0.45801030 -0.00000021
0.28167618 -0.39309110 -0.00000025
0.12776503 0.59062066 0.00353000
0.23145501 0.01435734 -0.00000051
-0.64540764 0.12905437 -0.00000019
0.20193354 0.11318706 -0.00000057
0.29431297 0.11870872 -0.00000061
0.08933645 -0.67665502 -0.00000008
-0.04511703 -0.66068103 -0.00000009
0.59007727 0.10700076 0.00445134
0.08627248 0.53694982 0.00764735
0.42178674 0.18967261 0.00815601
0.13271489 0.50610575 -0.00000085
0.40437351 0.24372055 -0.00000121
-0.16320826 -0.59768080 -0.00000013
-0.67084643 0.33045110 -0.00000016
0.29124951 0.12852781 -0.00000062
-0.21457504 0.71418443 -0.00000073
0.29243622 0.15861526 0.01509653
0.47345752 0.01573934 0.01344587
-0.75488968 0.07726316 -0.00000006
-0.30100198 0.77448723 -0.00000062
-0.05764891 0.19293972 -0.00000062
0.62666886 0.09866750 -0.00000164
-0.44169758 -0.70334477 -0.00000006
0.14747326 0.13147407 -0.00000058
-0.23904401 0.47991220 -0.00000069
-0.75131516 0.78350239 -0.00000006
0.32643866 -0.42753376 -0.00000023
-0.65635717 0.44285368 -0.00000018
0.02535895 0.26696359 -0.00000067
-0.75547476 0.29708421 -0.00000006
-0.73667037 0.75182645 -0.00000008
-0.27639742 -0.36486170 -0.00000027
0.36519029 -0.17661459 -0.00000039
-0.24687380 0.63008121 -0.00000069
-0.05816572 0.27235249 -0.00000067
-0.23105495 0.24803117 -0.00000065
0.38634545 -0.69277227 -0.00000007
-0.36447605 0.04483979 -0.00000047
0.04627684 0.01688754 -0.00000051
-0.76575082 0.49172500 -0.00000004
-0.61199335 -0.19555813 -0.00000016
-0.09208553 -0.77880145 -0.00000001
-0.48371220 -0.67027075 -0.00000008
-0.46233278 -0.71515562 -0.00000005
-0.17920100 0.40238890 -0.00000074
0.01847035 0.35525006 -0.00000072
0.11263948 0.19226198 -0.00000062
0.07487348 0.41225079 0.01353555
0.66852884 0.02849792 0.00445346
-0.64482278 0.12462856 -0.00000019
-0.57109367 -0.01506045 -0.00000024
-0.14691908 0.00244106 -0.00000050
0.79849345 -0.17830913 -0.00000155
-0.01967623 -0.52593099 -0.00000017
0.70760831 -0.37124330 -0.00000098
0.73688616 -0.54755157 -0.00000063
0.35107279 0.14698796 0.01306251
0.19489976 -0.33140966 -0.00000029
-0.68386623 0.06487528 -0.00000014
0.10863439 0.10076990 0.02555107
0.33071178 0.09992869 -0.00000069
0.52310785 -0.23171943 -0.00000066
0.57793540 0.01840052 -0.00000133
-0.16094871 0.01940958 -0.00000051
0.39238043 -0.40217013 -0.00000025
0.34375020 0.10338477 -0.00000074
0.60500694 -0.54711346 -0.00000031
-0.13519240 0.16916965 -0.00000061
0.00668477 0.27278101 0.02251967
0.60530776 -0.55187058 -0.00000030
0.35164703 -0.28619655 -0.00000032
0.25539378 0.16670695 0.01634914
-0.55344658 -0.42050962 -0.00000019
0.55801326 0.02340697 -0.00000127
0.07577561 0.12919685 0.02574274
-0.08703786 -0.25901715 -0.00000034
-0.74471657 0.47228346 -0.00000007
-0.30236305 0.14220072 -0.00000056
-0.69906664 -0.44465183 -0.00000003
-0.19668476 -0.07419354 -0.00000045
-0.56489796 -0.00308393 -0.00000025
-0.66754198 -0.37596973 -0.00000007
0.12296585 0.33244547 0.01490770
-0.18257557 -0.39276317 -0.00000025
-0.36446295 -0.39510974 -0.00000025
0.24724961 0.12597123 0.01846389
0.27139417 0.25688912 -0.00000081
-0.77922550 -0.35563582 0.00000000
-0.76945651 0.69513678 -0.00000004
-0.56960470 0.72146638 -0.00000029
0.02042550 0.27382593 -0.00000067
0.20060333 0.02242010 -0.00000051
0.21511782 0.29975829 -0.00000071
-0.49129640 0.32912088 -0.00000039
-0.43123262 -0.16247772 -0.00000036
0.77012277 -0.41737632 -0.00000096
0.00153857 0.45479774 0.01486743
-0.55156967 0.48801762 -0.00000031
0.29009774 0.37913903 -0.00000111
0.50286588 -0.12534104 -0.00000080
-0.20526535 0.16522681 -0.00000060
-0.08496550 -0.39750182 -0.00000025
0.02739463 0.34982051 -0.00000072
0.21718201 -0.63926472 -0.00000010
-0.64208412 0.53278639 -0.00000020
0.11567878 0.61135715 -0.00000100
0.01668895 0.02868327 -0.00000052
0.76210562 -0.38171748 -0.00000105
-0.31845236 0.25053092 -0.00000056
-0.47463581 -0.20868726 -0.00000031
0.09810680 0.21726095 -0.00000064
0.47741596 -0.67936387 -0.00000008
-0.76756562 0.53764525 -0.00000004
-0.37257870 -0.36204544 -0.00000027
0.21403154 -0.48367496 -0.00000020
0.26429485 0.30235708 -0.00000088
-0.27915120 -0.25842748 -0.00000034
0.63473217 -0.70096064 -0.00000010
-0.22931151 0.17658356 -0.00000061
0.31770072 0.36016763 -0.00000116
-0.11345139 0.72337247 -0.00000086
-0.68164802 -0.44611934 -0.00000004
0.62708830 -0.20022116 -0.00000106
0.29927902 -0.05750225 -0.00000046
0.65224292 -0.11589358 -0.00000130
-0.19478591 0.29786882 -0.00000069
0.16468497 0.59965925 0.00154147
-0.42951634 0.11842500 -0.00000042
-0.75787071 0.17765480 -0.00000005
0.58762779 0.19136529 -0.00000169
-0.22782185 -0.01331897 -0.00000049
-0.47444721 0.20148817 -0.00000038
-0.06115357 -0.43797942 -0.00000023
0.62343150 -0.17475815 -0.00000109
0.36482075 0.19224240 -0.00000098
-0.08179060 -0.08284031 -0.00000045
-0.39542703 -0.31673246 -0.00000030
0.63324146 -0.32499905 -0.00000083
0.68000116 0.05349299 -0.00000172
-0.65015986 -0.25201706 -0.00000011
0.30515295 -0.60655905 -0.00000012
0.44970016 -0.64403923 -0.00000010
0.01236371 0.72940341 0.00251840
-0.61465431 -0.30123230 -0.00000014
-0.77135461 0.47961608 -0.00000004
-0.47881879 0.01918388 -0.00000035
0.36736128 -0.22796752 -0.00000036
-0.79488538 -0.34229770 0.00000000
-0.22586860 -0.47214149 -0.00000020
0.62376441 -0.76349972 -0.00000002
0.03627973 -0.31522768 -0.00000030
0.67470346 -0.18110898 -0.00000125
0.52164959 -0.48966051 -0.00000019
-0.73747902 0.65072875 -0.00000008
0.38331765 0.34089215 -0.00000133
0.29100533 0.10735004 -0.00000058
0.15004681 0.35005902 0.01297407
0.47548651 0.30903514 -0.00000156
-0.70060644 0.00257515 -0.00000011
-0.23296545 -0.01675020 -0.00000049
0.34929034 -0.15879987 -0.00000040
-0.70645604 0.06858997 -0.00000011
0.55091844 0.04226094 -0.00000129
-0.31093528 0.00054805 -0.00000050
-0.50187017 0.17291463 -0.00000035
-0.60278509 0.62958268 -0.00000025
-0.24288918 0.19796426 -0.00000062
0.27749237 0.48318842 -0.00000127
-0.73451668 -0.62112280 0.00000000
0.55606368 -0.79202455 -0.00000000
-0.48565220 0.16725578 -0.00000037
0.02125235 -0.63041782 -0.00000011
-0.56021136 0.13882838 -0.00000028
-0.04526372 0.73242224 -0.00000094
-0.20784063 -0.35518587 -0.00000028
0.18614121 -0.35198084 -0.00000028
-0.30035238 -0.53178731 -0.00000017
-0.44666523 -0.01666100 -0.00000037
0.10928679 -0.78531642 -0.00000001
-0.02845824 -0.10968464 -0.00000043
-0.21717826 -0.00444267 -0.00000050
0.09059897 0.31939163 0.01687274
0.35493992 -0.25417216 -0.00000034
-0.51630196 -0.37629272 -0.00000023
-0.64826852 -0.78542732 -0.00000001
0.33387200 0.44999442 -0.00000139
0.47569440 0.10841921 -0.00000117
-0.06889280 -0.28619325 -0.00000032
-0.10461576 0.42259063 -0.00000076
-0.11669076 -0.19589829 -0.00000038
-0.04451166 -0.50455730 -0.00000018
-0.75198226 -0.62683762 0.00000000
-0.76455850 0.28487029 -0.00000004
0.06243145 0.10445772 0.02739037
-0.52738960 -0.50356989 -0.00000019
0.05101760 -0.50733359 -0.00000018
0.00963818 0.20083024 0.02550482
0.15475585 -0.23947375 -0.00000035
-0.43353672 0.61403125 -0.00000046
-0.28758549 -0.23912364 -0.00000035
-0.37802041 -0.79633726 -0.00000000
-0.74390005 -0.70536695 0.00000000
0.30255187 -0.12962915 -0.00000042
-0.60055234 0.35478811 -0.00000025
0.54105249 0.10292505 -0.00000137
0.48245600 0.29637971 -0.00000156
-0.14645068 0.21319300 -0.00000063
-0.30158383 -0.48724007 -0.00000020
-0.52770668 -0.47354527 -0.00000020
-0.48878776 0.57568281 -0.00000039
0.18679429 0.08141448 -0.00000055
0.12929586 -0.15530494 -0.00000040
-0.33051482 0.42461707 -0.00000058
0.54382576 -0.16093940 -0.00000087
-0.29616373 -0.63983135 -0.00000010
0.09509318 -0.46987879 -0.00000021
0.79732003 -0.74397092 -0.00000014
-0.21836254 0.01524612 -0.00000051
-0.78761613 -0.70626868 0.00000000
-0.48964000 0.70701967 -0.00000039
-0.36011702 0.51470991 -0.00000055
0.24169929 0.06293217 0.02143137
-0.17419859 -0.41429300 -0.00000024
0.01012160 0.04025668 0.03243106
-0.34806511 0.59873989 -0.00000056
0.02139987 0.21454113 -0.00000063
-0.21329389 -0.00381619 -0.00000050
-0.14575922 -0.51834564 -0.00000018
-0.14479263 0.06336359 -0.00000054
-0.66656359 -0.34979040 -0.00000008
-0.68558878 -0.15852558 -0.00000009
-0.60771850 0.44836545 -0.00000024
-0.61288344 -0.78707027 -0.00000001
-0.45101604 0.65919465 -0.00000044
0.65284086 -0.11993668 -0.00000129
-0.53907050 -0.46899379 -0.00000019
0.18772812 0.30356919 0.01335524
-0.02573877 -0.12594156 -0.00000042
-0.57929376 0.56655791 -0.00000028
0.15288771 0.17816609 0.02028804
-0.62593041 -0.68639114 -0.00000006
0.03699552 -0.46009635 -0.00000021
-0.71798274 0.55173991 -0.00000010
-0.12123570 0.38346612 -0.00000074
-0.21602020 -0.22066349 -0.00000036
-0.39354543 -0.09936816 -0.00000042
0.08869174 0.26958843 0.01910997
-0.66422759 -0.02398723 -0.00000014
0.13135244 0.08904711 0.02507541
0.00974547 0.16807302 -0.00000061
-0.53133903 0.32632857 -0.00000034
-0.10780364 0.08305124 -0.00000055
0.50031710 -0.62111263 -0.00000011
0.57775270 -0.42590317 -0.00000046
-0.64039144 -0.50712610 -0.00000008
0.63889476 -0.00059336 -0.00000148
-0.67635883 0.07152395 -0.00000015
-0.28268584 0.13399126 -0.00000058
0.53384410 0.11366551 -0.00000137
-0.41602453 0.26740970 -0.00000046
-0.33106328 -0.74953696 -0.00000003
0.40408847 -0.44705809 -0.00000022
-0.27962584 0.00955229 -0.00000051
-0.58504389 -0.04482072 -0.00000022
-0.12926141 -0.73136709 -0.00000004
0.51674970 0.13366727 0.00647031
0.02969115 -0.72252196 -0.00000005
-0.69314789 0.64965289 -0.00000013
-0.48058976 0.39056733 -0.00000040
-0.51149251 -0.03789056 -0.00000030
-0.03824520 0.49018824 -0.00000081
