ply
format ascii 1.0
element vertex 1407
property float x
property float y
property float z
end_header
0.35258451 0.32824594 0.00000000
-0.37576856 0.70604974 0.00000000
-0.52436669 -0.05325642 0.00000000
0.75991162 -0.76459726 0.00000000
-0.69008127 0.26077652 0.00000000
-0.41849705 0.71808914 0.00000000
0.52920244 0.33754206 0.02724817
-0.36083254 0.50910330 0.00000000
-0.02370491 0.35097992 0.00000000
-0.52543120 -0.54067337 0.00000000
-0.28743789 0.27161929 0.00000000
0.10008504 0.30727140 0.00000000
0.12252006 0.15906738 0.00000000
0.21882194 -0.56146685 0.00000000
0.58512022 -0.67569897 0.00000000
0.55611227 -0.35328833 0.00000000
0.10650994 0.04095518 0.00000000
-0.15786587 0.53417909 0.00000000
-0.46058465 -0.67920321 0.00000000
0.78492149 -0.39735564 0.00000000
-0.58905418 0.27724675 0.00000000
0.61373551 0.13603684 0.00000000
-0.03063077 -0.62902839 0.00000000
-0.33190811 0.36908768 0.00000000
-0.07495878 0.70305919 0.00000000
0.57829909 -0.60814868 0.00000000
0.67469420 0.05898905 0.00000000
0.56214032 -0.02912532 0.00000000
0.30462506 0.46985294 0.00000000
-0.04412174 -0.52988155 0.00000000
-0.55487623 0.53401305 0.00000000
0.09550038 0.06515196 0.00000000
-0.52985009 -0.38387727 0.00000000
-0.73436525 -0.29527954 0.00000000
0.79339192 -0.12024777 0.00000000
-0.30841255 -0.16200082 0.00000000
0.45492930 -0.61115630 0.00000000
0.35591229 -0.38767018 0.00000000
0.71611111 0.51711754 0.17686390
-0.65348518 0.68493542 0.00000000
0.09393821 0.44178609 0.00000000
0.42578767 -0.49160817 0.00000000
-0.39480009 0.10305724 0.00000000
-0.70499000 0.22307257 0.00000000
0.42532349 0.51912775 0.05897164
0.58314412 -0.25090703 0.00000000
0.44906211 0.22168764 0.00000000
0.31151841 -0.35179056 0.00000000
-0.49624344 -0.70548225 0.00000000
-0.67958845 -0.21894767 0.00000000
0.76922905 -0.21121896 0.00000000
-0.00473890 -0.72051704 0.00000000
0.31719792 0.23727764 0.00000000
0.72131031 -0.57220574 0.00000000
-0.74858590 0.56648689 0.00000000
-0.43839506 0.70284340 0.00000000
-0.57413152 0.06617051 0.00000000
-0.02763339 -0.37837285 0.00000000
-0.61700375 -0.02921242 0.00000000
0.25703014 -0.72098757 0.00000000
-0.10814724 0.25970219 0.00000000
-0.43684942 -0.69144687 0.00000000
-0.24261666 -0.52014426 0.00000000
0.04270743 0.59347974 0.00000000
-0.09468658 -0.54842657 0.00000000
0.50172344 -0.09344221 0.00000000
0.00598510 0.71629530 0.00000000
-0.47836618 -0.47962338 0.00000000
0.15332460 0.13466961 0.00000000
0.10575133 0.46005011 0.00000000
-0.24477272 0.42911208 0.00000000
0.68054056 -0.17723883 0.00000000
-0.40844548 0.47905099 0.00000000
0.48790190 -0.32473027 0.00000000
0.65655895 -0.47848262 0.00000000
-0.51523109 -0.43265293 0.00000000
-0.08037764 0.32099893 0.00000000
0.16315280 -0.47175229 0.00000000
0.73316368 0.31918446 0.10302011
-0.47126236 0.33900502 0.00000000
-0.19665318 0.66301391 0.00000000
0.25064425 -0.75394587 0.00000000
0.11440562 0.48012241 0.00000000
-0.62069471 0.05491024 0.00000000
0.12725060 -0.49803820 0.00000000
-0.28252030 -0.68970698 0.00000000
0.49237794 0.74461029 0.17839880
0.24665554 -0.02994864 0.00000000
-0.71002018 -0.12138722 0.00000000
0.53992732 -0.23966686 0.00000000
0.61008990 -0.63607028 0.00000000
-0.69802993 0.26543746 0.00000000
-0.40583767 0.41441087 0.00000000
-0.15885650 0.54037359 0.00000000
-0.40358937 -0.04559572 0.00000000
0.39017203 -0.44524968 0.00000000
0.09870469 -0.64580191 0.00000000
-0.66358806 -0.30358275 0.00000000
0.26528770 -0.01095910 0.00000000
0.35387334 0.52792025 0.03339190
-0.45975991 -0.72518865 0.00000000
0.38020211 -0.56802729 0.00000000
-0.02991905 -0.65375230 0.00000000
0.63392907 -0.38001898 0.00000000
0.67142743 0.45807095 0.13451639
0.62626141 0.30741174 0.05457153
-0.25224934 0.61467927 0.00000000
0.03471497 0.72034792 0.00000000
0.04939729 0.68846337 0.00000000
-0.46044637 -0.10121371 0.00000000
-0.49557320 0.17122821 0.00000000
-0.22235652 0.32824672 0.00000000
0.76872878 0.35969158 0.13407630
-0.23435490 0.33594369 0.00000000
-0.17436417 -0.04464104 0.00000000
-0.28453349 -0.39941869 0.00000000
-0.56089805 -0.68416641 0.00000000
-0.56940394 0.32991245 0.00000000
-0.47449490 0.44767896 0.00000000
0.35924404 0.18547416 0.00000000
-0.04875532 -0.41259513 0.00000000
-0.57051305 -0.51955528 0.00000000
-0.40067320 -0.22415334 0.00000000
-0.31175270 -0.69477696 0.00000000
-0.44183939 -0.48528756 0.00000000
0.57564575 -0.27161852 0.00000000
-0.17765915 0.36374582 0.00000000
-0.60906814 0.66392893 0.00000000
-0.44018914 -0.52315254 0.00000000
-0.72493517 0.77892814 0.00000000
-0.43384784 -0.25044576 0.00000000
-0.25419201 0.67707244 0.00000000
-0.46641802 0.27212948 0.00000000
-0.05321799 -0.12811721 0.00000000
-0.13245019 0.09123467 0.00000000
0.49031462 -0.18737694 0.00000000
-0.01549105 0.62339964 0.00000000
0.40523196 0.46235963 0.02759400
-0.32074983 -0.62526274 0.00000000
0.59718816 -0.23822699 0.00000000
-0.76509582 0.57348072 0.00000000
-0.53085767 0.33221418 0.00000000
0.35094960 0.54163254 0.03779629
0.16277972 0.72851414 0.03727035
-0.69284682 0.70887892 0.00000000
0.71011071 0.14888094 0.02408310
-0.22859493 -0.46004532 0.00000000
-0.40762864 -0.58352215 0.00000000
-0.50529960 0.12671991 0.00000000
0.57112922 0.48519056 0.10464152
-0.74586163 -0.47272494 0.00000000
0.51553447 -0.33407175 0.00000000
0.01716549 -0.05123916 0.00000000
-0.04625681 0.54922656 0.00000000
-0.31725732 -0.20923190 0.00000000
0.28470358 0.36792573 0.00000000
-0.78775674 -0.66373277 0.00000000
-0.26964023 -0.22624363 0.00000000
-0.18963306 -0.08826740 0.00000000
-0.63924144 -0.22526570 0.00000000
-0.66391208 0.64452382 0.00000000
-0.14880207 -0.18057281 0.00000000
0.17951500 0.69249377 0.02939729
-0.70312967 0.13770962 0.00000000
-0.71070246 0.05027222 0.00000000
0.47098033 -0.02692074 0.00000000
-0.59207745 0.59080687 0.00000000
-0.32174715 -0.32106613 0.00000000
0.25517263 0.27013660 0.00000000
0.01929667 0.11581684 0.00000000
0.50584147 -0.75564753 0.00000000
0.67193711 0.68184221 0.22607831
0.00422195 0.66498487 0.00000000
-0.10840239 -0.33276792 0.00000000
-0.34213823 -0.46372054 0.00000000
-0.52187182 0.43054309 0.00000000
0.71289385 -0.16296508 0.00000000
-0.36582482 0.07196256 0.00000000
-0.50463560 -0.22758368 0.00000000
0.60484870 -0.20822504 0.00000000
-0.58091222 0.38851327 0.00000000
-0.78252600 0.55620982 0.00000000
-0.05794869 -0.44703641 0.00000000
0.68325845 -0.79663441 0.00000000
-0.33407693 -0.00510036 0.00000000
0.49196199 -0.77550557 0.00000000
-0.40195687 0.40799478 0.00000000
-0.78509936 -0.17165474 0.00000000
-0.16340649 -0.56171386 0.00000000
0.09575033 0.24298961 0.00000000
-0.13976582 -0.34095342 0.00000000
-0.15812711 -0.16931546 0.00000000
-0.57630888 0.40213133 0.00000000
0.19347139 -0.12656456 0.00000000
0.64978595 0.15180171 0.00064815
-0.74132705 0.58806414 0.00000000
0.06688569 -0.79976676 0.00000000
-0.48235667 0.59015227 0.00000000
-0.10416340 0.59667190 0.00000000
-0.72382886 -0.03183162 0.00000000
-0.46206655 -0.72548700 0.00000000
-0.76427876 0.68229775 0.00000000
-0.79665555 0.29024957 0.00000000
-0.13163447 -0.46287242 0.00000000
-0.25271899 0.10555489 0.00000000
-0.05232350 -0.55574718 0.00000000
-0.08070365 -0.21026924 0.00000000
-0.59309000 -0.26417686 0.00000000
-0.67527980 -0.22766906 0.00000000
-0.12458098 0.07084950 0.00000000
-0.59633339 -0.50484549 0.00000000
0.13660185 -0.66913889 0.00000000
-0.69327316 -0.65290616 0.00000000
-0.40055196 -0.79194830 0.00000000
-0.56811987 0.57145688 0.00000000
-0.01353312 -0.67007691 0.00000000
0.15417349 -0.17059339 0.00000000
-0.46711458 0.70872158 0.00000000
-0.39821120 0.76994599 0.00000000
0.64004572 0.65433189 0.20182777
0.30118193 -0.28303606 0.00000000
-0.70357520 0.79591537 0.00000000
-0.63968271 0.50078438 0.00000000
0.52407915 0.08568090 0.00000000
-0.20892134 -0.02303692 0.00000000
0.46773294 0.38234562 0.02044437
0.31303011 -0.34091091 0.00000000
-0.22638084 -0.73479273 0.00000000
-0.60994139 -0.20808057 0.00000000
-0.35676339 0.02709584 0.00000000
0.20274432 0.29473780 0.00000000
0.06534716 0.30093605 0.00000000
0.50765665 0.39920596 0.04362623
-0.46677946 -0.74338957 0.00000000
-0.06538735 -0.36856622 0.00000000
-0.32074641 -0.38973955 0.00000000
0.57565749 0.11948623 0.00000000
-0.27794104 -0.31347746 0.00000000
0.67312317 0.50137109 0.15288580
0.46367976 -0.28640181 0.00000000
-0.79848988 0.26009072 0.00000000
0.68300949 0.14227989 0.01032428
-0.35444432 0.48390903 0.00000000
0.02503491 -0.66211913 0.00000000
0.00243991 -0.59610575 0.00000000
-0.53418410 0.46846068 0.00000000
-0.31198895 0.77674364 0.00000000
0.61598523 -0.62655754 0.00000000
0.47357608 0.25874884 0.00000000
-0.32884002 0.25082700 0.00000000
-0.57722243 -0.42241601 0.00000000
0.75712011 -0.34564031 0.00000000
-0.40297219 0.15634926 0.00000000
-0.71478898 0.56068080 0.00000000
0.18654560 0.69590770 0.03366123
-0.55050989 0.72293617 0.00000000
0.03444794 -0.35691042 0.00000000
-0.74834871 0.52740181 0.00000000
-0.77146145 0.18341979 0.00000000
-0.22706461 -0.14866097 0.00000000
0.36903030 0.72504644 0.12005571
-0.05739606 0.18468075 0.00000000
0.01332851 -0.33027176 0.00000000
-0.50224881 0.55599819 0.00000000
-0.57916208 -0.19868501 0.00000000
0.73856993 -0.48796978 0.00000000
-0.04347387 -0.31139027 0.00000000
-0.22333772 0.55677511 0.00000000
0.05877076 0.07314859 0.00000000
0.75152343 -0.22526842 0.00000000
-0.44430294 0.54555839 0.00000000
0.68154623 0.21829529 0.04075990
-0.73682197 -0.31078202 0.00000000
0.51984600 -0.23142661 0.00000000
0.50776867 0.46647432 0.07113400
0.71087347 0.54762138 0.18717874
-0.54587515 -0.79799447 0.00000000
0.47542671 0.15271185 0.00000000
-0.30030741 -0.32949182 0.00000000
0.41416321 0.70826780 0.13163123
0.28365143 0.08992857 0.00000000
-0.46716317 0.27757359 0.00000000
0.65241201 -0.13144405 0.00000000
0.30321166 -0.31035984 0.00000000
-0.59128140 0.66803661 0.00000000
0.02942259 -0.61251640 0.00000000
-0.48397310 -0.27583266 0.00000000
0.38069374 -0.55820009 0.00000000
0.09166143 0.03998766 0.00000000
0.15756653 -0.43387447 0.00000000
-0.54295355 0.32595588 0.00000000
-0.34910707 -0.21176036 0.00000000
0.30810784 -0.63824809 0.00000000
-0.02372379 0.67890360 0.00000000
0.31254442 0.62369202 0.05561798
0.63296847 -0.24172707 0.00000000
0.70720594 0.06210942 0.00000000
0.58583754 0.24427319 0.01229258
-0.17859700 -0.73736122 0.00000000
0.27917870 -0.45914272 0.00000000
-0.19578890 -0.68763834 0.00000000
0.09617419 -0.02076250 0.00000000
-0.00312150 0.31110925 0.00000000
-0.58129595 -0.72847965 0.00000000
0.16564320 -0.36593565 0.00000000
-0.01255196 -0.74864813 0.00000000
0.24716685 0.49904209 0.00000000
-0.56110866 -0.52258410 0.00000000
0.32431070 0.36273610 0.00000000
0.25762289 -0.42297995 0.00000000
-0.53303109 -0.74124518 0.00000000
-0.39635927 0.58461669 0.00000000
-0.24724194 -0.35861971 0.00000000
-0.23129856 -0.43900794 0.00000000
0.55052943 0.31194788 0.02550611
0.03949398 -0.15030816 0.00000000
0.34065043 -0.25055790 0.00000000
0.20776242 -0.70469330 0.00000000
0.11246893 -0.42321987 0.00000000
0.67242063 -0.11542033 0.00000000
0.72488439 -0.38884223 0.00000000
0.69775009 -0.79433560 0.00000000
-0.25435883 0.04389699 0.00000000
0.56075056 -0.07390711 0.00000000
0.04508008 0.42108617 0.00000000
-0.15128089 0.12981379 0.00000000
0.21013459 -0.58134790 0.00000000
-0.72734353 -0.30942681 0.00000000
0.42640968 -0.23308203 0.00000000
-0.76968021 -0.46092390 0.00000000
-0.78083102 0.49906241 0.00000000
0.72429163 -0.08687139 0.00000000
-0.59417253 -0.64562739 0.00000000
-0.52790746 -0.36083267 0.00000000
-0.60822513 -0.03062048 0.00000000
-0.24342982 0.51245234 0.00000000
-0.00600534 0.48621008 0.00000000
-0.37482352 0.43102619 0.00000000
0.22448161 -0.38838083 0.00000000
-0.71324005 0.12201414 0.00000000
-0.16871789 0.26554870 0.00000000
-0.19574235 -0.20694348 0.00000000
-0.62890742 0.59578679 0.00000000
0.68594339 0.56271932 0.18316481
-0.78851227 -0.59026006 0.00000000
-0.28865621 0.72104402 0.00000000
0.38580925 -0.24836834 0.00000000
-0.57258797 0.29151384 0.00000000
0.32869980 0.66119231 0.07752270
-0.45071965 0.69178998 0.00000000
-0.43949166 0.02173009 0.00000000
-0.74829571 0.41108021 0.00000000
0.11139086 -0.05337478 0.00000000
-0.43575665 0.33918367 0.00000000
0.55083741 0.56860670 0.13041179
-0.67506784 0.42230697 0.00000000
-0.24196722 0.26415011 0.00000000
0.59683673 0.63589572 0.17666136
0.36850419 0.68573827 0.10379350
0.36920441 -0.38475399 0.00000000
0.60631579 0.31879035 0.05107408
0.13902189 -0.34735955 0.00000000
-0.76001451 -0.38988197 0.00000000
0.26814542 -0.50213593 0.00000000
-0.43672553 -0.19711714 0.00000000
0.68355528 0.07967895 0.00000000
0.57931295 -0.02428825 0.00000000
0.34116211 -0.35233017 0.00000000
-0.31638443 0.71298489 0.00000000
0.00930544 0.43207055 0.00000000
0.11402435 -0.72609875 0.00000000
0.63687972 -0.66884025 0.00000000
-0.72198186 0.71148376 0.00000000
0.71285442 0.48393612 0.16198816
0.10506452 -0.47767154 0.00000000
0.03925440 0.26163364 0.00000000
0.59484617 -0.77695352 0.00000000
0.53700491 0.24358174 0.00000000
-0.38130080 0.30304045 0.00000000
-0.13120532 -0.12452721 0.00000000
-0.32313087 0.34127745 0.00000000
0.43149864 0.12904717 0.00000000
-0.06916198 -0.72384062 0.00000000
0.57293421 -0.37721727 0.00000000
-0.53694465 0.62054168 0.00000000
-0.13722781 0.57225995 0.00000000
-0.52189251 -0.14632198 0.00000000
-0.06582460 0.31022440 0.00000000
-0.53313443 -0.49186405 0.00000000
-0.07127890 -0.22052567 0.00000000
-0.63106294 0.60477877 0.00000000
0.39979109 0.08956677 0.00000000
0.56829271 0.29315837 0.02508715
0.47494056 -0.01983826 0.00000000
0.57799746 -0.30289929 0.00000000
0.19998953 -0.43910407 0.00000000
0.79357438 -0.12850606 0.00000000
0.15588689 -0.48129945 0.00000000
0.27514546 -0.01772990 0.00000000
-0.43504890 0.38559286 0.00000000
-0.03552267 0.79686192 0.00000000
-0.79883696 0.19123316 0.00000000
0.00226371 -0.01822808 0.00000000
-0.08226346 0.50193513 0.00000000
0.25066438 0.64582377 0.03939090
0.76264681 0.37992459 0.13985340
0.22332528 0.03186015 0.00000000
0.75149145 0.19427253 0.05950756
-0.63456649 0.64286583 0.00000000
0.07104154 -0.28581339 0.00000000
0.71718646 0.16343706 0.03291422
-0.78358828 -0.14911529 0.00000000
-0.04794673 -0.36468772 0.00000000
-0.31950697 -0.46009372 0.00000000
0.49489692 -0.60450811 0.00000000
-0.19472651 0.18351569 0.00000000
-0.79243980 -0.27474319 0.00000000
0.46159164 0.12858058 0.00000000
0.47960927 0.04687627 0.00000000
-0.65301367 0.47642286 0.00000000
-0.40092573 -0.40048711 0.00000000
-0.31289875 0.35860263 0.00000000
0.03930819 0.07469800 0.00000000
-0.79792516 0.29764788 0.00000000
0.43341403 0.65058653 0.11594213
-0.05907762 -0.65021415 0.00000000
-0.15758907 0.64462873 0.00000000
0.11815087 -0.41710942 0.00000000
-0.37289246 0.77601657 0.00000000
-0.11554743 -0.14751791 0.00000000
-0.49453726 -0.14379179 0.00000000
0.17072776 -0.47193891 0.00000000
0.41453053 0.42154935 0.01472946
0.03298600 -0.17163171 0.00000000
-0.33583177 0.69798175 0.00000000
-0.31569129 0.21746115 0.00000000
0.58061692 -0.44090183 0.00000000
-0.61532963 -0.09491885 0.00000000
0.77806388 -0.32160240 0.00000000
0.37591256 -0.67000489 0.00000000
-0.47027685 0.01610318 0.00000000
-0.00541586 0.60827980 0.00000000
0.70061331 0.06669833 0.00000000
0.39328641 -0.44993455 0.00000000
0.21718477 0.56507461 0.00000000
-0.31607249 0.06243350 0.00000000
0.19410204 -0.59788518 0.00000000
-0.20406996 0.16054195 0.00000000
0.42533864 0.33369413 0.00000000
-0.34435358 0.05501699 0.00000000
0.49639357 -0.63752110 0.00000000
0.63821882 -0.31482905 0.00000000
-0.43974227 0.11016713 0.00000000
0.15187564 -0.12137566 0.00000000
-0.34946286 0.67444936 0.00000000
-0.16553800 -0.38985556 0.00000000
0.56070050 -0.04270151 0.00000000
0.12636890 0.15488446 0.00000000
-0.45907047 -0.74356114 0.00000000
-0.45966219 -0.20934055 0.00000000
0.77814089 -0.46981268 0.00000000
-0.12405899 -0.09443901 0.00000000
0.30812817 -0.35547327 0.00000000
-0.65132944 -0.19052299 0.00000000
0.74691448 0.48041638 0.17445613
0.00762400 0.11295830 0.00000000
-0.79019858 -0.36471951 0.00000000
-0.33305371 -0.75896068 0.00000000
-0.12106060 -0.53826246 0.00000000
-0.78071860 -0.15130299 0.00000000
-0.76476988 -0.61275134 0.00000000
-0.40193550 -0.58945091 0.00000000
0.66865913 0.21933996 0.03592527
-0.36093819 -0.48832015 0.00000000
-0.48154734 -0.78353768 0.00000000
0.56879566 -0.56376898 0.00000000
0.28417830 -0.69951615 0.00000000
0.25078379 0.05253805 0.00000000
0.34087560 -0.00701659 0.00000000
-0.38421816 0.65060687 0.00000000
-0.01974319 -0.59323570 0.00000000
0.41503874 0.11833767 0.00000000
-0.24958557 -0.07143437 0.00000000
0.67436749 -0.45714795 0.00000000
0.54296907 0.46616628 0.08537867
-0.02115406 -0.20589759 0.00000000
-0.23478068 0.30011994 0.00000000
0.23072036 -0.50294284 0.00000000
0.60396565 -0.33341507 0.00000000
-0.10467514 0.18227311 0.00000000
-0.51938004 -0.11317950 0.00000000
-0.52212134 0.79887246 0.00000000
-0.24861168 -0.42282683 0.00000000
0.20537795 -0.43049915 0.00000000
0.46027133 0.33836268 0.00000000
0.39418334 -0.60005501 0.00000000
-0.66023920 -0.38809196 0.00000000
-0.12199008 0.47299293 0.00000000
-0.35712565 -0.23052291 0.00000000
-0.19469060 -0.74053661 0.00000000
-0.68369051 0.42972519 0.00000000
-0.11179778 0.00764382 0.00000000
0.33602502 0.12717467 0.00000000
0.28624554 0.75554250 0.09870905
0.79004420 0.06977015 0.02441896
-0.68105642 0.67076459 0.00000000
0.11791208 0.66412246 0.00000000
-0.55273782 0.17416304 0.00000000
0.22621346 -0.19305959 0.00000000
-0.73605485 -0.48800662 0.00000000
-0.38649818 0.65452229 0.00000000
0.12960917 -0.74241631 0.00000000
-0.78964034 0.29950274 0.00000000
-0.73208250 0.02405758 0.00000000
-0.11413068 0.79295177 0.00000000
-0.17461661 0.10941038 0.00000000
0.16959066 0.41895172 0.00000000
-0.28869598 0.18947361 0.00000000
0.77834156 -0.26624797 0.00000000
-0.27236238 -0.40465009 0.00000000
0.34924027 -0.49527883 0.00000000
0.11176912 0.53076454 0.00000000
0.34695916 -0.78067609 0.00000000
-0.13470059 -0.78230453 0.00000000
0.45614814 0.48336019 0.05695371
0.60102803 -0.48637228 0.00000000
0.65765988 0.27116363 0.05259168
-0.55170089 0.57438134 0.00000000
-0.56307956 -0.58065552 0.00000000
-0.19448911 0.60732161 0.00000000
0.67562974 -0.57873496 0.00000000
0.01391646 -0.35000669 0.00000000
-0.01620910 0.70758586 0.00000000
-0.55068714 -0.32868858 0.00000000
-0.65037287 -0.16822120 0.00000000
-0.28626609 -0.69608393 0.00000000
-0.77053044 -0.61284794 0.00000000
0.73236199 0.40204835 0.13652168
0.32301146 -0.57239577 0.00000000
0.76985234 0.34153386 0.12712217
0.28327969 0.73596407 0.08950543
0.62434961 -0.57560024 0.00000000
0.64854637 0.15928135 0.00319563
-0.66641705 -0.57313027 0.00000000
-0.37054428 -0.25624239 0.00000000
-0.68303874 0.11172367 0.00000000
-0.71310003 0.37339072 0.00000000
0.65705755 0.05330007 0.00000000
0.20845213 0.77033701 0.07298999
-0.73123754 -0.13212386 0.00000000
-0.20262327 -0.49251253 0.00000000
-0.04888597 0.25540809 0.00000000
-0.34906578 0.30777101 0.00000000
0.40224015 -0.75966601 0.00000000
0.23249049 0.37228268 0.00000000
-0.69214070 -0.60051002 0.00000000
0.72171050 -0.21143975 0.00000000
-0.05163466 0.07930617 0.00000000
0.51033758 -0.56534638 0.00000000
0.77251068 -0.37409739 0.00000000
-0.23765574 0.07311853 0.00000000
-0.27707069 -0.00253091 0.00000000
-0.01558534 0.79388284 0.00000000
-0.18706797 -0.75995472 0.00000000
0.21436775 -0.19111520 0.00000000
0.33627397 0.32239266 0.00000000
-0.57341104 0.36774850 0.00000000
-0.44598013 0.41793560 0.00000000
0.07043162 -0.29577499 0.00000000
-0.11977676 0.09129186 0.00000000
0.60140132 -0.75669612 0.00000000
-0.59101152 -0.39574413 0.00000000
0.29212159 0.22723811 0.00000000
-0.35539791 -0.00721073 0.00000000
0.79612792 -0.23277674 0.00000000
0.67937947 -0.30584899 0.00000000
-0.37929023 0.63985278 0.00000000
0.43150531 0.02642694 0.00000000
0.27062831 0.30621016 0.00000000
0.07379966 0.34787040 0.00000000
-0.08154518 -0.69760667 0.00000000
-0.79998985 0.59372524 0.00000000
-0.68792453 0.68818053 0.00000000
-0.02662035 0.20148544 0.00000000
0.08527666 0.76271132 0.01959090
-0.66971397 -0.40080754 0.00000000
0.26513941 0.08656615 0.00000000
0.77177953 -0.36540604 0.00000000
0.47372620 0.04776084 0.00000000
-0.77561715 -0.40306577 0.00000000
-0.23870290 0.71812701 0.00000000
0.58890483 0.75282328 0.22115847
0.67699270 0.73404283 0.24945296
-0.00130786 0.51938743 0.00000000
0.21108036 -0.19164228 0.00000000
0.46804941 -0.55570316 0.00000000
-0.31210584 -0.34978658 0.00000000
-0.29780306 0.36081085 0.00000000
-0.70857219 0.02983353 0.00000000
0.54547004 0.01895155 0.00000000
0.61600477 -0.53184659 0.00000000
-0.45384155 0.74118977 0.00000000
0.18806497 0.31673499 0.00000000
0.56453425 -0.28752859 0.00000000
-0.48156721 0.42994703 0.00000000
-0.62204292 0.16996841 0.00000000
0.43934425 -0.65574516 0.00000000
0.56934358 -0.73057245 0.00000000
0.66209837 -0.16252168 0.00000000
-0.34366164 0.62371848 0.00000000
-0.77374375 -0.10110894 0.00000000
0.02013239 -0.74484377 0.00000000
0.05997682 -0.03085090 0.00000000
-0.42390145 -0.00707531 0.00000000
0.31273893 0.19320987 0.00000000
0.02225337 -0.70473504 0.00000000
0.54711731 0.69337091 0.17982764
-0.79352787 -0.25207784 0.00000000
-0.74730589 0.26105361 0.00000000
0.05619497 -0.51841844 0.00000000
0.67346418 0.47093722 0.14060049
-0.61036267 -0.14147803 0.00000000
-0.41748108 0.35500257 0.00000000
-0.38695092 0.26011710 0.00000000
0.37077899 -0.19207057 0.00000000
-0.21697967 0.47746663 0.00000000
-0.08675986 0.32134353 0.00000000
-0.24159781 0.69119397 0.00000000
-0.43688766 0.47724749 0.00000000
-0.35282656 0.43548483 0.00000000
-0.60339890 0.38595982 0.00000000
0.69667371 0.05316261 0.00000000
0.40508036 0.46147163 0.02716958
-0.49892712 0.53040851 0.00000000
-0.01881259 0.19203722 0.00000000
0.19203117 0.42550204 0.00000000
0.13750782 0.65880887 0.00000000
0.64372821 -0.08606110 0.00000000
0.07612874 -0.49368377 0.00000000
-0.08200095 -0.26824294 0.00000000
-0.14631366 0.41859246 0.00000000
0.43837766 -0.14161568 0.00000000
0.03433037 0.01060351 0.00000000
-0.67262584 0.49918533 0.00000000
-0.06927491 -0.00506940 0.00000000
-0.46392021 0.51371987 0.00000000
-0.01121462 -0.51583746 0.00000000
0.05548745 -0.58666606 0.00000000
0.77273569 -0.47404111 0.00000000
-0.72911617 0.11406885 0.00000000
-0.31422170 -0.32383724 0.00000000
-0.41645502 -0.06957911 0.00000000
0.70700567 -0.55678917 0.00000000
0.68353587 0.72033246 0.24652697
-0.32014525 0.56418466 0.00000000
0.19090988 -0.18120398 0.00000000
0.79606102 -0.34337799 0.00000000
-0.31451951 -0.73509914 0.00000000
-0.52496216 0.39624974 0.00000000
-0.38303293 0.27096629 0.00000000
0.44524910 0.68900262 0.13645699
0.69636255 -0.09321267 0.00000000
0.20758968 -0.62290111 0.00000000
-0.37872503 -0.32685370 0.00000000
0.09835744 0.45812751 0.00000000
-0.04608395 0.53439884 0.00000000
0.30458324 -0.37146139 0.00000000
0.56348426 -0.53853699 0.00000000
0.59874220 -0.09745879 0.00000000
0.21439999 0.53831798 0.00000000
0.30513488 0.71267575 0.08892035
-0.26504487 -0.50449620 0.00000000
-0.65263528 0.14265414 0.00000000
0.28778219 0.69630114 0.07515130
-0.37111025 -0.15345442 0.00000000
-0.70444728 0.43626515 0.00000000
0.05511450 0.67363499 0.00000000
0.58621971 0.27845559 0.02640343
0.17975724 0.65437900 0.01393598
0.49565584 -0.69760066 0.00000000
0.36688778 0.00680959 0.00000000
-0.66472741 -0.64864876 0.00000000
-0.00057969 0.67875188 0.00000000
0.47219532 -0.42143376 0.00000000
-0.03045695 0.79670310 0.00000000
-0.35569793 0.46818167 0.00000000
-0.13117016 -0.51299582 0.00000000
0.44811118 -0.10786785 0.00000000
-0.46792025 0.40319353 0.00000000
0.16968209 0.34564700 0.00000000
-0.74316656 -0.05710587 0.00000000
-0.79887466 -0.58665157 0.00000000
0.43669577 -0.73931126 0.00000000
-0.14736652 -0.74184231 0.00000000
-0.78405150 -0.12211859 0.00000000
-0.18587312 0.42482559 0.00000000
-0.18692930 0.45016874 0.00000000
0.15445191 0.01354706 0.00000000
0.00258902 0.39449145 0.00000000
0.23386414 -0.71988158 0.00000000
0.39910900 0.59797269 0.08045781
-0.12030508 -0.49210202 0.00000000
0.26604706 -0.73165485 0.00000000
-0.61164107 -0.42261832 0.00000000
-0.74816381 0.34517762 0.00000000
0.41709836 0.35645128 0.00000000
-0.12637864 -0.33791677 0.00000000
-0.35722724 -0.57948905 0.00000000
-0.55042772 0.40582840 0.00000000
-0.70352984 -0.14344507 0.00000000
-0.74916630 -0.35530234 0.00000000
0.77094003 0.26839272 0.09770663
0.71054184 0.49729568 0.16649806
-0.07825083 -0.41280751 0.00000000
-0.13227974 -0.24548547 0.00000000
-0.33642983 -0.17373429 0.00000000
-0.35318123 -0.03227469 0.00000000
-0.26003805 0.47781868 0.00000000
-0.36753360 0.27835495 0.00000000
0.48543531 0.09927843 0.00000000
0.39541510 0.20235621 0.00000000
-0.52201841 -0.55413606 0.00000000
-0.47563330 -0.35692524 0.00000000
0.03521472 0.66134379 0.00000000
0.77749737 -0.70695068 0.00000000
-0.19091012 0.38813600 0.00000000
-0.24400143 -0.39696152 0.00000000
-0.50782038 0.62723168 0.00000000
0.24239596 0.47431487 0.00000000
0.10773331 0.71005691 0.00726278
0.08328145 0.17492554 0.00000000
-0.00072590 -0.21275809 0.00000000
-0.38547856 -0.08981490 0.00000000
-0.48275839 0.78789658 0.00000000
-0.21379130 0.35359934 0.00000000
0.10740369 0.56484833 0.00000000
-0.54239582 0.69131780 0.00000000
-0.40434070 -0.62746605 0.00000000
0.10996783 -0.05106921 0.00000000
0.73206978 0.04558189 0.00000000
0.33131577 0.10118228 0.00000000
-0.78754530 0.52685234 0.00000000
0.64320712 0.41146776 0.10397000
0.00617638 0.60511509 0.00000000
-0.13199508 0.32168989 0.00000000
0.26589735 -0.21014457 0.00000000
-0.19899112 0.36126457 0.00000000
-0.49574387 -0.77559001 0.00000000
-0.10054430 -0.17921179 0.00000000
0.24824324 0.40781754 0.00000000
-0.49031648 -0.65899713 0.00000000
0.41716234 -0.37735216 0.00000000
0.13523788 -0.41684960 0.00000000
0.42196237 -0.40598227 0.00000000
0.48422666 0.30431816 0.00000000
0.42724676 -0.37381570 0.00000000
-0.11960592 0.23173073 0.00000000
0.66367631 -0.09958634 0.00000000
-0.09120157 -0.47524425 0.00000000
0.49485579 0.52837332 0.09113239
-0.59858419 0.42538341 0.00000000
-0.01594554 0.46023624 0.00000000
-0.60370576 -0.00954267 0.00000000
0.11343095 -0.66400376 0.00000000
-0.77536728 0.15512851 0.00000000
-0.00950759 -0.26053740 0.00000000
0.47595495 -0.06884568 0.00000000
-0.08706489 -0.37874110 0.00000000
0.02287757 0.79687116 0.00806234
0.28853381 -0.29120676 0.00000000
-0.63673873 0.36326988 0.00000000
-0.67015315 0.02047927 0.00000000
-0.39580683 0.42896539 0.00000000
-0.47822005 -0.22398356 0.00000000
-0.03307850 0.04655137 0.00000000
0.28494319 -0.60568174 0.00000000
0.50292785 0.26101910 0.00000000
-0.20144800 0.07370458 0.00000000
-0.69214182 0.02606417 0.00000000
0.18855884 0.01095191 0.00000000
-0.09337615 0.54347862 0.00000000
0.73215595 -0.77163844 0.00000000
-0.31602425 -0.38085164 0.00000000
-0.49315441 -0.37938376 0.00000000
-0.14300420 0.01640774 0.00000000
-0.47575025 0.41154708 0.00000000
0.38131516 -0.52055348 0.00000000
-0.44176840 0.28748724 0.00000000
-0.13645885 0.44105576 0.00000000
0.51912673 0.34682136 0.02692304
0.00389630 -0.78190098 0.00000000
-0.74490210 0.60641064 0.00000000
-0.54407517 -0.69494743 0.00000000
0.72889689 -0.16476171 0.00000000
0.71142877 -0.03589804 0.00000000
-0.03595896 0.51583140 0.00000000
0.76055010 0.52320111 0.19748955
0.63178253 -0.07201684 0.00000000
0.07379396 -0.47540472 0.00000000
-0.23103728 -0.21610898 0.00000000
0.17365641 -0.76718780 0.00000000
-0.30547616 -0.14394358 0.00000000
0.32801862 -0.66799831 0.00000000
-0.49200218 0.05022068 0.00000000
-0.74798391 0.47455756 0.00000000
-0.44685353 0.20916308 0.00000000
0.25838502 -0.34291271 0.00000000
0.74739467 0.30451218 0.10283996
0.62435849 0.35519846 0.07330340
0.20996846 -0.38122127 0.00000000
-0.31949392 0.22028058 0.00000000
-0.20446419 -0.31163846 0.00000000
0.31964209 -0.36932815 0.00000000
0.38331720 -0.43389874 0.00000000
-0.19112590 -0.78243248 0.00000000
-0.76761200 -0.21102249 0.00000000
0.34662307 -0.04611721 0.00000000
-0.50162944 0.76241028 0.00000000
-0.40805980 0.24968035 0.00000000
-0.73157206 0.33637783 0.00000000
-0.63743797 -0.01972992 0.00000000
0.00826114 0.50364676 0.00000000
-0.16173253 -0.78301526 0.00000000
0.02636129 -0.11120339 0.00000000
0.52880727 -0.68725371 0.00000000
-0.74439986 0.43322033 0.00000000
-0.15922762 0.73327210 0.00000000
-0.75007998 -0.32482485 0.00000000
-0.76395783 0.57948279 0.00000000
-0.24994726 -0.51166828 0.00000000
-0.01071012 0.59849260 0.00000000
0.73500529 0.59916012 0.21807098
-0.04502210 0.11582944 0.00000000
-0.20976550 0.52627786 0.00000000
-0.13785178 0.56797553 0.00000000
-0.12665553 -0.07076496 0.00000000
0.31520401 -0.33526700 0.00000000
-0.26859204 -0.22597059 0.00000000
-0.58093102 -0.68385436 0.00000000
-0.74915276 0.50834637 0.00000000
0.20125138 0.33483631 0.00000000
0.64381104 -0.64810965 0.00000000
0.77921561 -0.67501118 0.00000000
-0.26944864 -0.61567137 0.00000000
-0.34342788 -0.12989705 0.00000000
0.19590491 -0.72960440 0.00000000
0.54115086 -0.04299379 0.00000000
0.36593952 -0.25618869 0.00000000
-0.69369662 -0.76605913 0.00000000
0.27974859 0.04913600 0.00000000
-0.14454235 0.62689606 0.00000000
0.77734874 -0.22676806 0.00000000
-0.68552620 0.77115089 0.00000000
-0.66821174 -0.01689970 0.00000000
0.72751305 -0.40806094 0.00000000
0.16370090 -0.76249342 0.00000000
0.69597558 0.37503776 0.11064011
0.12950089 -0.55146925 0.00000000
0.17460580 0.14627391 0.00000000
-0.34419408 0.66818794 0.00000000
0.07616304 -0.23584639 0.00000000
0.13811485 -0.58592559 0.00000000
0.05395132 0.56693715 0.00000000
-0.77318749 0.57694745 0.00000000
-0.74289673 0.02325452 0.00000000
-0.58087144 -0.77909577 0.00000000
0.17945235 -0.24545394 0.00000000
-0.09224968 -0.15937834 0.00000000
0.75775345 -0.45452567 0.00000000
0.50589976 0.32623451 0.01311868
0.36705915 0.51152534 0.03208180
-0.26796410 0.64083568 0.00000000
-0.05222871 -0.37884770 0.00000000
-0.01076584 -0.07401620 0.00000000
-0.05174740 0.09499036 0.00000000
0.15978261 -0.70911744 0.00000000
-0.02966872 0.40844637 0.00000000
0.00796679 0.07529485 0.00000000
-0.26536613 0.41787913 0.00000000
-0.10136571 0.79252688 0.00000000
0.60639980 -0.07636212 0.00000000
0.69357710 0.38948165 0.11555760
-0.60805947 0.58706597 0.00000000
-0.01048781 -0.05137478 0.00000000
-0.22367903 0.57668338 0.00000000
0.23694806 -0.01331244 0.00000000
-0.72843014 0.11511642 0.00000000
0.40377773 0.11471827 0.00000000
0.25525428 -0.67078501 0.00000000
0.07528035 0.69430083 0.00000000
-0.35012746 -0.08911110 0.00000000
0.33657617 -0.62770757 0.00000000
-0.54199878 0.43332217 0.00000000
-0.37593531 -0.22521926 0.00000000
-0.75647655 -0.61802832 0.00000000
-0.31092263 0.56164823 0.00000000
-0.70227045 0.14451523 0.00000000
-0.20533888 -0.71304693 0.00000000
-0.33540250 0.66404569 0.00000000
0.56303679 -0.70888540 0.00000000
0.55991596 0.46526249 0.09192820
-0.38191552 -0.03120250 0.00000000
-0.04716907 0.56651007 0.00000000
-0.52751080 -0.61295145 0.00000000
-0.18229233 -0.08982075 0.00000000
0.36478902 -0.12487675 0.00000000
0.78077697 -0.16277784 0.00000000
-0.20833964 0.78815868 0.00000000
0.43156684 -0.57439804 0.00000000
-0.72431850 0.06163624 0.00000000
0.66088324 -0.63613672 0.00000000
0.06170078 0.68085132 0.00000000
-0.07952413 -0.62571721 0.00000000
-0.59790139 -0.73655983 0.00000000
-0.28312718 -0.64388917 0.00000000
0.64820103 -0.68378767 0.00000000
0.72277345 0.41651180 0.13851184
-0.10539603 -0.21441739 0.00000000
0.35350569 0.75899893 0.12757884
0.65068665 0.03646519 0.00000000
-0.16137438 0.05648371 0.00000000
-0.22394277 0.75943449 0.00000000
0.15378809 -0.36286229 0.00000000
0.23331540 -0.55230376 0.00000000
0.60136267 0.19165155 0.00000000
0.75677985 -0.18807974 0.00000000
0.72643330 0.22837751 0.06320089
-0.37581121 0.75052213 0.00000000
-0.48322101 0.44892786 0.00000000
0.03774521 -0.77895847 0.00000000
-0.30580768 -0.56658306 0.00000000
0.66193325 0.66899567 0.21674971
0.66177852 0.63491179 0.20277192
0.68823058 -0.02196521 0.00000000
-0.12285409 0.29554964 0.00000000
-0.12016397 0.02611099 0.00000000
-0.47969854 0.00413742 0.00000000
0.54955010 0.01994243 0.00000000
-0.60316109 -0.76595755 0.00000000
0.06942476 -0.49488808 0.00000000
0.46749097 -0.24461363 0.00000000
0.08640526 -0.09478962 0.00000000
0.30743901 0.61205277 0.04878204
0.31444656 -0.50793874 0.00000000
-0.62283331 0.66626287 0.00000000
-0.66061410 -0.69741893 0.00000000
-0.06074589 -0.38997789 0.00000000
-0.45679103 -0.73480950 0.00000000
-0.14931147 0.32211970 0.00000000
-0.00736442 -0.41407907 0.00000000
0.76571688 -0.28422042 0.00000000
-0.50972178 0.26440744 0.00000000
0.72373372 -0.30363052 0.00000000
-0.04946359 -0.30482257 0.00000000
-0.58657104 -0.22849392 0.00000000
-0.23583227 -0.48751088 0.00000000
-0.76662503 0.27991363 0.00000000
0.38667470 0.53279900 0.04877465
0.71100609 -0.10558023 0.00000000
0.39818761 0.38587581 0.00000000
-0.07665888 -0.66550560 0.00000000
-0.36896185 -0.53073444 0.00000000
-0.58899058 -0.42227786 0.00000000
-0.23497446 0.74835912 0.00000000
-0.03869784 0.49792720 0.00000000
0.69332071 -0.64263195 0.00000000
0.44115046 -0.14842821 0.00000000
0.49790906 -0.00875866 0.00000000
0.72945019 0.42137404 0.14322259
-0.03468081 0.39121838 0.00000000
0.42677130 0.13998591 0.00000000
0.16139405 0.39594111 0.00000000
-0.14636160 -0.22376083 0.00000000
0.68740688 -0.12883354 0.00000000
0.66993896 -0.72975336 0.00000000
0.37905578 0.32304364 0.00000000
0.34047163 0.39353932 0.00000000
-0.18161195 0.01317895 0.00000000
-0.20742414 -0.18632888 0.00000000
-0.29533954 -0.04048432 0.00000000
-0.31729921 -0.25662433 0.00000000
-0.58102697 0.06448274 0.00000000
-0.53103287 -0.29609230 0.00000000
-0.34477811 -0.11255459 0.00000000
-0.52313694 -0.36090212 0.00000000
-0.10242746 -0.43723950 0.00000000
-0.11013166 0.56193821 0.00000000
0.76222843 -0.39249309 0.00000000
-0.76729751 0.62405644 0.00000000
-0.00097080 -0.13995884 0.00000000
0.72174473 -0.28366216 0.00000000
0.20818390 0.64882052 0.02327182
0.33386194 0.63767530 0.07002939
0.69543379 0.22748206 0.05017990
0.54792403 -0.38703326 0.00000000
-0.63030645 0.66498427 0.00000000
-0.78516811 -0.03998474 0.00000000
0.15172032 0.76651384 0.04826864
0.57129130 0.23151369 0.00114512
0.23839092 -0.69991508 0.00000000
-0.00094560 -0.51500502 0.00000000
0.26893565 -0.70250629 0.00000000
-0.61928770 -0.65160813 0.00000000
-0.08173696 -0.67566561 0.00000000
0.06279408 -0.26431288 0.00000000
-0.27126489 -0.21646808 0.00000000
0.36020601 0.18875271 0.00000000
-0.59984515 0.03199123 0.00000000
-0.41926668 -0.41034370 0.00000000
0.66007344 0.06398484 0.00000000
0.32667626 0.58797954 0.04680777
0.10608063 -0.65548703 0.00000000
0.70699822 0.17212626 0.03230225
-0.74518080 -0.27046639 0.00000000
-0.21544004 0.45801632 0.00000000
-0.50896257 0.34447808 0.00000000
0.78192675 -0.66114082 0.00000000
0.46988125 0.37654647 0.01895392
0.64765350 0.47807096 0.13297571
-0.06746174 0.04519833 0.00000000
0.77582830 -0.47369279 0.00000000
-0.14104420 -0.54409511 0.00000000
0.56538976 0.46740279 0.09503663
0.59717501 0.68680486 0.19758295
0.75311499 0.17059309 0.05050333
0.36968818 -0.11737888 0.00000000
0.39071897 -0.11522410 0.00000000
0.22246398 -0.01107642 0.00000000
-0.32900316 0.02168326 0.00000000
0.16709609 0.66891571 0.01470167
-0.04584684 0.21460569 0.00000000
0.19848345 -0.69688709 0.00000000
0.02976096 -0.28826481 0.00000000
0.12538986 0.31248449 0.00000000
-0.44737989 0.06018383 0.00000000
0.35928730 0.68216561 0.09857221
0.45862639 0.73414083 0.16034573
0.51124787 0.52263985 0.09548372
0.53970364 -0.17184796 0.00000000
0.74758931 -0.65305656 0.00000000
-0.65424941 -0.21345074 0.00000000
-0.34389106 -0.39493096 0.00000000
-0.06855285 -0.32029842 0.00000000
0.07643583 -0.49568258 0.00000000
-0.36194975 0.70057454 0.00000000
0.54431761 0.66318217 0.16636023
-0.45580582 0.39028640 0.00000000
0.02440689 -0.47348288 0.00000000
-0.69019257 -0.29835316 0.00000000
0.06531481 0.27607686 0.00000000
-0.37501359 0.29314578 0.00000000
-0.04961740 -0.60404163 0.00000000
0.01144035 0.15466967 0.00000000
-0.67903593 -0.19717099 0.00000000
0.78823171 -0.18904109 0.00000000
0.46469128 -0.62714543 0.00000000
-0.39140822 0.60023061 0.00000000
-0.18289612 -0.49101824 0.00000000
0.04031476 0.40017272 0.00000000
-0.72430413 0.20848859 0.00000000
0.62529736 -0.51537236 0.00000000
-0.09323008 -0.02678957 0.00000000
0.52611372 -0.32127163 0.00000000
-0.58085711 -0.28327684 0.00000000
-0.17893790 0.08533777 0.00000000
-0.09589668 -0.49140021 0.00000000
-0.55283326 0.35257994 0.00000000
0.35732700 0.06432000 0.00000000
0.67042858 0.65918120 0.21621118
-0.41460766 0.71916291 0.00000000
-0.58685904 0.23675373 0.00000000
0.72016622 0.59169474 0.20896527
-0.65368270 0.41148566 0.00000000
-0.36255786 0.78078361 0.00000000
0.17231364 0.55712994 0.00000000
0.60774251 0.48629898 0.12004126
0.71425889 -0.78486100 0.00000000
-0.01303267 0.11562867 0.00000000
-0.68601319 -0.47515577 0.00000000
0.66051900 0.28931222 0.06116799
0.70112270 0.53383290 0.17756892
0.44233470 0.76751755 0.16732065
-0.11110057 -0.69678195 0.00000000
0.33947751 0.57477187 0.04664185
0.60640738 -0.47846412 0.00000000
0.31487433 0.08211155 0.00000000
0.13438703 0.39361945 0.00000000
-0.60994094 0.54552264 0.00000000
0.33756172 -0.36014684 0.00000000
-0.30663275 -0.50641566 0.00000000
-0.25056301 -0.40936410 0.00000000
0.57399772 0.56640966 0.13896997
0.02053420 0.65297676 0.00000000
0.69517367 0.19168087 0.03545802
0.59663646 -0.59285584 0.00000000
0.45339982 0.58750921 0.09835015
0.18023474 -0.64315466 0.00000000
-0.14088283 -0.78371887 0.00000000
-0.33855967 0.53627361 0.00000000
0.24644981 0.64715426 0.03821348
-0.12819111 0.11973957 0.00000000
0.43426096 -0.27250482 0.00000000
0.68722259 -0.23059743 0.00000000
0.01144204 0.28667129 0.00000000
-0.49730362 -0.72710336 0.00000000
0.07304394 -0.61483240 0.00000000
-0.60483575 -0.45862939 0.00000000
-0.58620522 -0.10524795 0.00000000
-0.07677198 -0.70919889 0.00000000
-0.62037572 0.75733943 0.00000000
-0.48225226 0.04949859 0.00000000
0.31583010 -0.41334894 0.00000000
0.70591825 -0.42746744 0.00000000
-0.42852764 -0.63099658 0.00000000
-0.55124861 0.76037482 0.00000000
-0.26872377 0.28174700 0.00000000
0.74657659 0.41293475 0.14676906
-0.50527981 0.31901368 0.00000000
-0.51286120 -0.08339072 0.00000000
0.39586044 -0.06143600 0.00000000
-0.72682270 0.39218346 0.00000000
0.09129279 -0.11806371 0.00000000
-0.22746449 0.32215742 0.00000000
-0.31859895 0.03406115 0.00000000
0.27908832 0.36391005 0.00000000
0.06208827 -0.25137707 0.00000000
-0.54166021 -0.24872701 0.00000000
0.48284222 -0.26069510 0.00000000
-0.48830837 0.15437365 0.00000000
0.39947357 0.40377263 0.00132524
-0.67708038 0.04402492 0.00000000
-0.47769179 0.61214803 0.00000000
0.68672705 -0.05103751 0.00000000
-0.30313658 0.77829316 0.00000000
0.08413467 0.60683623 0.00000000
-0.47025796 -0.21807297 0.00000000
0.30995643 0.52370709 0.01374300
0.20999649 0.75790389 0.06854469
-0.44859899 -0.10481550 0.00000000
-0.27154383 0.27896956 0.00000000
0.25680476 0.43053312 0.00000000
0.74166533 0.61237265 0.22618389
0.32268002 -0.50707283 0.00000000
-0.24217452 -0.26239867 0.00000000
-0.40686864 0.00359826 0.00000000
0.20327760 0.28721583 0.00000000
-0.20102099 -0.69545501 0.00000000
0.15335847 0.05575104 0.00000000
0.66322055 0.64925108 0.20921459
0.57247809 -0.36050343 0.00000000
0.60009101 0.41014787 0.08582918
-0.26383766 -0.16357949 0.00000000
-0.41344780 0.72650499 0.00000000
-0.38290869 0.67743543 0.00000000
-0.58633760 0.19256123 0.00000000
-0.15639669 -0.15034534 0.00000000
-0.38040377 0.46146484 0.00000000
-0.67838827 -0.37534838 0.00000000
0.10816520 -0.44205198 0.00000000
-0.72611247 0.24807552 0.00000000
0.46318786 -0.50838322 0.00000000
0.71627047 0.65419340 0.23288971
-0.43782510 0.46088786 0.00000000
-0.58685540 0.68075295 0.00000000
-0.33432158 0.48096843 0.00000000
-0.57187884 0.40081994 0.00000000
-0.52285851 -0.73054148 0.00000000
0.38451980 -0.75843724 0.00000000
0.71080852 0.44692005 0.14604126
-0.41051770 -0.22927677 0.00000000
0.71522845 -0.49910896 0.00000000
-0.07991417 0.39175239 0.00000000
0.30952729 -0.00671067 0.00000000
-0.14118811 0.02035313 0.00000000
0.48480382 0.59270628 0.11329240
-0.43599043 0.29017196 0.00000000
0.66942181 0.08343826 0.00000000
-0.59124736 0.14406170 0.00000000
0.13338481 -0.66598602 0.00000000
-0.25969826 0.41214068 0.00000000
0.30241163 0.60221239 0.04271234
-0.65728215 -0.73220261 0.00000000
0.65701186 0.57464595 0.17622262
-0.64563602 0.63374330 0.00000000
-0.65841448 -0.11520326 0.00000000
-0.07492839 -0.06373108 0.00000000
-0.51175190 0.10211518 0.00000000
0.77059541 -0.79780606 0.00000000
0.61370677 -0.64756223 0.00000000
0.00796621 0.21677232 0.00000000
0.48481231 -0.64608430 0.00000000
0.50051469 0.30115006 0.00067962
-0.32708514 -0.34897761 0.00000000
-0.12574857 0.01634289 0.00000000
-0.35105828 -0.23966972 0.00000000
-0.23393852 0.70891452 0.00000000
0.06343980 -0.10463214 0.00000000
0.09316908 -0.44847246 0.00000000
0.57807942 -0.68379994 0.00000000
0.37659939 -0.19109786 0.00000000
0.77046034 -0.08621835 0.00000000
0.13848961 0.50390581 0.00000000
-0.46671107 0.60999492 0.00000000
-0.11759348 -0.63681825 0.00000000
-0.44048830 -0.09530744 0.00000000
0.04309037 0.07303023 0.00000000
0.37492392 0.24004155 0.00000000
-0.63584069 0.24020665 0.00000000
-0.34530600 0.72976754 0.00000000
0.04661327 -0.12161730 0.00000000
-0.40749750 0.62681762 0.00000000
0.71172282 -0.09747715 0.00000000
0.79189077 -0.63604878 0.00000000
-0.28502262 -0.36051049 0.00000000
0.36448817 0.12363992 0.00000000
0.79007838 -0.02436384 0.00000000
0.52404009 0.73031182 0.18548746
0.51188279 0.25168694 0.00000000
-0.59711398 -0.23832714 0.00000000
0.60288041 -0.44489587 0.00000000
-0.66111029 0.28305251 0.00000000
-0.35301925 0.05545904 0.00000000
-0.52324694 0.52352073 0.00000000
-0.64078765 0.60667335 0.00000000
-0.11851570 0.60586464 0.00000000
-0.67083147 -0.04512941 0.00000000
-0.12350813 -0.14404948 0.00000000
-0.17849115 0.07893935 0.00000000
-0.49772073 0.39304975 0.00000000
-0.49456749 0.64423275 0.00000000
0.65913022 0.12118893 0.00000000
0.11309830 -0.43248020 0.00000000
0.59736262 0.32828365 0.05129458
-0.01751192 -0.62818608 0.00000000
-0.73338357 -0.42973394 0.00000000
-0.36596588 0.75074949 0.00000000
0.45161656 0.12698929 0.00000000
0.72854996 -0.61732058 0.00000000
-0.43840545 0.60214026 0.00000000
-0.78913057 -0.32033716 0.00000000
0.65044130 0.34330499 0.07909615
0.68759709 -0.68804626 0.00000000
-0.49872350 0.37210607 0.00000000
-0.54984104 0.43139922 0.00000000
-0.33031740 -0.36350472 0.00000000
-0.54309023 -0.23022171 0.00000000
-0.09493014 0.60244915 0.00000000
-0.58344436 -0.69658376 0.00000000
0.71340369 -0.56655570 0.00000000
0.69350357 0.53561453 0.17518579
-0.44114720 0.58543859 0.00000000
0.27133723 -0.35263441 0.00000000
-0.34930510 0.34799468 0.00000000
-0.75794867 -0.01055229 0.00000000
0.16596799 -0.55913629 0.00000000
-0.64360061 -0.64837738 0.00000000
0.33685614 -0.49121952 0.00000000
-0.28351367 -0.61666852 0.00000000
-0.54204174 -0.40797383 0.00000000
0.56896079 0.44613906 0.08781365
-0.75296224 -0.03298033 0.00000000
0.38672900 -0.29597947 0.00000000
0.52239720 -0.23159569 0.00000000
0.19645525 -0.54477835 0.00000000
0.32098175 -0.69488024 0.00000000
-0.12920413 -0.47130286 0.00000000
-0.79436453 0.47327079 0.00000000
-0.48975580 0.06350744 0.00000000
0.33376211 -0.46422260 0.00000000
0.63417945 0.66871972 0.20530667
0.24043849 -0.10035684 0.00000000
0.02279353 -0.61772302 0.00000000
0.26691094 0.25432515 0.00000000
0.22619952 -0.67793492 0.00000000
-0.09413801 0.71313930 0.00000000
-0.13470744 -0.68191381 0.00000000
0.23822923 0.02644327 0.00000000
0.12228497 -0.30250339 0.00000000
0.56584099 -0.29243046 0.00000000
0.52863541 0.43616123 0.06727757
-0.70486473 0.71357149 0.00000000
-0.52721344 -0.48365387 0.00000000
-0.36599403 -0.23071903 0.00000000
0.23845756 -0.03746508 0.00000000
0.44874358 -0.67242918 0.00000000
0.01445932 -0.73715612 0.00000000
-0.14873425 -0.15696816 0.00000000
0.24495624 -0.24338551 0.00000000
0.30149441 -0.70752078 0.00000000
0.40766511 -0.32115461 0.00000000
-0.36582168 -0.69314838 0.00000000
0.20348803 0.21327898 0.00000000
-0.60358655 -0.68968016 0.00000000
-0.77681646 0.54025380 0.00000000
-0.16340557 0.52898599 0.00000000
-0.51370151 -0.77098273 0.00000000
-0.42216318 -0.58510981 0.00000000
0.18045749 -0.28971485 0.00000000
0.41196540 -0.34540812 0.00000000
0.12819528 0.03123861 0.00000000
0.58069279 -0.67628422 0.00000000
-0.78031934 -0.21980864 0.00000000
-0.55374262 -0.43880598 0.00000000
-0.06337667 0.14900410 0.00000000
0.30734135 -0.41285649 0.00000000
0.68435445 -0.79179464 0.00000000
0.28282580 0.65027271 0.05433693
0.03155185 0.64513740 0.00000000
0.58840685 -0.17797706 0.00000000
0.32009420 0.37380813 0.00000000
-0.77819048 0.49186097 0.00000000
-0.68142480 -0.66009319 0.00000000
-0.57450968 0.48470426 0.00000000
-0.70238080 0.69264754 0.00000000
-0.17344067 0.39542860 0.00000000
0.31765294 0.25952007 0.00000000
0.45705831 0.47790729 0.05509917
-0.20892493 -0.49551762 0.00000000
0.72346884 -0.66284602 0.00000000
-0.70170759 -0.50452936 0.00000000
-0.74278830 0.01795585 0.00000000
0.33446370 0.76704353 0.12308919
-0.42885242 -0.37981859 0.00000000
0.50138304 0.15366794 0.00000000
0.66978529 -0.71514753 0.00000000
0.76426184 -0.68624239 0.00000000
-0.24346035 -0.79938412 0.00000000
0.74854289 -0.78921418 0.00000000
-0.05185480 -0.22125435 0.00000000
-0.16293947 0.52490480 0.00000000
-0.79851626 -0.77118177 0.00000000
0.14050179 -0.42072319 0.00000000
0.04009553 0.34264614 0.00000000
-0.08545166 0.01984679 0.00000000
0.13371386 0.55560259 0.00000000
0.27167060 0.75848045 0.09395829
0.11407357 -0.31102767 0.00000000
0.77945718 -0.31516266 0.00000000
0.01299982 0.65227532 0.00000000
0.67987555 0.19507333 0.03059758
-0.63126350 0.32820510 0.00000000
-0.70693646 -0.38425679 0.00000000
-0.67913275 0.24798084 0.00000000
0.09745784 -0.44377937 0.00000000
-0.14352958 0.30382033 0.00000000
0.50976153 -0.40588850 0.00000000
-0.07629607 0.53091851 0.00000000
-0.67412809 -0.05320100 0.00000000
-0.13036438 0.46885128 0.00000000
0.74550536 0.51787840 0.18917461
0.46154220 0.15320746 0.00000000
0.67302476 0.63171346 0.20605744
0.50693316 -0.50451106 0.00000000
-0.38632928 -0.51299149 0.00000000
-0.47422828 0.61377951 0.00000000
-0.75531611 -0.00744114 0.00000000
0.21047789 0.14864518 0.00000000
0.78945415 -0.62660243 0.00000000
0.53129873 0.35124731 0.03369909
0.28033973 0.23464729 0.00000000
-0.78617391 0.46830760 0.00000000
-0.03802060 0.43946867 0.00000000
0.29181362 0.73002855 0.09056622
-0.23291032 -0.05400337 0.00000000
-0.53539798 -0.60476423 0.00000000
0.67695338 0.06114157 0.00000000
-0.40880078 -0.31055353 0.00000000
-0.52727663 -0.36443633 0.00000000
0.36872634 -0.29117282 0.00000000
-0.72736335 -0.06584759 0.00000000
-0.36659054 0.62114543 0.00000000
-0.55844650 0.26034613 0.00000000
-0.61456167 -0.27078766 0.00000000
0.55087255 0.58645175 0.13771132
-0.09845115 -0.50024090 0.00000000
-0.28739399 -0.33941313 0.00000000
-0.36807215 0.32244496 0.00000000
0.74361733 -0.62111423 0.00000000
-0.65647724 -0.30767657 0.00000000
-0.28233818 -0.11086764 0.00000000
-0.31319964 0.15038031 0.00000000
0.57534594 0.26277192 0.01556146
-0.18449763 0.07436463 0.00000000
-0.77533531 -0.17579255 0.00000000
-0.38656413 -0.07004232 0.00000000
0.71459451 -0.34137643 0.00000000
0.36342084 0.49642395 0.02443139
-0.19210458 -0.21805882 0.00000000
-0.04424310 0.39131117 0.00000000
0.56065116 -0.26193895 0.00000000
0.05520837 0.58801925 0.00000000
-0.03066113 -0.77618428 0.00000000
0.15072561 -0.42724659 0.00000000
0.55061159 0.45476782 0.08384532
0.68034518 0.38673930 0.10903617
0.13387547 0.26874774 0.00000000
0.67685875 0.09715359 0.00000000
-0.77296405 -0.60881665 0.00000000
0.62109125 -0.62202571 0.00000000
0.09467150 0.45939725 0.00000000
0.43056430 -0.19300822 0.00000000
0.37862305 -0.38690292 0.00000000
0.21261675 0.64242181 0.02246927
-0.38440137 0.30305257 0.00000000
-0.53245829 0.52668033 0.00000000
-0.01727260 0.19682606 0.00000000
0.19911369 0.09942124 0.00000000
