ply
format ascii 1.0
element vertex 1395
property float x
property float y
property float z
end_header
0.15309738 0.16250441 0.00000000
-0.11264297 -0.75120369 0.00000000
-0.74203066 -0.43075037 -0.00000092
-0.62458791 -0.16828543 -0.00000095
0.61017599 -0.09133831 -0.00000103
0.04669268 0.73831335 0.00000013
0.23474469 -0.79744430 0.00000000
-0.03333967 -0.54291758 0.00000000
0.12128176 0.22471693 0.00000680
0.11466623 0.50994453 0.00000262
0.29918420 0.43218939 0.00000040
0.07876250 0.06725882 0.00000980
0.16088329 0.25895794 0.00000569
0.58056421 -0.46969224 -0.00000023
-0.42161461 0.25377083 0.03207269
-0.38983453 0.29672170 -0.00000077
-0.03327135 0.23232830 0.00000000
-0.58790753 0.20188325 -0.00000145
0.23323883 -0.01973740 0.00000000
-0.18833466 -0.61793902 0.00000000
0.52891754 0.10340271 -0.00000103
0.15472196 0.25090762 0.00000590
0.10957034 -0.17287881 0.00000000
0.17232669 0.23272123 0.00000000
0.41681121 -0.22554522 0.00000000
0.36501714 -0.60923142 0.00000000
0.36465593 0.37418624 -0.00000080
0.31589230 -0.12663608 0.00000000
0.49802462 -0.33118562 -0.00000013
-0.42160489 0.21152488 -0.00000076
-0.64061855 -0.71595910 -0.00000005
-0.33585985 0.35242084 0.02875389
0.50485172 -0.26285890 -0.00000028
-0.15143846 0.27993084 0.00000000
-0.07825257 -0.68370056 0.00000000
-0.08617268 0.14991051 0.14514183
0.27551210 -0.01328030 0.00000000
-0.66757929 0.07799446 -0.00000157
-0.22629577 0.00535616 0.00000000
-0.22279456 -0.54673589 0.00000000
0.09681586 0.25999926 0.00000664
-0.16425951 0.09903372 0.13813857
0.69880534 -0.68066167 -0.00000030
-0.11842659 0.43946635 0.06231402
-0.52758303 0.03302660 0.06161393
0.03226188 0.23265497 0.00000000
-0.05088575 -0.21111452 0.00000000
0.63451163 0.15413405 -0.00000140
-0.32076383 -0.10809225 0.00000000
-0.33609066 -0.12364068 0.00000000
-0.45117794 -0.02481299 -0.00000047
0.17801549 -0.03274757 0.00000000
0.19218666 0.13477211 0.00000000
0.28240549 -0.79074602 0.00000000
0.47111622 -0.34203443 0.00000000
0.17753888 0.31846821 0.00000454
0.34650915 0.40915789 -0.00000013
0.12487354 0.15043292 0.00000000
0.08185284 -0.74279980 0.00000000
-0.57734480 0.22105902 0.00040921
0.23334324 0.47791756 0.00000090
-0.14051494 0.33984009 0.08227087
-0.66136688 -0.67972940 -0.00000021
0.48659970 0.29893542 -0.00000119
-0.20261834 0.53947246 -0.00000040
0.79896852 -0.36684025 -0.00000108
-0.20062054 -0.22996493 0.00000000
-0.60742853 -0.60902161 -0.00000010
-0.32594522 -0.08533249 0.00000000
-0.05439094 0.34237942 0.00000000
0.08894204 0.07950709 0.00000000
0.17869840 0.10698714 0.00000000
0.22695853 0.09205173 0.00000719
-0.31539820 0.09401258 0.10053079
0.30906894 -0.18574642 0.00000000
-0.10165594 -0.36964547 0.00000000
0.72968912 -0.20550858 -0.00000134
0.10175670 0.00874033 0.00000000
-0.38153722 0.11003647 -0.00000041
-0.18021923 0.43251343 0.04819924
-0.75876257 0.00577655 0.00912495
-0.75129552 -0.75013868 -0.00000012
0.54574173 0.17405648 -0.00000002
-0.51106111 0.13965632 -0.00000101
0.05184144 0.71057478 0.00000050
-0.10822274 0.26323280 0.00000000
-0.42866681 -0.09358523 -0.00000025
-0.00727726 -0.26494247 0.00000000
0.00056569 0.50468008 0.00000442
0.69759470 -0.76309636 -0.00000009
-0.32101815 0.22215144 -0.00000035
-0.15015170 -0.14176803 0.00000000
-0.26371309 -0.43240868 0.00000000
0.13744851 0.36242173 0.00000449
-0.75612411 -0.07951543 -0.00000167
0.48173396 0.06046107 0.00000310
-0.21244252 0.01727999 0.00000000
0.16241971 0.33196137 0.00000457
0.06884117 -0.10405924 0.00000000
0.77280375 -0.40173726 -0.00000100
-0.38355855 0.16043956 0.06588988
0.15374904 -0.44667269 0.00000000
-0.21953686 0.10333098 0.00000000
0.61282428 -0.49309098 -0.00000033
-0.05352871 0.57213518 0.04487095
0.40290464 -0.58943672 0.00000000
-0.19372307 0.11435510 0.00000000
-0.78299056 -0.02045273 -0.00000189
0.23586488 0.07552162 0.00000000
-0.69158107 0.03983551 0.01765037
0.10829274 -0.78016557 0.00000000
0.11404762 0.35203468 0.00000500
0.12054124 0.26462259 0.00000621
-0.78100431 -0.45382157 -0.00000087
-0.16809878 0.11490805 0.13306466
0.11567259 -0.59835526 0.00000000
-0.55542782 -0.39859691 -0.00000025
-0.51777021 0.10790955 0.04486590
0.66113924 -0.55474646 -0.00000043
0.46089467 0.08822611 -0.00000071
0.00061658 -0.52601532 0.00000000
0.38838148 0.03137723 0.00000538
0.42951836 0.34792165 -0.00000070
0.09263163 -0.50245232 0.00000000
-0.72879939 0.04529037 -0.00000178
0.51003280 0.17707586 -0.00000108
-0.40368526 0.36186446 -0.00000095
0.09335043 0.24063074 0.00000000
-0.30595408 -0.44399498 0.00000000
0.78340861 -0.03721502 -0.00000186
-0.28331504 0.35491922 0.04163522
0.59275831 -0.72494476 0.00000000
-0.20730064 0.12296126 0.12090214
0.20133212 0.30697207 0.00000436
0.21368696 -0.00841726 0.00000000
0.09066674 -0.10269466 0.00000000
0.08538457 0.13874491 0.00000000
-0.17689347 0.08543454 0.00000000
-0.00639507 -0.14887194 0.00000000
-0.12632044 0.45977208 0.00000000
-0.18569283 0.22110981 0.00000000
-0.67011939 -0.63362740 -0.00000033
0.00113204 0.27662545 0.00000000
-0.39126199 0.12044151 0.07420200
0.01792089 0.45695297 0.00000000
0.78414785 -0.32252900 -0.00000119
-0.24019426 -0.21850877 0.00000000
0.28388908 0.49403627 -0.00000034
-0.37000722 0.12057173 -0.00000038
0.04511783 0.37590944 0.00000568
-0.11150826 0.01255293 0.00000000
0.69879179 -0.15973297 -0.00000129
-0.09476281 -0.52451243 0.00000000
-0.02589999 -0.09637389 0.00000000
0.13316076 -0.63723698 0.00000000
-0.09140045 0.54589082 0.04187833
0.26444100 0.27205105 -0.00000020
-0.67819946 0.06401524 0.01487114
-0.02186248 0.53892168 0.00000000
-0.09392254 0.26624770 0.11320414
-0.29657556 -0.71235408 0.00000000
0.06452694 0.66844954 0.00000096
0.51704111 0.17316023 -0.00000110
0.48637248 -0.63972733 0.00000000
0.36357842 0.28839661 -0.00000065
-0.07750499 0.68820777 -0.00000013
-0.46623440 -0.78646809 0.00000000
0.53532752 -0.69765362 0.00000000
-0.11935031 0.39907120 0.00000000
0.38750846 0.12823585 -0.00000047
-0.28628113 -0.51573506 0.00000000
0.04008997 -0.01645175 0.00000000
-0.44169915 0.05969673 0.07685488
0.61713790 -0.79448605 0.00000000
0.25050127 0.51417179 -0.00000004
-0.66886407 -0.21433882 -0.00000106
-0.43380391 0.07907770 0.07389865
-0.49200592 0.05167631 0.06597088
-0.21550168 0.28788182 -0.00000001
-0.11101791 0.64281417 0.01188260
-0.18777391 0.03163296 0.00000000
-0.69054051 -0.03135425 -0.00000148
-0.27734067 0.25090798 -0.00000021
0.59019509 -0.54659254 -0.00000014
0.64805220 -0.10568297 -0.00000116
-0.12009656 0.19789483 0.00000000
0.62534591 -0.41843689 -0.00000051
0.35946406 0.02260917 -0.00000016
-0.31169664 0.36067569 0.03284853
0.01050808 0.16476119 0.00000937
0.73172307 0.01985516 -0.00000174
-0.27260920 -0.13463975 0.00000000
0.34487368 0.33256268 -0.00000065
-0.48898424 -0.77413738 0.00000000
-0.12941266 0.32729453 0.00000000
0.32797089 -0.41643541 0.00000000
0.35053619 0.40930918 -0.00000081
0.49343936 0.03254936 -0.00000075
-0.12230139 -0.73763810 0.00000000
-0.15522586 0.42993777 0.05529510
-0.57344313 -0.76651949 0.00000000
-0.41988471 0.21422938 -0.00000076
-0.31016711 0.29512555 -0.00000043
0.29809693 0.16771036 0.00000484
0.18065672 -0.48623649 0.00000000
-0.63056356 -0.26336394 -0.00000081
-0.11321535 0.39783990 0.00000000
0.54976891 -0.23587795 -0.00000052
-0.50213154 0.08358186 -0.00000088
-0.77945479 -0.10018656 -0.00000174
-0.16158295 -0.07763311 0.00000000
-0.54804090 -0.31905923 -0.00000036
0.07261410 0.52421364 0.00000304
0.71707525 -0.67609471 -0.00000031
0.54502317 -0.78301020 0.00000000
0.44588242 0.31714006 -0.00000050
0.39551822 0.34627134 -0.00000089
0.39939224 0.38565213 -0.00000075
-0.60978765 -0.66644989 -0.00000001
0.01635299 0.39607402 0.00000581
0.55181734 -0.59183868 0.00000000
-0.56273487 -0.11554318 -0.00000078
0.77481348 -0.21978956 -0.00000145
0.27597772 0.44343235 0.00000066
-0.09033416 -0.20799430 0.00000000
-0.00049685 -0.70599741 0.00000000
0.68489685 0.06198681 -0.00000082
-0.33090427 -0.71871545 0.00000000
0.58531176 -0.57224941 -0.00000007
0.40426245 0.16011615 -0.00000059
-0.64972152 -0.69097557 -0.00000014
0.37871128 0.01374015 -0.00000023
0.20471092 0.51306352 0.00000086
-0.43666822 0.04052624 -0.00000052
0.17187411 0.45061985 0.00000254
0.26198998 0.37960786 -0.00000037
0.16353488 -0.14308270 0.00000000
0.03570036 0.12557889 0.00000000
-0.33789652 0.25116801 -0.00000047
-0.34720828 0.10092837 -0.00000025
-0.47755390 -0.67782790 0.00000000
-0.54037311 0.05674252 0.05221781
0.35368832 -0.79126804 0.00000000
0.17529605 0.61562813 -0.00000042
-0.25241905 -0.60311876 0.00000000
0.20101078 0.29843350 0.00000000
-0.25302542 0.03958885 0.00000000
-0.72732710 -0.78091041 -0.00000005
0.06981276 -0.74933656 0.00000000
0.09838950 -0.47497812 0.00000000
0.40395800 0.34036435 -0.00000008
-0.40433398 -0.04250817 -0.00000024
-0.07343075 -0.33032742 0.00000000
0.43154810 0.18905498 -0.00000076
0.42321947 -0.66590318 0.00000000
-0.13783625 -0.00846882 0.00000000
-0.17676107 0.05974027 0.00000000
0.12079592 0.07645957 0.00000000
0.40838048 -0.29895640 0.00000000
-0.28128349 0.36195724 0.04034664
-0.63782633 -0.50386113 -0.00000042
-0.39230671 0.21307612 -0.00000064
-0.64188642 -0.47461718 -0.00000049
-0.13729149 0.59944113 0.01628367
-0.30700654 0.12098104 0.09574943
0.21874470 0.02301807 0.00000000
-0.39087987 -0.17581240 0.00000000
0.49350872 0.08991065 -0.00000085
0.40831014 0.20844986 0.00000204
-0.65359596 -0.73490508 -0.00000008
0.68081592 -0.14822074 -0.00000123
0.20051415 0.58490019 -0.00000026
-0.43646285 0.09013080 0.07036938
0.13145945 0.07227484 0.00000000
-0.06168829 0.56411910 0.04483403
-0.18593494 -0.67198515 0.00000000
-0.69443969 -0.14791822 -0.00000129
-0.11238864 0.63782366 0.01281428
0.12235418 -0.40650137 0.00000000
0.15696055 0.23069782 0.00000000
-0.33548884 -0.23240001 0.00000000
0.01751086 -0.27201759 0.00000000
-0.33996070 0.05843660 -0.00000014
-0.40638481 0.37228910 0.00548786
-0.69338718 -0.18393570 -0.00000122
0.03695707 0.66532364 0.00000146
0.17168315 0.15128880 0.00000000
0.19476400 0.05388873 0.00000000
0.02442661 0.36509522 0.00000615
-0.16399206 -0.42852120 0.00000000
-0.19733397 0.22265293 0.00000000
-0.08172099 0.10307087 0.00000000
0.15445665 -0.64507642 0.00000000
0.08431619 0.49576899 0.00000329
0.63707068 -0.74319781 0.00000000
0.27989030 0.08476404 0.00000000
-0.11520120 0.44968662 0.06051366
-0.59557792 0.04853654 0.04012087
0.37215106 0.20866237 -0.00000054
0.38115701 -0.18776929 0.00000000
-0.10975036 0.18030768 0.13124973
0.32426101 0.22876413 0.00000332
0.25458442 0.41758863 0.00000150
0.22270981 0.50503039 -0.00000043
0.66789684 0.06942792 -0.00000062
0.15591586 -0.56656398 0.00000000
-0.37753710 -0.57720719 0.00000000
0.19066468 -0.13759727 0.00000000
0.59732298 -0.66324163 0.00000000
0.08413604 0.03433578 0.00001022
0.27187989 0.13722478 0.00000584
0.69899754 -0.49553303 -0.00000069
0.01396295 0.04970135 0.00001104
0.58648269 -0.20999796 -0.00000072
0.07037474 -0.40683395 0.00000000
0.00943627 -0.38027150 0.00000000
-0.25238984 0.54709808 -0.00000063
0.59473977 -0.08436942 -0.00000097
0.57053869 0.07195573 0.00000120
-0.08413843 -0.52915649 0.00000000
-0.07683598 -0.61601554 0.00000000
-0.06920562 0.27603207 0.11704747
0.04958487 0.50471519 0.00000000
-0.48934339 -0.22217672 -0.00000028
0.61628198 0.04735948 0.00000074
0.41028277 -0.50256566 0.00000000
0.34114920 -0.15745322 0.00000000
0.10351848 0.28690169 0.00000000
-0.17692420 -0.33669890 0.00000000
-0.27450813 -0.07252683 0.00000000
0.05583830 0.01295296 0.00001096
-0.13751937 0.60754666 0.01413878
0.25992134 0.17506236 0.00000545
-0.12328825 -0.34409632 0.00000000
0.35369797 -0.28336268 0.00000000
-0.10118302 -0.65474616 0.00000000
0.52823990 -0.35986987 -0.00000020
0.24031882 -0.76163951 0.00000000
-0.51852573 -0.72737824 0.00000000
-0.67457949 -0.37639882 -0.00000080
0.37306731 -0.63001991 0.00000000
0.11235955 -0.40475383 0.00000000
-0.14979232 -0.30630003 0.00000000
-0.30959267 -0.06887740 0.00000000
-0.32466105 -0.67012136 0.00000000
0.69645223 -0.12199516 -0.00000134
0.70947348 -0.43289028 -0.00000085
-0.08779202 0.08942100 0.00000000
0.12057574 0.51720739 -0.00000001
-0.52878872 0.00341435 -0.00000085
-0.24562582 0.50604639 0.01243814
0.09117027 0.49732094 0.00000000
0.74315171 0.00549004 -0.00000100
-0.41082834 0.15123580 -0.00000061
0.28290106 0.32742751 0.00000246
-0.38340990 0.12872948 0.07408983
0.26058018 0.22893703 0.00000454
-0.18540669 0.10693785 0.13066133
-0.16719832 -0.27864503 0.00000000
0.61709218 -0.26815711 -0.00000075
0.50553151 -0.35848061 -0.00000011
-0.17352885 0.25823280 0.00000000
0.32002542 0.37076656 -0.00000061
0.39799953 -0.48522387 0.00000000
-0.11724143 0.51177621 0.00000000
0.41403042 0.13159408 0.00000321
-0.35817711 -0.72506554 0.00000000
-0.66199196 -0.47118084 -0.00000058
-0.55946334 -0.44183493 -0.00000019
-0.18417627 0.37474747 0.06204880
0.46614659 0.19997189 0.00000107
0.17341228 0.33494571 0.00000000
-0.35659796 -0.70937813 0.00000000
0.10063348 0.08682426 0.00000918
-0.11135050 0.53362503 -0.00000000
-0.08715369 0.45787234 0.00000000
-0.14066146 0.20251323 0.11757854
0.21220885 0.56756010 -0.00000019
-0.73567332 -0.46464439 -0.00000084
0.53330018 -0.59554505 0.00000000
-0.77112596 -0.69749170 -0.00000026
-0.62839649 -0.79311983 0.00000000
-0.00011027 0.04563735 0.00000000
0.33767392 0.11291641 0.00000499
-0.51319994 0.09386894 0.04965607
0.52581730 -0.32099248 -0.00000026
-0.48886042 0.29155354 -0.00000119
0.19006371 -0.73791530 0.00000000
-0.78536486 -0.11291917 -0.00000172
0.60777261 0.03912912 0.00000104
-0.60649323 -0.29217888 -0.00000066
-0.15697138 0.33819836 0.00000000
-0.16103693 0.02240018 0.00000000
0.79543734 -0.24957496 -0.00000138
-0.37741943 0.08804390 0.08610355
-0.18159891 -0.65224832 0.00000000
0.77450505 -0.50884399 -0.00000073
0.73659049 -0.53780073 -0.00000066
0.29931018 0.02474627 0.00000711
0.15039399 0.46177461 -0.00000004
0.58169419 -0.35925742 -0.00000043
-0.04620690 -0.18787399 0.00000000
0.06729759 0.31676600 0.00000000
-0.55260692 0.12402194 -0.00000116
-0.55240947 0.18779688 -0.00000128
0.17200033 -0.25700128 0.00000000
0.37752504 -0.16475414 0.00000000
-0.59537800 -0.51968779 -0.00000021
0.35737880 -0.77226386 0.00000000
0.00695519 -0.76902734 0.00000000
-0.30408203 -0.29063773 0.00000000
-0.57623596 -0.32926394 -0.00000046
-0.16475271 0.54879239 0.02225170
-0.77321743 -0.26256237 -0.00000134
0.07658846 -0.23814644 0.00000000
-0.18464790 0.28842002 0.00000000
-0.41822614 -0.67953115 0.00000000
0.31230402 -0.44743224 0.00000000
-0.56813821 0.20317689 -0.00000137
0.49423807 -0.69370804 0.00000000
-0.70225563 -0.38578099 -0.00000090
-0.36728366 -0.43617600 0.00000000
0.51691290 0.07977699 -0.00000093
0.45800602 -0.63383278 0.00000000
-0.60952606 -0.60132506 -0.00000012
-0.19168352 -0.11497153 0.00000000
-0.03779437 0.04944019 0.18345264
0.25444724 -0.12860434 0.00000000
-0.15205777 0.11189922 0.00000000
0.39060352 0.39420005 -0.00000072
-0.53803425 0.09640129 -0.00000105
0.06172316 0.67827512 -0.00000005
0.20990143 0.03867796 0.00000000
0.72941901 0.01825348 -0.00000095
0.13655842 0.24776194 0.00000622
0.28775039 0.16683636 -0.00000011
-0.71880783 -0.10051958 -0.00000148
-0.59162510 0.06523496 0.03684036
-0.16233665 0.22219787 0.10693331
-0.14089327 -0.42382950 0.00000000
0.01203944 0.78412246 -0.00000002
-0.35972733 0.06296320 -0.00000023
0.42502238 0.31170042 -0.00000001
0.34184907 0.30145051 0.00000176
0.71056073 -0.41910343 -0.00000088
0.51313609 -0.40894102 -0.00000005
0.40527245 -0.09726861 -0.00000014
0.37529585 -0.35954632 0.00000000
-0.44746581 0.16392772 0.04854315
0.06847121 0.61584849 0.00000000
0.38726081 -0.42784156 0.00000000
-0.25135255 0.29005964 -0.00000017
0.10650795 -0.69162037 0.00000000
-0.63131813 0.13907444 0.00761872
-0.41249860 -0.44429618 0.00000000
0.27875924 -0.33833139 0.00000000
0.45636451 -0.29819834 -0.00000001
0.13347935 0.51119641 -0.00000006
0.77348495 -0.40092884 -0.00000100
0.04057991 -0.28271472 0.00000000
-0.45251517 -0.38770666 0.00000000
0.33264336 0.12499777 -0.00000023
-0.00234294 0.49960163 0.00000000
0.09778255 -0.64055328 0.00000000
-0.10169208 -0.72268643 0.00000000
-0.47749177 0.31912299 -0.00000119
0.00061415 0.08977959 0.00000000
-0.26371867 0.39085517 0.03742972
0.15983119 0.00702558 0.00000948
0.05110669 0.02397922 0.00000000
0.61392543 -0.03400979 -0.00000115
-0.67133621 -0.36610765 -0.00000080
-0.32704478 -0.34428619 0.00000000
0.74728593 -0.43471494 -0.00000091
0.03317340 0.64308799 0.00000185
-0.53767042 0.20009680 0.01601625
-0.50831195 -0.52745102 0.00000000
-0.74366976 -0.65563162 -0.00000036
0.54586525 -0.18462644 -0.00000059
0.29664131 0.35857675 -0.00000049
0.62176488 -0.16641914 -0.00000095
-0.62109610 -0.61007993 -0.00000016
-0.74993059 -0.39763542 -0.00000101
0.52028345 -0.49646712 0.00000000
0.06486194 -0.22343157 0.00000000
-0.09852948 0.26925618 0.11124407
0.65221390 -0.21782629 -0.00000098
0.35049581 0.17344747 0.00000374
-0.23279634 0.19793871 0.00000000
-0.04476232 -0.21642953 0.00000000
0.01445647 0.10152217 0.00001026
-0.32063110 -0.70587376 0.00000000
0.42093784 -0.51102950 0.00000000
0.45806591 -0.17138033 -0.00000024
0.41782369 -0.16039533 -0.00000009
0.12919787 -0.34752720 0.00000000
0.74702912 -0.27910440 -0.00000128
-0.50855163 0.11428453 -0.00000096
-0.65517266 0.04546313 0.02557298
-0.29300602 -0.49735089 0.00000000
-0.24814314 0.46027758 0.02357041
0.34359610 0.44235418 -0.00000083
-0.78737962 -0.42296292 -0.00000094
-0.75082321 -0.46548362 -0.00000084
-0.73460682 0.02937708 0.00926792
-0.39709575 -0.30620602 0.00000000
0.17544416 0.32552689 0.00000000
-0.46738535 -0.24499865 -0.00000015
0.28823023 0.06502619 0.00000668
0.11057108 0.37942154 0.00000000
-0.03654798 0.48586905 0.07144475
-0.54455171 -0.07681270 -0.00000077
0.59137821 0.00285648 -0.00000111
0.67880322 0.07965798 -0.00000162
-0.22208416 0.16596566 0.00000000
-0.12316224 0.24269070 0.11174155
0.18720120 0.34742374 0.00000396
-0.34585323 -0.48377207 0.00000000
0.08154705 -0.02869402 0.00000000
0.09908669 -0.48902189 0.00000000
-0.16437306 -0.18952329 0.00000000
-0.40202323 0.07811936 0.08232526
-0.58046672 -0.04769959 -0.00000098
-0.07956519 -0.11589143 0.00000000
0.14526555 -0.67229958 0.00000000
0.53070169 0.10870873 -0.00000104
-0.39307036 0.14169363 -0.00000051
-0.76305441 -0.58807258 -0.00000053
-0.15419841 0.02802453 0.15900454
-0.38445508 -0.62991059 0.00000000
-0.02068396 -0.67021463 0.00000000
0.78890242 -0.56733114 -0.00000058
-0.03770907 -0.21936919 0.00000000
-0.44649211 -0.37437002 0.00000000
0.18978014 0.46548723 0.00000194
-0.01609063 0.02858637 0.00000000
0.10823050 0.57959489 0.00000160
0.07676239 0.44122697 0.00000422
-0.24219404 0.43851171 0.03070383
-0.56228120 -0.67331846 0.00000000
0.44293159 -0.10361188 -0.00000029
-0.56033296 -0.49435334 -0.00000010
0.61281154 -0.29833671 -0.00000067
-0.03814226 -0.08009151 0.00000000
0.37636839 -0.26681716 0.00000000
0.33427817 0.37178158 -0.00000067
0.57482760 -0.53273834 -0.00000010
0.02374409 -0.34756564 0.00000000
0.11035463 0.46493441 0.00000000
0.59762363 -0.07568538 -0.00000100
0.74309903 -0.11214215 -0.00000156
0.02944093 0.11569559 0.00000982
0.15132829 0.25014771 0.00000596
-0.41273519 0.16620828 0.05689540
-0.56818131 -0.18654090 -0.00000068
0.14006329 0.52871091 -0.00000012
0.28862532 -0.67654898 0.00000000
0.13768713 0.10892442 0.00000829
0.49547825 -0.26490943 -0.00000023
0.05278958 0.35660783 0.00000000
-0.17430719 -0.32855796 0.00000000
0.00424488 0.04305117 0.00001129
0.72005491 0.05464526 -0.00000176
0.15328250 -0.02540859 0.00000000
0.28715814 -0.28503139 0.00000000
0.10978071 -0.02752034 0.00000000
-0.26657210 0.52746412 0.00153424
0.12356603 -0.79367058 0.00000000
-0.16534964 0.48792675 0.03776394
0.03358168 0.33359661 0.00000649
-0.28042674 -0.50863018 0.00000000
-0.61995481 -0.31581072 -0.00000067
0.38256129 -0.43072988 0.00000000
0.04848744 -0.23114104 0.00000000
0.34513046 0.10927520 -0.00000025
0.20704525 0.56072347 0.00000002
-0.11193339 0.55551950 0.03411528
-0.65217959 0.11490341 -0.00000157
-0.07913955 0.19524677 0.13528330
-0.43250576 0.07764401 0.07460179
-0.28978699 0.09444709 0.00000000
-0.43418717 0.09884717 -0.00000061
-0.20116928 0.16055724 0.11280372
-0.69063978 -0.07013346 -0.00000141
-0.00991768 0.71316308 0.00000000
-0.45647730 0.06327477 -0.00000065
-0.61110714 -0.65856017 -0.00000003
-0.60320133 -0.55506818 -0.00000018
-0.04473985 0.30286353 0.11643855
0.10880776 0.35622409 0.00000501
0.05394931 -0.24394236 0.00000000
0.10223884 -0.10205284 0.00000000
0.26779863 -0.02658870 0.00000000
0.11890292 0.24036005 0.00000000
-0.37264383 -0.51542403 0.00000000
-0.53847079 -0.30097800 -0.00000035
-0.06166393 -0.63234588 0.00000000
0.48742446 -0.24527761 -0.00000023
-0.25872124 0.07089452 0.12106851
0.04557761 0.51591902 0.00000000
-0.09425118 0.20714893 0.00000000
0.39684528 0.27983073 0.00000107
0.03481567 0.75302338 0.00000012
0.29723349 -0.25862622 0.00000000
-0.02603960 0.25238102 0.13424488
0.15665233 0.50626933 0.00000190
-0.12866205 0.56125109 0.02833431
-0.29841481 -0.18415222 0.00000000
0.50310569 0.09881408 0.00000205
-0.00636983 -0.59782766 0.00000000
-0.22047565 0.47592924 0.02666318
-0.25680543 0.37591089 -0.00000035
-0.45620621 -0.23289604 -0.00000012
-0.18272770 0.20183968 0.00000000
0.13659570 -0.78589210 0.00000000
0.01781364 0.67742797 0.00000000
-0.09079089 0.23127564 0.12301132
0.53912604 0.18013824 -0.00000121
-0.36621133 -0.55342522 0.00000000
0.57529959 0.13483699 0.00000006
0.09141129 0.13879954 0.00000000
-0.28522026 0.50734440 -0.00000070
-0.66808758 -0.38344502 -0.00000076
-0.60679570 -0.61782963 -0.00000008
-0.28949079 -0.54977543 0.00000000
-0.21570083 0.21608161 0.09477265
0.35180767 0.08257937 0.00000523
0.38250520 -0.32742050 0.00000000
0.67395769 0.05297882 -0.00000046
-0.74941772 0.02216613 -0.00000182
0.75961535 -0.40532447 -0.00000099
0.61347525 -0.26411124 -0.00000074
0.75058575 -0.60502914 -0.00000049
0.10138034 0.13306581 0.00000847
-0.63344916 -0.16578542 -0.00000100
-0.42138519 -0.66650056 0.00000000
-0.13273744 0.33483470 0.08556093
0.34734071 -0.72867458 0.00000000
0.04767467 0.34625180 0.00000609
0.52590700 0.25689136 -0.00000128
0.14890452 0.05234467 0.00000000
0.65795528 -0.41965325 -0.00000065
-0.37934108 0.23657147 0.04738022
-0.55220225 0.24264240 -0.00000137
-0.55555094 -0.63125978 0.00000000
-0.48216659 -0.00725858 -0.00000063
0.46528879 0.12636701 0.00000232
0.69821586 -0.30595777 -0.00000102
0.43135206 0.36425528 -0.00000107
-0.56860148 -0.03274925 -0.00000095
0.72098626 -0.35765461 -0.00000103
0.15118920 -0.44648275 0.00000000
0.27383986 0.10121240 0.00000635
-0.20092396 0.52590716 -0.00000037
-0.19839564 0.19239785 0.10532242
0.57402420 -0.24385629 -0.00000060
-0.12679442 0.10767950 0.00000000
-0.00847365 -0.05379617 0.00000000
-0.69640411 0.01509327 0.02277726
-0.20561376 0.12664352 0.00000000
-0.28408207 0.47158811 -0.00000063
0.11113487 0.17802941 0.00000765
0.43159634 -0.18340320 -0.00000010
0.28462299 -0.60560440 0.00000000
0.41003144 -0.27041217 0.00000000
0.02475030 0.29621051 0.00000000
0.34059922 -0.25530810 0.00000000
0.72130626 -0.18069699 -0.00000134
0.63752260 -0.64845283 -0.00000016
-0.41048891 0.14318077 -0.00000059
0.75728856 -0.30869106 -0.00000123
0.28994865 0.34815218 0.00000198
0.23989401 -0.79937952 0.00000000
-0.13624456 0.34554874 0.08190068
-0.26814187 0.12870569 0.00000000
0.62304366 -0.01919313 -0.00000121
0.18454901 -0.08898565 0.00000000
-0.20127796 0.04488853 0.00000000
-0.12017287 -0.01332170 0.00000000
-0.01197893 0.47595317 0.00000000
0.40714445 -0.26319957 0.00000000
-0.25286223 0.08302386 0.11945464
0.52726134 -0.52991554 0.00000000
-0.09223641 0.07869645 0.16191032
-0.48087184 -0.34161122 -0.00000003
0.33328478 0.08963210 0.00000547
-0.17878837 0.00297179 0.00000000
-0.18238436 -0.45061392 0.00000000
-0.32746369 -0.32608845 0.00000000
-0.02018104 0.12063108 0.00000000
0.23729964 0.22322645 0.00000000
0.07827578 0.57055994 0.00000000
-0.30398794 0.07868311 0.10741312
0.22258794 -0.42629803 0.00000000
0.62941163 -0.53916366 -0.00000032
0.00635786 0.35508247 0.00000000
0.40669847 0.19498405 0.00000230
-0.20232886 -0.13219246 0.00000000
-0.38456882 0.30478437 -0.00000077
-0.50253902 -0.02518737 -0.00000069
-0.44834820 0.05718139 -0.00000060
-0.74545034 -0.60658177 -0.00000048
-0.29616089 -0.30634760 0.00000000
-0.51738974 -0.41508249 -0.00000006
-0.27033691 0.52059040 -0.00000066
0.49635428 0.13524677 -0.00000094
-0.22538711 -0.79214762 0.00000000
0.77669919 -0.08805157 -0.00000174
0.47073372 0.04533943 -0.00000067
0.32222908 -0.55416083 0.00000000
0.25031006 0.43697905 0.00000126
0.03378840 -0.73484637 0.00000000
-0.51213529 -0.00746655 -0.00000076
0.26713152 0.10955561 0.00000633
-0.52374123 0.11265278 -0.00000102
0.64993281 -0.34481745 -0.00000075
-0.54056771 0.21237935 -0.00000127
0.07268670 0.24020619 0.00000000
0.44680777 0.19987454 -0.00000085
-0.18552807 0.37250904 0.06227700
0.17153617 0.37518198 0.00000378
0.18574569 -0.39824299 0.00000000
0.71296246 -0.65639714 -0.00000036
-0.66557816 -0.43417937 -0.00000066
0.70912555 -0.17987104 -0.00000129
0.57837590 0.20068692 -0.00000141
-0.26912206 0.26392951 0.06870768
-0.19769212 -0.10493939 0.00000000
-0.10991677 -0.61833818 0.00000000
0.34390588 0.41973327 -0.00000025
0.13795076 0.59383012 0.00000079
-0.18440887 0.50836417 -0.00000027
-0.20369384 0.30561668 0.00000000
-0.62999199 -0.13954202 -0.00000103
-0.31872465 -0.35831776 0.00000000
-0.10028738 0.35591157 0.08848814
0.53763146 -0.53238868 0.00000000
-0.06499244 0.25203062 0.00000000
-0.00768070 0.71318099 0.00000000
0.06516976 0.54134666 0.00000000
0.34662511 -0.29102540 0.00000000
0.20418205 0.28562877 0.00000463
-0.48230289 -0.60742656 0.00000000
0.17794951 -0.59931752 0.00000000
0.56062468 -0.48774119 -0.00000012
-0.03515926 -0.38001086 0.00000000
0.78879039 -0.46582822 -0.00000084
-0.05516682 -0.60057939 0.00000000
-0.38432015 -0.78484250 0.00000000
-0.25721451 0.05832684 0.12469100
-0.27629867 -0.28438485 0.00000000
0.25864678 -0.74410070 0.00000000
-0.56361532 -0.50882061 -0.00000009
0.00731103 -0.43268121 0.00000000
-0.39677796 -0.09260478 -0.00000012
0.01578400 0.44164146 0.00000514
-0.08216139 0.28797890 0.11063802
-0.42703064 -0.40827726 0.00000000
0.33461452 0.01178738 0.00000674
0.01280674 0.29373946 0.00000000
0.14147281 0.05132388 0.00000000
0.30823424 -0.10274629 0.00000000
-0.47405097 0.20992828 0.02986063
0.73832049 -0.36675996 -0.00000108
0.30081858 0.07707861 -0.00000001
-0.69416054 -0.23494658 -0.00000113
-0.13250537 0.29099794 0.00000000
-0.67507103 -0.56687190 -0.00000046
0.68486915 0.07896434 -0.00000165
-0.16689658 0.55805233 0.01931653
0.66825624 -0.49444374 -0.00000056
-0.45188432 0.33963891 -0.00000111
0.08271196 0.46760180 0.00000000
0.47098749 0.25330361 0.00000009
0.24386869 -0.70455736 0.00000000
-0.08720349 -0.75181646 0.00000000
0.05204622 -0.03202436 0.00000000
0.42683739 -0.02376171 -0.00000037
0.51351462 -0.22762693 -0.00000037
0.10598106 0.49410754 0.00000299
0.22086055 0.38510427 -0.00000021
-0.59162242 0.08274897 0.03233321
-0.35909541 0.29250123 0.03819574
0.71478792 -0.38072227 -0.00000096
-0.50535369 -0.07799400 -0.00000060
0.15931047 0.30386143 0.00000000
-0.43193365 0.34725706 0.00535478
-0.67997429 -0.18007846 -0.00000117
-0.20183294 0.46580851 -0.00000027
-0.07092367 -0.76652142 0.00000000
0.15370424 0.05736266 0.00000882
0.60754068 -0.00719721 -0.00000117
-0.31526917 -0.16216488 0.00000000
-0.43395174 -0.19879053 -0.00000009
0.12947645 0.07753449 0.00000000
0.40041356 0.09556793 -0.00000046
-0.24542323 0.28717558 0.06882428
0.29704548 0.34976197 -0.00000047
-0.16645460 -0.24966411 0.00000000
-0.02303891 0.17205066 0.15569274
0.45200192 0.23610573 0.00000074
-0.73864919 -0.17659404 -0.00000143
-0.02309956 0.37005157 0.10471538
0.32474182 -0.04336618 0.00000000
-0.28155166 0.17024004 0.08962269
0.06306697 0.67445183 -0.00000005
-0.08953377 0.52053931 0.00000000
0.51831412 0.11491782 0.00000149
0.48185986 -0.70895585 0.00000000
0.64488292 -0.57315121 -0.00000032
-0.56665011 0.03120179 0.05202823
0.52876193 -0.11652721 -0.00000064
-0.15750030 0.06280247 0.00000000
0.63938026 0.08293903 -0.00000146
-0.34739663 -0.51415809 0.00000000
-0.50892480 -0.12971107 -0.00000053
0.67118909 -0.43736407 -0.00000068
-0.79035853 -0.61806925 -0.00000045
0.35555950 0.25825936 0.00000222
-0.25651036 0.41020856 -0.00000041
-0.01182504 0.25913942 0.00000000
0.50839892 -0.53441449 0.00000000
0.01545272 0.69266601 0.00000138
0.19662600 0.07918308 0.00000000
-0.30408191 -0.11455011 0.00000000
0.33099043 0.40224285 -0.00000071
-0.70409667 -0.53194115 -0.00000065
-0.52633958 0.18359524 -0.00000116
0.23688395 -0.10378470 0.00000000
0.34288937 -0.12603152 0.00000000
0.66264041 -0.61041708 -0.00000033
0.74186230 -0.28181401 -0.00000125
0.62047767 0.05929518 0.00000046
0.66653485 -0.36383985 -0.00000079
0.08466779 -0.48634723 0.00000000
-0.45031139 0.14488306 -0.00000076
-0.37540208 0.08169414 0.08825712
0.55765032 -0.41522439 -0.00000023
0.35354291 0.36306263 -0.00000074
0.51987504 -0.14646631 -0.00000055
-0.10100211 0.26525537 0.00000000
-0.04299700 0.64441935 0.02897700
-0.23655556 -0.02880328 0.00000000
-0.21553079 0.11263366 0.12144199
-0.29112817 -0.53394143 0.00000000
0.25698812 -0.74628261 0.00000000
0.52097824 -0.29868903 -0.00000028
0.46131981 -0.02232789 -0.00000052
-0.23379205 -0.10472990 0.00000000
0.45192614 -0.51019257 0.00000000
0.33463006 -0.44483246 0.00000000
0.34935358 0.00664584 0.00000654
-0.21549581 0.23885195 0.08896475
-0.24986682 -0.79392062 0.00000000
0.18084484 0.33693888 0.00000422
0.20430093 0.09559245 0.00000748
0.03969939 0.63935170 0.00000000
0.54434412 -0.42254620 -0.00000016
-0.23106689 -0.79769877 0.00000000
0.16057944 -0.11614110 0.00000000
-0.61366565 -0.57608129 -0.00000019
0.12620729 0.59834611 0.00000094
-0.01735603 0.53212872 0.00000000
0.20345524 0.01807376 0.00000000
-0.48165579 0.20830257 0.02832167
-0.16473487 -0.04092190 0.00000000
-0.10326689 0.63748249 0.01524991
-0.04065764 -0.62690651 0.00000000
0.43445520 -0.62807169 0.00000000
-0.10021420 0.52541187 0.04488075
0.46439435 0.01330526 0.00000422
0.42629466 0.33060645 -0.00000099
-0.42523397 -0.54307317 0.00000000
-0.23719763 0.27815850 -0.00000009
0.67924441 0.04478418 -0.00000156
-0.62020316 -0.05803123 -0.00000113
-0.20804103 0.25263766 0.00000000
-0.56351780 -0.58178429 0.00000000
-0.48989372 0.09449965 0.05549246
-0.05562158 0.26742036 0.00000000
0.79838499 -0.04050478 -0.00000190
0.14231527 -0.17648085 0.00000000
0.38276836 0.26894370 0.00000152
-0.21468501 0.44429865 0.03629484
0.13591349 0.62457796 -0.00000027
0.46360993 -0.17945447 -0.00000025
0.52346835 -0.41498551 -0.00000009
0.38099977 0.18162225 0.00000301
-0.30217345 -0.32581998 0.00000000
-0.22016105 0.28522720 0.07582788
-0.37655750 -0.71358117 0.00000000
-0.60621759 0.19373602 0.00001023
-0.04092595 -0.64628529 0.00000000
0.31887286 0.23066461 0.00000339
-0.57664387 0.06691948 -0.00000117
0.25520234 -0.24174677 0.00000000
-0.28341856 -0.48207861 0.00000000
0.49880952 -0.45497992 0.00000000
-0.05514724 0.54180335 0.05226122
0.75652042 -0.74835009 -0.00000013
-0.18586603 -0.16414600 0.00000000
-0.48543686 0.01313675 -0.00000068
-0.19172351 -0.57907176 0.00000000
0.43836049 -0.59817969 0.00000000
0.34744748 0.13007361 -0.00000030
-0.11146781 0.51226614 0.00000000
0.12109017 0.00671926 0.00001007
0.63092820 -0.31777816 -0.00000072
-0.07926872 -0.54684762 0.00000000
-0.48724271 -0.03801010 -0.00000060
0.58132742 0.00625038 -0.00000108
0.30045312 0.25036378 -0.00000031
-0.17891365 0.43461839 -0.00000012
-0.08498922 -0.77155515 0.00000000
0.02696803 -0.52911584 0.00000000
-0.06799650 0.04213545 0.00000000
0.55622916 0.18103937 -0.00000034
0.17564466 0.30050873 0.00000484
0.10738128 0.06455879 0.00000000
0.37308634 0.15813937 -0.00000046
0.28755996 0.32588333 -0.00000039
-0.24721218 -0.53487723 0.00000000
-0.69311923 -0.45352633 -0.00000074
0.21259005 -0.12863525 0.00000000
-0.12817880 0.50725637 0.04235610
-0.21302096 0.22707187 0.09263370
-0.23574464 -0.36642973 0.00000000
-0.63708440 -0.74426584 0.00000000
-0.45892299 -0.19474582 -0.00000020
-0.10137219 -0.64803850 0.00000000
-0.71165966 0.05120263 0.00955667
0.34178851 -0.18061031 0.00000000
-0.45558770 -0.09248063 -0.00000037
-0.50656982 0.16675414 0.03260304
0.17082213 0.06672611 0.00000842
0.20868946 0.05530440 0.00000000
-0.36560135 0.16199930 0.07011039
0.09495642 0.42865325 0.00000414
-0.46737067 -0.59614820 0.00000000
0.11783470 0.19553533 0.00000729
0.72559456 -0.53780488 -0.00000066
0.10973195 0.46926488 0.00000000
0.35589078 0.28861148 0.00000171
0.09945039 -0.16261710 0.00000000
0.07972130 0.25586478 0.00000696
-0.69013650 -0.32373362 -0.00000096
0.09158518 -0.50080020 0.00000000
-0.49393933 -0.21283324 -0.00000032
0.15051205 -0.78792315 0.00000000
0.21418340 -0.08402916 0.00000000
0.49956130 0.13383364 -0.00000095
-0.28035896 0.04501393 0.00000000
-0.09870264 0.48191721 0.05646451
0.25677483 0.00166468 0.00000000
-0.20717229 0.01917849 0.14764693
-0.78097328 0.00745757 0.00297552
0.74236751 -0.28122429 -0.00000126
-0.48236879 -0.52448835 0.00000000
-0.31239794 -0.28915637 0.00000000
0.60203219 -0.38076056 -0.00000048
-0.08687130 0.06073498 0.16791414
0.27663952 -0.20547128 0.00000000
-0.07744465 0.19241908 0.13644733
0.22629721 -0.47127221 0.00000000
-0.66466492 -0.23585093 -0.00000101
0.75582011 -0.55261550 -0.00000062
-0.22142881 0.29608328 0.07270743
0.36525077 -0.21801059 0.00000000
0.71641363 -0.40509977 -0.00000093
-0.34638199 0.25949459 0.04996342
0.73895121 -0.38936062 -0.00000103
0.54291804 -0.73082141 0.00000000
0.39545455 -0.10071844 -0.00000010
0.01907941 0.66158323 0.00000000
-0.00901088 0.55584795 0.06052099
-0.77732913 -0.14466101 -0.00000164
0.38148064 -0.72419292 0.00000000
0.30139305 -0.75763588 0.00000000
0.18311579 0.32338264 0.00000439
0.53206366 0.14654070 -0.00000112
0.44640201 0.26491312 0.00000037
0.57335400 0.00965228 0.00000219
0.63594606 0.06733632 0.00000003
0.52301416 -0.19490567 -0.00000047
-0.18515364 -0.65969354 0.00000000
0.40778577 -0.37792920 0.00000000
0.02563001 0.25620105 0.00000777
0.12781964 0.38054946 0.00000000
-0.41246288 0.33592214 0.01328374
0.05052519 0.59147963 0.00000237
0.47936979 -0.73094307 0.00000000
0.51219173 0.02427204 -0.00000081
-0.08345986 0.09837254 0.00000000
0.12542778 0.41231053 0.00000000
-0.25239532 0.46677576 -0.00000049
0.39260247 0.14932837 -0.00000053
0.09059097 -0.66765692 0.00000000
-0.13560687 0.18545876 0.12326899
-0.05118769 0.22194720 0.13560536
0.59245148 0.20620282 -0.00000146
0.34508788 0.14298377 -0.00000031
-0.45594588 0.16183776 0.04689841
0.44862773 -0.59102606 0.00000000
-0.48816788 -0.13305743 -0.00000043
-0.16175677 -0.17199490 0.00000000
-0.51036421 -0.38041716 -0.00000009
0.17722540 -0.60584270 0.00000000
0.17727746 0.43543566 -0.00000011
0.36169104 0.16148660 0.00000372
0.02669081 -0.57138880 0.00000000
-0.03231661 0.44163572 0.00000000
0.65983629 0.05462772 -0.00000022
-0.22921731 -0.23737944 0.00000000
-0.20476334 0.08769958 0.13063089
-0.05459532 -0.47989922 0.00000000
0.12606675 0.00028397 0.00000000
-0.43908017 0.28624813 0.01921812
-0.30144982 0.21527845 -0.00000025
-0.23482105 0.28465630 -0.00000009
-0.44379852 -0.51047939 0.00000000
-0.69117438 0.00412224 0.02694710
0.18291990 -0.79144905 0.00000000
0.53663071 0.10885803 0.00000124
-0.65742736 0.03603903 -0.00000146
-0.26421592 -0.66334084 0.00000000
0.21903354 0.36822042 -0.00000017
-0.34795652 0.38857044 -0.00000076
0.28332517 0.47742167 -0.00000005
0.57251334 0.17609934 -0.00000134
-0.46275033 -0.52282020 0.00000000
0.29995577 0.41748718 0.00000063
-0.24679480 0.42505536 -0.00000039
0.70196053 -0.59278320 -0.00000052
-0.49304474 -0.33971043 -0.00000009
0.42715641 -0.36228545 0.00000000
0.60594823 0.09445467 -0.00000134
0.23769206 -0.77783446 0.00000000
-0.56267060 -0.08578185 -0.00000084
0.62067548 -0.19257541 -0.00000089
0.25289425 0.43744690 0.00000120
-0.51782610 -0.22931148 -0.00000039
-0.22376514 -0.02895863 0.00000000
-0.24623039 0.16968872 0.09885561
0.01561427 0.76687912 -0.00000001
-0.74911999 -0.49527033 -0.00000076
-0.55918354 -0.51619292 -0.00000006
0.16545470 0.51474541 -0.00000020
-0.40061232 0.02463324 -0.00000034
-0.36789866 0.32176212 0.02839859
-0.39395956 0.09006770 0.08132543
-0.17373986 0.42264304 -0.00000007
0.24664865 0.52233647 -0.00000010
-0.00782644 0.06219170 0.00000000
-0.68849093 -0.26765093 -0.00000105
0.33797766 0.34787671 0.00000106
0.22468598 -0.39354359 0.00000000
0.61741230 -0.69989815 0.00000000
0.14865727 0.06186574 0.00000883
0.03697689 0.04322213 0.00000000
0.12368509 -0.72939186 0.00000000
0.32389134 0.28910171 -0.00000048
-0.46769766 0.03431839 0.07669518
0.04514909 0.74495486 -0.00000010
-0.32347013 0.39051547 0.02213788
0.36140423 -0.32268309 0.00000000
0.15910120 -0.14358808 0.00000000
0.15061664 0.07370958 0.00000862
-0.53623127 -0.37472858 -0.00000021
-0.64990369 -0.29491394 -0.00000084
0.12135322 -0.04787512 0.00000000
-0.19197555 0.56118589 0.01205499
-0.32359713 -0.12556564 0.00000000
0.45804955 0.14882583 0.00000208
0.04729763 0.51709891 0.00000353
-0.42625858 0.33911174 0.00891195
-0.64185369 -0.78613947 0.00000000
-0.01297053 -0.09464636 0.00000000
-0.14238945 0.21646012 0.00000000
0.39768345 -0.46410785 0.00000000
-0.12576435 -0.46695795 0.00000000
-0.54441462 -0.06660229 -0.00000079
0.38886972 -0.64653776 0.00000000
0.77995563 -0.64835428 -0.00000038
-0.36256180 -0.13804919 0.00000000
0.09596175 -0.07963117 0.00000000
0.44694259 -0.49150728 0.00000000
0.42880335 -0.05342511 -0.00000032
-0.29274079 -0.03917222 0.00000000
-0.52682270 0.03656716 0.06089834
-0.23077366 0.44337096 0.03239260
-0.40892553 0.28196120 -0.00000083
-0.30369309 0.44933776 0.01208829
-0.74916859 -0.44702878 -0.00000088
-0.01582819 0.71125666 0.00000000
0.50909582 -0.53402345 0.00000000
0.19940650 -0.64936772 0.00000000
0.56169047 0.05596555 -0.00000108
0.22735345 0.20084749 0.00000556
-0.16710589 -0.46674132 0.00000000
0.30317702 0.38380742 0.00000113
0.21663887 -0.29399955 0.00000000
0.06344203 0.65593238 -0.00000002
0.46558976 0.05508506 -0.00000067
-0.37876909 0.24872004 0.04440059
-0.04043864 -0.13961286 0.00000000
-0.56605262 0.16743089 0.01711873
0.39213202 -0.21145680 0.00000000
-0.47092687 -0.65483635 0.00000000
-0.29911718 0.36040534 -0.00000050
0.40936867 0.31430212 0.00000025
-0.58243652 -0.59175879 -0.00000003
0.35561588 0.30928449 0.00000137
0.42059496 -0.53996018 0.00000000
0.75074035 -0.14049612 -0.00000154
-0.43481562 0.30974456 0.01426814
0.20509714 -0.42593040 0.00000000
0.35274158 -0.64412139 0.00000000
-0.06207304 0.57020767 0.04316791
0.45055769 -0.01011070 -0.00000049
0.50758976 0.10352482 0.00000189
-0.53306990 -0.36792331 -0.00000021
0.56969875 -0.39576306 -0.00000032
0.12127059 0.38535265 0.00000439
0.25707478 0.26051233 0.00000407
-0.24276917 0.18865588 0.09486467
0.33320540 -0.50828976 0.00000000
0.04874448 -0.79153426 0.00000000
0.07564315 0.43264518 0.00000000
-0.13150732 0.30637240 0.09320321
-0.78251939 -0.69727585 -0.00000026
-0.37877268 -0.66118093 0.00000000
-0.58493904 0.19179099 0.00598769
0.25164160 -0.63823377 0.00000000
-0.67554494 -0.38570298 -0.00000079
0.12809140 -0.79004513 0.00000000
-0.64609239 -0.65445287 -0.00000019
-0.04880975 0.06015877 0.00000000
0.57091278 -0.20265886 -0.00000066
0.27554736 0.29529480 0.00000314
0.05587327 0.31181675 0.00000000
-0.07999871 0.36465618 0.00000000
-0.67544049 -0.71616751 -0.00000020
-0.25187865 -0.58319812 0.00000000
0.66776593 -0.52397503 -0.00000051
-0.15133592 0.31746078 0.08524578
0.24490184 0.53823673 -0.00000058
-0.13007714 0.54396457 -0.00000010
-0.31794833 -0.35063819 0.00000000
0.61841807 0.06363810 -0.00000134
0.41829038 0.36444802 -0.00000102
-0.63205663 -0.74429460 0.00000000
0.11492488 0.30962611 0.00000562
-0.49110095 0.06044889 0.06394588
-0.08041126 0.15124870 0.14628028
-0.17125477 -0.44758368 0.00000000
0.47486828 0.15195144 -0.00000088
0.13426941 -0.51067638 0.00000000
-0.22041295 -0.46048724 0.00000000
-0.18085839 0.45059810 0.04338001
-0.18996962 0.41776160 -0.00000014
0.20930142 0.32853704 -0.00000006
0.47077141 -0.03756404 -0.00000053
-0.10838207 0.51452104 0.00000000
-0.18801548 -0.08989108 0.00000000
0.19696402 0.59210404 -0.00000047
-0.54797314 0.20960246 0.01091785
0.28828955 -0.79530386 0.00000000
0.02345233 -0.57842023 0.00000000
-0.21004335 0.55090040 -0.00000046
0.66152565 -0.58071913 -0.00000038
0.70342068 -0.66199891 -0.00000035
0.49946876 -0.74777882 0.00000000
0.30240776 -0.28766929 0.00000000
-0.18012742 0.25126744 0.00000000
0.56108055 -0.74569546 0.00000000
-0.02105748 0.45517010 0.00000000
-0.05461378 -0.12316902 0.00000000
-0.10134153 -0.06733604 0.00000000
-0.07412130 -0.23065807 0.00000000
0.14092276 -0.65508857 0.00000000
-0.60296363 -0.14062365 -0.00000091
0.02537347 0.35871039 0.00000624
-0.15582711 0.00904987 0.00000000
0.32699104 0.46497424 -0.00000068
-0.15994895 -0.54421829 0.00000000
0.33759590 -0.24564756 0.00000000
0.15791173 0.13097453 0.00000000
0.33283029 0.23623205 -0.00000042
0.69046945 -0.27226968 -0.00000105
0.74453043 -0.15597517 -0.00000149
0.10454205 0.14285841 0.00000828
-0.15560356 0.14056148 0.00000000
0.37939874 0.23825832 0.00000210
0.45708901 -0.19520892 -0.00000019
-0.04833397 0.21413898 0.13834954
-0.59387496 -0.19494941 -0.00000078
0.65234601 0.04013487 -0.00000144
-0.19834452 0.39343456 0.05359232
-0.34031024 0.11514991 0.08867832
0.69042683 -0.39559726 -0.00000083
0.06554572 0.68120915 -0.00000007
0.19535515 0.04351706 0.00000840
0.63881821 0.15136529 -0.00000143
-0.15489086 0.17808318 0.12020401
-0.64546872 -0.35236501 -0.00000072
0.23807387 0.29182355 0.00000392
0.64452742 -0.77302053 0.00000000
0.13839683 -0.75574074 0.00000000
0.54724565 -0.15443075 -0.00000065
-0.39583029 0.36059209 -0.00000091
0.09490521 0.13928023 0.00000848
0.20661434 -0.10215736 0.00000000
-0.19752949 0.43034139 -0.00000019
0.36830366 0.15178251 0.00000376
-0.36390070 -0.62419830 0.00000000
0.23085446 -0.26923037 0.00000000
0.33336877 -0.16258417 0.00000000
-0.07693389 0.65317401 -0.00000007
0.32287464 0.19297742 -0.00000030
0.73201269 -0.62269260 -0.00000044
-0.24590951 -0.18150753 0.00000000
0.74120157 -0.11812267 -0.00000154
0.20524328 0.56890979 -0.00000047
0.21308414 0.51133448 0.00000073
-0.64359846 -0.43894192 -0.00000056
0.08225251 -0.33416568 0.00000000
-0.12494301 -0.14202139 0.00000000
-0.06028728 0.44331949 0.00000000
0.35065001 -0.77889256 0.00000000
-0.74929853 -0.59716082 -0.00000051
-0.36130682 -0.31886925 0.00000000
0.10596785 0.66721394 -0.00000022
0.46659913 -0.00652464 -0.00000057
-0.13089978 0.32345022 0.08896406
-0.23360190 -0.77131071 0.00000000
-0.55144937 -0.08232199 -0.00000079
0.70220059 0.03625136 -0.00000165
0.33758287 0.40169417 0.00000017
-0.07133930 0.08461916 0.16576443
-0.52518209 0.27022717 0.00118011
-0.76466089 0.01782252 -0.00000188
0.21828914 0.05686320 0.00000785
0.77442681 -0.39198869 -0.00000102
0.21597818 0.48499232 -0.00000036
0.71691992 -0.74388425 -0.00000014
0.03559778 -0.48779247 0.00000000
0.73434446 0.06395900 -0.00000183
-0.27942813 -0.26652605 0.00000000
0.21362274 0.55568121 -0.00000048
-0.10231914 0.05101286 0.16644047
-0.55751456 -0.47111429 -0.00000013
0.58390940 -0.06698663 -0.00000096
0.33007113 0.16412691 -0.00000028
0.43709983 0.26576941 0.00000053
0.03161559 0.07016962 0.00000000
0.22127804 -0.40278063 0.00000000
0.31330265 -0.07776461 0.00000000
0.25211131 -0.79321842 0.00000000
0.55231871 -0.34763996 -0.00000033
-0.13670243 -0.06817565 0.00000000
0.17562999 0.12730486 0.00000000
-0.19061329 0.18082325 0.11030453
0.46291248 0.28266309 -0.00000025
0.07208619 0.18440065 0.00000000
0.26678624 0.21920988 -0.00000011
0.05436283 0.14241560 0.00000000
-0.09402053 0.12323516 0.14998769
0.64217688 -0.10235927 -0.00000115
0.63930174 0.00695055 -0.00000133
-0.10025593 0.63654732 0.01626559
0.27427606 0.13288613 0.00000000
0.32371760 0.05580679 0.00000621
0.07160972 0.33793048 0.00000585
0.35269193 -0.62142205 0.00000000
0.29257521 -0.58965646 0.00000000
-0.36542981 -0.08481882 0.00000000
-0.57932556 0.04882651 -0.00000114
-0.42543606 -0.74276169 0.00000000
-0.68925476 -0.03919099 -0.00000146
-0.52920819 -0.17599576 -0.00000053
-0.53702836 -0.03065280 -0.00000082
-0.11182407 -0.13766548 0.00000000
-0.33155621 -0.54766066 0.00000000
0.66219532 0.11791168 -0.00000162
0.32687556 -0.44800317 0.00000000
-0.07799451 -0.04863788 0.00000000
0.36178603 -0.31981759 0.00000000
0.03332485 -0.73635925 0.00000000
-0.08625012 0.44946465 0.00000000
-0.16167748 0.39912630 0.00000000
0.77887759 -0.22964299 -0.00000143
-0.57800749 -0.07634535 -0.00000092
-0.21003644 0.55900195 0.00796846
-0.36430764 0.27715014 -0.00000063
0.39231547 -0.03528471 -0.00000020
0.77656373 -0.79094942 -0.00000002
-0.04226033 0.51869689 0.00000000
-0.20811394 0.08678242 0.00000000
-0.50515663 0.07565488 0.05641433
0.74228239 -0.10513952 -0.00000157
0.31197029 0.20081103 -0.00000027
-0.15471373 0.26734159 0.00000000
0.23753798 0.30389268 -0.00000014
0.07912901 0.71520624 -0.00000010
0.55110961 0.21352179 -0.00000079
-0.31167403 0.27553928 -0.00000040
0.68728621 0.04372338 -0.00000057
-0.26428927 0.02660933 0.00000000
-0.11441068 -0.10494086 0.00000000
-0.57987318 -0.71834814 0.00000000
-0.11193652 -0.24443514 0.00000000
0.46603569 0.20821463 -0.00000094
-0.35173037 -0.60783836 0.00000000
-0.42338552 -0.61766479 0.00000000
-0.58461781 0.12615096 0.02296511
0.07133164 0.54428712 0.00000000
-0.34129300 0.28256410 -0.00000054
0.07206429 0.64729566 0.00000117
-0.19702098 -0.43975408 0.00000000
0.16900617 0.21232838 0.00000000
-0.30626021 0.38474360 0.02805309
0.12263463 -0.09537731 0.00000000
0.30363691 -0.32539162 0.00000000
0.64187432 0.05295954 0.00000015
0.47126437 0.29080230 -0.00000111
-0.44448389 -0.47020197 0.00000000
-0.49875893 -0.54632067 0.00000000
0.57524892 -0.56877449 -0.00000004
-0.20311190 -0.31193221 0.00000000
0.10691513 -0.15511540 0.00000000
0.36061994 0.00187679 0.00000641
0.15837429 0.01875006 0.00000000
-0.69059819 -0.19274229 -0.00000119
0.04821678 -0.18365191 0.00000000
0.20322488 0.51228533 0.00000090
-0.45917028 -0.65798989 0.00000000
0.54843840 -0.48035071 -0.00000008
-0.19886219 -0.30381433 0.00000000
0.08732310 0.37937781 0.00000499
-0.77630715 -0.32856647 -0.00000118
-0.66859397 -0.15777815 -0.00000116
0.13437059 -0.71495483 0.00000000
0.23120023 0.53618331 -0.00000003
0.17256008 -0.27904333 0.00000000
-0.36750457 0.07388304 -0.00000028
-0.28830900 0.20255229 -0.00000017
0.57134318 -0.07589493 -0.00000089
0.00242945 0.29726415 0.00000000
-0.16765964 0.28906027 0.00000000
0.12511428 -0.01757325 0.00000000
-0.06564742 0.26246864 0.12145425
-0.26591082 -0.50768429 0.00000000
-0.07685509 0.66012557 0.01622000
-0.52821835 -0.23688143 -0.00000042
0.61377323 0.03830414 -0.00000127
0.54383473 -0.34792435 -0.00000029
-0.05508471 -0.55237200 0.00000000
0.06497509 0.25143205 0.00000725
0.09144640 0.24420332 0.00000000
0.56515319 -0.22533135 -0.00000060
-0.27386842 0.15644246 0.09515147
0.45751168 -0.33666444 0.00000000
-0.57950196 -0.36835313 -0.00000041
-0.30624561 0.27760649 0.05563229
0.44896112 -0.06210374 -0.00000039
-0.09554053 -0.15131187 0.00000000
-0.28652533 0.12525439 -0.00000003
0.59439367 -0.73490299 0.00000000
0.53790133 -0.65982411 0.00000000
-0.35245449 0.17176549 0.07098056
0.46609627 0.32335050 -0.00000115
-0.68958618 -0.45423700 -0.00000073
0.23860524 0.52530916 -0.00000053
0.35739814 -0.38761457 0.00000000
0.05870340 -0.22754131 0.00000000
0.38236419 0.35752911 0.00000005
0.34553427 -0.14040795 0.00000000
0.37027010 -0.59260004 0.00000000
-0.27626461 -0.54600391 0.00000000
0.06117458 -0.46922966 0.00000000
-0.17469195 -0.38068330 0.00000000
0.29324490 -0.69994184 0.00000000
0.29926184 0.31323147 0.00000238
-0.35903467 0.20079999 0.06181387
0.09436079 -0.08698688 0.00000000
0.59073314 -0.38498444 -0.00000043
0.26990893 -0.52790405 0.00000000
0.07212198 -0.08750788 0.00000000
-0.39068885 0.04386675 0.09405869
0.23990019 -0.62814928 0.00000000
-0.14530687 -0.33374976 0.00000000
0.21367360 0.08208915 0.00000754
0.24741906 0.50696907 0.00000014
0.06865663 0.18940491 0.00000000
0.53466271 -0.71359347 0.00000000
