ply
format ascii 1.0
element vertex 1367
property float x
property float y
property float z
end_header
-0.32977865 0.05513992 -0.32088135
-0.29897587 0.07819995 0.10301626
-0.15351414 -0.79109442 0.00000093
-0.18720737 0.05391194 -0.00000547
-0.15799930 0.36761410 -0.00000126
-0.14450523 0.45112560 0.13567087
-0.35552602 -0.05833257 0.27432665
-0.43252028 -0.63977348 0.00000271
-0.22703379 0.23805820 0.00000202
-0.42633563 -0.22928217 0.25605169
-0.10818234 0.53882058 0.08592458
-0.15320251 -0.71753271 0.00000098
-0.34122297 -0.39550940 0.00000231
-0.36223085 -0.78290938 0.00000220
-0.17195368 0.10265629 -0.00000047
-0.02482427 0.31161171 0.00000054
-0.16890055 0.28217651 -0.00000232
-0.12547007 -0.68231618 0.00000083
-0.33383784 -0.00596178 0.03671827
-0.07069249 -0.66295507 -0.00000034
-0.49734167 -0.39790904 -0.01724144
-0.36389339 -0.23916831 -0.00000185
-0.28058720 -0.79088386 -0.00000169
-0.36016181 -0.51183523 0.00000235
-0.03830966 0.02760856 0.00000029
-0.58085637 -0.59174514 -0.06593807
-0.14882424 0.44673955 -0.03770493
-0.48243472 -0.32079042 -0.27461758
-0.61168539 -0.66947258 -0.04528130
-0.39885094 -0.20274962 -0.00000203
-0.06316842 -0.02875610 0.00000010
-0.12248145 -0.71786171 -0.00000069
-0.37373198 -0.10228215 0.28368094
-0.13932449 0.46363369 0.12199893
-0.09899299 0.57012016 -0.05697383
-0.52968381 -0.44373937 -0.21903917
-0.04705787 0.59294155 0.00000115
-0.49982197 -0.39977504 -0.04303409
-0.55774793 -0.54652983 0.00071349
-0.08043751 0.54652108 0.00000133
-0.05848281 0.23406429 0.00000702
-0.20319464 -0.35965834 -0.00000095
-0.14551757 0.24989155 0.00000417
-0.16681271 -0.07974937 0.00000146
-0.04002691 -0.42752818 -0.00000001
-0.56735552 -0.56973173 0.15971316
-0.62862138 -0.72591367 0.00000384
-0.45336285 -0.29453597 0.34776948
-0.22026925 -0.19204848 -0.00000095
-0.39162782 -0.09085397 -0.34165838
-0.22084238 0.25074855 0.00000199
-0.29879289 0.07863728 0.20256975
-0.63010491 -0.71032701 -0.06789274
-0.42789197 -0.23190905 -0.00683529
-0.48742757 -0.37676640 0.13134853
-0.49225899 -0.39002751 -0.00000271
-0.06835920 0.08006156 0.00000014
-0.34672392 -0.49411824 -0.00000190
-0.22312462 0.26692456 -0.03492877
-0.28105328 0.12147514 0.11446622
-0.47312743 -0.34224543 0.19426749
-0.25741763 -0.64189568 0.00000165
-0.26328314 -0.29575436 -0.00000127
-0.41688405 -0.20645681 0.09671508
-0.39484225 -0.16178693 0.00000278
-0.24744808 0.22893292 -0.16464850
-0.16903206 0.39192057 0.05108009
-0.26344343 0.16398212 0.19714934
-0.18952640 0.36530256 -0.14298573
-0.38511166 -0.65541607 -0.00000223
-0.23531431 0.15598007 0.00000202
-0.13235492 0.48045973 0.12379154
-0.54121044 -0.50661351 0.23168951
-0.51235623 -0.41392276 -0.14385517
-0.23263514 0.18936615 0.00000238
-0.45745639 -0.26970676 -0.21693504
-0.08097531 0.15952065 0.00000011
-0.02800053 0.50409809 0.00000422
-0.21906185 0.28164229 -0.06566263
-0.47470177 -0.30783868 -0.23884429
-0.61116736 -0.67549878 0.05322586
-0.16262700 0.40737928 0.10589964
-0.58728928 -0.60901953 -0.05502315
-0.07682328 0.28642658 0.00000574
-0.37674296 -0.65403388 0.00000237
-0.20979255 0.00639295 -0.00000076
-0.18875166 -0.15167562 0.00000154
-0.31195241 -0.37904701 0.00000215
-0.46855062 -0.34453417 -0.00000254
-0.42243295 -0.21985935 0.23627291
-0.22678535 0.28767794 -0.22010615
-0.53060166 -0.48100230 0.24360713
-0.41866089 -0.18455895 -0.16367800
-0.54844198 -0.52406498 0.04107968
-0.41041919 -0.22807084 -0.00000212
-0.29755734 0.08161973 0.21219909
-0.14753543 -0.05633305 0.00000136
-0.47649308 -0.35036328 0.02417623
-0.29977552 0.04178218 -0.00000128
-0.10913344 -0.46226570 -0.00000045
-0.00800671 -0.79331279 0.00000005
-0.28045276 0.12292452 0.11949848
-0.44841077 -0.67423689 -0.00000263
-0.28184576 0.11954833 0.27318068
-0.00772212 -0.02879443 0.00000044
-0.30088764 -0.02050538 -0.00000133
-0.12638201 0.40724984 -0.00000001
-0.41467341 -0.20112339 0.17650529
-0.49991399 -0.50064698 -0.00000283
-0.09694037 -0.22993088 0.00000094
-0.41664383 -0.20140956 -0.02776426
-0.54848241 -0.75120076 -0.00000328
-0.12908620 -0.59366512 0.00000091
-0.25863214 0.19519229 -0.12247561
-0.05574651 0.18803318 0.00000028
-0.58094138 -0.57239694 -0.18829881
-0.04536177 -0.45105631 0.00000049
-0.09805537 0.56570914 -0.01521047
-0.32538730 0.01443250 0.19895196
-0.37427554 -0.46247616 0.00000247
-0.06044862 0.10861677 0.00000868
-0.36299322 -0.27166665 0.00000252
-0.52955940 -0.63835227 0.00000330
-0.22202556 -0.74710660 -0.00000131
-0.23550054 0.20366220 0.00000209
-0.17542715 0.02423436 -0.00000054
-0.15815486 -0.49483810 -0.00000076
-0.23126684 -0.13856164 -0.00000098
-0.44506600 -0.21145043 -0.39429698
-0.37754812 -0.44687743 -0.00000206
-0.34895884 -0.04247260 0.15554380
-0.00897891 -0.12173805 0.00000048
-0.34758390 -0.03916160 0.34408935
-0.04290556 -0.53489288 0.00000042
-0.29347904 0.09217944 -0.00427288
-0.05398839 -0.05911967 0.00000079
-0.16393549 -0.33246918 -0.00000070
-0.25164160 0.20433478 -0.07406945
-0.29552174 0.08654285 0.01715434
-0.28939952 0.12835401 -0.16902680
-0.44209300 -0.26732120 0.19272034
-0.06349007 0.27739855 -0.00000558
-0.13247732 0.04256249 0.00000133
-0.08694411 0.57545431 0.00000146
-0.59122494 -0.62735617 0.14926120
-0.61437474 -0.68324079 0.02339293
-0.21301833 0.20493019 0.00000275
-0.01426883 0.09854341 -0.00000997
-0.05914054 0.29741824 0.00000613
-0.27945067 0.16720109 -0.26181724
-0.36832014 -0.08568020 -0.02193249
-0.54993077 -0.52765995 0.05698036
-0.25753591 0.21359034 -0.22104125
-0.04111921 -0.14606931 0.00000066
-0.13074387 0.48434945 0.11790237
-0.13130290 0.48300234 0.06137462
-0.03980851 -0.13700712 0.00000065
-0.07997564 0.61864952 -0.07336047
-0.33060596 0.00183359 0.26648708
-0.24036878 0.23396030 -0.08915847
-0.60919033 -0.67072387 0.01047907
-0.10578078 0.00094847 -0.00000014
-0.39878277 -0.10470188 -0.36309230
-0.20444530 0.30641759 0.11566063
-0.21132235 -0.59788827 -0.00000115
-0.38989345 -0.67362311 -0.00000227
-0.03263749 -0.35748594 0.00000047
-0.02867661 0.36457960 0.00000090
-0.26843725 0.17520776 -0.14554473
-0.25863380 0.17558728 0.27251994
-0.22203215 -0.78416309 -0.00000133
-0.09368620 0.35077610 0.00000015
-0.30297058 -0.39601152 -0.00000158
-0.14901297 0.31541141 0.00000160
-0.57567183 -0.55822250 -0.19739008
-0.00214691 0.66342947 0.00000281
-0.50194271 -0.41181356 0.22825936
-0.15277363 -0.73041443 0.00000097
-0.25872180 0.18146429 -0.03791245
-0.30567773 0.08912173 -0.16943978
-0.17380268 -0.72435155 0.00000110
-0.44214211 -0.26743378 0.05832165
-0.07201531 0.61142002 0.00000142
-0.33280761 0.03565744 -0.24472194
-0.18594473 -0.51780676 -0.00000095
-0.08424136 0.49686035 0.00000263
-0.17358175 -0.46016530 -0.00000084
-0.50159254 -0.45529616 0.00000324
-0.19738541 0.32346032 0.14787093
-0.26147734 -0.20062952 0.00000195
-0.29188907 -0.26092649 0.00000210
-0.29493090 -0.22354320 0.00000214
-0.03748837 0.41599957 -0.00000411
-0.03092045 -0.10537970 0.00000062
-0.36992636 -0.09309595 0.22325395
-0.22371501 0.27169604 -0.07370763
-0.35781919 -0.06385968 0.06990555
-0.62959819 -0.71999346 0.01888854
-0.08517540 0.10148565 0.00000005
-0.20558026 0.30678570 -0.01932380
-0.40606220 -0.18034467 0.41656569
-0.13428343 -0.10576831 0.00000124
-0.31848894 -0.32401158 -0.00000162
-0.24614754 -0.65480442 -0.00000139
-0.27923215 -0.29479192 0.00000200
-0.61414389 -0.68268428 0.04149617
-0.03853630 0.54674920 0.00000332
-0.41652992 -0.77502885 0.00000253
-0.07827033 -0.41254164 -0.00000023
-0.10401968 0.54887253 0.00958062
-0.12246951 0.50705761 -0.01701391
-0.46923494 -0.28239859 -0.31545020
-0.16372489 0.40473300 0.05212781
-0.35778453 -0.06377363 0.01722627
-0.25224801 -0.19820803 0.00000190
-0.40642489 -0.18120493 0.07203090
-0.20792939 -0.56096390 -0.00000111
-0.44522541 -0.22736761 -0.29710334
-0.22283581 -0.75054335 0.00000138
-0.04104039 -0.56421900 -0.00000010
-0.02196434 0.74736684 -0.00245418
-0.41756705 -0.20810743 0.13464559
-0.29476337 -0.67296995 -0.00000170
-0.02406436 -0.15275869 0.00000026
-0.04996761 0.48120346 0.00000110
-0.15517365 -0.39018489 0.00000119
-0.09820086 -0.31428451 -0.00000029
-0.19302556 0.04659846 -0.00000064
-0.09292779 0.09576990 -0.00000000
-0.06218074 0.42961693 0.00000114
-0.34523573 -0.03349305 0.36306246
-0.25184863 0.19196845 0.26744783
-0.26272579 0.16571550 0.18644699
-0.16315398 -0.47099073 0.00000119
-0.40285659 -0.17260429 0.38657239
-0.29039715 0.09891174 0.08458184
-0.48882570 -0.38014874 0.32706017
-0.56158825 -0.72878729 -0.00000334
-0.41918659 -0.45304484 0.00000275
-0.25531760 0.19556949 -0.07475240
-0.14074777 0.46020318 0.06411654
-0.16876800 0.39254800 0.17565671
-0.30611988 0.06094432 0.29073535
-0.10990876 0.54125515 -0.04124980
-0.35360384 -0.05369081 0.24846476
-0.48587713 -0.37301952 0.04704866
-0.52391112 -0.56980638 0.00000331
-0.19376923 0.21209718 0.00000180
-0.13015622 0.18996429 0.00000140
-0.30014455 0.08945921 -0.08796382
-0.31633323 0.03628733 0.30878383
-0.05376370 0.10147159 0.00000898
-0.36660680 -0.05089968 -0.21367843
-0.43201354 -0.20486383 -0.23833390
-0.15990672 0.41395289 0.02546426
-0.21545120 0.30456529 -0.15455444
-0.24732508 0.20290286 0.09593669
-0.26190919 0.16769160 0.00716271
-0.09702952 -0.19681811 -0.00000021
-0.35926819 -0.06736879 0.31448626
-0.32945056 -0.31843851 0.00000229
-0.10968835 -0.04006869 -0.00000019
-0.29301137 -0.51035186 0.00000195
-0.43578724 -0.25208917 0.00179858
-0.50389187 -0.71931282 -0.00000299
-0.21965357 0.26969879 0.17387764
-0.02834929 0.52765708 -0.00000257
-0.18379549 0.35627057 0.12326443
-0.05593321 -0.52838990 0.00000051
-0.57395382 -0.57191032 -0.08578022
-0.52782861 -0.47185900 -0.01505464
-0.26622965 0.08537663 -0.00000105
-0.28979449 0.10036601 0.10034335
-0.39362060 -0.15030383 0.32660158
-0.14854375 -0.36980126 0.00000117
-0.20374223 0.30811541 0.15573562
-0.11186109 -0.53767606 0.00000084
-0.29008721 0.09966180 0.16173148
-0.35125666 -0.04801900 0.23985783
-0.51268853 -0.43774856 0.05271679
-0.01393183 0.04181832 0.00000061
-0.40611302 -0.18046550 0.37466916
-0.47558218 -0.30713359 -0.25655628
-0.39685111 -0.15810040 0.26787509
-0.41080068 -0.16408170 -0.17307315
-0.11707883 0.52575711 -0.05258673
-0.51581402 -0.61229094 -0.00000300
-0.28390589 0.01128266 0.00000328
-0.14694092 0.17205824 -0.00000028
-0.10725077 -0.10413755 0.00000108
-0.42917015 -0.65035863 -0.00000250
-0.35839057 -0.78956370 0.00000217
-0.16220429 0.40839517 0.15552001
-0.23879264 0.22349721 0.07364503
-0.20066021 0.25927252 -0.00000055
-0.25143906 0.19297122 0.09214234
-0.17454092 0.31084553 0.00000175
-0.39101145 -0.19996461 -0.00000198
-0.31097778 0.02873131 -0.00000215
-0.49037242 -0.38388276 0.30718356
-0.32603807 0.03970701 -0.16780321
-0.43142789 -0.18361122 -0.36247483
-0.45974232 -0.30412066 -0.03612262
-0.34758736 -0.01468347 -0.15299207
-0.08681790 0.06624715 -0.00000830
-0.14970133 -0.23622940 -0.00000055
-0.19709528 -0.74195507 -0.00000115
-0.21653592 -0.09209192 -0.00000086
-0.03440953 0.66432862 0.00000183
-0.19247129 0.34036808 -0.03143474
-0.48857564 -0.36656742 -0.08093648
-0.14158927 0.45817058 0.07745789
-0.35039872 -0.02223923 -0.14816850
-0.39364704 -0.64322516 0.00000247
-0.15213877 0.43270130 0.02869274
-0.08124122 -0.35300614 -0.00000021
-0.06926050 0.26997248 0.00000620
-0.36548924 -0.48828767 -0.00000201
-0.14572551 -0.72202556 -0.00000083
-0.05880562 -0.63704464 0.00000046
-0.61170669 -0.66021686 -0.10352221
-0.51035121 -0.39981449 -0.20184859
-0.11316641 0.52678832 0.05274767
-0.41967298 -0.20780887 -0.03348087
-0.30288897 0.06874670 0.27872661
-0.34893233 -0.00016460 -0.26416198
-0.03219571 0.49825337 0.00000062
-0.63815766 -0.74065717 0.00131828
-0.56859566 -0.56827364 -0.02759289
-0.54666443 -0.62916109 0.00000341
-0.27927026 0.06258617 0.00000271
-0.61376502 -0.65197566 -0.18619696
-0.39622915 -0.15658747 0.01269264
-0.31458531 0.04051742 0.05363215
-0.51302038 -0.40345974 -0.21936060
-0.36855480 -0.03196851 -0.36157848
-0.18524066 -0.08769882 -0.00000067
-0.14492312 0.46556790 -0.09659063
-0.32388937 0.01805037 0.24550145
-0.45673087 -0.25598750 -0.29182326
-0.19622759 -0.18062167 -0.00000080
-0.31586167 0.07755296 -0.25088866
-0.37295943 -0.10041195 0.07676243
-0.19747363 0.32735112 -0.02554892
-0.07388034 0.63165854 -0.06268472
-0.51290866 -0.40864364 -0.18523466
-0.12364245 0.39373391 -0.00000000
-0.22040593 -0.20788441 -0.00000096
-0.24503720 0.20841293 0.26414198
-0.12117407 0.33882214 0.00000144
-0.19987461 0.33094569 -0.08431639
-0.00481754 0.53814136 0.00000081
-0.30352196 -0.24908890 -0.00000149
-0.32593661 -0.70351922 0.00000203
-0.25729147 0.19284391 -0.08751637
-0.44848312 -0.25753957 -0.15751530
-0.41363091 -0.50818174 -0.00000231
-0.22362215 0.26013188 0.02409742
-0.17999367 0.24071591 -0.00000044
-0.66867521 -0.81433299 0.05333549
-0.29244926 0.09395366 0.17038962
-0.17563587 -0.13612043 -0.00000065
-0.11813651 0.23399511 -0.00000463
-0.21355335 0.23929405 -0.00000064
-0.20701629 -0.77350285 0.00000127
-0.30403743 -0.75758167 -0.00000181
-0.21603827 0.28920796 -0.06732879
-0.07524979 -0.35391843 -0.00000018
-0.26665109 0.15624123 0.15922604
-0.11572709 0.52629441 -0.03553296
-0.22192614 0.26421268 0.16511512
-0.19005119 -0.01377403 -0.00000066
-0.04557639 -0.25427658 0.00000007
-0.49745603 -0.40097789 0.14303852
-0.01498630 -0.25623077 0.00000025
-0.24071308 0.23272195 -0.08661059
-0.24715587 -0.57545254 0.00000163
-0.44242374 -0.48625825 -0.00000247
-0.13957055 0.15925073 -0.00000024
-0.46795921 -0.29561974 -0.21344683
-0.50731265 -0.41743747 -0.04567032
-0.12929955 -0.52571644 -0.00000061
-0.27368040 0.13926996 0.08046989
-0.33930554 0.03205187 -0.32032804
-0.18194412 0.36075190 0.00696306
-0.19779452 -0.42238830 0.00000143
-0.12743469 0.19592927 -0.00000497
-0.32111886 0.02474147 0.10948006
-0.21171148 0.21929155 0.00000260
-0.14641932 -0.51829514 -0.00000071
-0.19958885 -0.70789739 -0.00000115
-0.14940730 0.13843300 0.00000149
-0.05233441 0.67598464 -0.01456960
-0.35701489 -0.12634527 0.00000258
-0.38130019 -0.11185163 -0.05424971
-0.50413603 -0.38919512 -0.17440875
-0.33727063 -0.01423883 0.04658809
-0.19718310 0.34389547 -0.12469764
-0.16979113 0.19733231 0.00000416
-0.23069402 0.24304661 0.12991146
-0.23494398 0.24429451 -0.07187359
-0.06580890 0.64519649 -0.02546427
-0.14884930 0.44063912 0.13308756
-0.02614570 -0.33694737 0.00000045
-0.02518586 -0.64798442 -0.00000006
-0.37012343 -0.48374728 -0.00000204
-0.19524180 0.32863771 0.09784249
-0.33453338 -0.00763226 0.06776013
-0.15575866 0.24598837 0.00000159
-0.25534253 0.17305277 -0.00000093
-0.20312298 -0.63683580 -0.00000112
-0.01125157 -0.36943650 0.00000034
-0.00460580 0.09482021 0.00001056
-0.12685294 0.16058401 -0.00000017
-0.31990233 0.02767243 0.28855401
-0.24202599 -0.29250344 0.00000178
-0.09456146 0.57170531 0.06886353
-0.27563856 0.13453571 0.23258716
-0.09130372 0.17537375 -0.00000639
-0.15073938 -0.60117762 0.00000103
-0.22030663 0.11960878 0.00000190
-0.34202905 -0.02574387 0.18562607
-0.43520759 -0.32208198 0.00000293
-0.41799144 -0.21277566 -0.00000216
-0.25145187 0.15284982 -0.00000193
-0.01962195 0.31753335 0.00000058
-0.49646733 -0.39859140 0.15328472
-0.57820573 -0.59294706 -0.01837491
-0.08514630 0.28743601 -0.00000476
-0.34708445 -0.03793625 0.11008244
-0.43336487 -0.77238338 0.00000263
-0.41358053 -0.19848768 0.23837264
-0.09978027 -0.56281335 0.00000075
-0.34823407 -0.16535028 -0.00000171
-0.14891813 -0.36596927 -0.00000063
-0.20793118 -0.71977622 -0.00000120
-0.45878350 -0.30762220 0.33495409
-0.24383543 0.17537555 0.00000223
-0.04385976 -0.20022965 0.00000011
-0.23240936 0.23890517 0.13466982
-0.10816951 0.31502046 -0.00000362
-0.25390191 -0.52283297 0.00000171
-0.13952334 0.31648980 0.00000344
-0.24089246 -0.68593753 -0.00000138
-0.08202452 0.20781649 0.00000667
-0.37267949 -0.09974120 0.19100660
-0.08799013 -0.32537785 0.00000083
-0.24716546 0.20327768 0.20034243
-0.55910821 -0.76043331 0.00000340
-0.51495050 -0.44321078 0.08192270
-0.24506157 -0.33369147 0.00000177
-0.11672079 0.53273889 -0.09086893
-0.09232691 0.17163278 -0.00000642
-0.06213840 0.51216576 -0.00000180
-0.34127593 -0.01480864 -0.05684538
-0.30685507 -0.37963302 0.00000211
-0.22565992 0.28663978 -0.19660699
-0.64497558 -0.74092165 -0.10110021
-0.20825605 0.32587502 -0.17920772
-0.41635078 -0.47037110 0.00000272
-0.08661571 0.00099648 0.00000937
-0.22462122 0.26788336 -0.06353881
-0.35136423 -0.04828295 0.29371647
-0.05419842 -0.56957946 -0.00000018
-0.21476681 -0.47460903 0.00000150
-0.05469419 -0.31467787 0.00000063
-0.40153363 -0.11540904 -0.33764373
-0.35563974 -0.71721706 0.00000220
-0.56140259 -0.55535817 0.11613245
-0.32708855 0.01032224 0.26741854
-0.25390426 0.20628816 -0.12048578
-0.42442425 -0.22467313 0.37806366
-0.26478743 -0.04180401 -0.00000112
-0.05722235 0.66185054 0.04931432
-0.11553450 0.27936929 0.00000467
-0.21772136 -0.31697149 -0.00000101
-0.27337724 -0.78135400 0.00000166
-0.57352910 -0.56067303 -0.14968152
-0.04328131 0.19242468 0.00000088
-0.16715519 0.40128531 -0.03018483
-0.06066501 -0.50125325 -0.00000018
-0.26691354 -0.66558179 -0.00000153
-0.16025894 0.41309456 0.12707267
-0.15110350 0.33299632 0.00000286
-0.32438944 0.02799830 -0.06961370
-0.66309821 -0.77818702 -0.14169346
-0.28167366 0.11996894 0.15840600
-0.10068275 0.24621168 0.00000558
-0.24207084 -0.67238540 -0.00000138
-0.14779423 0.45468461 -0.07186111
-0.02982589 0.59426071 -0.00000144
-0.34801035 -0.10382052 0.00000254
-0.08024755 -0.05856868 0.00000095
-0.01672611 -0.14098702 0.00000031
-0.32651621 0.03106585 -0.12094046
-0.19843772 -0.22965662 0.00000155
-0.45839797 -0.24788607 -0.36770217
-0.09417940 0.41820571 0.00000133
-0.26749921 -0.37327604 0.00000188
-0.51956042 -0.41979704 -0.21592791
-0.23638900 0.22930826 0.04992255
-0.12177215 0.24380589 -0.00000008
-0.16084541 0.31680009 -0.00000200
-0.12874664 -0.42440215 0.00000101
-0.26686121 -0.52828138 -0.00000144
-0.25182367 0.19203545 0.11646832
-0.32939945 0.00475233 0.19057566
-0.04111860 0.40239430 0.00000050
-0.46013846 -0.31088138 0.06590705
-0.14215065 -0.74478860 0.00000089
-0.17354495 0.05524865 0.00000600
-0.49025452 -0.75248603 0.00000299
-0.22286613 0.20765449 -0.00000190
-0.16529177 0.28235498 -0.00000242
-0.64449592 -0.73549524 -0.12781328
-0.30401249 -0.67668884 -0.00000176
-0.08722248 -0.23648857 -0.00000017
-0.12514336 0.28776902 0.00000427
-0.50326085 -0.38406489 -0.19329020
-0.15943900 0.42715798 -0.07552658
-0.17070555 -0.15777267 -0.00000063
-0.07616724 -0.34512734 -0.00000018
-0.65960781 -0.79321772 0.00000399
-0.23488974 0.23291174 0.25287848
-0.50641076 -0.40612542 -0.10283101
-0.42676201 -0.23030756 0.16621443
-0.35670241 -0.01951186 -0.26046952
-0.03827351 0.09695613 0.00000951
-0.31225781 0.04614012 0.13193295
-0.07643435 0.33082251 0.00000025
-0.20213333 -0.79390558 0.00000122
-0.18321599 -0.63993949 -0.00000101
-0.25551940 0.07638087 -0.00000305
-0.04415267 0.69363973 -0.00144781
-0.02509817 0.19901659 -0.00000801
-0.34529292 -0.02193684 -0.07294279
-0.56448424 -0.56279545 0.05960913
-0.25274716 0.18535559 0.00000182
-0.16321295 0.00143466 0.00000149
-0.18294327 -0.11115055 -0.00000067
-0.04237475 0.42500211 -0.00000381
-0.34965827 -0.04415617 0.18891048
-0.51964321 -0.43782260 -0.10438358
-0.41921486 -0.16836427 -0.27338488
-0.24720432 0.07717735 0.00000204
-0.12251195 0.19145356 -0.00000519
-0.29939962 -0.16814935 0.00000220
-0.06121746 0.65297492 -0.00477548
-0.21606127 0.29459315 -0.10137406
-0.13430715 -0.18526066 0.00000119
-0.61641523 -0.68816938 0.11972065
-0.04752963 0.51052892 0.00000111
-0.40089304 -0.16785974 0.29522359
-0.26023886 -0.61006515 0.00000169
-0.49326166 -0.51447692 0.00000316
-0.02836501 0.10589685 -0.00000942
-0.52378353 -0.43988826 -0.15400405
-0.25336275 0.15717451 0.00000219
-0.15524534 0.42520260 0.07301789
-0.04542282 -0.23975734 0.00000008
-0.66020313 -0.79388009 0.07094228
-0.43988973 -0.47878111 -0.00000245
-0.33443969 -0.12611775 -0.00000160
-0.27117452 0.17711371 -0.19882213
-0.24169675 0.25451929 -0.23787716
-0.45160936 -0.22694573 -0.39618502
-0.54437630 -0.51425328 0.12589201
-0.19602922 0.32673483 0.17126569
-0.46838951 -0.30886982 -0.13703475
-0.32638563 0.01202212 0.20293033
-0.15605166 0.42877588 -0.03447115
-0.43832545 -0.23343473 -0.15490318
-0.27990918 0.04041270 0.00000300
-0.28305968 0.03228670 -0.00000119
-0.29470010 0.08851707 0.26728375
-0.30929018 0.05330227 0.02688631
-0.52919083 -0.44885178 -0.17960104
-0.21112541 -0.04580523 -0.00000080
-0.52945067 -0.72192851 0.00000324
-0.07513401 0.61860688 0.05897256
-0.12146410 0.50675351 0.10418706
-0.15193140 -0.79527085 -0.00000091
-0.16613501 0.39891337 0.06690175
-0.36177143 -0.23794010 -0.00000183
-0.01038422 -0.25423159 0.00000028
-0.22182723 0.16426317 -0.00000074
-0.52763301 -0.71994150 -0.00000313
-0.58002444 -0.60489664 -0.00000338
-0.44795371 -0.23396497 -0.29703585
-0.15685769 -0.48191911 -0.00000075
-0.17000710 0.41283196 -0.14552997
-0.45838978 -0.30666370 0.15618429
-0.39762260 -0.15996834 0.38869202
-0.06660274 -0.70985058 -0.00000035
-0.61676090 -0.68900105 0.01274097
-0.27433722 0.13767677 0.24772806
-0.35041995 0.00328226 -0.30820358
-0.35337265 -0.57997934 0.00000227
-0.23476034 -0.44050564 -0.00000119
-0.39606284 -0.30602633 -0.00000208
-0.51912457 -0.41313520 -0.25103021
-0.30156846 0.07195094 0.07216245
-0.32306332 0.07041152 -0.31499836
-0.15711347 -0.08414085 0.00000140
-0.32324813 0.01959600 0.27638002
-0.59055608 -0.62574136 0.11769909
-0.21166547 -0.39444047 -0.00000102
-0.54570035 -0.54682901 0.00000345
-0.37491977 -0.09466592 -0.06540260
-0.43581159 -0.59228068 0.00000276
-0.25799044 -0.20781597 -0.00000119
-0.43332731 -0.58431235 -0.00000248
-0.26508702 -0.25783186 -0.00000126
-0.22112368 0.06688770 0.00000441
-0.01615139 0.42159382 0.00000067
-0.04925713 -0.38867957 -0.00000004
-0.05294934 0.67794347 -0.03611654
-0.09313414 0.36258035 0.00000420
-0.20530459 -0.12385353 -0.00000082
-0.06150060 0.53394430 0.00000280
-0.46569406 -0.32429238 0.03266576
-0.09244829 0.50223715 0.00000137
-0.49721637 -0.42914571 0.00000323
-0.12525963 0.09920044 -0.00000019
-0.51584547 -0.78418903 0.00000312
-0.17848638 0.17719453 0.00000418
-0.01172916 0.47074730 0.00000517
-0.58808075 -0.61976563 0.21373435
-0.25066838 0.16320327 0.00000211
-0.15902572 -0.75728737 0.00000099
-0.42951851 -0.21428697 -0.14167703
-0.17995142 0.17780517 -0.00000368
-0.32583801 -0.77517788 -0.00000195
-0.64973523 -0.76860897 0.09147934
-0.12808502 -0.74295725 0.00000081
-0.13744196 0.13395962 0.00000141
-0.43546892 -0.25133077 0.22815908
-0.43915776 -0.20256718 -0.36063031
-0.28888198 0.10258230 0.02416968
-0.46387018 -0.31989067 0.06752857
-0.09027960 0.55328833 0.00000139
-0.14787551 0.08299789 0.00000640
-0.28112747 -0.46801415 -0.00000149
-0.04982177 0.68057100 -0.00530815
-0.48151755 -0.36250575 0.30846452
-0.29689566 -0.63744191 0.00000189
-0.46117411 -0.25752779 -0.34930728
-0.32379127 -0.73855086 -0.00000192
-0.43842376 -0.25846058 0.14217413
-0.32355236 -0.40003402 -0.00000170
-0.56302263 -0.59304670 -0.00000327
-0.03402526 0.71785456 0.01723518
-0.53615048 -0.51301843 -0.00000306
-0.16727927 -0.77206623 -0.00000099
-0.17929794 -0.69865907 -0.00000102
-0.03024317 0.72698481 0.03126532
-0.48311310 -0.36380984 -0.01567142
-0.26488678 0.16049288 0.23411079
-0.39009966 -0.09509207 -0.29204625
-0.19672509 0.29631337 0.00000199
-0.25972078 0.21447676 -0.25959402
-0.19689034 0.35253385 -0.17432981
-0.20876226 0.29599839 0.05053587
-0.17086067 0.04393973 -0.00000613
-0.33876982 -0.01788259 0.35637517
-0.14267095 0.45555505 0.11171685
-0.35771586 -0.03518081 -0.17772544
-0.52063470 -0.53282156 -0.00000298
-0.41433428 -0.69269908 -0.00000243
-0.11874469 -0.68899146 -0.00000065
-0.31094891 -0.10073137 0.00000231
-0.32008869 -0.04036396 0.00000241
-0.17818406 -0.14359666 0.00000149
-0.34469978 -0.32460075 -0.00000178
-0.38569005 -0.07116622 -0.37515475
-0.56193183 -0.55663703 0.14209090
-0.60166140 -0.64828277 -0.02644777
-0.43702123 -0.24398324 -0.06919340
-0.25974279 -0.40304505 0.00000182
-0.66440074 -0.79010417 -0.08679204
-0.42715616 -0.16446866 -0.41772812
-0.11571227 0.39179553 0.00000312
-0.36797467 -0.17465424 0.00000261
-0.51811893 -0.45086323 0.15227734
-0.17270448 0.25928359 0.00000322
-0.06339104 0.16394352 0.00000783
-0.40951595 -0.18867083 0.14768772
-0.10509700 0.09198919 -0.00000008
-0.06853550 0.34249686 0.00000522
-0.25169213 -0.54322288 0.00000168
-0.07485580 0.09017337 0.00000010
-0.11824450 -0.15795412 -0.00000031
-0.32202871 -0.49431661 -0.00000175
-0.16041453 -0.38476685 -0.00000071
-0.19867479 -0.71040127 -0.00000114
-0.39297770 -0.14874974 0.28222000
-0.24108761 0.21796670 0.02749332
-0.29020754 -0.67520393 0.00000183
-0.25357323 -0.15881344 0.00000193
-0.57394314 -0.55239189 -0.20776138
-0.25007368 -0.08137775 0.00000196
-0.26985916 0.17819416 -0.18571242
-0.17061230 0.38809595 0.16426805
-0.13172493 0.50059350 -0.11638311
-0.08873691 -0.44242783 -0.00000031
-0.18314200 -0.39231369 -0.00000085
-0.47664806 -0.35074013 0.08435158
-0.30860899 -0.19860084 -0.00000149
-0.19572854 0.32746193 0.15599840
-0.26030744 0.03149000 -0.00000363
-0.20347045 0.25850026 0.00000189
-0.03127766 -0.51132114 0.00000037
-0.17451309 0.34278789 -0.00000116
-0.34365218 -0.45947457 -0.00000186
-0.11415140 0.21739593 0.00000132
-0.18176665 0.36117286 0.02896463
-0.57433329 -0.56144164 -0.15702052
-0.45417084 -0.29647790 0.14890327
-0.22252547 -0.43100043 0.00000157
-0.24646295 0.20497510 0.16886334
-0.37911206 -0.60714982 -0.00000217
-0.22144765 0.04482792 0.00000470
-0.32689368 -0.19486698 0.00000235
-0.16419107 0.16634675 0.00000476
-0.50260471 -0.41340327 0.03790607
-0.22650530 -0.08834341 -0.00000092
-0.09406526 -0.01100078 0.00000106
-0.29472245 -0.64697202 0.00000187
-0.37730896 -0.11092515 0.35561016
-0.10625580 0.54391238 -0.00269808
-0.03411775 -0.20666995 0.00000016
-0.49183349 -0.33819937 -0.30766486
-0.04004512 -0.53818039 0.00000041
-0.45338667 -0.29459304 0.33481400
-0.41132367 -0.17320759 -0.12386846
-0.40447801 -0.17651946 0.40239534
-0.02095361 -0.10837732 0.00000031
-0.21791806 0.30484471 -0.19357300
-0.41726085 -0.20737117 0.20129444
-0.30672487 0.05948983 0.15409731
-0.11970338 0.03228861 0.00000794
-0.24567954 0.20686347 0.24847963
-0.41759944 -0.20818834 0.19566713
-0.15331013 -0.03192525 0.00000141
-0.03473744 0.54551623 -0.00000209
-0.40353570 -0.17423628 0.21821324
-0.33377187 0.00205352 -0.04901816
-0.42581498 -0.22801991 0.13728405
-0.23935597 -0.66893216 -0.00000136
-0.38504195 -0.10997290 -0.12253124
-0.38303353 -0.12474160 0.26720307
-0.40330655 -0.14820808 -0.15919121
-0.05134126 0.67791704 -0.01165571
-0.02129438 -0.60501396 0.00000025
-0.07387224 -0.72437973 -0.00000040
-0.29943706 -0.76108764 0.00000183
-0.34959312 -0.04400790 0.24523800
-0.06988090 0.35743232 -0.00000408
-0.36891581 -0.78448711 0.00000224
-0.00996716 0.25432699 0.00000072
-0.11570564 0.52065650 0.08762203
-0.09237024 0.43141268 0.00000133
-0.28694136 0.10725839 0.00419097
-0.13811224 0.04938688 -0.00000703
-0.63026184 -0.69686801 -0.15449417
-0.14978008 0.32459873 0.00000161
-0.33193040 -0.36954676 0.00000227
-0.27811875 0.12893849 -0.00225125
-0.02601886 0.74015498 -0.01857551
-0.22627846 0.25752031 -0.02373813
-0.04429098 0.47866732 -0.00000289
-0.30636807 0.06035661 0.16313461
-0.44703414 -0.23279834 -0.29044437
-0.10103021 0.56947143 -0.08369288
-0.03331866 -0.32065616 0.00000010
-0.42585053 -0.19850849 -0.18500000
-0.64311964 -0.76860989 -0.00000386
-0.47195701 -0.56873570 -0.00000270
-0.05738557 0.42944323 -0.00000329
-0.18696201 0.34863099 0.09275667
-0.53213213 -0.48095053 -0.02317614
-0.27795774 0.06383976 -0.00000257
-0.30623981 0.06067529 0.04855572
-0.11455653 0.18313029 -0.00000008
-0.17215368 0.38438833 0.00117476
-0.31213067 0.07754357 -0.19447160
-0.42649313 -0.21920007 -0.06523000
-0.56007084 -0.55214057 0.06113644
-0.27181470 0.07386218 -0.00000109
-0.61984267 -0.71541676 -0.00000369
-0.21046346 -0.11814966 0.00000170
-0.16358401 0.34629460 0.00000230
-0.53783113 -0.53199223 -0.00000308
-0.62726164 -0.69960698 -0.09202354
-0.27413430 0.13817115 0.14717696
-0.33932574 -0.01922065 0.25742888
-0.06964621 0.19479224 -0.00000673
-0.19436758 0.33075059 0.04642166
-0.18325188 -0.66631762 -0.00000102
-0.48409357 -0.34611047 -0.14123699
-0.09531215 0.47854087 0.00000254
-0.31489728 -0.66754109 -0.00000182
-0.52527895 -0.51796881 0.00000335
-0.24160708 0.09726792 0.00000337
-0.24882170 0.00701754 0.00000439
-0.43918631 -0.22582233 -0.21554240
-0.18351689 -0.48506180 0.00000130
-0.32155669 0.02369786 0.04320787
-0.52662875 -0.45378766 -0.11001022
-0.30093788 -0.79636957 0.00000182
-0.27087852 0.14603900 0.11353920
-0.56004579 -0.64255914 -0.00000328
-0.58810589 -0.61982630 0.15750969
-0.49508925 -0.38166721 -0.08484833
-0.33755280 -0.01493448 0.12520996
-0.06177746 0.03722567 0.00000015
-0.08786610 0.58786910 0.05032160
-0.24067176 -0.70751241 -0.00000139
-0.29300989 -0.65861881 0.00000186
-0.49187188 -0.66925908 0.00000305
-0.35247606 -0.02262736 -0.17713500
-0.13189474 0.26583521 -0.00000013
-0.00104506 -0.30808153 0.00000030
-0.15040598 0.32190911 0.00000303
-0.33060375 0.00246881 -0.00373548
-0.15405695 0.22873114 -0.00000029
-0.14745052 0.34401381 0.00000282
-0.32767932 -0.74962792 0.00000201
-0.12433983 -0.47170073 0.00000096
-0.08597538 -0.43993933 0.00000074
-0.32153586 0.02373291 0.23643556
-0.14341811 0.21738476 -0.00000414
-0.29128782 -0.13941704 0.00000217
-0.43481430 -0.23427214 -0.09662145
-0.55156872 -0.51008302 -0.13450107
-0.28749437 -0.28115111 0.00000206
-0.04897627 0.68175785 0.05264477
-0.36256456 -0.32353147 0.00000249
-0.37706542 -0.11032565 0.09736001
-0.45346700 -0.29478017 0.18248967
-0.53693509 -0.46878044 -0.17188700
-0.54875019 -0.48261302 -0.26382331
-0.15021550 0.45274742 -0.09631643
-0.09595154 0.49051905 0.00000139
-0.23201559 -0.21543021 -0.00000103
-0.29827732 0.07989737 0.05952863
-0.11627543 0.21764867 0.00000134
-0.38141328 -0.31219448 -0.00000200
-0.35297486 0.00104007 -0.33276738
-0.02704758 0.61065638 0.00000104
-0.08721500 -0.51913960 0.00000070
-0.28774483 -0.15964307 0.00000214
-0.00573374 0.72305886 -0.00000008
-0.28483889 0.11233379 0.14210347
-0.33993791 0.02928736 -0.31258211
-0.10472640 0.38668137 0.00000011
-0.19415101 0.33127186 0.08155769
-0.18040203 0.36446711 0.03460372
-0.33054895 0.00197078 0.20631841
-0.09582248 -0.37603870 0.00000084
-0.64052555 -0.73709015 -0.05784433
-0.19192128 -0.05579575 0.00000162
-0.44478751 -0.26315187 -0.06656810
-0.09888829 -0.35790728 -0.00000032
-0.06614074 0.64031872 0.06377612
-0.26648231 -0.53185310 -0.00000144
-0.31987088 -0.00023697 -0.00000143
-0.18962045 -0.14407821 -0.00000073
-0.59279695 -0.61019467 -0.13087265
-0.06219380 -0.52910668 -0.00000021
-0.06562643 0.14901140 0.00000020
-0.30374731 0.06667572 0.21247306
-0.21005356 0.31687447 -0.15003899
-0.31752945 0.05802722 -0.15389438
-0.22826527 0.24890524 0.24009213
-0.15597033 -0.15804120 -0.00000054
-0.14980722 0.36685842 0.00000163
-0.28172235 0.05839283 -0.00000116
-0.27679134 -0.65029936 0.00000176
-0.11676736 -0.69618235 0.00000077
-0.15269473 0.32045637 0.00000299
-0.20555052 -0.01726544 0.00000173
-0.32060759 0.02596812 0.28157275
-0.14068327 -0.07080348 -0.00000039
-0.18238578 -0.78457732 0.00000111
-0.51534758 -0.44417389 0.18234712
-0.24972989 0.19708965 0.13089615
-0.51102614 -0.74338782 -0.00000305
-0.10851358 0.45924397 0.00000144
-0.00272218 -0.25548623 0.00000032
-0.35136141 0.00733901 -0.34781103
-0.17349375 -0.14832983 -0.00000064
-0.23098406 0.27832726 -0.22502275
-0.02420462 0.46837120 0.00000065
-0.23480773 0.24628373 -0.08226351
-0.07306953 0.61343631 0.00000136
-0.22142459 0.26542610 0.16506640
-0.11927629 0.47355121 0.00000189
-0.29639388 -0.13505408 0.00000220
-0.60973517 -0.65889334 -0.08201970
-0.04991206 0.60501953 0.00000058
-0.27572639 0.12219127 0.00000224
-0.20661996 0.30116948 0.07047131
-0.15878716 0.44153977 -0.15567309
-0.01970195 0.67402500 0.00000080
-0.18523704 -0.74662465 0.00000115
-0.01521947 0.38946534 0.00000619
-0.35341071 0.00127947 -0.34085145
-0.19365544 0.33246302 0.20399280
-0.30551001 0.10178040 -0.24611762
-0.35770050 -0.06358067 0.23925596
-0.18182080 -0.34059708 -0.00000081
-0.28985066 0.10022988 0.11212313
-0.44539541 -0.26549248 -0.06110509
-0.13666565 -0.13692514 -0.00000041
-0.03631108 0.71233642 0.00935937
-0.26364689 0.16349006 0.14893543
-0.11983190 0.38744154 0.00000002
-0.32531461 0.02244265 -0.04882402
-0.30531020 -0.47375725 -0.00000164
-0.07386010 -0.60228630 -0.00000032
-0.39822172 -0.09739732 -0.40032462
-0.19526343 0.32859695 0.00210291
-0.30681755 -0.09924245 0.00000229
-0.15665666 0.42179511 0.00549752
-0.35576835 -0.09128163 0.00000259
-0.47015997 -0.33507512 0.05547511
-0.15944158 0.33333394 -0.00000025
-0.21467668 0.29729797 -0.09738299
-0.23541368 0.25967963 -0.17525246
-0.13385892 -0.68812258 -0.00000074
-0.48085758 -0.36091248 0.32536987
-0.07735119 0.41153762 0.00000122
-0.09601438 -0.16093523 -0.00000018
-0.18647064 -0.26924360 0.00000146
-0.35967063 -0.06833457 0.18465131
-0.24163730 -0.64549903 -0.00000136
-0.30002996 -0.13370583 -0.00000139
-0.11675126 0.33756076 -0.00000299
-0.30852276 -0.36284578 -0.00000159
-0.33868794 -0.01767549 0.13679639
-0.38540027 -0.06999956 -0.37807759
-0.04518271 0.69092027 0.00172717
-0.34471927 -0.03223496 0.22026829
-0.38038708 -0.06852529 -0.31156534
-0.32058129 -0.51574721 0.00000211
-0.15288616 0.12632869 0.00000150
-0.21709378 0.18442157 0.00000193
-0.24955543 0.21604620 -0.11584148
-0.02368328 0.22239574 0.00000078
-0.29121308 -0.60457680 -0.00000164
-0.29826759 0.08895715 -0.05646755
-0.18384933 -0.67821168 -0.00000103
-0.07776338 0.61750610 -0.03278321
-0.12528702 0.17527001 0.00000581
-0.55996230 -0.55187963 0.08600781
-0.23733409 0.12972779 -0.00000085
-0.22004287 0.27289676 -0.02575746
-0.00948117 0.19192247 0.00000068
-0.05162095 0.59396310 0.00000118
-0.19653370 0.32552247 0.01532318
-0.01326046 0.40669485 0.00000083
-0.00322231 -0.16998844 0.00000037
-0.52267570 -0.53612990 -0.00000299
-0.15267055 0.40687891 -0.00000078
-0.27632071 0.17575743 -0.26807603
-0.52884411 -0.43217273 -0.27873698
-0.08859745 -0.71533475 0.00000059
-0.29682752 -0.35531861 0.00000207
-0.61371252 -0.68485878 -0.00000363
-0.18595760 -0.36190410 0.00000140
-0.58298856 -0.60414796 -0.02053757
-0.13209106 0.48582492 -0.02949272
-0.39736009 -0.13166361 -0.17288718
-0.10374513 0.46364688 -0.00000133
-0.20741143 -0.27600698 0.00000158
-0.07506094 0.37544356 0.00000028
-0.21661969 -0.65080044 0.00000140
-0.17431027 -0.68339100 0.00000112
-0.29493615 0.09287279 -0.03062518
-0.34464734 -0.03206261 0.13187167
-0.60700300 -0.66544680 0.09725014
-0.25821410 -0.78758837 0.00000157
-0.44859150 -0.24564797 -0.23356420
-0.29785913 0.11271959 -0.19899056
-0.25882917 -0.43125559 -0.00000133
-0.54213835 -0.71414001 0.00000333
-0.28382642 0.00713831 -0.00000332
-0.07342051 0.62274613 0.03631846
-0.49299261 -0.43372546 0.00000320
-0.30626322 0.06060780 0.07718418
-0.00579887 0.00841974 -0.00001169
-0.25562394 0.18285850 0.21453254
-0.24995618 -0.76384893 -0.00000149
-0.33095175 0.00100618 0.17265091
-0.21807197 0.29985177 -0.16465101
-0.10172333 0.55511350 -0.00431231
-0.31587464 -0.31489241 0.00000221
-0.40455332 -0.37199233 0.00000271
-0.26351295 0.01259114 0.00000210
-0.12531450 0.51611321 -0.11665767
-0.46356371 -0.31915444 0.14945333
-0.39930809 -0.16402075 0.01372511
-0.12854963 -0.76101398 0.00000080
-0.20442863 0.16570063 -0.00000314
-0.17307710 0.03171706 -0.00000052
-0.07064130 0.16030453 -0.00000726
-0.09101247 0.58027769 0.01244870
-0.37582763 -0.07202978 -0.22075243
-0.09700403 0.56977726 -0.02477961
-0.51419780 -0.42829015 -0.08177116
-0.19090103 0.33911679 0.10968656
-0.32801689 0.05840158 -0.31467661
-0.10377776 0.54945401 0.06704730
-0.14742185 -0.13254084 -0.00000047
-0.00953579 -0.52440752 0.00000023
-0.27799278 0.14289443 -0.08769592
-0.15397323 -0.23614170 -0.00000058
-0.46408577 -0.29240880 -0.17502462
-0.27583868 0.17367872 -0.24778531
-0.24425909 -0.04144661 0.00000195
-0.42739217 -0.23183754 0.35994400
-0.12307105 -0.72390094 0.00000079
-0.11982121 -0.75544278 -0.00000070
-0.37097634 -0.05253287 -0.26947116
-0.24648940 0.21117945 -0.03907945
-0.22589849 -0.24724639 -0.00000102
-0.03464494 -0.43636315 0.00000044
-0.29205531 -0.76088349 -0.00000174
-0.38389182 -0.08694752 -0.24923808
-0.29057682 0.09847332 0.24353552
-0.53023508 -0.46110475 -0.11870301
-0.02209325 0.07819200 -0.00001006
-0.22619406 -0.60972530 0.00000148
-0.00876459 0.68081189 0.00000098
-0.24333066 0.21253921 0.18377830
-0.20688390 0.31420599 -0.08545401
-0.46945032 -0.28965162 -0.27331806
-0.49485783 -0.76023069 -0.00000296
-0.19058925 -0.16090673 0.00000155
-0.38917874 -0.07866395 -0.38093999
-0.25324821 0.20645009 -0.11158833
-0.51333193 -0.41530617 -0.14993793
-0.29773570 0.12408411 -0.26823727
-0.04262310 -0.65738359 -0.00000017
-0.10722900 0.13790142 0.00000687
-0.16221708 0.40836424 0.15677299
-0.30715037 -0.20245938 0.00000223
-0.33127019 -0.35201012 0.00000228
-0.17107785 0.24614756 0.00000345
-0.20402119 -0.32746969 0.00000153
-0.22748979 0.28439372 -0.21019754
-0.10681175 -0.58295648 -0.00000051
-0.46550172 -0.31027323 -0.08462817
-0.24032722 0.25218084 -0.20255583
-0.08054712 -0.63154937 0.00000059
-0.02016175 0.30997410 -0.00000635
-0.18322298 0.07179993 0.00000548
-0.16153916 -0.03217953 0.00000145
-0.57186746 -0.54760020 -0.20638820
-0.40523341 -0.17832864 0.07680075
-0.01406580 0.32527464 0.00000710
-0.62923966 -0.71912955 0.16357455
-0.10087834 -0.02127072 0.00000110
-0.09781339 0.56385469 0.03678432
-0.10092554 -0.11260126 -0.00000018
-0.37445952 -0.17177541 0.00000265
-0.04451747 -0.28621699 0.00000059
-0.19122357 0.20375929 -0.00000053
-0.45125105 -0.67733443 0.00000280
-0.29460947 0.04688012 -0.00000125
-0.02334247 0.74423653 -0.00368515
-0.50158934 -0.40034157 -0.06618791
-0.42950348 -0.65314806 0.00000268
-0.53470301 -0.49090122 0.15862418
-0.44047112 -0.26340110 0.09112491
-0.09294546 0.57560796 0.01496025
-0.08936724 0.57407785 0.00000141
-0.28471981 -0.36173645 -0.00000144
-0.02533618 0.08493040 0.00001007
-0.18940109 -0.79926199 -0.00000114
-0.59734081 -0.79187746 -0.00000360
-0.34339442 -0.02904582 0.31229086
-0.31078346 0.05065613 -0.00585128
-0.22424173 0.15902011 -0.00000075
-0.47618467 -0.31162953 -0.23752459
-0.22272903 -0.19481899 0.00000172
-0.24269223 0.14718256 0.00000206
-0.34263496 -0.01229243 -0.09312319
-0.34492409 -0.08251881 0.00000253
-0.08203883 -0.62726293 -0.00000039
-0.10612849 0.54378400 0.02198891
-0.17221902 0.38421776 0.16371854
-0.12792478 0.49115767 0.06603798
-0.17439546 0.39409307 -0.09456472
-0.39755092 -0.09805107 -0.38610054
-0.07535955 0.62504692 -0.04365910
-0.08867424 0.53827710 0.00000137
-0.29171977 0.09572204 0.00843829
-0.46808893 -0.29674122 -0.20838881
-0.05572477 0.59048866 -0.00000072
-0.54527505 -0.72466147 -0.00000324
-0.03055583 0.60711934 -0.00000121
-0.46766661 -0.29612472 -0.20586678
-0.46653752 -0.37758808 0.00000308
-0.23205579 -0.25421751 -0.00000106
-0.53186574 -0.48405398 0.27657758
-0.12018083 -0.53125131 0.00000089
-0.05600432 0.09833161 -0.00000871
-0.59542201 -0.60966468 -0.17385103
-0.23448782 0.23388344 0.23521330
-0.23211019 0.06066219 -0.00000086
-0.06066580 -0.23563563 0.00000072
-0.51441271 -0.44191132 0.05681894
-0.27926033 0.02625885 0.00000321
-0.26216871 -0.22312342 0.00000194
-0.41641407 -0.14801545 -0.35840716
-0.40500075 -0.21387489 -0.00000208
-0.50615502 -0.70817329 0.00000311
-0.19077724 -0.55631524 0.00000130
-0.09729926 0.06563764 0.00000113
-0.48875752 -0.37997712 0.12984944
-0.21847460 0.27254237 0.23483317
-0.05916629 0.16932136 0.00000789
-0.42579463 -0.24220998 -0.00000222
-0.38890448 -0.13891179 0.18639401
-0.34619058 -0.03579599 0.30352020
-0.59685813 -0.61419942 -0.16716920
-0.04433244 0.69296983 0.03641204
-0.17646611 -0.09641313 -0.00000063
-0.24272678 -0.74251238 0.00000150
-0.35702712 -0.06195287 0.19193491
-0.04795462 0.13718384 0.00000030
-0.60494898 -0.62827424 -0.20132783
-0.07245131 0.17073493 -0.00000704
-0.16140726 0.42949251 -0.11986585
-0.45461278 -0.29754456 0.14245261
-0.39383086 -0.13318232 -0.11006918
-0.14846015 -0.31617368 -0.00000059
-0.11641573 0.01930239 0.00000822
-0.34617274 -0.01977967 -0.09971601
-0.48755317 -0.37706792 0.09307396
-0.13941010 0.47073936 -0.04566773
-0.02468923 0.41342986 0.00000091
-0.54655142 -0.51172459 -0.04843436
-0.59605184 -0.75940813 -0.00000357
-0.09021517 -0.03633886 -0.00000007
-0.39362270 -0.15029626 0.04283883
-0.33193073 -0.25866298 0.00000234
-0.49717408 -0.57450673 -0.00000286
-0.54749556 -0.48619620 -0.22244278
-0.37524592 -0.38131524 -0.00000200
-0.44264009 -0.22435688 -0.27688755
-0.11734264 0.03618129 -0.00000019
-0.19721033 -0.28402272 0.00000151
-0.26578459 -0.45429401 -0.00000139
-0.40938636 -0.15608440 -0.20175056
-0.55109516 -0.72707703 -0.00000328
-0.23319798 -0.34290891 -0.00000112
-0.37865804 -0.05865165 -0.34723222
-0.58679430 -0.61665569 0.03038762
-0.02723570 0.07030643 -0.00001004
-0.45919608 -0.48684725 -0.00000258
-0.05467027 -0.38821486 -0.00000007
-0.06060963 0.25961364 0.00000103
-0.02930217 -0.48172395 0.00000002
-0.53558037 -0.47958538 -0.08380978
-0.21244730 -0.50112297 0.00000147
-0.07087136 -0.14052335 -0.00000002
-0.24556016 -0.45752851 0.00000170
-0.02144125 0.07791528 0.00000068
-0.34377084 0.02357452 -0.33473666
-0.06552486 0.64321955 -0.00880150
-0.23201175 -0.48115404 0.00000160
-0.16804981 0.10987206 -0.00000045
-0.38284313 -0.07729522 -0.29378877
-0.21847078 0.28329351 -0.06705599
-0.36685206 -0.03326517 -0.32773888
-0.36477794 -0.08066806 0.25791520
-0.53340325 -0.47742736 -0.06442473
-0.20390416 0.31827262 -0.06589531
-0.39690234 -0.15822556 0.30095108
-0.32150835 -0.04847294 -0.00000147
-0.27744563 0.02288340 -0.00000326
-0.61655324 -0.67277734 -0.09814044
-0.00117559 0.26567567 0.00000067
-0.45660131 -0.30234815 0.20608990
-0.35240036 -0.05078950 0.34120724
-0.03254126 0.01811727 0.00000031
-0.37206490 -0.05765260 -0.25388602
-0.62844752 -0.71721717 0.07257977
-0.42737462 -0.23178945 0.23158706
-0.22453728 -0.72141591 -0.00000131
-0.01389870 0.52698697 0.00000075
-0.50706769 -0.39924907 -0.15578377
-0.28260610 0.05831407 -0.00000252
-0.52665995 -0.63672918 -0.00000308
-0.02042561 -0.36971151 0.00000039
-0.39905076 -0.24900870 -0.00000206
-0.18653004 0.34966980 0.09995398
-0.17826389 0.13619050 -0.00000441
-0.25389227 0.18703915 0.21355622
-0.15236835 -0.15555086 0.00000132
-0.34224449 -0.45788825 0.00000228
-0.49358057 -0.37531739 -0.10179116
-0.19524059 0.32864702 0.06630528
-0.01670440 -0.22041000 0.00000046
-0.32325216 -0.12786699 -0.00000153
-0.37364478 -0.10207766 0.32634979
-0.33534620 -0.00960472 0.06858329
-0.03471223 0.55233190 0.00000064
-0.28314020 -0.76266621 0.00000173
-0.31020560 0.07602150 -0.15585552
-0.03621688 -0.11915526 0.00000064
-0.18769035 0.08851764 -0.00000058
-0.41392556 -0.14427174 -0.34424047
-0.29248550 -0.25086282 0.00000211
-0.10781577 -0.57481670 -0.00000051
-0.52581987 -0.66264035 0.00000326
-0.34389458 -0.47876611 -0.00000187
-0.05672959 0.60050489 0.00000053
-0.33277310 -0.00340448 0.33326951
-0.12021710 0.52817228 -0.11511277
-0.26215555 0.19307500 -0.16245372
-0.52184549 -0.44760615 -0.07643203
-0.16571480 0.39992289 0.09110409
-0.06565733 0.57708315 0.00000208
-0.58781530 -0.63191607 0.00000365
-0.04015035 0.15461278 0.00000035
-0.32653615 -0.07681948 -0.00000152
-0.13746820 0.04143702 0.00000136
-0.11145295 -0.09141793 0.00000112
-0.24400586 0.25038652 -0.24689972
-0.29688364 0.09155536 -0.05181896
-0.22879645 -0.68400792 0.00000145
-0.35759364 -0.05395756 -0.05839556
-0.25941998 0.19605898 -0.13980057
-0.49272991 -0.38956782 0.13982007
-0.55132765 -0.75663981 0.00000335
-0.30847257 0.08094771 -0.16050143
-0.14969064 -0.48369233 0.00000110
-0.13328710 0.36021397 0.00000302
-0.14245217 -0.22444161 0.00000122
-0.36506656 -0.04413586 -0.23274566
-0.27639018 0.14775440 -0.09389737
-0.24515820 0.06599712 0.00000369
-0.18067392 0.30890457 -0.00000040
-0.18290643 0.35842040 0.04623886
-0.19600991 -0.71578992 0.00000124
-0.19253296 0.34896929 -0.08619203
-0.51226916 -0.43674482 0.27895826
-0.11315714 0.52347677 0.00000139
-0.39969985 -0.40091450 0.00000266
-0.26709093 -0.66238771 -0.00000153
-0.05684964 0.61429078 -0.00000030
-0.36832240 -0.08922228 0.28224391
-0.31212424 0.07041798 -0.14978601
-0.22083429 0.26686176 0.03105525
-0.28427474 0.11368679 0.21535345
-0.31163882 -0.39669303 0.00000213
-0.40095452 -0.11469029 -0.33339271
-0.57495122 -0.58613516 -0.01183556
-0.01058190 0.53829938 0.00000428
-0.36155126 -0.04184837 -0.19395521
-0.31289203 0.08604992 -0.25920172
-0.11612334 -0.08093307 -0.00000025
-0.37874626 -0.11439554 0.36535397
-0.09029066 0.34139885 -0.00000373
-0.03863869 -0.56231625 -0.00000008
-0.27191961 0.14351377 0.24009851
-0.61312944 -0.68023702 0.17325533
-0.31381272 -0.22655967 -0.00000154
-0.11580574 0.10185461 -0.00000014
-0.13691634 0.29293501 0.00000151
-0.06270097 0.18079224 0.00000762
-0.01783356 -0.67619270 -0.00000003
-0.19186941 -0.12181561 0.00000158
-0.36874483 -0.04951480 -0.25464532
-0.25421926 0.10829204 0.00000284
-0.44300862 -0.26121477 -0.05181648
-0.14150266 -0.43213016 0.00000108
-0.09910427 -0.13877784 0.00000101
-0.38047144 -0.08060433 -0.23725023
-0.42870259 -0.21477868 -0.12627441
-0.27137392 -0.69820245 -0.00000157
-0.01993499 0.72742197 0.00000107
-0.03401044 0.63255025 -0.00000069
-0.05129757 -0.53316615 -0.00000014
-0.58697866 -0.61311977 -0.02467347
-0.10168831 0.55454927 -0.00025234
-0.29408353 0.13120652 -0.25763329
-0.49447332 -0.37244851 -0.13322977
-0.45231946 -0.29201710 0.37525235
-0.01992345 0.60150538 0.00000313
-0.16117084 0.41089270 0.13156920
-0.34845514 -0.02705767 -0.08866973
-0.49311969 -0.39050843 0.13083219
-0.36960192 -0.09230639 0.08209868
-0.07231117 0.39568688 0.00000118
-0.18584256 0.05712097 -0.00000546
-0.07285649 0.43936250 0.00000376
-0.28747715 -0.26164964 0.00000207
-0.27330924 -0.46063063 0.00000186
-0.28882718 0.10270058 0.20170690
-0.46698222 -0.44001639 0.00000304
-0.48663532 -0.73937203 -0.00000290
-0.53187635 -0.47121098 -0.08025731
-0.01784207 0.36149046 -0.00000559
-0.32683089 -0.65819974 -0.00000188
-0.14286521 -0.25974373 -0.00000052
-0.28979562 0.12298366 -0.14140555
-0.19016010 0.36206659 -0.13230954
-0.13852852 0.39104054 0.00000244
-0.23729999 0.22905136 -0.01207687
-0.25907125 0.09896572 -0.00000257
-0.56112936 -0.54702558 -0.04776204
-0.55788938 -0.72288999 -0.00000332
-0.55018438 -0.65737347 -0.00000323
-0.28592374 0.10970640 0.24778625
-0.17864407 0.18466696 0.00000169
-0.65769688 -0.76864963 -0.11977374
-0.25957630 0.17331822 0.13047795
-0.38238679 -0.12317760 0.20836423
-0.03863032 0.16893453 -0.00000809
-0.36872314 -0.39396580 -0.00000197
-0.50251874 -0.37814278 -0.21913710
-0.34647280 -0.03646676 0.06669081
-0.35060629 -0.49567973 -0.00000193
-0.21077737 0.17415458 0.00000188
-0.21257749 -0.66101016 -0.00000120
-0.16853311 0.39311909 0.12781962
-0.49136318 -0.38626538 0.07581062
-0.24798002 0.20130993 0.24541165
-0.34484420 -0.36409615 0.00000235
-0.09608630 -0.01538389 0.00000107
-0.08537965 0.40951199 0.00000127
-0.12757298 0.49887010 -0.04287682
-0.47917249 -0.55341182 -0.00000274
-0.41398997 -0.19947046 0.11051765
-0.16506908 0.19365660 0.00000436
-0.05339474 -0.51085789 0.00000050
-0.21431658 0.28259329 0.07491197
-0.16114604 0.42817138 -0.10765557
-0.01044466 0.71229022 0.00000189
-0.43274861 -0.79251339 0.00000262
-0.36021449 -0.04227413 -0.17108428
-0.12948596 0.30201609 -0.00000318
-0.27963649 0.15659556 -0.19825603
-0.15594293 0.42768976 -0.02604031
-0.17154095 0.38585660 0.10570345
-0.32157240 0.03569382 -0.07522942
-0.49978902 -0.40661349 0.21521744
-0.31336941 0.04345449 0.15753982
-0.07193620 0.09439218 -0.00000830
-0.42748794 -0.23205802 0.11957447
-0.42704609 -0.17389817 -0.35706014
-0.10388397 -0.45871789 0.00000084
-0.08878124 0.35334809 0.00000126
-0.02455170 0.18369250 0.00000047
-0.35086869 -0.57786113 -0.00000198
-0.20040472 0.34340692 -0.17030847
-0.19828036 0.24697846 -0.00000200
-0.14454539 0.45103249 0.09600828
-0.02649052 0.28261605 0.00000052
-0.17929921 -0.44604801 0.00000130
-0.24046706 0.23872853 -0.12048248
-0.31730653 0.03395596 0.07607398
