ply
format ascii 1.0
element vertex 1377
property float x
property float y
property float z
end_header
-0.48218405 0.52601853 0.04783444
0.79515376 -0.60441349 -0.00000049
-0.21735829 0.17315311 -0.00000061
-0.67211015 -0.17295586 -0.00000010
0.27597750 -0.53869516 -0.00000016
-0.31547626 -0.52286161 -0.00000017
0.07642624 0.01984179 0.00001052
0.39720294 -0.09508126 -0.00000053
0.45293215 -0.18418847 -0.00000053
-0.55865477 0.35803782 0.02680996
-0.73809266 -0.70482059 0.00000000
-0.70563851 -0.45746186 -0.00000002
-0.12660525 0.19528347 -0.00000062
0.08314388 0.42172573 0.00000389
0.13157966 -0.37599747 -0.00000027
0.06063333 0.48630398 -0.00000080
-0.66198434 0.06515598 -0.00000016
0.26260251 0.34050703 -0.00000094
-0.58457663 0.00872526 -0.00000023
-0.08590937 0.37482309 -0.00000073
-0.33097712 -0.66470849 -0.00000008
-0.05579079 0.29873561 -0.00000069
0.25982910 -0.08838996 -0.00000044
-0.02227000 -0.60696714 -0.00000012
-0.52931047 -0.06582801 -0.00000028
-0.56595828 -0.42149353 -0.00000017
-0.77836835 -0.75566947 0.00000000
0.15899680 0.36514500 -0.00000073
-0.54531733 -0.20350303 -0.00000023
-0.58847992 0.45777543 0.05657729
0.40557139 0.23719901 0.00000132
0.06851125 0.60439625 0.00000114
0.09787541 -0.79158131 -0.00000001
-0.11669479 -0.00730917 -0.00000050
0.75503045 -0.31631811 -0.00000121
0.48949745 0.18096335 -0.00000136
0.70401025 -0.02428833 -0.00000165
-0.39534395 0.15385331 -0.00000046
0.28062265 -0.13728156 -0.00000041
-0.05190875 0.53866802 -0.00000084
0.41593319 0.30491347 -0.00000010
0.23069135 0.41348203 -0.00000098
0.45675545 0.33650253 -0.00000156
0.59063862 -0.03242227 -0.00000127
-0.62967767 -0.48492331 -0.00000009
0.18554907 0.48270642 0.00000113
0.14061390 -0.00761839 -0.00000050
-0.49439750 0.61251540 0.07051336
-0.15929885 -0.19530521 -0.00000038
0.01570287 0.05381447 -0.00000053
0.74326431 -0.24430415 -0.00000134
-0.28656650 -0.00379579 -0.00000050
0.10674005 -0.17419107 -0.00000039
-0.35970980 0.54218701 0.02341030
0.36117761 0.03712862 -0.00000067
0.45744497 0.03058226 -0.00000096
-0.22652854 0.67284307 0.02282993
-0.65565989 0.22036759 0.01746723
-0.65943364 -0.11547810 -0.00000013
0.33686703 -0.60157300 -0.00000012
0.20892682 0.07638343 0.00000761
0.20454191 -0.65311051 -0.00000009
-0.70843521 -0.63288533 0.00000000
-0.47480704 0.42460920 0.02284056
0.03940659 0.23633002 -0.00000065
0.11043608 0.20643424 0.00000698
0.41212075 -0.08258683 -0.00000060
-0.03441543 -0.60946002 -0.00000012
0.59224836 0.16593131 -0.00000166
0.46732526 -0.63397134 -0.00000010
0.39862521 -0.19536677 -0.00000038
-0.48838442 -0.65891753 -0.00000009
0.61310778 -0.06377402 -0.00000128
0.37477196 -0.58292379 -0.00000014
-0.23661854 -0.33202524 -0.00000029
-0.50941544 0.14871002 -0.00000034
-0.23165587 -0.56623011 -0.00000015
0.47766811 0.20668682 0.00000048
0.48629869 -0.26530834 -0.00000048
-0.75570614 -0.57574597 0.00000000
-0.04496774 -0.20065595 -0.00000037
-0.16452108 0.68098492 0.01045411
0.19612773 0.16027438 -0.00000060
0.33622834 -0.42161366 -0.00000024
-0.45114652 0.59438701 0.05641125
-0.49573009 0.62396703 0.07345057
-0.03979274 -0.49116041 -0.00000019
-0.14843393 0.16474566 -0.00000060
0.29145522 0.48865869 -0.00000101
-0.43849274 -0.33745097 -0.00000029
0.66115837 0.10374525 -0.00000176
0.16144440 -0.39100001 -0.00000026
0.10266559 0.46032327 0.00000297
-0.31623329 -0.54457741 -0.00000016
-0.69312043 0.51901883 0.09468961
0.46449080 0.00982882 -0.00000095
-0.05607609 0.04663542 -0.00000053
-0.13137746 0.51078100 -0.00000081
-0.00225225 -0.64913098 -0.00000009
0.12413790 -0.18968507 -0.00000038
-0.50162377 -0.31335670 -0.00000026
-0.61440018 0.74575142 0.12869575
0.42374673 -0.56454951 -0.00000015
0.49620359 -0.04051273 -0.00000095
0.67351638 -0.74426425 -0.00000014
0.58708032 -0.71558864 -0.00000005
0.63953207 -0.52828611 -0.00000046
0.45691309 -0.38461893 -0.00000026
0.13338927 -0.11808074 -0.00000043
-0.31294259 -0.74228740 -0.00000004
-0.64482572 -0.65642840 -0.00000005
0.42761828 0.31667312 -0.00000053
0.48255625 -0.71450889 -0.00000005
-0.57154822 -0.79424437 -0.00000000
0.40061055 -0.65721929 -0.00000009
-0.34675011 0.36418602 -0.00000055
0.48025151 -0.03287891 -0.00000091
-0.07353498 -0.37032510 -0.00000027
-0.45024734 -0.22006629 -0.00000033
0.24929062 -0.27037404 -0.00000033
-0.24078013 -0.01190267 -0.00000049
0.07303613 0.49610004 -0.00000081
0.46601930 0.24268757 -0.00000140
0.37291504 -0.52901847 -0.00000017
-0.36714350 -0.36243595 -0.00000027
0.31032282 -0.55451411 -0.00000015
-0.69793179 0.71957438 0.14187321
0.43156687 0.34184007 -0.00000106
0.69766237 0.06326220 -0.00000180
0.29083006 0.29317715 0.00000251
-0.62963101 -0.64238701 -0.00000006
0.10557635 0.01695307 -0.00000051
-0.47644175 -0.09934635 -0.00000033
-0.15357160 0.10073788 -0.00000056
0.29881026 0.04635314 0.00000674
0.74997161 0.03559740 -0.00000191
-0.50014171 0.61058440 0.07138946
0.26936540 -0.31797243 -0.00000030
-0.25417319 -0.41700661 -0.00000024
-0.40246385 -0.45251895 -0.00000022
0.20816384 0.44694655 -0.00000098
0.33627439 -0.29925436 -0.00000031
-0.26464787 0.19591986 -0.00000061
-0.51347030 0.76508574 0.10994885
-0.05516810 -0.25986676 -0.00000034
-0.27834733 0.04656445 -0.00000053
0.13568575 0.36250440 -0.00000073
-0.64637338 0.33412689 0.04147003
-0.77488532 -0.50913960 0.00000000
0.67738826 -0.47078141 -0.00000069
-0.46111903 -0.32078919 -0.00000030
-0.45190401 0.24235700 -0.00000042
-0.22272441 0.73630316 0.03653602
-0.31718101 0.15726155 -0.00000054
-0.67504312 -0.79168092 0.00000000
0.38184551 -0.49492602 -0.00000019
-0.65892958 -0.25355679 -0.00000010
-0.57347151 -0.38317605 -0.00000017
0.15229895 -0.21561701 -0.00000037
-0.33531635 -0.13993684 -0.00000041
-0.67542749 0.71935791 0.13665303
-0.48313314 0.03739609 -0.00000034
-0.61205912 -0.00620825 -0.00000020
0.07945305 -0.73950611 -0.00000004
-0.77970735 -0.14122997 0.00000000
0.07067648 0.60060281 -0.00000088
-0.20583176 -0.46004926 -0.00000021
0.05240325 0.09928013 0.00000960
0.32380490 0.04792706 0.00000628
0.29848350 0.35923839 0.00000118
-0.72189064 0.34005770 0.06018300
0.49076450 -0.09203665 -0.00000083
-0.68585603 0.27551048 0.03707408
-0.17984852 -0.51053464 -0.00000018
-0.23206543 0.09965532 -0.00000056
0.33640131 0.37617006 -0.00000125
-0.11784789 -0.30928203 -0.00000031
-0.49888645 -0.28306313 -0.00000027
0.24975468 0.52541181 -0.00000087
0.04262258 0.20008070 -0.00000063
-0.37770593 0.09991660 -0.00000047
0.08124842 0.33619604 -0.00000071
-0.18311908 0.00693748 -0.00000050
-0.75468732 0.50485828 0.10558141
-0.28869203 0.37200408 -0.00000061
0.65905665 0.09900529 -0.00000174
0.00875929 -0.09041956 -0.00000044
0.32411084 0.06373990 -0.00000060
0.26286340 0.27168059 0.00000344
-0.57820256 0.72822901 0.11635339
-0.78323050 -0.55674773 0.00000000
-0.43847299 -0.19027125 -0.00000035
0.41935457 -0.75711795 -0.00000003
0.03037622 0.36740653 0.00000557
-0.63320629 0.18185047 0.00345906
0.19133373 -0.01038219 -0.00000049
-0.60146619 -0.07542112 -0.00000020
0.44127004 -0.71608019 -0.00000005
-0.27645856 0.37135163 -0.00000063
-0.06288190 -0.24458364 -0.00000035
0.59882891 -0.75874005 -0.00000003
0.27686817 0.26870649 0.00000322
0.71760735 -0.40633669 -0.00000094
-0.76371171 0.07811882 0.00961058
-0.22501235 0.66709262 0.02116040
0.61576125 -0.62904366 -0.00000018
0.66774829 -0.46666501 -0.00000067
-0.62794973 -0.25155609 -0.00000014
-0.20720696 -0.49840993 -0.00000019
-0.24376500 0.65155894 0.02189999
0.73465515 -0.36508412 -0.00000108
-0.24184757 -0.69642030 -0.00000006
0.64671504 -0.51588759 -0.00000050
-0.51175210 -0.41928401 -0.00000023
0.12969853 0.37769424 -0.00000074
0.13608688 0.41873702 -0.00000076
0.75610710 -0.06114192 -0.00000174
0.21933659 0.16679791 -0.00000060
0.26171005 -0.20657526 -0.00000037
-0.53103891 -0.28671461 -0.00000023
-0.25116761 0.24341374 -0.00000063
-0.10251359 0.29003529 -0.00000068
0.45851935 0.33416670 -0.00000156
-0.65212846 -0.47737510 -0.00000007
0.21205642 -0.34261060 -0.00000029
-0.79264126 -0.07068560 0.00000000
-0.02654117 -0.47099793 -0.00000021
0.07738594 0.35787955 0.00000502
-0.33023680 0.56893735 0.02278472
0.08081857 0.54028475 0.00000200
0.51046690 -0.11895798 -0.00000084
-0.46877269 -0.60321035 -0.00000012
0.55879802 -0.22012935 -0.00000080
-0.70263811 -0.74120351 0.00000000
-0.25410947 0.19631751 -0.00000062
-0.66905891 -0.70507834 -0.00000001
-0.49357728 -0.43410125 -0.00000023
-0.05282760 0.15060266 -0.00000059
0.51267896 -0.32117074 -0.00000045
0.74545843 -0.02646889 -0.00000177
0.78484196 -0.40115171 -0.00000100
-0.28264729 0.48031816 -0.00000064
-0.53748362 0.68350750 0.09672318
0.23517245 0.07445109 -0.00000055
-0.64804000 -0.33792146 -0.00000010
-0.77030143 -0.66535879 0.00000000
-0.54003540 -0.74302577 -0.00000004
-0.43428723 0.06342228 -0.00000040
0.00392183 -0.78544936 -0.00000001
0.11127699 -0.06860094 -0.00000046
-0.05169690 -0.57751720 -0.00000014
0.63007426 -0.79219567 -0.00000000
0.46882094 0.18517141 -0.00000130
0.14681301 -0.54732269 -0.00000016
0.45489542 0.32362599 -0.00000153
-0.44752655 0.57337176 0.05075125
0.41970728 -0.14514508 -0.00000050
0.29422432 0.06216831 0.00000655
-0.25990049 0.13078488 -0.00000058
0.29858452 0.02233459 -0.00000051
0.68110922 -0.57343764 -0.00000050
-0.29691691 -0.48984522 -0.00000019
0.66807639 -0.02783527 -0.00000152
0.04501931 0.15977725 0.00000872
0.50659893 -0.41197115 -0.00000026
-0.54318932 -0.15307100 -0.00000025
-0.31877535 0.38997487 -0.00000058
0.09136730 0.38827439 -0.00000074
0.16174185 0.50924112 -0.00000095
0.16371911 0.57385806 -0.00000008
0.14155951 0.36772723 0.00000389
0.22843268 -0.62164026 -0.00000011
0.00495236 0.56538172 0.00000274
-0.17221961 0.22003989 -0.00000064
-0.24341622 0.60564030 0.01126997
-0.18910408 -0.41032468 -0.00000024
0.10707837 0.34153281 0.00000483
0.22475851 0.02907229 0.00000814
-0.14354811 0.66452408 0.00185359
0.66154154 -0.54443496 -0.00000049
-0.71764156 0.46209031 0.08724397
-0.34568563 0.76543576 0.07148011
0.66139116 -0.14459999 -0.00000127
-0.32576907 0.36419471 -0.00000057
0.51878598 0.21597227 -0.00000048
0.68097006 -0.61503071 -0.00000042
-0.31939187 -0.11743554 -0.00000043
0.48929966 0.19696849 -0.00000139
-0.57008081 -0.44457148 -0.00000016
-0.20417348 -0.68343376 -0.00000007
-0.00720585 0.31268552 -0.00000070
-0.35178618 -0.50306934 -0.00000019
-0.60508905 0.74708865 0.12686372
-0.29669465 0.32253152 -0.00000060
-0.42024127 0.70110128 0.07382853
-0.52497757 0.42054568 0.03343381
0.22027143 -0.05299430 -0.00000047
-0.73871227 -0.78256753 0.00000000
-0.34209182 0.54579151 0.02019065
-0.62389774 -0.66681937 -0.00000007
-0.01795774 0.64685396 -0.00000090
0.53490810 -0.56042565 -0.00000015
-0.11348539 -0.32474753 -0.00000030
0.08841491 -0.72544525 -0.00000005
0.61237377 0.13317824 -0.00000166
-0.70441254 -0.70830294 0.00000000
-0.39692222 0.29482148 -0.00000048
0.52695385 0.07857820 0.00000183
-0.61762816 0.54992348 0.08444540
-0.78465241 0.06464258 0.01132559
0.57016573 -0.67683688 -0.00000008
0.34107930 0.39915093 -0.00000035
-0.57781057 0.75462876 0.12232875
0.60026518 -0.78962303 -0.00000001
-0.76670731 -0.26172499 0.00000000
-0.44809952 -0.02547612 -0.00000037
0.22385353 -0.39499918 -0.00000025
0.07792302 0.55295181 0.00000184
-0.13053349 0.39051928 -0.00000074
0.19574046 0.03410594 0.00000849
-0.00802210 -0.12691905 -0.00000042
-0.46185491 -0.58189204 -0.00000014
-0.42118851 0.20037382 -0.00000044
0.19910265 0.36626826 0.00000296
0.19624989 0.54990908 -0.00000028
0.46058545 0.31664930 -0.00000153
-0.08338672 0.55050888 -0.00000084
0.08292058 0.46743099 0.00000315
-0.44121970 -0.34031840 -0.00000029
0.40942986 0.13188735 -0.00000101
0.25115762 0.30404082 0.00000308
-0.66024709 0.73421801 0.13657942
0.40835721 0.09597912 -0.00000093
0.34526463 -0.00221600 -0.00000054
0.59043957 -0.30230907 -0.00000074
-0.75112265 0.26269026 0.04912384
-0.48737251 -0.37358703 -0.00000027
0.18914389 0.29368482 0.00000437
-0.70014692 0.59755674 0.11434827
0.75290137 -0.22102421 -0.00000142
0.11395992 -0.47585047 -0.00000020
0.75816983 -0.12469437 -0.00000162
-0.63410169 -0.47732647 -0.00000009
-0.38954548 -0.47918605 -0.00000020
0.33598081 -0.09946136 -0.00000044
0.08742660 -0.63901665 -0.00000010
0.78312996 -0.21558055 -0.00000146
0.12637007 0.29262348 0.00000534
0.60006886 -0.17945978 -0.00000101
0.12084479 0.41689035 0.00000340
-0.52698802 -0.12804612 -0.00000027
0.12542802 -0.63696210 -0.00000010
0.03806330 -0.07420855 -0.00000045
0.03091805 -0.29159709 -0.00000032
0.28458243 0.20960665 -0.00000076
-0.22763865 -0.46105185 -0.00000021
0.41548283 -0.31975017 -0.00000030
0.39435123 -0.05282672 -0.00000060
-0.52261465 0.39922782 0.02799310
-0.77259736 -0.35321680 0.00000000
0.33430195 0.06089104 -0.00000063
0.09861987 -0.65816131 -0.00000009
-0.09719134 0.73696888 0.00784729
0.16219886 0.07230114 -0.00000055
-0.78023831 -0.36441401 0.00000000
-0.32697646 -0.30858793 -0.00000031
-0.77653308 -0.61256338 0.00000000
0.37114830 -0.69158703 -0.00000007
0.08698409 0.27333589 -0.00000067
-0.31165432 0.10136515 -0.00000054
-0.67246698 -0.77741014 0.00000000
0.10300691 -0.27709934 -0.00000033
-0.40503771 -0.48427336 -0.00000020
0.08308094 0.34088761 0.00000521
-0.21285457 -0.58242627 -0.00000014
0.36689768 0.23530425 0.00000209
0.30619286 -0.71863263 -0.00000005
0.66117907 -0.04414267 -0.00000147
0.29227787 0.02042120 0.00000726
-0.08749753 -0.59434991 -0.00000013
0.56756287 -0.12811491 -0.00000101
-0.54018386 -0.73029513 -0.00000004
-0.14147003 0.31262137 -0.00000070
0.46529895 -0.03207747 -0.00000087
0.17809654 0.22887299 -0.00000064
-0.46080542 0.72707115 0.08911494
0.34903398 -0.31826657 -0.00000030
0.02549697 0.35436137 0.00000586
0.11066710 -0.48199281 -0.00000020
0.50435303 -0.57904735 -0.00000014
0.73996194 -0.61053538 -0.00000047
0.12156462 -0.26174813 -0.00000034
0.34096992 -0.05788788 -0.00000046
-0.03430617 -0.54524466 -0.00000016
0.60508844 -0.46952621 -0.00000046
0.30808691 0.26413183 -0.00000094
0.48885592 0.05639661 0.00000296
-0.06589907 0.19943127 -0.00000062
-0.33598895 0.78953243 0.07478853
0.19612180 -0.41751650 -0.00000024
0.23785112 0.43688171 -0.00000105
-0.06849624 0.56610806 -0.00000085
0.28427134 0.22909456 -0.00000080
-0.61915231 -0.75496174 -0.00000003
-0.26451809 0.13303483 -0.00000058
0.08332885 -0.69582943 -0.00000007
-0.41558451 -0.04867227 -0.00000040
0.31986989 0.28354839 -0.00000102
-0.45003185 -0.71917657 -0.00000005
-0.33059084 0.54167300 0.01660203
-0.74885975 -0.75907409 0.00000000
-0.16029707 0.65731469 0.00404535
-0.24358585 -0.79084257 -0.00000001
-0.28631400 -0.48800207 -0.00000019
-0.30271900 0.74508064 0.05693172
0.05839758 0.36170467 -0.00000073
0.40419096 0.35274152 -0.00000073
-0.55781238 0.14552462 -0.00000029
-0.04241338 -0.14255010 -0.00000041
-0.68320670 0.46607350 0.08024759
0.03065722 -0.25158739 -0.00000034
-0.49873790 0.42924592 0.02940405
-0.48061713 0.61228156 0.06729354
-0.32364375 0.22678929 -0.00000055
-0.13677434 -0.54866476 -0.00000016
0.17620167 0.31501992 -0.00000070
-0.21195818 -0.03948826 -0.00000048
-0.29614468 -0.74321742 -0.00000004
0.23648837 0.13448109 -0.00000058
-0.15618796 0.22815291 -0.00000064
0.06756900 0.71530048 -0.00000105
0.32810132 -0.54312255 -0.00000016
-0.34958781 0.28970188 -0.00000053
-0.08000986 -0.78411610 -0.00000001
0.44159538 -0.39162841 -0.00000026
-0.24541456 0.72728478 0.03967717
-0.32080357 -0.52083230 -0.00000017
-0.69239364 -0.78810250 0.00000000
0.60269185 -0.12074168 -0.00000113
-0.74942885 -0.45631701 0.00000000
0.38380143 -0.69647248 -0.00000006
-0.33556026 -0.11983378 -0.00000043
-0.49245691 0.29871242 -0.00000038
-0.17986754 0.10949328 -0.00000057
-0.26003847 -0.06124831 -0.00000046
0.20483840 0.56260509 -0.00000067
-0.42731949 0.08248650 -0.00000041
0.60814458 -0.65799408 -0.00000010
-0.59517496 0.01340593 -0.00000022
-0.75818343 -0.22759297 -0.00000000
-0.55545595 0.54688728 0.06946354
-0.03679690 -0.46243384 -0.00000021
-0.47170898 -0.39244534 -0.00000025
-0.46879475 0.18304019 -0.00000039
-0.70206037 0.14257706 0.01025538
-0.16143346 -0.01522897 -0.00000049
-0.73011568 0.51988528 0.10338848
-0.47323646 0.04581857 -0.00000036
-0.24750530 0.49855287 -0.00000068
-0.72037206 0.16779758 0.02025701
-0.55280724 0.51843264 0.06231748
0.05295793 0.63646286 -0.00000090
0.48508849 0.12401153 0.00000182
-0.46928436 0.36030634 0.00679801
-0.63763093 -0.41520685 -0.00000010
0.60824309 0.03818743 0.00000100
-0.76391073 -0.46052319 0.00000000
0.17242085 0.04081253 0.00000874
0.15620887 0.20982642 -0.00000063
0.34737073 -0.70022244 -0.00000006
0.05991789 0.30948054 -0.00000069
-0.71428340 -0.25466967 -0.00000004
0.29388985 -0.39971395 -0.00000025
-0.01366323 -0.30901043 -0.00000031
0.58820327 -0.72684882 -0.00000005
-0.18246423 -0.33021209 -0.00000029
-0.01465539 0.07858177 -0.00000055
0.12881771 0.62452432 -0.00000107
0.10485678 -0.70290317 -0.00000006
0.14400609 0.00475752 0.00000975
-0.12501212 0.51319818 -0.00000081
-0.30884165 0.57899559 0.02018001
0.66430684 -0.20423939 -0.00000117
0.59334835 -0.32855315 -0.00000070
0.60901425 -0.62298288 -0.00000017
0.16673735 -0.71151999 -0.00000006
0.21049467 0.50399716 0.00000027
0.24950341 0.01473281 -0.00000051
0.74633662 -0.29345572 -0.00000126
-0.58681531 0.48125109 0.06158842
-0.70310200 -0.26082472 -0.00000006
0.25617700 0.34335519 -0.00000093
-0.73116082 0.37585223 0.07053671
-0.05382639 0.71937579 -0.00000093
-0.12567790 0.45824137 -0.00000079
-0.13965003 0.15992221 -0.00000060
-0.07787588 -0.54062173 -0.00000016
0.14505195 0.32098255 -0.00000070
0.70475369 0.01341802 -0.00000172
0.02664625 -0.25246126 -0.00000034
0.31760569 -0.39103825 -0.00000026
0.00234021 0.00501279 0.00001188
0.72692729 0.03617651 -0.00000125
-0.57991719 0.02574657 -0.00000024
0.08793307 -0.75535897 -0.00000003
0.06395166 0.24484484 -0.00000065
0.49088844 -0.63796800 -0.00000010
0.03650958 -0.39571621 -0.00000025
-0.58621467 -0.12458510 -0.00000021
0.38663520 0.33666939 -0.00000011
-0.48018400 -0.30913990 -0.00000028
-0.33804852 -0.01187901 -0.00000049
-0.36264099 0.34355003 -0.00000053
0.64328521 -0.60871198 -0.00000031
0.00515361 -0.40311922 -0.00000025
-0.71040947 0.69356133 0.13876344
-0.47143703 0.09102661 -0.00000037
-0.57692202 -0.61659815 -0.00000011
0.04367116 0.67248629 -0.00000092
0.24126297 0.21889639 0.00000480
0.07898528 0.62190132 0.00000068
-0.23802413 -0.44782004 -0.00000022
-0.07486340 0.53475663 -0.00000083
0.09618775 -0.74561397 -0.00000003
-0.03510098 -0.33572623 -0.00000029
0.16996408 0.33321407 0.00000402
-0.04587186 0.77829466 0.00555114
-0.41790775 -0.79516717 -0.00000000
-0.54305291 0.67161871 0.09527126
0.41563424 -0.31805809 -0.00000030
0.27306604 0.21806510 -0.00000074
0.25547397 0.51271616 -0.00000126
-0.55383509 -0.55934756 -0.00000015
0.32156119 -0.22204532 -0.00000036
-0.13899350 0.29979813 -0.00000069
0.39325930 0.19940128 0.00000223
0.53803779 0.01959514 0.00000268
-0.00666388 0.26266942 -0.00000066
-0.26882293 0.70453303 0.03982805
-0.63292429 -0.64260535 -0.00000006
-0.38817459 -0.41964079 -0.00000024
-0.62124308 0.50796190 0.07563518
-0.40393358 0.08340735 -0.00000044
-0.35304885 0.15091359 -0.00000050
0.11036165 0.16087736 0.00000772
-0.52769622 -0.46263083 -0.00000021
0.02425756 -0.00310249 -0.00000050
0.32043873 0.04963099 -0.00000056
-0.05030075 -0.13241085 -0.00000042
-0.52114410 -0.01865492 -0.00000029
-0.06609895 -0.33990182 -0.00000029
-0.51445572 -0.14181921 -0.00000028
-0.41902080 -0.63787627 -0.00000010
0.26745307 -0.21559330 -0.00000037
0.04371530 -0.08382822 -0.00000045
-0.55483419 0.12873059 -0.00000029
-0.75989878 -0.25667419 0.00000000
-0.19764428 0.27006909 -0.00000067
-0.11047386 0.75513647 0.01507304
0.08805036 0.57300264 -0.00000086
-0.46531361 -0.29026465 -0.00000030
0.41583657 -0.66267480 -0.00000009
-0.15047469 -0.68537481 -0.00000007
-0.63467248 0.13516988 -0.00000020
0.10397304 0.57279279 0.00000108
0.34188740 0.21106094 -0.00000095
-0.35743414 -0.65130871 -0.00000009
-0.16333606 0.61552136 -0.00000079
0.38585634 -0.09037273 -0.00000050
-0.73249433 -0.22405134 -0.00000003
-0.29620263 -0.12347402 -0.00000042
0.45499751 -0.61012675 -0.00000012
-0.68454992 -0.06194909 -0.00000011
0.77208604 0.02086094 -0.00000184
0.32713485 -0.47182841 -0.00000021
0.15912802 0.02005726 0.00000927
0.49157287 0.07372236 0.00000260
-0.06935370 -0.30051405 -0.00000031
-0.13686688 0.10878736 -0.00000057
-0.29709730 -0.15926158 -0.00000040
-0.11895034 0.30634965 -0.00000069
-0.12777307 0.36642531 -0.00000073
-0.07881788 -0.49101654 -0.00000019
0.67175557 -0.46409777 -0.00000068
-0.04309257 0.73026473 -0.00000094
0.48090507 -0.63790945 -0.00000010
-0.33612700 0.34271188 -0.00000056
-0.22390567 -0.48989407 -0.00000019
-0.10136892 -0.51467581 -0.00000018
-0.32158166 -0.76259773 -0.00000002
0.78702204 -0.07703244 -0.00000181
-0.39646076 0.18965812 -0.00000047
-0.07701155 0.18129875 -0.00000061
-0.72814326 -0.55637530 0.00000000
-0.06449943 0.02747106 -0.00000052
0.61145633 -0.48327154 -0.00000045
0.07835320 -0.29347025 -0.00000032
-0.02212586 -0.31863226 -0.00000030
-0.39504322 -0.17524917 -0.00000039
0.57696919 -0.08668238 -0.00000112
0.46027872 0.17567266 0.00000137
0.47674927 0.00010661 -0.00000097
0.18117148 0.23605835 0.00000543
0.38068159 0.39467560 -0.00000103
-0.40621693 -0.56376241 -0.00000015
0.13075258 0.05335331 -0.00000053
0.76949066 -0.29057095 -0.00000127
-0.40592051 -0.07392869 -0.00000041
-0.65998995 -0.77884549 -0.00000001
0.01700479 -0.29476985 -0.00000032
0.70630201 -0.55991197 -0.00000060
0.11066093 0.35087552 0.00000463
0.11480881 -0.79557358 -0.00000000
-0.59481637 -0.36969443 -0.00000015
0.22969947 -0.02978828 -0.00000048
0.76047610 -0.68025795 -0.00000030
-0.43474999 0.34234408 -0.00000045
0.24973269 0.25269365 -0.00000073
-0.30161568 0.72929669 0.05305183
-0.59105699 -0.73947867 -0.00000004
-0.42132363 0.08681374 -0.00000042
-0.49020433 -0.27149678 -0.00000028
-0.38339057 0.41281979 -0.00000052
0.44564870 -0.27308718 -0.00000033
0.39291628 -0.46924249 -0.00000021
-0.69904127 -0.21788155 -0.00000007
0.41219992 -0.59366395 -0.00000013
-0.79035250 -0.32425733 0.00000000
-0.00309557 -0.38032102 -0.00000026
-0.20987769 0.31033062 -0.00000069
-0.46084614 0.55485508 0.04955723
0.65435402 0.09633938 -0.00000093
-0.21523155 -0.39703218 -0.00000025
-0.49622915 -0.61583567 -0.00000012
-0.18497246 -0.74527580 -0.00000003
-0.20362495 -0.78123509 -0.00000001
0.40738345 -0.74789264 -0.00000003
-0.59408087 -0.09924097 -0.00000020
0.02088676 -0.33180844 -0.00000029
-0.30503882 0.64078838 0.03350331
0.49404338 0.26075530 -0.00000081
0.25743522 0.23785278 -0.00000073
-0.07238573 -0.12906357 -0.00000042
-0.70970708 0.08887265 -0.00000011
0.16936539 -0.26533138 -0.00000033
-0.77412629 -0.37713466 0.00000000
-0.72671545 -0.34988011 -0.00000001
-0.77779908 0.59924204 0.13257634
-0.46659605 -0.29261087 -0.00000030
-0.79197608 0.06910613 0.01403374
-0.63175223 -0.76065262 -0.00000002
-0.38902872 -0.00643145 -0.00000044
0.06580595 0.66467283 -0.00000095
-0.63889826 -0.30361576 -0.00000012
0.39069846 -0.36949422 -0.00000027
0.30231727 -0.44459553 -0.00000022
-0.34630373 -0.07778300 -0.00000045
-0.30918620 -0.00628194 -0.00000050
0.30083605 0.14162108 -0.00000068
0.29116503 -0.03737016 -0.00000048
0.73480541 -0.12788466 -0.00000154
-0.46104634 0.78447659 0.10235934
-0.55262589 -0.69127019 -0.00000007
0.44928032 -0.32328693 -0.00000030
-0.63755070 -0.38437245 -0.00000010
-0.53720752 -0.62239367 -0.00000011
0.76527895 -0.14243701 -0.00000161
0.21247222 0.15898220 0.00000621
0.38659257 0.25291261 0.00000140
0.33253809 0.21288946 0.00000316
0.68525856 -0.72776441 -0.00000018
0.39803044 0.24779769 0.00000127
-0.13611594 0.03363036 -0.00000052
0.06426957 -0.42187802 -0.00000024
0.41971760 -0.55889311 -0.00000015
0.04691019 0.34715871 -0.00000072
0.52855192 -0.29929354 -0.00000055
-0.14638445 0.50935979 -0.00000079
-0.70517300 0.06871309 -0.00000011
-0.77127240 0.19867746 0.03904625
0.38036056 0.05156488 0.00000513
0.06383231 0.52216101 0.00000255
-0.44478283 -0.14250012 -0.00000035
-0.14872464 -0.19420381 -0.00000038
-0.74528821 -0.09558049 -0.00000004
0.10282704 -0.23907721 -0.00000035
-0.47329973 0.41661782 0.02065822
0.52059894 0.11337701 0.00000133
0.76893004 -0.61052998 -0.00000047
-0.74364663 0.67157308 0.14134794
-0.64054144 -0.29954187 -0.00000012
-0.41987099 0.16422431 -0.00000044
-0.26073386 0.40549964 -0.00000065
0.18619011 -0.55771960 -0.00000015
-0.39482850 0.17246349 -0.00000046
0.06866978 0.47965518 -0.00000080
-0.32033230 -0.68990563 -0.00000007
0.16807142 -0.31469575 -0.00000030
0.55244805 0.15549769 -0.00000151
0.36306167 -0.65750302 -0.00000009
0.69161934 -0.27319559 -0.00000112
0.20973866 0.48260071 -0.00000105
0.52821074 -0.44613654 -0.00000026
-0.25824297 -0.38666174 -0.00000026
0.54277028 0.20392480 -0.00000157
0.34565655 0.44030155 -0.00000118
-0.26814410 0.30900739 -0.00000062
0.35853723 0.25239781 -0.00000108
0.67625890 -0.42807088 -0.00000077
-0.61322536 0.69236151 0.11615936
-0.14471475 0.25330541 -0.00000066
-0.43894861 -0.35859968 -0.00000028
0.07166819 -0.08167054 -0.00000045
-0.15104987 -0.64280133 -0.00000010
0.53283731 0.04161648 -0.00000123
0.54832338 -0.78183779 -0.00000001
-0.31482337 0.71448075 0.05268234
-0.17411551 0.67341051 0.01091823
-0.56394882 0.14587734 -0.00000028
-0.58425634 -0.70905743 -0.00000006
0.12084405 -0.30541770 -0.00000031
-0.35046948 0.36925094 -0.00000055
-0.26421428 0.01476362 -0.00000051
-0.61828414 0.59511941 0.09498000
-0.23094994 0.33621094 -0.00000067
-0.39115142 0.52649052 0.02702782
0.41276489 0.12320716 -0.00000100
-0.60284331 -0.72483843 -0.00000005
-0.07950478 -0.20774767 -0.00000037
0.32147601 0.20862029 0.00000344
-0.10378439 0.59922624 -0.00000085
0.40451695 -0.66128566 -0.00000009
0.09321523 -0.22088675 -0.00000036
0.75160561 -0.14341955 -0.00000157
-0.12761248 0.71349313 0.00944305
0.34205226 0.32430166 0.00000097
0.16687924 0.22909186 0.00000576
0.18575200 -0.75386193 -0.00000003
-0.72176337 0.55691348 0.10997683
0.01792821 0.51019488 0.00000344
0.17962490 0.32240564 -0.00000070
0.54779539 -0.56819847 -0.00000014
0.62788837 -0.66009934 -0.00000016
-0.02376827 0.23813710 -0.00000065
-0.28535049 -0.48312432 -0.00000020
-0.38745977 -0.37216027 -0.00000027
0.11721300 0.43322611 -0.00000077
-0.42848451 -0.56419314 -0.00000015
-0.19935251 -0.11922159 -0.00000043
0.21205238 0.04631539 -0.00000053
0.24867358 0.39725120 -0.00000101
0.66804962 0.01008947 -0.00000160
0.41314419 -0.28913687 -0.00000032
0.02050957 0.74027455 -0.00000096
0.69094964 -0.76993587 -0.00000008
0.12466275 -0.76877157 -0.00000002
-0.35836604 0.03647322 -0.00000048
-0.16857888 -0.19038292 -0.00000038
-0.45364811 -0.79923454 -0.00000000
0.03388864 0.58416451 -0.00000087
-0.12121974 -0.15133489 -0.00000041
0.07735009 -0.15205127 -0.00000040
0.40726888 0.03210230 0.00000497
0.61154632 0.16973100 -0.00000143
-0.17431767 -0.00342108 -0.00000050
0.22143493 -0.29685520 -0.00000031
-0.09011885 0.26824850 -0.00000067
0.44945168 0.00272044 -0.00000088
0.03163938 0.26976905 -0.00000067
-0.18620445 0.69249046 0.01807936
-0.02040965 0.22744082 -0.00000064
-0.67756992 -0.05012835 -0.00000012
-0.48128824 -0.57440367 -0.00000014
-0.77484486 -0.65845974 0.00000000
-0.54336190 0.57454762 0.07303991
-0.77310224 -0.17582929 0.00000000
-0.55659489 0.44316855 0.04589564
0.09026612 0.21182790 -0.00000063
-0.77384815 -0.10736919 -0.00000001
0.48999765 0.22915100 -0.00000016
-0.68101468 -0.50982517 -0.00000003
-0.43338136 0.70944764 0.07876511
0.37531681 0.26570652 -0.00000116
-0.56188454 0.77394789 0.12310830
-0.26980686 -0.30773117 -0.00000031
-0.35020856 0.00273487 -0.00000048
0.50321167 -0.47975379 -0.00000020
0.53557966 0.00299014 0.00000302
-0.50046643 -0.77125417 -0.00000002
0.31038958 -0.58237210 -0.00000014
0.78136861 -0.59634367 -0.00000051
-0.60351403 0.27453690 0.01793204
-0.03199202 -0.71304704 -0.00000005
-0.74159941 -0.31389222 -0.00000000
0.55774044 -0.59898973 -0.00000013
-0.76016212 -0.14620521 -0.00000002
0.13746941 -0.76712060 -0.00000002
-0.25095747 -0.78956538 -0.00000001
-0.74390381 0.61962291 0.12947134
-0.69256795 -0.04539573 -0.00000011
-0.29987205 0.66464261 0.03779678
0.49411612 0.01554426 -0.00000105
-0.10474266 0.07118837 -0.00000054
-0.17233121 -0.72712863 -0.00000005
0.69263505 -0.03897980 -0.00000158
0.20695295 0.45933353 0.00000114
0.12434539 -0.53972941 -0.00000016
0.69225225 -0.27591965 -0.00000112
0.26361704 0.07905879 0.00000674
-0.69752575 -0.48763620 -0.00000002
-0.51214005 0.69593821 0.09375639
0.44948450 0.23593961 -0.00000134
0.29289298 -0.65285319 -0.00000009
-0.63769060 -0.50924301 -0.00000008
-0.72206843 0.74809777 0.15397202
-0.45633568 -0.68332627 -0.00000007
-0.41085719 -0.40728093 -0.00000025
0.10736001 -0.69730963 -0.00000006
-0.09870878 0.56821478 -0.00000085
0.42222514 -0.74946867 -0.00000003
-0.12976499 -0.71291478 -0.00000005
-0.07727282 -0.37582848 -0.00000027
-0.52194698 0.34570304 0.01554229
0.05667026 -0.11398241 -0.00000043
-0.68948667 -0.63673636 -0.00000000
0.17396061 -0.31883982 -0.00000030
-0.60499745 0.49590701 0.06913305
-0.66740211 0.67661145 0.12498805
-0.21853706 -0.40265566 -0.00000025
-0.09179161 0.41460566 -0.00000076
-0.13853471 -0.58320789 -0.00000014
-0.42864763 0.59027136 0.05029647
-0.10974069 -0.32067652 -0.00000030
-0.50248281 0.61111725 0.07204976
0.15241600 0.32623136 -0.00000070
-0.31590543 -0.43398793 -0.00000023
-0.45405600 0.02051737 -0.00000037
-0.39542086 0.78172999 0.08665061
0.57118635 -0.54458479 -0.00000021
0.52764863 0.04734770 0.00000238
0.19867580 0.45907352 0.00000131
0.62947876 0.14004511 -0.00000173
0.42410815 -0.75560339 -0.00000003
-0.40197857 0.32662322 -0.00000048
-0.79103683 -0.36456023 0.00000000
-0.18988473 -0.23109512 -0.00000036
0.12966190 0.01518302 0.00000980
-0.45478600 -0.63122265 -0.00000011
-0.22173480 -0.64206940 -0.00000010
-0.56572198 0.76979926 0.12303681
-0.49854666 0.72468561 0.09723805
0.48887537 0.29532311 -0.00000133
0.50036775 0.28153242 -0.00000159
0.30145319 -0.71066593 -0.00000006
0.10791076 0.05109266 0.00000954
0.42599621 0.32620788 -0.00000144
0.53376963 0.24098114 -0.00000121
-0.68647045 0.20710979 0.02150006
0.24400653 0.40806093 0.00000135
0.65805289 0.05404253 -0.00000165
0.20256057 -0.57960037 -0.00000014
-0.29471711 -0.32719331 -0.00000030
-0.76628308 0.64419866 0.14025940
0.07894201 0.66898037 -0.00000100
-0.20997123 -0.33006742 -0.00000029
-0.57231769 -0.56569426 -0.00000014
-0.30711827 -0.52659236 -0.00000017
0.53700583 0.06156311 0.00000195
0.00300153 0.40179425 0.00000543
-0.44831144 0.66394769 0.07174162
-0.21852922 0.34087834 -0.00000068
-0.57049664 -0.43081792 -0.00000017
-0.09431964 0.25096327 -0.00000066
0.39211263 0.25923056 -0.00000120
-0.15431677 -0.48494046 -0.00000020
0.29487357 0.30855675 -0.00000099
-0.30593079 0.47299749 -0.00000061
0.53815329 -0.73379684 -0.00000004
0.22019648 0.01131481 -0.00000051
-0.10219714 -0.31956983 -0.00000030
0.53736981 -0.09579957 -0.00000097
-0.17931464 -0.78033360 -0.00000001
-0.47423001 0.44479310 0.02734528
0.19354851 0.29229869 0.00000433
-0.60479727 -0.72209407 -0.00000005
0.12650961 0.57639437 0.00000059
-0.74233509 0.15533880 0.02244067
-0.43818603 0.32842303 -0.00000045
0.33969024 0.07305526 0.00000553
-0.22467782 0.70881437 0.03066920
-0.71298870 -0.10927920 -0.00000007
0.24167467 -0.58033400 -0.00000014
-0.24502830 -0.43623944 -0.00000023
-0.29019363 0.26471337 -0.00000059
-0.77524022 0.24016701 0.04949017
-0.04074289 -0.31696915 -0.00000030
0.04391661 -0.28614166 -0.00000032
0.04567610 0.11679156 -0.00000057
0.36077543 0.04930793 -0.00000069
-0.56894370 0.01884286 -0.00000025
0.05842035 0.37504005 0.00000502
0.39931043 -0.15166579 -0.00000042
0.42264907 -0.09768117 -0.00000060
0.40403989 0.13049692 -0.00000099
-0.45434638 -0.07624016 -0.00000035
0.76375654 0.02050383 -0.00000167
-0.72015154 0.75939157 0.15612638
0.11834537 0.05805407 0.00000927
-0.49863211 0.02808190 -0.00000033
0.08616215 -0.67131104 -0.00000008
-0.73366136 -0.19038885 -0.00000004
-0.31054021 -0.63218039 -0.00000010
-0.18384440 -0.43191381 -0.00000023
0.12265956 0.44540207 -0.00000078
0.52009423 -0.31222261 -0.00000049
0.01630104 0.70357613 -0.00000094
0.53445930 0.21173128 -0.00000070
-0.14344819 -0.28360961 -0.00000032
-0.44447335 -0.74392808 -0.00000004
0.39085938 -0.67732194 -0.00000008
-0.40747813 -0.07962853 -0.00000040
-0.58956570 0.13230089 -0.00000025
0.09401170 0.03463206 0.00001002
-0.51668133 -0.68225309 -0.00000007
0.08776964 0.55141923 0.00000172
-0.66254555 -0.45601807 -0.00000006
0.10242112 -0.10319003 -0.00000044
-0.37572194 -0.78737849 -0.00000001
-0.41998999 0.10189238 -0.00000042
0.01769047 -0.73207743 -0.00000004
-0.72833129 0.75131097 0.15614917
-0.71272185 0.45914721 0.08543747
-0.71910961 -0.49565155 0.00000000
0.68761854 -0.01743659 -0.00000161
0.24805169 -0.46717140 -0.00000021
-0.21214044 0.25118482 -0.00000066
-0.53721206 -0.68643198 -0.00000007
-0.23265299 0.37807023 -0.00000067
-0.51622970 0.62316550 0.07797628
-0.56858491 -0.47985364 -0.00000016
-0.14614456 -0.02310034 -0.00000049
-0.66328887 0.57707079 0.10117329
-0.54574788 -0.43785007 -0.00000019
0.61257028 -0.46664482 -0.00000049
0.06429588 0.37913285 -0.00000074
0.75852656 0.03407680 -0.00000193
-0.36570614 -0.07893891 -0.00000045
0.03441408 -0.40493106 -0.00000025
-0.20155257 0.61822057 0.00454199
0.16618529 0.40764675 -0.00000077
-0.73609552 -0.07008495 -0.00000006
0.27148197 0.18759752 -0.00000067
-0.39538718 0.32882347 -0.00000049
-0.61802217 0.56894046 0.08890513
0.02917672 0.25298750 0.00000745
0.41632484 -0.64498606 -0.00000010
-0.59219405 0.72614188 0.11908847
-0.41341093 0.54544647 0.03649718
-0.78450536 -0.61872617 0.00000000
0.15990509 -0.23153069 -0.00000036
-0.78795145 -0.26265680 0.00000000
0.68412103 -0.62366904 -0.00000041
0.25166384 0.07209706 -0.00000055
-0.12102843 -0.75895192 -0.00000003
0.38814569 -0.53652044 -0.00000016
0.06821684 0.00700153 0.00001086
0.01433392 0.76999864 -0.00000099
0.79128733 -0.65131804 -0.00000037
-0.62072694 0.38254501 0.04670183
0.09419391 -0.42953924 -0.00000023
-0.46387194 0.58455666 0.05707641
-0.15911370 -0.78000371 -0.00000001
0.78162071 -0.36924909 -0.00000108
0.28306157 -0.02266033 -0.00000049
0.15615165 -0.02821897 -0.00000048
0.20045282 0.53899806 -0.00000016
0.27770162 -0.49751389 -0.00000019
-0.22788183 -0.51762332 -0.00000018
0.16474417 -0.68038839 -0.00000007
-0.29302846 -0.77739185 -0.00000001
0.07965333 0.40234530 -0.00000075
0.04578904 -0.06406395 -0.00000046
0.16140977 -0.74282333 -0.00000004
-0.75931151 0.60420189 0.12946829
-0.03678467 -0.18594663 -0.00000038
-0.06896777 -0.39302802 -0.00000025
0.68497277 -0.30138872 -0.00000104
-0.73107173 0.40839099 0.07799208
0.79450400 -0.62366232 -0.00000044
-0.25519314 -0.55191267 -0.00000016
-0.43909991 -0.16365014 -0.00000036
-0.26352312 -0.16098343 -0.00000040
-0.48750076 0.55703676 0.05618247
0.25297395 0.32257716 0.00000271
0.20096328 0.51854055 -0.00000109
-0.74585815 0.44116266 0.08891867
-0.73141095 -0.03307320 -0.00000007
0.61612489 -0.08432149 -0.00000125
0.05819228 0.71067847 -0.00000101
0.32214235 0.25410271 0.00000261
-0.17725619 -0.56227524 -0.00000015
0.44351830 0.26371832 0.00000011
-0.70177467 -0.53025870 -0.00000001
-0.20258404 0.71297287 0.02654850
-0.21768520 -0.49039328 -0.00000019
0.39542716 -0.70193101 -0.00000006
-0.48851773 0.34027720 0.00661521
0.04906811 0.18506893 0.00000825
0.69641881 -0.44434859 -0.00000080
-0.11461576 0.58667535 -0.00000084
-0.78298707 0.05120046 0.00785462
0.18141437 0.37442524 0.00000316
-0.32577417 0.17073560 -0.00000054
0.19460173 -0.04407986 -0.00000047
0.23579720 0.41130542 -0.00000100
-0.33237691 -0.66414536 -0.00000008
0.75693855 0.01163873 -0.00000138
-0.28074407 -0.63807210 -0.00000010
-0.65732793 -0.68265512 -0.00000003
0.16766336 0.10899544 0.00000770
-0.75086164 0.14045640 0.02098041
-0.40571916 0.52938824 0.03104057
-0.61269397 0.43771705 0.05753211
0.46640645 0.33015419 -0.00000152
0.23745508 0.30412754 -0.00000079
-0.58551526 0.70637053 0.11301147
-0.55308680 0.66153158 0.09525904
0.08999424 0.66558113 -0.00000031
-0.56155522 -0.28968919 -0.00000020
0.48954946 0.18494565 0.00000064
-0.58084815 -0.67769717 -0.00000008
0.08588540 0.45319903 0.00000334
-0.71879671 -0.17675651 -0.00000005
-0.51373752 -0.65853592 -0.00000009
-0.17424915 -0.36090069 -0.00000027
-0.36925655 0.41349373 -0.00000054
-0.22329161 -0.24956247 -0.00000034
0.71218404 -0.12066722 -0.00000148
-0.02369888 -0.29545254 -0.00000032
-0.27149362 -0.68428105 -0.00000007
-0.61521602 0.11388068 -0.00000022
0.24325334 -0.78290906 -0.00000001
-0.77627538 0.74331510 0.16532744
0.07510047 0.19641007 0.00000768
-0.23453158 0.34548090 -0.00000067
-0.13103419 0.57183836 -0.00000082
-0.52441474 0.38295008 0.02466684
0.35472098 0.38302054 -0.00000033
0.53797406 -0.06929010 -0.00000103
-0.25389621 -0.18765768 -0.00000038
-0.07774124 -0.42660096 -0.00000023
-0.58529094 -0.73630114 -0.00000004
-0.70314335 0.23291051 0.03125848
-0.38485371 -0.40717491 -0.00000025
0.41075664 -0.77349041 -0.00000002
0.37777125 0.36818013 -0.00000050
-0.73123382 0.05169147 -0.00000008
0.72019603 -0.48224118 -0.00000079
0.23906202 0.23251309 0.00000460
0.03908423 -0.71544290 -0.00000005
0.75709619 -0.32312047 -0.00000119
0.37233030 0.28962318 0.00000101
-0.53281679 -0.62619772 -0.00000011
-0.44676778 -0.29413440 -0.00000032
0.72877080 -0.22031439 -0.00000134
0.10592977 -0.31372614 -0.00000030
-0.28508364 0.77106323 0.05884950
0.13828047 -0.57283637 -0.00000014
-0.08517174 0.18482149 -0.00000062
0.72707643 -0.19708329 -0.00000138
-0.15243949 0.65715555 0.00220348
-0.56144908 -0.42964410 -0.00000018
-0.70936886 -0.30662135 -0.00000004
0.63561050 -0.35451713 -0.00000078
0.01893875 -0.47824365 -0.00000020
0.33982479 -0.18988786 -0.00000038
-0.12737384 -0.61274614 -0.00000012
0.20267950 -0.30746054 -0.00000031
-0.53602327 0.39161638 0.02932504
0.32639462 0.02208845 -0.00000053
-0.15881559 0.77666811 0.03112668
0.58308336 -0.66355073 -0.00000009
-0.05261325 0.65102376 -0.00000091
0.22743948 -0.56086510 -0.00000015
0.43849576 0.31611922 -0.00000146
0.05715445 0.25609465 0.00000698
0.75121715 -0.08894661 -0.00000167
0.61660766 -0.62145832 -0.00000020
0.44273109 0.35645090 -0.00000155
-0.77206578 -0.53227288 0.00000000
0.04854472 0.26104422 0.00000703
0.20913328 -0.08341976 -0.00000045
0.43933936 -0.14270708 -0.00000057
0.23180100 0.15942014 0.00000591
0.01583626 -0.20961171 -0.00000037
0.48829007 -0.63183667 -0.00000011
-0.42504223 -0.28153712 -0.00000032
0.50705223 -0.63518584 -0.00000010
0.60655813 0.17060892 -0.00000171
0.74386242 -0.76085937 -0.00000010
-0.21118137 -0.26287056 -0.00000034
0.22723199 0.29070506 0.00000378
0.18957441 0.12048154 -0.00000058
-0.57673637 0.46062596 0.05453409
0.71002246 -0.29158793 -0.00000114
-0.76177695 0.68855215 0.14941443
0.11660633 -0.77186575 -0.00000002
0.06947787 0.35955697 -0.00000072
0.45313337 0.34678237 -0.00000156
0.23935710 -0.55642356 -0.00000015
0.03725322 -0.30181065 -0.00000031
0.78835875 -0.21366149 -0.00000147
-0.61332292 -0.10439483 -0.00000018
-0.38604439 0.06547698 -0.00000045
-0.16331643 0.47233047 -0.00000077
-0.30453074 -0.14465725 -0.00000041
-0.29609233 0.05413446 -0.00000053
0.33427905 0.20366426 -0.00000091
0.08841000 0.16005507 -0.00000060
0.53435756 -0.65447187 -0.00000009
0.72752457 -0.79681852 -0.00000001
0.21767992 0.02004148 -0.00000051
-0.46646028 0.13325039 -0.00000038
0.09428620 0.04240328 0.00000989
0.11692401 0.26164843 -0.00000066
-0.36041424 0.44007891 0.00011262
0.25513742 0.10931309 -0.00000057
0.02717909 0.54843089 0.00000268
0.27313476 0.28080071 -0.00000086
-0.74540767 -0.24337364 -0.00000001
-0.05636091 0.06235095 -0.00000054
-0.33997251 0.51973091 0.01371626
0.52066461 0.06033684 0.00000228
-0.05968506 -0.20245857 -0.00000037
-0.70206877 0.55201434 0.10432633
0.04479193 0.32106552 -0.00000070
-0.03512705 0.28364270 -0.00000068
0.29987507 -0.55161869 -0.00000016
0.00583474 0.35462183 -0.00000072
0.18783766 0.19012619 0.00000608
-0.05187220 0.52029296 -0.00000083
-0.78659020 0.10551785 0.02116197
0.04343755 0.45197585 0.00000400
0.59630356 -0.13138427 -0.00000109
0.21527552 0.17771231 0.00000586
-0.40758974 0.76970709 0.08668416
0.02349909 -0.26558492 -0.00000033
0.47751909 -0.58230034 -0.00000014
-0.45649927 -0.64567628 -0.00000010
-0.70912285 0.21356452 0.02818751
0.11491809 0.10067241 -0.00000056
-0.61346162 0.24756557 0.01402082
-0.52089994 0.70827144 0.09860260
0.28476013 0.10058864 -0.00000056
-0.50697882 0.76045560 0.10739362
-0.67761300 -0.68218584 -0.00000001
0.55748225 -0.14041819 -0.00000095
0.13394182 -0.11286742 -0.00000043
0.14442632 0.12563865 0.00000778
-0.28298969 0.64358289 0.02907949
-0.29727857 0.23604832 -0.00000058
-0.06095558 -0.25180292 -0.00000034
-0.58483676 0.57643649 0.08300289
-0.77499184 0.11797759 0.02135986
-0.64502651 -0.49149023 -0.00000008
-0.71569067 -0.27732107 -0.00000004
0.07777471 -0.13045500 -0.00000042
0.17297870 0.22580638 0.00000572
0.42200896 -0.29853034 -0.00000031
0.06463772 -0.25299276 -0.00000034
0.52838885 0.10859628 -0.00000134
0.02740473 0.33756162 0.00000610
-0.11314689 -0.46958428 -0.00000021
0.10691436 0.08035962 0.00000908
-0.56086860 -0.67006098 -0.00000008
-0.76882650 0.36435300 0.07654856
-0.25925232 -0.07445443 -0.00000045
-0.31632380 -0.48366744 -0.00000020
-0.46287465 -0.76313529 -0.00000002
0.76016851 -0.52641719 -0.00000068
-0.20821360 0.67221223 0.01847707
0.11510741 0.49750855 0.00000218
-0.19374254 -0.39126817 -0.00000026
-0.74556873 0.18184053 0.02927243
-0.51587346 0.53403420 0.05741631
0.58768681 0.04337827 -0.00000141
0.01345904 -0.77875840 -0.00000001
-0.25691790 0.10725516 -0.00000057
-0.39128487 0.44226932 0.00770851
0.04453053 0.07369304 -0.00000055
-0.05107734 0.35935488 -0.00000072
0.33956279 0.17643667 0.00000367
-0.41488191 -0.56973079 -0.00000014
-0.61328959 0.65850491 0.10839547
0.59390228 -0.66821555 -0.00000008
-0.40659729 0.24159466 -0.00000046
-0.11874578 -0.09795218 -0.00000044
-0.26021897 0.01547080 -0.00000051
0.65445981 -0.24075677 -0.00000106
0.53242209 0.23876495 -0.00000115
0.03516589 0.67030803 -0.00000092
-0.77984394 0.10911974 0.02043954
0.25644949 0.40223751 0.00000122
-0.57910614 -0.03153913 -0.00000023
0.50995937 0.04873622 0.00000270
-0.69656008 0.75066047 0.14870016
0.78591052 0.01203153 -0.00000195
-0.26026959 -0.49567629 -0.00000019
-0.76797304 0.59822178 0.13008437
0.09672485 0.43922731 -0.00000077
-0.25269259 -0.49077899 -0.00000019
0.74569944 -0.36937487 -0.00000108
0.42853654 0.13920059 -0.00000108
-0.76861071 0.02062679 -0.00000004
0.70703418 -0.45965715 -0.00000081
0.11481333 -0.78049563 -0.00000001
0.26543846 -0.29766147 -0.00000031
-0.79828800 -0.31346031 0.00000000
-0.30218723 0.27995912 -0.00000058
0.03438752 -0.37575872 -0.00000027
-0.74851736 -0.03091739 -0.00000005
0.62409328 0.02601806 0.00000091
0.30722173 -0.66381353 -0.00000009
0.34437110 0.07613334 0.00000538
0.29175394 0.05930900 -0.00000054
-0.32561201 0.72614135 0.05784013
-0.45216725 0.30847983 -0.00000043
0.27631786 0.03682772 -0.00000052
-0.01403585 0.23653512 -0.00000065
-0.33188149 -0.18873057 -0.00000038
-0.45777954 -0.27558368 -0.00000031
-0.31181579 -0.07759016 -0.00000045
0.12178899 -0.03473495 -0.00000048
-0.68553788 0.61081194 0.11403720
0.25428051 0.52979872 -0.00000103
-0.27389101 0.41130341 -0.00000064
-0.06742353 -0.35734441 -0.00000028
-0.28869694 0.78894856 0.06378887
-0.58809143 0.38516616 0.03980592
-0.34576510 -0.22746562 -0.00000036
-0.18821210 -0.46948938 -0.00000021
0.07299359 0.33327559 0.00000548
-0.67409706 0.25109518 0.02876295
0.13257216 0.35424348 0.00000424
0.55379984 0.03062349 0.00000218
-0.04552112 -0.67560093 -0.00000008
0.28952219 0.29215318 -0.00000094
0.66300992 0.12711791 -0.00000165
0.32271031 0.34401446 0.00000099
0.09872444 -0.72506412 -0.00000005
-0.28184775 0.18376276 -0.00000059
0.29221717 -0.74275981 -0.00000004
-0.01225907 -0.25499040 -0.00000034
0.32671480 0.33788966 0.00000102
-0.03571929 0.43401286 -0.00000077
0.56901709 -0.40031637 -0.00000048
0.47387418 -0.62633803 -0.00000011
0.69242015 -0.20073293 -0.00000126
-0.36222850 0.39736074 -0.00000054
-0.01668313 -0.21856013 -0.00000036
0.30727301 -0.48911677 -0.00000019
0.09430887 0.70536325 -0.00000112
-0.58677245 -0.58710709 -0.00000012
-0.11341037 -0.23239998 -0.00000035
-0.34219080 -0.43443265 -0.00000023
-0.64273656 0.56386360 0.09341693
0.06049907 0.15061750 0.00000864
-0.18553974 -0.09484780 -0.00000044
-0.68342994 -0.22051322 -0.00000008
0.15238850 -0.03223479 -0.00000048
0.38387242 -0.72954555 -0.00000004
0.71630193 -0.50744783 -0.00000073
-0.54402340 -0.07976508 -0.00000026
-0.33651639 0.63073993 0.03842673
-0.70669453 -0.28777017 -0.00000005
-0.22334123 -0.58166998 -0.00000014
0.55393910 0.13506048 -0.00000148
0.14117545 0.25296201 0.00000576
-0.05356966 -0.65193313 -0.00000009
0.20920734 -0.77330846 -0.00000002
-0.11055396 -0.09329213 -0.00000044
0.23111177 0.18165247 0.00000556
-0.29187159 0.10614746 -0.00000056
0.63074147 -0.33348058 -0.00000081
-0.31550627 -0.61010696 -0.00000012
-0.43650727 -0.10932831 -0.00000037
0.53736983 0.04435177 0.00000225
-0.54640525 -0.77078439 -0.00000002
-0.04474868 -0.42420799 -0.00000023
0.40032112 0.35214379 -0.00000141
-0.63963986 0.41129474 0.05765244
0.52231686 -0.79902487 -0.00000000
-0.05132856 0.09957442 -0.00000056
0.22510808 -0.09302894 -0.00000044
0.20557298 0.37358474 -0.00000083
-0.00432747 0.63449398 -0.00000090
-0.18340909 0.42467078 -0.00000074
0.58546037 0.12036155 -0.00000155
0.35222853 0.04644552 -0.00000066
0.64897453 -0.02322224 -0.00000147
0.27111243 -0.11819394 -0.00000043
0.47227460 0.14999060 0.00000160
-0.05111192 0.46053196 -0.00000079
-0.52866799 0.13810626 -0.00000031
0.09456478 0.14504191 0.00000822
-0.01716617 -0.10343534 -0.00000044
0.75635652 0.03486435 -0.00000179
0.44841932 -0.42311295 -0.00000024
0.48945291 -0.52339970 -0.00000017
0.43868682 -0.56054490 -0.00000015
-0.56352919 0.37090965 0.03088721
-0.44119754 0.41967767 0.01398564
-0.07242481 -0.66056815 -0.00000009
-0.39166257 0.25184420 -0.00000048
0.15910280 0.32963373 -0.00000071
-0.74499975 0.24050081 0.04261901
0.41028393 -0.65585837 -0.00000009
0.28301135 -0.02559460 -0.00000048
-0.64767686 -0.78730710 -0.00000001
0.22941956 -0.69915587 -0.00000006
0.54235524 0.08065133 0.00000150
-0.22451577 0.33469547 -0.00000068
-0.11219999 -0.25227584 -0.00000034
0.62152374 -0.30743205 -0.00000083
-0.26568089 0.48275095 -0.00000066
-0.57967725 -0.67349746 -0.00000008
0.04825203 0.55104038 0.00000232
0.76627952 -0.69296752 -0.00000027
-0.73713139 -0.43978612 0.00000000
0.13293056 -0.10793004 -0.00000043
0.36686653 0.21036931 0.00000254
0.04335561 -0.01497136 -0.00000049
0.12298624 0.20602399 0.00000680
0.17828819 0.36301978 0.00000341
-0.41371145 0.65329659 0.06134502
-0.23438111 0.76552142 0.04592716
0.61355968 -0.04065824 -0.00000132
0.26541584 0.41000185 0.00000091
0.68247189 -0.28366925 -0.00000107
-0.62508573 -0.65225755 -0.00000007
-0.49332333 0.70826563 0.09226543
0.11657958 0.42248835 0.00000338
-0.32429648 0.23578171 -0.00000055
-0.64221293 -0.65430478 -0.00000005
0.58942776 -0.00258566 -0.00000132
-0.38056803 0.06880043 -0.00000046
-0.36234099 -0.47585312 -0.00000020
0.28704362 -0.29152997 -0.00000032
-0.42457923 0.07556861 -0.00000041
0.13458890 0.28514027 0.00000534
0.32796598 0.30432135 0.00000160
0.42076912 -0.39251858 -0.00000025
0.32324553 -0.20590246 -0.00000037
-0.24531069 0.10087512 -0.00000056
-0.41555077 0.18721508 -0.00000044
-0.59208182 -0.47348742 -0.00000014
-0.34786967 0.33362731 -0.00000054
-0.48058672 -0.22407343 -0.00000030
0.79984544 -0.14587350 -0.00000164
0.19315931 0.41831517 0.00000214
-0.02219041 0.46921501 -0.00000079
0.25529437 0.27448499 0.00000353
-0.17540513 -0.69901441 -0.00000006
-0.62230866 -0.45233717 -0.00000011
-0.77294078 -0.67767262 0.00000000
-0.45808741 -0.43181909 -0.00000023
0.36040803 -0.36235654 -0.00000027
0.12516361 0.40446531 0.00000354
-0.65542215 0.61796720 0.10876194
-0.25373922 0.21529040 -0.00000062
-0.56320898 -0.00726653 -0.00000025
-0.54162501 -0.29704800 -0.00000022
-0.53079998 -0.49118609 -0.00000019
-0.49251582 0.53395998 0.05203276
0.13809494 -0.48770775 -0.00000020
-0.45416880 -0.28198183 -0.00000032
-0.36797551 0.78639817 0.08141746
