ply
format ascii 1.0
element vertex 1393
property float x
property float y
property float z
end_header
-0.24271276 -0.40861800 0.00000000
-0.20310380 -0.15426969 0.00000000
-0.70743958 -0.29457176 -0.00000054
-0.34739184 -0.06831758 0.00000000
0.14308570 -0.15457241 0.00000000
-0.41722707 0.19853448 -0.00000036
0.31386865 -0.23177929 0.00000000
0.01562761 0.18565958 0.00000898
-0.56612791 -0.44734288 -0.00000011
-0.51309636 -0.73760683 0.00000000
0.60642414 0.15231320 -0.00000083
-0.70944811 -0.49546476 -0.00000037
-0.30443412 -0.42455012 0.00000000
0.10556564 -0.67723711 0.00000000
-0.79693383 -0.03330213 -0.00000096
0.03482522 0.37098134 0.00000591
0.05002915 0.38654918 0.00000000
-0.12876644 0.67552006 0.02156170
-0.49021809 0.36454861 0.27553113
-0.35057181 0.44130066 -0.00000043
-0.70735337 -0.35547225 -0.00000049
-0.33013940 -0.76207505 0.00000000
-0.37543118 -0.69108123 0.00000000
0.39301779 0.38199612 -0.00000057
-0.62998219 0.02883094 -0.00000066
0.62286791 -0.79866540 0.00000000
0.68984032 -0.08305383 -0.00000138
-0.21228224 0.24127581 0.00000000
-0.74675705 -0.17227891 -0.00000073
-0.61469886 -0.49833859 -0.00000016
-0.41552882 0.45458198 0.35272639
-0.21603323 0.41346428 -0.00000012
-0.29051088 0.14347085 -0.00000004
0.25871044 -0.11980666 0.00000000
0.16219655 0.25567374 0.00000000
-0.42012385 -0.78454060 0.00000000
-0.47978379 -0.62455958 0.00000000
-0.51650636 0.28980090 0.03173250
0.05839768 -0.25458931 0.00000000
0.08977484 -0.65320989 0.00000000
-0.48366557 -0.23146787 -0.00000012
0.68948094 0.03541475 -0.00000159
0.66936862 -0.23065480 -0.00000103
0.48336461 0.03924620 0.00000343
0.34348436 -0.27937878 0.00000000
-0.29548248 -0.21767171 0.00000000
-0.25463436 -0.37479441 0.00000000
-0.32254222 -0.01597323 0.00000000
0.77080236 -0.49683124 -0.00000076
-0.13558093 0.25037793 0.00000000
-0.26938095 0.55371474 0.11619212
0.54235670 0.14175639 0.00000058
-0.14723234 0.66193819 0.04613343
-0.52724762 -0.21143923 -0.00000023
0.16716614 0.40481909 -0.00000001
-0.39884951 0.43663270 0.17851002
0.32844725 0.33347687 -0.00000058
0.47632828 -0.54792517 0.00000000
-0.58639940 -0.17062244 -0.00000039
0.43290952 -0.25778264 0.00000000
-0.58147437 0.15192221 -0.00000067
0.34081004 -0.68520231 0.00000000
-0.41749418 0.11545039 -0.00000029
0.14613827 -0.71706591 0.00000000
-0.16293970 -0.74313489 0.00000000
0.61550401 -0.15727836 -0.00000093
-0.27783395 0.27736616 -0.00000013
-0.19921253 0.28933498 0.00000000
0.06409129 0.71423077 -0.00000012
-0.13890524 0.45981518 0.00000000
-0.14576680 -0.29360922 0.00000000
-0.03245989 -0.79491528 0.00000000
-0.37362431 -0.26495133 0.00000000
-0.62026870 -0.29094315 -0.00000036
0.26912868 0.36874529 0.00000204
-0.46041725 -0.21025516 -0.00000009
0.08096254 -0.77267949 0.00000000
0.41729256 0.26881996 0.00000086
-0.51698693 0.35759079 0.37520055
0.65373105 -0.20453395 -0.00000101
-0.55578816 -0.64961405 0.00000000
0.37243059 -0.35419183 0.00000000
0.19346493 0.02678865 0.00000868
-0.65505429 0.15343111 0.04269224
0.10544390 0.57119203 0.00000180
-0.29688180 0.13057012 -0.00000004
-0.28300686 0.53730122 0.10216783
-0.23991231 -0.20437427 0.00000000
-0.02853077 -0.51872091 0.00000000
-0.47392185 0.21859548 -0.00000050
0.57491564 0.00245252 -0.00000104
0.31654915 0.01823061 0.00000000
0.73530820 -0.10194728 -0.00000154
0.13775399 0.38926978 0.00000408
0.66545996 -0.64569401 -0.00000028
0.60113518 -0.20658925 -0.00000079
0.26893754 -0.73575830 0.00000000
0.60385887 0.06770206 -0.00000128
0.35876675 0.21539564 0.00000288
-0.27959718 0.54796673 0.13867178
0.27265311 -0.37529414 0.00000000
0.03136954 -0.71567565 0.00000000
0.52205223 -0.29546231 -0.00000029
0.20884334 0.53021608 -0.00000041
-0.51258567 0.30743144 0.10070654
-0.26214951 0.38618817 -0.00000019
-0.10935935 0.69170002 0.00532584
-0.60592353 -0.12142355 -0.00000048
-0.47993183 0.25172279 -0.00000054
-0.43333983 0.46117961 0.47552636
-0.41190032 -0.30123105 0.00000000
0.43647927 0.09582345 0.00000338
0.20873127 -0.49039875 0.00000000
0.15091627 -0.70996567 0.00000000
0.45540192 0.04806516 -0.00000061
0.39799375 -0.59162261 0.00000000
0.37700111 0.12752136 0.00000399
-0.01879825 -0.04798755 0.00000000
0.03915750 0.00687467 0.00001131
0.07394809 -0.28142872 0.00000000
-0.45614717 0.23002555 -0.00000047
0.44851868 -0.58764848 0.00000000
0.55901594 -0.73357001 0.00000000
0.04609800 -0.66496019 0.00000000
0.51618245 0.05403374 -0.00000088
-0.57600965 0.26971715 0.23005247
-0.36808792 -0.54173848 0.00000000
0.07166022 0.24524872 0.00000000
-0.57864327 -0.61797172 0.00000000
-0.45051447 0.38328970 0.17006844
0.22742207 -0.45929413 0.00000000
-0.49731692 0.32226977 0.09854094
0.48642577 -0.51817879 0.00000000
-0.25400697 -0.47036616 0.00000000
-0.16596762 0.14836357 0.00000000
-0.38032908 0.25446133 -0.00000033
-0.12133665 0.60876087 -0.00000009
0.49466935 0.13543978 -0.00000094
0.34327515 0.08455339 -0.00000020
-0.12337620 0.34611007 0.00000000
0.18653037 0.38677165 -0.00000007
-0.23055626 -0.76121593 0.00000000
-0.79414407 -0.65776330 -0.00000018
-0.59755781 0.25898219 0.28445377
0.60552743 -0.01154145 -0.00000115
0.40082409 -0.55491884 0.00000000
0.10853721 0.57108820 -0.00000006
-0.24858989 0.58087288 0.14822461
0.03711403 0.58741975 0.00000000
-0.78026777 -0.29068477 -0.00000064
0.25750179 0.03595783 0.00000758
0.48813763 0.07548672 0.00000273
0.15808485 0.33352217 0.00000000
0.74281863 -0.20810316 -0.00000139
-0.04270889 0.76231360 0.02526348
0.57615858 0.11881031 -0.00000125
0.39290674 0.34542483 -0.00000087
0.26057449 0.27817691 -0.00000019
0.10360860 -0.14251596 0.00000000
0.16579664 0.53184274 -0.00000023
-0.22948701 -0.74543639 0.00000000
-0.15271728 0.34828413 0.00000000
-0.16356157 -0.16966665 0.00000000
-0.17463093 -0.25237181 0.00000000
0.72590520 -0.12089943 -0.00000147
0.22121572 0.35567953 -0.00000016
-0.07585144 -0.20739145 0.00000000
-0.05454454 0.09452203 0.00000000
0.09429675 -0.59876818 0.00000000
-0.13111116 -0.55747893 0.00000000
-0.64118054 -0.21000657 -0.00000048
-0.28700047 -0.79531392 0.00000000
-0.26927384 -0.28353312 0.00000000
0.51922677 -0.30871512 -0.00000026
0.15716585 -0.36241649 0.00000000
0.21863373 0.21691745 0.00000000
-0.20933027 0.59248725 0.00914119
-0.18593349 0.54098738 -0.00000017
-0.13714814 0.40899722 0.00000000
-0.40364265 -0.05029211 -0.00000011
-0.40595689 -0.34018424 0.00000000
-0.50363824 -0.73730743 0.00000000
-0.32425676 0.38581580 -0.00000033
0.69061393 0.10792446 -0.00000170
-0.77556436 0.02264370 -0.00000097
0.09061694 0.19741879 0.00000767
0.17840652 0.21191791 0.00000000
-0.52864634 -0.61586865 0.00000000
-0.61976490 0.15864593 -0.00000076
0.46408477 -0.43697937 0.00000000
0.23754751 -0.64580790 0.00000000
-0.31112701 -0.57678941 0.00000000
-0.71879564 0.10410103 0.11519591
-0.46481180 0.41715150 0.41235680
-0.09165668 0.25204160 0.00000000
0.33572008 -0.55691231 0.00000000
0.10056971 0.03339647 0.00000000
0.39461876 0.31427763 0.00000054
0.37472773 0.18154171 -0.00000051
-0.03153719 0.42485333 0.00000000
0.33085211 0.46895064 -0.00000082
-0.59855177 -0.66131601 0.00000000
-0.24489427 0.60687882 0.26046765
-0.26097141 0.25228513 -0.00000007
-0.52451239 -0.32351937 -0.00000013
0.57191430 -0.09032734 -0.00000087
-0.76462831 -0.04465590 -0.00000089
-0.71964282 0.08077209 0.00209050
0.46242476 -0.16579104 -0.00000027
0.34901760 0.27270301 -0.00000056
0.01392028 0.35970269 0.00000000
-0.59001215 0.27568487 0.33052254
-0.29663259 0.52333648 0.10046241
-0.18068015 -0.45923807 0.00000000
0.05491067 0.62401539 0.00000000
0.17839883 -0.38798079 0.00000000
0.38344651 0.02547111 0.00000557
0.55644590 0.05945980 -0.00000107
0.37161827 -0.27224429 0.00000000
-0.56432439 0.30081472 0.32771545
0.56939718 -0.05740539 -0.00000091
-0.09997318 0.10447039 0.00000000
-0.44841917 -0.63764351 0.00000000
0.05160223 0.44679582 0.00000452
-0.31686326 -0.48626952 0.00000000
-0.46801083 0.05564742 -0.00000034
0.13416045 -0.38017474 0.00000000
-0.58641685 -0.41308303 -0.00000018
0.38285813 0.01669216 0.00000573
-0.13639410 -0.59036288 0.00000000
-0.77567666 -0.56251118 -0.00000030
0.21442250 0.42697313 0.00000211
-0.00552078 0.51614134 0.00000000
0.10000843 0.60702214 -0.00000009
-0.39825166 0.47855891 0.38643275
0.54216393 -0.45932576 -0.00000009
-0.30901284 -0.19111396 0.00000000
0.58401168 0.11302222 0.00000026
0.56260826 -0.50447898 -0.00000010
0.04728694 0.33234639 0.00000630
0.61586388 -0.04054670 -0.00000114
0.01550645 0.30764749 0.00000715
-0.37349124 0.46389756 0.18810177
-0.10835997 0.51860038 0.00000000
0.03348751 0.52371166 0.00000000
-0.05355892 -0.17226021 0.00000000
-0.21479762 -0.46866048 0.00000000
0.21323881 -0.18017159 0.00000000
0.13812700 0.26790150 0.00000000
-0.73762689 -0.65573806 -0.00000018
-0.12851840 -0.53141953 0.00000000
0.31789176 -0.69776426 0.00000000
-0.46266066 -0.13110464 -0.00000016
0.26232139 0.29654475 0.00000337
0.16069596 0.21820312 0.00000000
0.41496429 0.09952213 -0.00000053
0.21131757 -0.27617078 0.00000000
-0.62352621 -0.72911974 0.00000000
0.36896661 0.03392182 0.00000571
-0.46729777 -0.71118847 0.00000000
0.57147550 0.09824982 0.00000075
-0.38091806 0.48175748 0.31531929
0.21486411 -0.49950410 0.00000000
-0.16699671 0.64025591 0.03648464
0.60023535 -0.51242215 -0.00000024
-0.32204734 0.32568636 -0.00000027
-0.42278938 0.47449815 0.48945249
-0.55272366 0.03926207 -0.00000051
0.46500748 0.20360952 -0.00000093
-0.67003785 0.15408094 0.12134384
0.45314061 0.23623785 -0.00000094
-0.10724663 0.25177700 0.00000000
-0.32053942 0.27417081 -0.00000022
0.43461259 -0.68555035 0.00000000
0.22729122 0.11426353 0.00000686
0.05269143 0.33235212 0.00000622
0.47282021 -0.31235838 -0.00000005
0.08047429 0.22609344 0.00000739
-0.31156864 -0.77014661 0.00000000
-0.12217025 0.55692067 -0.00000005
0.00371993 0.07179133 0.00001087
-0.33216580 0.49985245 0.16108214
-0.13262444 -0.78817820 0.00000000
0.36216502 -0.61915049 0.00000000
-0.62372948 0.06819598 -0.00000068
-0.69064558 0.12719013 0.08973399
0.31172309 0.28126938 0.00000268
0.26055094 0.27669468 0.00000374
0.74813626 -0.55627102 -0.00000061
0.77205344 -0.63435045 -0.00000041
0.15721059 0.61661499 0.00000004
-0.33494087 -0.44749869 0.00000000
-0.24105371 0.58193812 0.11566930
-0.23585421 0.25815135 -0.00000002
0.12509763 0.57486933 -0.00000014
-0.25198097 0.60271355 0.27516546
0.03933779 0.68152120 0.00000000
-0.12043678 -0.31126230 0.00000000
0.47394015 0.16686591 -0.00000090
-0.39451210 0.49631055 0.45692745
-0.48162016 -0.19243475 -0.00000015
-0.57326064 0.27638150 0.24975044
0.61685841 -0.14588148 -0.00000096
-0.50091484 0.33584928 0.18496048
0.68291313 -0.21184222 -0.00000113
0.19120974 0.55085655 0.00000049
-0.25974499 -0.51532085 0.00000000
-0.46768502 0.16752344 -0.00000044
0.24187847 0.31992940 0.00000337
0.03318970 0.58859928 0.00000000
-0.70772594 0.11782473 0.12854804
-0.45648766 -0.59201077 0.00000000
-0.01040096 -0.04725169 0.00000000
-0.34713145 0.49219202 0.19783477
0.18182116 0.02172198 0.00000000
-0.18969822 0.65338653 0.21675611
0.37440210 0.03488459 -0.00000025
-0.76645644 -0.53493972 -0.00000033
0.42928978 -0.11008672 -0.00000022
-0.53784924 -0.18486936 -0.00000028
-0.59061016 0.01078593 -0.00000056
0.21533621 0.00326611 0.00000000
-0.40231525 0.12294872 -0.00000026
-0.53668506 -0.69274102 0.00000000
-0.41542220 -0.47579543 0.00000000
0.06368391 -0.73952925 0.00000000
0.15384528 -0.33244185 0.00000000
-0.00036269 0.26723776 0.00000000
0.49249994 -0.03590474 -0.00000062
-0.34661414 0.47466592 0.10705860
0.24698709 0.13353630 0.00000627
0.10023890 -0.70020920 0.00000000
-0.34128301 -0.60424897 0.00000000
0.08143162 -0.31038412 0.00000000
-0.55219687 -0.51040894 -0.00000002
0.18421163 -0.55576299 0.00000000
-0.25158554 -0.59089777 0.00000000
0.03293344 0.24983301 0.00000776
0.45810543 0.05032523 0.00000373
0.34604647 -0.08625569 0.00000000
0.38789700 0.21736557 -0.00000063
0.51180358 -0.14551865 -0.00000051
0.56462077 0.22750870 -0.00000140
0.30314035 0.09969609 -0.00000006
0.36462847 -0.14180225 0.00000000
-0.54339530 -0.04235319 -0.00000041
0.07869387 -0.34869785 0.00000000
0.02765487 -0.42146053 0.00000000
0.06520004 0.46329010 0.00000000
0.74482034 -0.57820605 -0.00000055
-0.37876434 -0.05254478 -0.00000005
0.66921470 -0.59265622 -0.00000039
0.46416195 0.16676577 -0.00000086
0.60108656 0.16066489 -0.00000086
-0.37881671 0.23672993 -0.00000031
0.02168574 -0.74412525 0.00000000
-0.42234416 0.46928914 0.46100605
-0.20660048 0.47415210 -0.00000015
0.59117848 -0.08823835 -0.00000095
0.03050886 0.61983325 0.00000224
0.25360614 -0.35202074 0.00000000
-0.01229376 -0.41520105 0.00000000
0.68063548 0.02765532 -0.00000154
0.04853107 0.37261576 0.00000000
-0.02826236 0.04833007 0.00000000
0.74430739 -0.35267383 -0.00000112
-0.70970063 -0.19726910 -0.00000063
0.41981404 0.13131978 0.00000311
0.00102945 0.02628491 0.00001159
0.26180774 0.44056453 -0.00000048
-0.21266080 0.57053647 -0.00000025
-0.31860206 -0.42052272 0.00000000
-0.28274333 0.52532729 0.04060131
-0.30101514 -0.73015099 0.00000000
0.12926551 -0.36197433 0.00000000
0.02049985 0.00421732 0.00000000
0.69859046 -0.49014741 -0.00000070
-0.11673214 -0.35930683 0.00000000
0.04616452 0.59035509 0.00000245
-0.77546392 -0.47492727 -0.00000041
-0.34403548 0.47435278 0.09250992
-0.27351434 -0.72300645 0.00000000
-0.53839458 -0.38877260 -0.00000010
-0.07389302 0.06088902 0.00000000
-0.15748960 -0.44325408 0.00000000
-0.35898035 -0.14609311 0.00000000
-0.53269573 -0.13236598 -0.00000031
0.38357102 -0.28676332 0.00000000
0.70639135 0.01948483 -0.00000053
-0.21280542 0.62542813 0.19234996
-0.25636159 0.21702223 -0.00000003
0.51890498 -0.19704095 -0.00000045
0.15949219 -0.11156949 0.00000000
0.32618603 0.24967842 0.00000293
-0.08009535 0.29372096 0.00000000
-0.19444898 -0.26921142 0.00000000
0.66447843 -0.08186616 -0.00000128
-0.79444439 -0.48405305 -0.00000039
-0.64169149 -0.64771931 -0.00000009
-0.14281447 0.05320098 0.00000000
0.02867563 0.71956813 0.00000000
0.07570231 -0.75639003 0.00000000
0.26693537 0.40603893 0.00000145
0.22299560 -0.24200580 0.00000000
0.18162756 -0.12130132 0.00000000
0.13134995 0.37066041 0.00000446
-0.49366705 0.36990470 0.31982930
0.12213776 -0.03509569 0.00000000
0.36172641 -0.50493876 0.00000000
-0.18525290 -0.12939162 0.00000000
-0.51897482 -0.57275974 0.00000000
-0.55905518 0.27528044 0.17274335
-0.53027970 0.04021993 -0.00000046
0.24812241 0.33276637 0.00000304
0.57237459 -0.73054958 0.00000000
-0.03945969 -0.37829744 0.00000000
0.54280141 0.19578499 -0.00000033
0.31340036 0.26892672 -0.00000040
0.09491134 0.40850336 0.00000444
-0.07136418 -0.60070863 0.00000000
0.03142506 0.08385322 0.00001027
-0.62207316 -0.27817386 -0.00000037
0.32616667 0.34336849 0.00000136
-0.22811193 0.53603814 -0.00000025
0.07935732 0.49745821 0.00000000
0.73472933 -0.26860800 -0.00000125
-0.00150326 -0.26197474 0.00000000
0.03501756 -0.75262310 0.00000000
-0.51167438 0.34674368 0.29390135
-0.22639430 0.59130627 0.08904880
0.04397193 0.46091635 0.00000000
0.08065509 -0.26759878 0.00000000
-0.03967466 -0.31860828 0.00000000
-0.28756648 -0.71720212 0.00000000
0.71416831 -0.38608875 -0.00000095
0.07070654 0.70103453 0.00000030
0.35727811 0.33061767 0.00000098
-0.36456814 -0.56289428 0.00000000
-0.25817113 -0.44966721 0.00000000
-0.00135542 0.65350118 0.00000000
0.63737481 -0.33716535 -0.00000071
-0.54627573 -0.04677852 -0.00000042
-0.03970043 -0.16049371 0.00000000
-0.41226531 0.48697924 0.49929811
0.19151696 0.60577106 -0.00000043
0.15334806 0.53272156 -0.00000018
-0.54517466 0.00528950 -0.00000046
-0.52822863 0.34582960 0.37258714
0.39137483 0.21315618 0.00000229
0.41995509 -0.04217046 -0.00000030
0.48769361 -0.13492989 -0.00000043
-0.76354779 -0.13838382 -0.00000080
0.62172792 -0.25725171 -0.00000078
-0.10170919 -0.00245091 0.00000000
-0.00391978 0.01750064 0.00000000
-0.34949837 -0.72156649 0.00000000
-0.06725456 0.13733618 0.00000000
-0.37029091 -0.58495278 0.00000000
0.04771185 0.26006571 0.00000000
-0.36860618 0.45467557 0.11712930
-0.27457795 0.34822742 -0.00000019
0.23663893 0.19353444 0.00000553
0.15066083 0.19669397 0.00000000
-0.69146860 -0.33786905 -0.00000047
-0.07966960 -0.22662019 0.00000000
0.12857062 -0.24100006 0.00000000
-0.63284924 0.20792766 0.20515023
0.03179084 -0.57005025 0.00000000
0.00172980 0.10639367 0.00001038
0.07167512 0.61521378 0.00000000
-0.23905168 -0.69942002 0.00000000
-0.57827047 0.24469959 0.11556360
0.71994273 0.06405991 -0.00000153
-0.23644056 -0.04115864 0.00000000
-0.20179409 -0.78469738 0.00000000
-0.18171647 -0.48869306 0.00000000
-0.70405104 -0.54531784 -0.00000031
0.49024197 0.14514990 -0.00000093
0.33384654 -0.53810743 0.00000000
-0.21708565 0.60348279 0.10347698
0.49298354 -0.60797114 0.00000000
0.04999955 0.62829903 0.00000182
0.30877545 0.33893244 -0.00000050
0.75124181 -0.41586719 -0.00000096
0.31487873 0.33089675 -0.00000051
0.72666486 -0.50606597 -0.00000073
-0.70198278 -0.22511090 -0.00000059
-0.79134637 -0.05853357 -0.00000093
-0.26535216 0.54507522 0.05245792
0.06275827 0.11852079 0.00000928
-0.38247325 0.31613783 -0.00000039
0.47029935 -0.46594655 0.00000000
0.71738295 0.04240170 -0.00000112
0.07654709 -0.30137690 0.00000000
-0.73439441 -0.66929557 -0.00000016
0.32746540 0.30965025 -0.00000053
0.76751334 -0.00505071 -0.00000185
-0.30228494 0.23619384 -0.00000015
-0.33312725 -0.60212946 0.00000000
-0.57031196 0.27958941 0.25105460
-0.14021224 -0.22298168 0.00000000
0.61534314 0.03027884 0.00000104
-0.24427726 0.32570461 -0.00000010
0.63787829 -0.32420577 -0.00000073
-0.17754751 -0.54097151 0.00000000
-0.02189606 -0.41344127 0.00000000
0.44585401 0.02095935 -0.00000053
0.35601049 -0.03981557 -0.00000003
0.17723854 -0.40385051 0.00000000
0.20478916 -0.21768039 0.00000000
-0.20302514 -0.63047593 0.00000000
-0.12710420 0.24905331 0.00000000
-0.38982331 -0.49997025 0.00000000
-0.40610293 -0.78632180 0.00000000
-0.52508671 0.30056941 0.12907651
0.17831323 0.54295431 -0.00000031
0.03576070 0.42285640 0.00000512
-0.22223534 -0.04863574 0.00000000
0.40579935 0.14005126 -0.00000057
-0.02757375 -0.65124530 0.00000000
0.75606936 -0.17508424 -0.00000150
0.26140043 0.26099621 -0.00000016
-0.28444883 -0.37729028 0.00000000
-0.07972818 -0.22339886 0.00000000
0.52966246 -0.55116663 0.00000000
-0.78059426 -0.47550513 -0.00000041
0.40300038 -0.31644653 0.00000000
-0.63025259 -0.30098170 -0.00000037
0.62167364 -0.33044715 -0.00000065
0.65277225 -0.03146529 -0.00000132
0.28696917 -0.32109092 0.00000000
-0.51424535 -0.58755577 0.00000000
-0.35708369 0.18410469 -0.00000022
0.15898217 0.40419818 0.00000000
-0.79710098 -0.57076399 -0.00000029
-0.48711425 0.35256571 0.19962986
0.03293553 -0.70265373 0.00000000
0.04185065 0.18514735 0.00000859
-0.31867594 0.54795921 0.33523941
-0.61790185 -0.12178631 -0.00000050
0.09753699 0.02418700 0.00001017
0.30485764 -0.79158655 0.00000000
0.10332307 0.08844101 0.00000911
-0.04193126 -0.32406323 0.00000000
-0.46056849 0.36966858 0.15212250
0.56901697 -0.64244168 0.00000000
-0.18245837 0.65356662 0.18123843
-0.35675360 0.47382267 0.15382779
-0.21684993 0.55695694 -0.00000025
-0.17130854 0.09840773 0.00000000
0.12054675 0.15945697 0.00000779
0.13868052 0.22212473 0.00000000
0.70067938 0.06111900 -0.00000168
0.54618035 -0.20321588 -0.00000056
0.43160259 -0.49183272 0.00000000
0.34940717 0.19232249 -0.00000042
0.54991156 0.23069778 -0.00000134
0.37425633 -0.43830454 0.00000000
0.61678966 -0.72084055 0.00000000
0.69040259 0.02291005 -0.00000028
-0.18149087 0.19848236 0.00000000
0.16979929 0.12959143 0.00000749
-0.48285970 0.33279064 0.07873706
-0.42929028 -0.03289150 -0.00000018
-0.45977686 -0.37172897 0.00000000
0.44121005 -0.64435993 0.00000000
0.34068972 -0.40762686 0.00000000
-0.57010552 0.30205516 0.36304101
0.46977340 0.21845096 -0.00000098
-0.46518804 -0.74789706 0.00000000
0.62336420 -0.32979776 -0.00000066
0.07333341 0.47280127 0.00000380
0.62965630 0.15428287 -0.00000155
0.49035476 0.22063379 -0.00000107
0.32759680 0.33597114 -0.00000058
-0.19769232 0.21384204 0.00000000
0.65096294 -0.58405409 -0.00000033
0.49857645 0.15509337 -0.00000099
-0.47783959 0.04417974 -0.00000035
-0.69983743 -0.50296790 -0.00000034
-0.17849632 0.21385519 0.00000000
-0.17200932 -0.57143068 0.00000000
-0.48325573 0.03942847 -0.00000036
-0.42670359 -0.08736673 -0.00000013
-0.25322049 0.57766557 0.15538523
-0.04917879 -0.38216058 0.00000000
0.50634931 -0.35990762 -0.00000011
-0.41615173 0.39420795 0.05211906
-0.37055629 -0.25654868 0.00000000
0.67395742 0.00896581 0.00000027
-0.10103570 0.53722763 0.00000000
-0.57759521 -0.60631181 0.00000000
0.13167248 0.57141815 -0.00000016
0.28628699 -0.08900679 0.00000000
-0.26711052 -0.05652613 0.00000000
-0.41453979 0.43065909 0.22739464
-0.32262180 -0.22454673 0.00000000
0.30605471 -0.54724577 0.00000000
-0.17766550 0.65500725 0.16437326
0.75698863 -0.32404247 -0.00000119
0.21454869 0.26401750 0.00000000
0.06189263 0.03048524 0.00000000
0.02764078 0.40794472 0.00000546
-0.27336395 -0.30983379 0.00000000
-0.32973000 -0.03862871 0.00000000
0.26520558 -0.39318583 0.00000000
-0.60386181 -0.31262213 -0.00000031
-0.31145724 0.38385646 -0.00000030
0.33847490 -0.55578673 0.00000000
-0.37094348 -0.38359961 0.00000000
-0.03536766 0.35493058 0.00000000
0.05882413 0.44729435 0.00000000
-0.74231571 -0.02619355 -0.00000085
-0.32217619 0.25179193 -0.00000020
-0.72239559 0.00030166 -0.00000083
-0.21040706 -0.13684537 0.00000000
-0.31239831 -0.40756714 0.00000000
-0.47120408 -0.49974760 0.00000000
0.69792524 -0.21382696 -0.00000119
-0.55627939 -0.46813197 -0.00000007
0.20791564 -0.62819742 0.00000000
-0.16747952 0.59452409 -0.00000018
-0.61123775 -0.73569941 0.00000000
-0.40689338 -0.75265869 0.00000000
-0.65129587 -0.38684544 -0.00000034
-0.61757586 0.14821775 -0.00000074
0.72131796 -0.10194991 -0.00000148
-0.08433091 -0.21902496 0.00000000
-0.30676971 0.44861172 -0.00000034
0.72625749 -0.72034756 -0.00000020
0.44459773 -0.33456646 0.00000000
0.16681586 -0.67908110 0.00000000
0.05538288 -0.60363026 0.00000000
-0.20554220 -0.63977398 0.00000000
-0.51978970 -0.13622474 -0.00000028
-0.05206887 -0.74624719 0.00000000
-0.11590865 0.59115148 -0.00000006
-0.64131724 -0.62828939 -0.00000011
-0.62612263 0.19783167 0.12051580
0.24036645 -0.62621565 0.00000000
0.39281206 -0.32574475 0.00000000
-0.29162475 -0.54332931 0.00000000
0.47081845 -0.15893009 -0.00000031
-0.41938600 0.41650634 0.18057361
-0.51288396 0.13930135 -0.00000051
-0.33718098 -0.64718192 0.00000000
0.68977955 0.10414122 -0.00000171
-0.12926209 0.28961999 0.00000000
-0.27722081 -0.12545406 0.00000000
-0.64972899 -0.03483253 -0.00000065
-0.16715549 0.22206932 0.00000000
-0.01131981 0.37014134 0.00000000
-0.58966122 -0.76879368 0.00000000
-0.68340217 -0.10449917 -0.00000066
-0.62971704 -0.07811117 -0.00000057
-0.57880800 0.13616000 -0.00000065
-0.45935516 0.07643708 -0.00000034
-0.30500247 0.09134427 -0.00000002
0.25222567 0.28270605 0.00000380
0.01575767 0.12126450 0.00000000
-0.04631640 0.62589593 0.00000000
-0.27918856 -0.78039340 0.00000000
-0.29424569 -0.77469894 0.00000000
-0.21898956 0.46897176 -0.00000017
0.62514113 -0.58076151 -0.00000023
-0.12995939 -0.02139532 0.00000000
0.17141409 0.00470452 0.00000000
-0.11823176 0.14661042 0.00000000
0.10274647 -0.25347991 0.00000000
0.31209783 -0.29637904 0.00000000
-0.68231679 -0.12457485 -0.00000064
-0.34699117 0.51528294 0.31329931
-0.02279729 0.38525153 0.00000000
0.23955626 0.18968077 0.00000554
0.03305256 0.22394267 0.00000000
0.77500152 -0.45662807 -0.00000086
-0.41459835 0.41822843 0.16515074
-0.36195320 0.34891024 -0.00000037
0.67562121 -0.27241334 -0.00000099
0.70393857 -0.65206345 -0.00000037
0.25309160 0.39847888 0.00000185
0.57357552 -0.05886730 -0.00000093
-0.63602673 0.17749552 0.06803243
-0.28481327 0.05564151 0.00000000
0.61192637 -0.19485075 -0.00000085
-0.23179324 0.62021301 0.26164057
0.01807094 -0.38885506 0.00000000
-0.53696302 0.28028145 0.08675772
-0.77079691 -0.62219944 -0.00000022
-0.71819814 -0.48279695 -0.00000040
0.51150756 -0.31688038 -0.00000021
0.13684439 0.35345394 0.00000000
-0.51465423 0.35774208 0.36422586
0.11644803 -0.27078066 0.00000000
0.59930746 -0.26426639 -0.00000068
-0.29929012 -0.65139710 0.00000000
0.02371427 -0.39679269 0.00000000
-0.13184280 -0.68212773 0.00000000
0.08611383 0.65480136 0.00000077
-0.04834195 -0.15934401 0.00000000
-0.35427915 0.45952664 0.06945570
-0.01996990 0.05348546 0.00000000
-0.76225397 -0.33957359 -0.00000058
0.00563880 0.44122251 0.00000000
0.28752715 0.21544058 0.00000424
-0.32533482 0.55043668 0.38120444
0.19952326 0.20129832 0.00000597
0.33835662 -0.35819052 0.00000000
-0.47138969 0.38188280 0.26801356
0.31167782 0.23600441 0.00000344
0.53136145 0.00218601 -0.00000086
-0.56214159 -0.60456603 0.00000000
-0.55316322 -0.71199113 0.00000000
-0.48194702 -0.02798928 -0.00000030
0.79372238 -0.73829540 -0.00000015
0.36592218 -0.29443869 0.00000000
-0.04671752 0.62855829 0.00000000
-0.60279803 0.10266748 -0.00000067
0.05410057 -0.59225277 0.00000000
0.23940739 -0.12589622 0.00000000
0.24638329 -0.58362660 0.00000000
0.74430912 -0.67473066 -0.00000031
-0.58267449 -0.10840364 -0.00000044
-0.50776765 0.31133216 0.09609156
-0.10341822 0.11330703 0.00000000
-0.05218390 0.36373001 0.00000000
0.61395918 0.00726702 0.00000145
-0.40306272 -0.20035945 0.00000000
-0.40897055 -0.62413059 0.00000000
-0.33154570 -0.33231185 0.00000000
0.68784849 0.04062182 -0.00000159
-0.07677290 -0.16818188 0.00000000
0.37401162 0.15807988 -0.00000046
0.57457897 0.01048307 -0.00000106
-0.18269634 -0.53462287 0.00000000
-0.56652849 0.29092266 0.28903745
-0.67383084 -0.53650156 -0.00000026
-0.08706164 0.30118032 0.00000000
0.15853406 0.28242453 0.00000537
-0.02217682 -0.52434890 0.00000000
0.72169640 -0.42476002 -0.00000091
-0.25227658 0.33368713 -0.00000013
-0.26602906 -0.36258826 0.00000000
-0.13474081 -0.18705761 0.00000000
0.29389850 0.15408610 0.00000515
0.62063938 0.08462989 -0.00000138
-0.70172257 -0.01062010 -0.00000078
0.32881667 -0.50046495 0.00000000
0.34362978 -0.62449480 0.00000000
-0.65117944 0.01180283 -0.00000069
0.51220931 -0.11661654 -0.00000057
-0.01730724 0.11902687 0.00000000
0.78536288 -0.06715944 -0.00000182
0.17815011 -0.27475608 0.00000000
0.45545644 0.10287423 -0.00000071
0.59405520 -0.02769288 -0.00000107
0.00704291 -0.19700493 0.00000000
-0.39506778 0.48695394 0.41264995
-0.39638946 0.48472479 0.40808449
0.25491577 -0.12163416 0.00000000
-0.26077349 0.14818005 0.00000000
0.40379507 -0.21175750 0.00000000
0.19210863 -0.69657188 0.00000000
-0.43910992 0.32788159 -0.00000052
0.16891374 0.37425337 0.00000384
-0.58974039 -0.32139781 -0.00000027
0.54706348 -0.72356390 0.00000000
0.54702076 -0.35434112 -0.00000029
-0.49570952 0.33527519 0.15588427
-0.63491652 0.21110601 0.23154093
-0.41442619 0.40467509 0.09609794
0.20724570 0.12848484 0.00000000
0.44325390 0.29735191 -0.00000100
-0.34542703 0.23408581 -0.00000024
0.29920611 0.09311998 -0.00000003
-0.72721522 -0.17604704 -0.00000069
0.56961755 -0.62449949 0.00000000
0.68673512 -0.16597504 -0.00000122
-0.10380512 0.32277727 0.00000000
0.01356298 -0.10859385 0.00000000
-0.25600575 -0.60201155 0.00000000
-0.69838975 -0.51021522 -0.00000033
-0.35474133 0.05149449 -0.00000010
-0.00464807 0.65334361 0.00000000
0.62921925 0.03910137 -0.00000134
0.67883326 -0.30263964 -0.00000095
0.43978551 0.28607193 -0.00000097
-0.43107905 0.43861401 0.35062494
0.44173636 -0.54804922 0.00000000
-0.61424151 -0.71868715 0.00000000
0.12267411 -0.12096919 0.00000000
0.26832062 0.43984714 -0.00000051
-0.40051261 0.45718679 0.29028456
-0.20471851 0.37867618 -0.00000006
0.52015747 -0.48599687 0.00000000
0.22277618 -0.06954531 0.00000000
-0.75047918 -0.53858816 -0.00000033
0.50846093 -0.10863242 -0.00000056
0.17851205 0.56734221 0.00000046
-0.66339486 0.07853509 -0.00000078
0.47137196 -0.19013991 -0.00000026
-0.55010119 -0.54073707 0.00000000
-0.34214892 -0.37379281 0.00000000
0.43149214 0.21408134 0.00000150
-0.51141690 0.29691268 0.04190673
0.19198609 -0.56533468 0.00000000
0.25056195 -0.21846200 0.00000000
0.40728946 -0.79673371 0.00000000
-0.09255410 -0.06642793 0.00000000
0.62024183 0.08909493 -0.00000004
0.35445533 0.40143358 -0.00000081
-0.32200786 0.35868362 -0.00000030
-0.05174043 0.39059724 0.00000000
-0.46666412 -0.43531412 0.00000000
-0.43875322 0.36240333 0.00581850
-0.66991192 -0.47582892 -0.00000030
0.22490134 -0.13876687 0.00000000
0.10477903 0.34551036 0.00000524
-0.02173130 -0.38596984 0.00000000
-0.74549317 -0.14364097 -0.00000076
-0.00056178 -0.14735929 0.00000000
0.44865930 0.29434809 -0.00000102
0.06488299 0.29161528 0.00000665
0.03189397 0.70137796 0.00000000
0.02894052 0.20795026 0.00000000
-0.20197725 -0.27317151 0.00000000
0.04118017 -0.74414865 0.00000000
-0.04941484 -0.33323144 0.00000000
0.23917343 0.23551375 -0.00000002
0.54987307 0.23036639 -0.00000104
0.02621732 -0.34467668 0.00000000
-0.41495810 -0.56241392 0.00000000
-0.49119825 0.06696927 -0.00000040
0.57972150 0.02798266 -0.00000111
0.07478338 0.69215504 -0.00000013
-0.05630930 0.10717640 0.00000000
-0.47547616 0.34910934 0.12368969
0.68205678 -0.03581686 -0.00000143
0.63976251 -0.29822953 -0.00000079
0.04329109 0.68423878 0.00000000
-0.04767455 -0.00984778 0.00000000
0.05132274 -0.70256499 0.00000000
0.62328119 -0.31791712 -0.00000068
-0.79844675 -0.28061975 -0.00000065
0.37745093 -0.67638478 0.00000000
0.52932053 0.23007015 -0.00000125
0.14316670 0.58089422 -0.00000022
0.61296671 -0.47084439 -0.00000037
-0.38504925 -0.48538989 0.00000000
0.77112602 -0.57764534 -0.00000056
-0.34209862 -0.45712702 0.00000000
-0.24906176 0.23603007 -0.00000003
-0.33445900 -0.70753657 0.00000000
0.13639436 0.39475280 0.00000000
-0.66640192 -0.49353855 -0.00000028
0.35561264 0.03514353 -0.00000017
-0.08631822 0.16509940 0.00000000
-0.30682114 -0.65349114 0.00000000
-0.17754606 -0.72693180 0.00000000
0.05458961 0.02059855 0.00000000
0.27820639 0.23627520 0.00000407
-0.27481398 0.56306759 0.19057983
0.74034681 -0.60502639 -0.00000049
-0.06459063 -0.65106195 0.00000000
0.43703230 0.15702659 -0.00000073
-0.51970842 0.20272080 -0.00000058
-0.25608553 0.53702637 -0.00000031
-0.70642993 0.02719478 -0.00000082
0.08211986 0.51939000 0.00000297
0.47594924 -0.42613994 0.00000000
-0.40473981 -0.69759405 0.00000000
0.44998478 0.13836083 0.00000241
-0.43561881 0.16053116 -0.00000036
0.63125385 -0.03923990 -0.00000121
0.14295838 0.22479692 0.00000647
0.19227333 -0.69427459 0.00000000
-0.22653160 0.19766122 0.00000000
-0.48954930 0.38354730 0.36774875
0.52488697 -0.25461536 -0.00000038
-0.17507956 0.24829634 0.00000000
-0.03231336 -0.29698317 0.00000000
0.57561070 0.02491337 0.00000189
-0.28398788 0.52144958 0.02735397
-0.32503714 0.31154129 -0.00000026
0.41942079 -0.74424708 0.00000000
0.64296599 0.03893475 0.00000037
0.16906141 -0.12414410 0.00000000
0.57949235 -0.77509506 0.00000000
-0.16179703 0.39669031 0.00000000
0.45664530 -0.16910921 -0.00000024
0.08913109 -0.46296769 0.00000000
0.36039804 -0.72173800 0.00000000
-0.62608664 -0.33518589 -0.00000033
-0.54211824 -0.58671999 0.00000000
0.05737453 0.52193939 0.00000331
0.23861783 -0.05475653 0.00000000
-0.61574584 0.19550949 0.05662730
0.02081516 0.59482968 0.00000000
0.06894392 0.28146658 0.00000674
0.23706338 0.55052565 -0.00000057
0.63790790 -0.74781842 0.00000000
-0.16966587 0.63097945 0.00324342
-0.76265866 -0.63914110 -0.00000020
0.28726718 0.08173114 0.00000644
0.65049282 0.14925793 -0.00000163
0.42999817 -0.66582142 0.00000000
0.04968364 0.51847577 0.00000347
0.35919534 0.38031182 -0.00000079
-0.46784496 0.23207591 -0.00000050
-0.48592871 -0.33416058 -0.00000003
-0.16584416 0.32204117 0.00000000
-0.46650432 0.33355982 0.00032284
0.59864286 0.10400953 -0.00000132
0.60655117 -0.52152919 -0.00000025
-0.39289282 0.47194733 0.32620957
0.05884723 -0.05993396 0.00000000
-0.35987855 -0.16990215 0.00000000
0.67495726 -0.01639958 -0.00000144
-0.12861703 -0.58160038 0.00000000
0.18788277 0.59974808 -0.00000026
0.23817839 -0.61582298 0.00000000
-0.12225061 -0.50402791 0.00000000
-0.43985185 0.45359222 0.47011626
-0.50380458 -0.19917290 -0.00000019
0.75354916 -0.55309323 -0.00000062
0.13467663 0.59156461 0.00000090
-0.33450186 0.48389379 0.09254701
0.58296974 0.03247583 0.00000163
-0.74374981 0.06871571 0.06271727
-0.29590975 0.13242942 -0.00000004
0.08182446 0.06143175 0.00000984
-0.46084163 0.41763347 0.39480765
0.36212843 0.12106550 0.00000439
-0.33011257 -0.67665552 0.00000000
-0.46332366 -0.34893477 0.00000000
0.03038808 0.53598753 0.00000000
0.05953632 -0.56380171 0.00000000
0.02432044 0.00982669 0.00000000
0.15060393 -0.65723675 0.00000000
-0.60915827 -0.60940484 -0.00000005
0.39040199 0.05697811 -0.00000035
0.21481559 0.34147064 0.00000353
0.11581813 -0.44224216 0.00000000
0.27740164 -0.26585224 0.00000000
0.25739397 0.21353533 -0.00000006
-0.59289014 -0.00010464 -0.00000056
0.32298181 0.29748408 0.00000219
0.32731338 0.31850000 0.00000176
-0.07180990 -0.29209827 0.00000000
-0.19225655 0.61640504 0.04357343
0.63118842 -0.59879722 -0.00000022
0.57034198 -0.04738434 -0.00000094
0.28640370 -0.56333130 0.00000000
-0.22126671 -0.74617939 0.00000000
0.01856035 0.05819834 0.00001085
-0.63017661 0.19034085 0.10322513
-0.23880997 0.48941154 -0.00000024
0.10335367 0.42546397 0.00000406
0.49767113 -0.30496374 -0.00000017
-0.38569498 -0.06562544 -0.00000006
0.22796736 -0.61626413 0.00000000
-0.03503680 -0.17743047 0.00000000
0.56361507 -0.56670064 0.00000000
0.76949882 -0.66700259 -0.00000033
-0.23762390 0.29071358 -0.00000006
-0.56251031 0.28820406 0.25514470
0.02119744 -0.69941019 0.00000000
0.54538758 -0.16029385 -0.00000063
-0.72102043 -0.79255831 -0.00000001
0.30583178 0.10296932 -0.00000007
-0.58617403 0.24595936 0.16166428
0.51214818 0.02068460 -0.00000081
-0.01731620 0.25808005 0.00000000
0.34235162 0.29650015 0.00000184
0.50122678 -0.18281407 -0.00000040
-0.53765276 0.33822241 0.38172821
0.27980944 0.16488104 -0.00000007
-0.22601666 -0.28858859 0.00000000
-0.69753882 0.12501968 0.11349434
0.39541099 0.25178914 0.00000156
0.21210187 -0.08570900 0.00000000
-0.16007331 0.66993655 0.15097604
-0.56574482 0.27203209 0.19005651
0.24021793 0.05901500 0.00000749
0.39632578 -0.53710701 0.00000000
0.10927622 -0.50602472 0.00000000
0.21938916 -0.56936044 0.00000000
0.35139971 0.17156104 0.00000375
0.38299386 0.37828108 -0.00000089
-0.04773286 -0.70858473 0.00000000
0.36427452 -0.14654354 0.00000000
0.17499904 0.15922364 0.00000000
-0.63660408 -0.39425877 -0.00000030
0.32893356 -0.46568711 0.00000000
-0.71385403 -0.70533129 -0.00000012
0.76495973 -0.22619506 -0.00000143
0.06395398 0.73420830 -0.00000016
-0.44090216 0.01375696 -0.00000025
-0.45651391 0.20919585 -0.00000045
-0.71468574 -0.60414656 -0.00000024
0.16825713 0.18764000 0.00000000
0.37673479 0.26822598 0.00000165
0.45677315 0.12953016 0.00000243
-0.78057489 -0.76023065 -0.00000005
-0.47386738 -0.00356702 -0.00000030
0.31142945 0.47900708 -0.00000076
-0.24182481 -0.40819267 0.00000000
0.02070603 -0.19280830 0.00000000
0.58074548 0.02603412 -0.00000111
-0.43640399 -0.02591750 -0.00000020
0.53207954 -0.49722301 0.00000000
0.48864300 0.27667521 -0.00000116
-0.69716529 -0.77745372 -0.00000003
0.41840290 0.20283982 -0.00000073
-0.34482322 -0.38383705 0.00000000
-0.76433935 -0.71531562 -0.00000011
0.75516734 -0.42160295 -0.00000095
-0.43672274 0.43217176 0.34660748
-0.08044035 -0.06137308 0.00000000
0.53583866 0.18646079 -0.00000120
-0.09512443 0.71755621 0.06379218
-0.04575145 -0.54314326 0.00000000
-0.27866964 -0.69774858 0.00000000
-0.15425778 0.65910442 0.06722171
-0.09934149 -0.01573278 0.00000000
0.12206348 -0.77346520 0.00000000
-0.19712281 -0.69175861 0.00000000
0.48872613 -0.58983186 0.00000000
-0.68811610 0.03901656 -0.00000080
0.28973712 0.09208132 0.00000625
0.56243359 -0.21904746 -0.00000060
0.38109754 -0.73197061 0.00000000
-0.02500889 -0.55551756 0.00000000
-0.16259628 0.56712354 -0.00000014
-0.58896732 -0.73100163 0.00000000
0.48893673 0.28979688 -0.00000087
-0.56821492 -0.09892791 -0.00000042
-0.35628181 -0.13724244 0.00000000
0.10549409 0.49703841 0.00000295
-0.64012606 0.19870983 0.19538512
0.51669369 -0.65219132 0.00000000
-0.08563218 -0.50480423 0.00000000
-0.36990295 -0.76479487 0.00000000
0.30045447 -0.74267551 0.00000000
-0.19668404 0.06641033 0.00000000
-0.08276208 -0.28243328 0.00000000
0.68569895 -0.78180098 -0.00000005
0.35115716 0.41615123 -0.00000082
-0.57906884 -0.25082742 -0.00000031
-0.39025328 -0.34754305 0.00000000
-0.30589373 -0.12327663 0.00000000
0.67842303 -0.19342222 -0.00000114
0.56056837 -0.22394973 -0.00000058
-0.37976418 0.45096150 0.15457973
0.13153857 0.15878137 0.00000000
-0.33457033 -0.01475596 0.00000000
0.56159762 -0.16491420 -0.00000069
0.34140501 0.34831823 -0.00000066
0.79221785 -0.32492904 -0.00000119
0.77224019 -0.04816141 -0.00000180
0.10957597 0.56994001 -0.00000006
0.11212212 -0.78235684 0.00000000
-0.29424862 0.55951846 0.27049995
0.56720175 -0.15245836 -0.00000074
-0.32785078 0.16290567 -0.00000014
-0.56574828 -0.08750642 -0.00000042
-0.62338124 -0.71758121 0.00000000
-0.45810206 0.06275809 -0.00000033
-0.30741500 0.39761234 -0.00000030
0.67809395 -0.64928848 -0.00000033
-0.61012599 -0.32312071 -0.00000031
-0.23359884 0.00886256 0.00000000
0.53565558 -0.68334310 0.00000000
0.28041944 0.33313006 0.00000241
-0.42264526 0.46016068 0.41659568
-0.52161228 -0.42049711 -0.00000003
-0.57744981 -0.79563891 0.00000000
0.45050527 -0.60657468 0.00000000
-0.44710681 0.39574377 0.21558077
0.15469024 0.36177239 0.00000424
0.24261968 0.53126868 -0.00000056
0.59435172 0.10445948 0.00000020
0.14998308 0.43871287 -0.00000000
-0.62495344 0.11059926 -0.00000072
0.00384743 -0.11075893 0.00000000
-0.29481869 -0.12188831 0.00000000
-0.39922645 -0.15035830 -0.00000001
-0.19412205 -0.39034404 0.00000000
0.30291932 0.35068124 -0.00000050
0.35126785 0.38879617 -0.00000077
-0.52117227 0.29938510 0.10342473
-0.53157558 0.33160969 0.31788532
-0.38342344 -0.57011963 0.00000000
-0.37979144 0.14844892 -0.00000023
0.00628339 0.47722162 0.00000000
0.05531326 -0.55276790 0.00000000
0.06593398 0.19129923 0.00000814
0.52292635 -0.13246317 -0.00000058
-0.29073204 0.14940652 -0.00000005
-0.41971319 0.09749484 -0.00000027
0.66999157 -0.61178557 -0.00000036
0.48769589 -0.67070668 0.00000000
-0.67601156 -0.63828642 -0.00000017
-0.38972852 -0.02321064 -0.00000010
-0.05912665 0.27748814 0.00000000
0.17937341 0.47172432 -0.00000019
-0.74291320 -0.17287497 -0.00000073
0.20148450 0.09673110 0.00000000
0.09653955 0.13222453 0.00000856
0.34006860 0.20496508 0.00000341
-0.07430860 0.57404919 0.00000000
0.18327944 -0.67753329 0.00000000
-0.56571382 -0.63679441 0.00000000
-0.16329660 0.64092607 0.02124093
0.45641745 -0.59259226 0.00000000
-0.28753091 0.53047375 0.09057938
0.06710985 0.15700261 0.00000863
-0.40756813 -0.16943173 -0.00000001
0.03363735 -0.54886285 0.00000000
-0.49840901 -0.71331085 0.00000000
-0.60314902 -0.26626743 -0.00000034
0.77163114 -0.55194190 -0.00000062
-0.70363047 -0.05843964 -0.00000074
-0.11987820 -0.28181071 0.00000000
-0.41675188 0.44954004 0.33351365
0.22179289 -0.27473856 0.00000000
0.40328548 -0.21656475 0.00000000
0.32293318 -0.72387023 0.00000000
0.39386985 0.16970517 0.00000296
-0.10973814 -0.37226140 0.00000000
0.19472207 0.14249671 0.00000692
0.73700920 0.01992549 -0.00000112
0.51247883 0.18050542 0.00000051
-0.33268887 0.13942246 -0.00000013
0.65625941 -0.64381690 -0.00000025
0.28797839 0.39261989 -0.00000051
0.04734836 0.10851490 0.00000000
0.16051844 -0.51845123 0.00000000
-0.20347030 0.23987281 0.00000000
-0.30877355 0.50519144 0.07025614
0.49499732 -0.21246188 -0.00000032
0.15953196 -0.42215969 0.00000000
0.54341293 -0.15455121 -0.00000063
0.67260844 -0.27826503 -0.00000096
0.16063667 0.17080775 0.00000000
-0.46886216 0.37407283 0.21600565
0.42973129 0.34353114 -0.00000063
-0.38308217 0.49546607 0.39517478
0.66559400 -0.65760703 -0.00000026
-0.55687021 0.31399613 0.35652907
0.48865244 0.10133945 -0.00000085
-0.30327502 0.53029255 0.16887642
-0.50642824 -0.33469348 -0.00000008
0.59492993 0.02114407 0.00000159
0.14480259 0.07607752 0.00000000
-0.53001298 0.31906851 0.24692930
0.01805329 -0.51773737 0.00000000
-0.58635064 0.24320664 0.14870390
0.17216602 -0.29322274 0.00000000
0.75099673 -0.18432156 -0.00000147
0.07655714 0.52360812 0.00000299
0.29705569 -0.35066446 0.00000000
0.23658226 -0.52051321 0.00000000
0.28947617 -0.27546001 0.00000000
0.23582673 0.10571906 0.00000000
-0.54583754 0.28100300 0.13503557
-0.19000546 0.65604020 0.23165245
-0.23031793 0.61742815 0.24020767
-0.35322168 0.47543273 0.14415894
-0.18361118 0.54865818 -0.00000017
0.11733988 0.28528963 0.00000000
0.06940924 0.10554115 0.00000000
0.03096944 0.24013745 0.00000793
-0.48616378 -0.24464324 -0.00000011
-0.47575606 0.34078460 0.08321616
-0.21101933 -0.51393273 0.00000000
-0.51880217 0.34762077 0.33417394
0.40188155 0.07594235 -0.00000044
0.26380671 -0.19537481 0.00000000
0.45442579 -0.20627762 -0.00000016
-0.68840960 -0.29461422 -0.00000050
-0.42584321 -0.71996490 0.00000000
-0.14361769 -0.12725498 0.00000000
0.59638114 -0.13302601 -0.00000090
0.08374473 0.71361390 -0.00000017
0.30727027 -0.62809579 0.00000000
0.18139967 -0.41021790 0.00000000
0.42669403 0.29294318 0.00000028
-0.14660036 -0.78575689 0.00000000
-0.10769278 -0.67779482 0.00000000
0.52543962 -0.79864927 0.00000000
-0.44065993 0.41365669 0.27326620
-0.35069295 -0.40940114 0.00000000
-0.30270560 0.43312912 -0.00000032
0.17496871 0.45142628 0.00000246
0.39067483 -0.00801488 -0.00000024
0.48435070 -0.75619619 0.00000000
0.08732865 0.68776012 -0.00000017
-0.37564654 0.30508874 -0.00000036
-0.08344190 -0.42914999 0.00000000
-0.74023056 -0.17108969 -0.00000072
-0.38198322 0.07178177 -0.00000017
-0.43194503 -0.26425320 0.00000000
0.29204042 0.39592367 0.00000114
-0.37379903 0.50652925 0.40413006
-0.61334429 0.08073637 -0.00000067
-0.46940442 -0.60808059 0.00000000
-0.19062563 0.31224524 0.00000000
-0.76386155 -0.04938874 -0.00000088
0.33922523 0.40601889 -0.00000075
-0.27813092 0.46815064 -0.00000030
0.41117500 0.31609631 0.00000019
-0.54659670 0.32399395 0.35514196
0.38328265 -0.72825751 0.00000000
-0.69792565 -0.50480836 -0.00000034
-0.56098122 0.28160401 0.21424710
-0.10158660 -0.36275090 0.00000000
0.57836511 -0.36860756 -0.00000040
-0.10290957 0.07809410 0.00000000
-0.46457245 0.34414941 0.04387973
0.31625992 0.34008382 0.00000161
0.48252757 -0.54758847 0.00000000
0.28137986 0.10028753 0.00000625
-0.02949626 0.64814014 0.00000000
0.48570539 -0.75152935 0.00000000
-0.18846937 0.65555352 0.22147583
-0.52109514 -0.00121298 -0.00000040
0.52328528 -0.73134263 0.00000000
-0.10836185 -0.24392122 0.00000000
-0.29101276 0.24896559 -0.00000013
-0.67259971 -0.71266075 -0.00000010
0.04035297 -0.71765859 0.00000000
-0.78309052 -0.29878243 -0.00000063
0.16014123 0.00774419 0.00000000
0.08870934 -0.65734059 0.00000000
-0.27742219 0.07419855 0.00000000
-0.06673298 0.74405886 0.05428929
-0.37045163 0.05983455 -0.00000014
-0.00920325 0.65937178 0.00000000
-0.68231994 -0.70560030 -0.00000012
-0.57975108 0.24058802 0.10232722
-0.02211049 -0.01190621 0.00000000
0.78267009 -0.26492708 -0.00000134
0.29367270 0.31827088 -0.00000040
0.29070001 -0.45831630 0.00000000
0.37824105 0.08549440 -0.00000035
0.59568711 -0.36157540 -0.00000049
-0.21799986 0.42637566 -0.00000013
-0.08717391 -0.33338325 0.00000000
-0.62164054 0.21432524 0.18094537
0.10731753 0.50566654 0.00000000
-0.53676018 -0.76841218 0.00000000
0.29073776 -0.09862112 0.00000000
-0.76153135 -0.56027456 -0.00000030
0.18139032 -0.16577829 0.00000000
-0.27536105 0.52931062 0.02350115
-0.25868150 0.56768820 0.13266348
0.15665841 -0.75134688 0.00000000
-0.48800897 0.34734424 0.17786202
-0.52753198 0.08374425 -0.00000049
0.78076716 -0.04107024 -0.00000185
-0.36795829 0.47999471 0.24125010
0.64690274 -0.59383012 -0.00000030
0.19299332 -0.19939653 0.00000000
-0.47055124 0.20645014 -0.00000048
0.41640575 -0.53266802 0.00000000
-0.42262154 0.39251694 0.07616123
-0.49525938 -0.22369222 -0.00000015
-0.15946270 0.37522593 0.00000000
-0.71758739 0.08281755 0.00204026
0.53721765 -0.31030464 -0.00000033
-0.62747448 -0.24369396 -0.00000042
0.55213851 -0.23088484 -0.00000053
-0.16834566 -0.57727774 0.00000000
0.25148857 0.34358704 -0.00000027
-0.71282201 -0.25941298 -0.00000058
-0.29529027 0.52895488 0.12197533
-0.24086185 0.57414280 0.07548585
-0.18237950 0.35624127 0.00000000
0.12367278 -0.44704646 0.00000000
-0.24977949 0.60663226 0.28380476
-0.13932627 -0.42495481 0.00000000
-0.45137248 -0.39520680 0.00000000
-0.70964175 -0.48950603 -0.00000037
-0.25485598 0.58921582 0.22172259
0.36485987 0.25426911 -0.00000059
-0.11604461 0.25898141 0.00000000
0.03440365 0.76309532 -0.00000008
-0.02889411 0.17278752 0.00000000
0.67717127 -0.51895371 -0.00000056
-0.39718163 -0.16463069 0.00000000
0.54635819 -0.27708371 -0.00000043
-0.63115725 -0.77441772 0.00000000
-0.64670355 -0.55762444 -0.00000018
-0.48915093 0.33990785 0.14619484
0.05039853 0.46288688 0.00000000
-0.07250533 0.00555480 0.00000000
0.30313837 -0.63510337 0.00000000
-0.04719603 0.46706085 0.00000000
0.75227780 -0.62198711 -0.00000045
-0.27443930 0.53390985 0.04200253
-0.35252725 0.13340340 -0.00000016
0.42722417 -0.05405011 -0.00000031
-0.55662496 -0.05156933 -0.00000044
0.06051180 -0.68987396 0.00000000
0.63027233 0.14478927 -0.00000153
-0.71505311 -0.76291391 -0.00000005
-0.07432212 0.62649908 -0.00000001
0.43788048 -0.09487632 -0.00000029
0.54721474 0.05300185 0.00000197
-0.23463996 0.50783544 -0.00000024
-0.58627596 0.24694877 0.16715476
0.05641283 0.36071998 0.00000000
0.60747879 -0.74463068 0.00000000
-0.19097265 -0.18521206 0.00000000
-0.36598748 -0.10518096 0.00000000
0.35605057 0.30156440 -0.00000064
0.09058666 0.65116999 -0.00000012
-0.23691374 -0.68093503 0.00000000
-0.51410626 -0.62223791 0.00000000
-0.27099836 0.47145184 -0.00000029
-0.10916267 0.69977606 0.04496679
-0.19795393 0.62439877 0.11245337
0.09927919 0.10499715 0.00000000
0.29917260 -0.15153386 0.00000000
-0.12091179 0.50688812 0.00000000
-0.37048954 0.16620228 -0.00000023
0.49540750 -0.39226182 -0.00000001
-0.50721220 -0.21039482 -0.00000019
0.41786428 0.32965148 -0.00000017
-0.10135912 0.39968672 0.00000000
-0.28793841 -0.51570557 0.00000000
0.08049087 0.37466392 0.00000000
-0.21625437 0.58134319 -0.00000027
-0.27449801 0.13854905 -0.00000000
-0.31045446 0.53313991 0.21932127
0.49445314 0.27379272 -0.00000118
0.19114787 0.03561240 0.00000000
0.76236915 -0.31038970 -0.00000122
-0.55626012 0.31936617 0.38047634
-0.27629339 0.56072130 0.18621855
-0.25089496 -0.16981084 0.00000000
-0.20629660 0.60762141 0.07001859
0.12740606 0.01486754 0.00000985
-0.61086124 0.09434269 -0.00000068
0.31777877 -0.47178651 0.00000000
-0.79853335 -0.30232712 -0.00000062
-0.32703732 0.39355863 -0.00000034
0.79900693 -0.19338162 -0.00000152
-0.64869579 -0.57541868 -0.00000017
-0.43155628 0.42726005 0.29590415
0.52091310 0.27744719 -0.00000127
-0.43312682 0.41723813 0.25338532
-0.49445198 -0.78613810 0.00000000
0.53263346 0.13059962 0.00000095
0.45837000 -0.29122972 -0.00000003
0.04762550 0.27845460 0.00000710
0.43374415 -0.48318164 0.00000000
0.70034289 0.03164799 -0.00000061
-0.45336969 0.44731052 0.50652139
0.42742271 0.13262307 -0.00000064
0.24134800 0.13085558 0.00000640
0.15188924 -0.37974276 0.00000000
-0.28732219 -0.32523608 0.00000000
-0.39982280 -0.18083480 0.00000000
-0.18350400 0.55226246 -0.00000017
-0.06187312 0.30965898 0.00000000
0.60339674 -0.30016845 -0.00000063
0.48935615 0.01100221 -0.00000069
0.05249345 0.29414699 0.00000000
0.66586879 -0.45638106 -0.00000062
-0.22257757 -0.68352451 0.00000000
0.49047482 -0.28118388 -0.00000018
0.15998831 0.14065920 0.00000748
-0.29143275 0.54124526 0.16440092
-0.51432405 -0.52620071 0.00000000
0.01572206 -0.72923694 0.00000000
-0.50899273 -0.03790913 -0.00000035
-0.49536271 -0.16677672 -0.00000020
-0.48789567 -0.69797434 0.00000000
-0.34599409 0.27769711 -0.00000028
-0.17165491 0.39330734 -0.00000001
-0.17163165 0.19819142 0.00000000
-0.65850602 -0.61927513 -0.00000015
0.59939030 -0.27451349 -0.00000066
0.65580622 -0.08368605 -0.00000124
-0.43592053 -0.49249357 0.00000000
0.35615883 -0.58270020 0.00000000
-0.31187560 0.51952902 0.15799470
0.55276394 -0.37013619 -0.00000029
0.32765891 0.00916225 -0.00000000
0.30647352 0.26332486 -0.00000036
-0.68571258 -0.74559797 -0.00000007
