ply
format ascii 1.0
element vertex 1373
property float x
property float y
property float z
end_header
-0.32487960 -0.62742568 -0.00000011
-0.41613758 -0.66299487 -0.00000009
0.77246372 -0.77243646 -0.00000003
-0.04635846 -0.30439511 -0.00000031
0.38875420 0.32707567 0.06382534
-0.31711819 0.14104832 -0.00000054
-0.70677723 -0.52227457 -0.00000000
0.09253775 -0.69008186 -0.00000007
-0.42045965 0.33027282 -0.00000047
-0.04852195 0.45004532 -0.00000078
0.09938874 -0.74768161 -0.00000003
-0.50598885 -0.40845806 -0.00000024
0.43559033 0.07760553 0.21748480
-0.11783263 -0.40990847 -0.00000024
-0.29211499 -0.36717159 -0.00000027
-0.16639891 -0.59591090 -0.00000013
-0.18594441 -0.33596740 -0.00000029
-0.66392142 -0.71443767 -0.00000001
0.05535039 -0.65555175 -0.00000009
-0.07397945 0.35111611 -0.00000072
-0.32334052 -0.23436203 -0.00000035
0.13217676 0.60166853 0.05016405
0.12600790 -0.00761545 -0.00000050
-0.74456703 -0.09416558 -0.00000004
-0.21842324 0.73208175 -0.00000073
0.44624250 -0.76853202 -0.00000002
0.38367370 0.16285612 -0.00000073
0.76491825 -0.65455012 -0.00000018
0.00740125 0.11176677 -0.00000057
0.47851497 0.22148720 -0.00000089
0.53228396 -0.78534343 -0.00000001
-0.20666471 -0.26356191 -0.00000034
0.16342120 0.00664841 -0.00000050
-0.20632175 -0.03903661 -0.00000048
-0.09153873 -0.72902274 -0.00000004
-0.05695317 -0.35391449 -0.00000028
0.02616954 0.10091185 -0.00000056
0.20631185 -0.06622831 -0.00000046
-0.68974402 -0.24872728 -0.00000007
0.35149593 0.16480296 0.21513171
-0.30490188 -0.71480187 -0.00000005
0.62215126 -0.04824068 -0.00000076
-0.03398821 -0.59682940 -0.00000013
-0.11147943 0.41129039 -0.00000076
0.46999748 0.30785235 -0.00000098
0.28803899 0.11075937 0.30423282
0.31193268 -0.57193803 -0.00000014
-0.17804204 -0.38629659 -0.00000026
-0.27995432 0.26092895 -0.00000060
0.20519376 0.46597050 0.09769572
-0.19102833 0.58226318 -0.00000076
0.18501334 -0.61469023 -0.00000012
0.69502879 -0.69741397 -0.00000013
-0.71019824 0.14082891 -0.00000011
0.48881485 -0.51952407 -0.00000018
0.37854240 0.16592529 -0.00000073
-0.61187606 -0.37562371 -0.00000013
0.04258366 -0.40525918 -0.00000025
0.34882047 0.23736390 -0.00000077
-0.00666911 -0.36843864 -0.00000027
-0.55276085 -0.37219503 -0.00000020
0.04184192 0.64863194 0.08305271
-0.76385904 -0.16929329 -0.00000001
0.57825424 0.16544990 0.04268799
-0.52576780 0.28791287 -0.00000034
-0.69943452 0.68982999 -0.00000013
0.76558472 -0.77802745 -0.00000003
-0.26848208 -0.16533885 -0.00000040
-0.55246574 -0.26133198 -0.00000022
-0.22773751 0.17396025 -0.00000061
0.09213253 -0.43188880 -0.00000023
0.22589768 0.22295970 -0.00000064
0.11746821 0.62613650 0.04276338
-0.49914054 0.50670109 -0.00000038
0.57618045 -0.28529460 -0.00000046
-0.22461518 -0.31431439 -0.00000030
-0.48327706 0.20186192 -0.00000037
-0.03565432 0.24753106 -0.00000065
-0.56897635 -0.02556682 -0.00000024
0.44399898 0.31419507 -0.00000096
0.33277121 -0.33616029 -0.00000029
-0.26786619 -0.52710946 -0.00000017
0.66188036 0.05144833 0.06572200
0.30921681 0.13673775 0.26847408
0.06842633 0.54057404 0.14483463
-0.45470212 -0.57240414 -0.00000014
0.22069836 0.10308316 -0.00000056
-0.52499947 0.08761780 -0.00000031
-0.00026657 -0.39995098 -0.00000025
0.65841563 0.07022039 0.05411430
-0.39763853 -0.36401170 -0.00000027
0.22626601 -0.39867664 -0.00000025
0.58397513 -0.57166322 -0.00000016
-0.33156238 0.63532255 -0.00000059
0.36797612 0.19292671 -0.00000074
-0.02021776 -0.17915651 -0.00000039
-0.53387342 -0.41819673 -0.00000021
-0.06343806 -0.56923771 -0.00000014
0.58464359 0.16438160 -0.00000095
0.54511072 -0.47531418 -0.00000022
0.18782865 -0.78201507 -0.00000001
-0.52541635 0.14514983 -0.00000032
0.47871752 -0.15693105 -0.00000049
0.48204226 0.01010451 -0.00000067
0.41885401 0.03490263 -0.00000063
0.51151715 0.17485625 -0.00000088
0.63866482 -0.20022163 -0.00000061
0.24108385 0.26449331 -0.00000069
-0.63762698 -0.67443785 -0.00000005
-0.13436361 0.52068615 -0.00000081
0.03090425 -0.44903696 -0.00000022
-0.37532919 -0.22013651 -0.00000036
0.11969678 0.39219548 -0.00000075
0.41183279 -0.79039657 -0.00000001
-0.37986963 -0.23883991 -0.00000035
0.50838231 -0.59285612 -0.00000013
0.55941265 -0.08986808 -0.00000065
0.47366584 0.09005273 0.17917291
0.54450540 -0.32842719 -0.00000038
-0.74274874 0.48287520 -0.00000007
-0.73371408 0.56453261 -0.00000008
-0.41614183 -0.31863219 -0.00000030
0.39936246 0.33442137 -0.00000093
0.12304774 -0.32023585 -0.00000030
-0.11353439 0.76419144 -0.00000086
0.38821315 0.10093385 0.23572128
-0.34641825 -0.00257727 -0.00000048
-0.49499192 -0.27762778 -0.00000027
0.09404185 0.54336903 -0.00000084
-0.68045558 -0.29607308 -0.00000007
0.32820480 0.04016904 -0.00000054
0.20926228 -0.65946404 -0.00000009
-0.77253457 -0.40179268 0.00000000
-0.24289732 -0.67786682 -0.00000008
0.18269953 0.51652443 0.07641777
0.21308211 -0.46689718 -0.00000021
-0.40847739 0.70182477 -0.00000049
-0.63212826 -0.67467402 -0.00000006
-0.30124748 -0.44244493 -0.00000022
0.33691664 0.42911852 0.02575415
-0.46490932 0.57158596 -0.00000042
0.54532424 -0.06464244 -0.00000066
-0.09693207 0.58467574 -0.00000086
-0.05270682 0.67536525 -0.00000092
0.33035095 -0.71798815 -0.00000005
0.29390899 -0.71303262 -0.00000005
-0.75622238 -0.16442672 -0.00000002
-0.69097180 -0.12022324 -0.00000009
-0.21697511 0.70178783 -0.00000073
-0.08457479 0.49028627 -0.00000081
-0.10133765 -0.41032794 -0.00000024
-0.30278892 -0.68782650 -0.00000007
-0.75363554 -0.57762143 0.00000000
-0.49345108 -0.64474860 -0.00000010
-0.50990697 -0.25226813 -0.00000026
-0.07695214 -0.14125832 -0.00000041
-0.27084366 0.24890292 -0.00000061
0.73026592 -0.04199591 -0.00000088
0.39655096 0.14873045 -0.00000073
-0.24117943 -0.11530040 -0.00000043
-0.24655893 -0.39543798 -0.00000025
0.71729401 -0.52565370 -0.00000034
-0.31550323 -0.08706862 -0.00000045
-0.38623434 0.36640422 -0.00000051
-0.62785681 0.50928343 -0.00000022
0.71400292 -0.55135331 -0.00000031
-0.17644070 0.61962192 -0.00000078
-0.37007603 -0.44855269 -0.00000022
0.78782541 -0.77893352 -0.00000003
-0.05128143 0.52281914 -0.00000083
-0.47871861 -0.20313023 -0.00000031
-0.35642099 -0.52348634 -0.00000017
-0.00336578 0.78048148 -0.00000099
-0.21353427 0.35635112 -0.00000069
0.06572125 -0.22496660 -0.00000036
-0.74957745 0.31647282 -0.00000006
-0.78475055 -0.73462753 0.00000000
0.44815724 0.34815232 -0.00000100
0.04311027 -0.52058944 -0.00000017
0.35023556 0.16676170 0.21460213
0.75130334 -0.42448021 -0.00000047
0.49871022 0.15505792 0.11088738
-0.12387442 -0.25505465 -0.00000034
0.13230204 -0.72369993 -0.00000005
0.28261559 0.35210742 -0.00000082
0.64840749 -0.56341528 -0.00000024
-0.23796444 0.76929281 -0.00000070
0.67214485 -0.71138630 -0.00000010
0.09885382 -0.69513362 -0.00000007
-0.19087003 0.04892209 -0.00000053
-0.33719436 -0.77359695 -0.00000002
0.29876592 -0.19379271 -0.00000038
-0.00179734 -0.57667553 -0.00000014
0.08208183 -0.12521768 -0.00000042
0.14488414 -0.51785632 -0.00000018
-0.48069308 -0.53884692 -0.00000016
0.29813326 -0.34007997 -0.00000029
-0.61313243 -0.06221825 -0.00000019
-0.25708375 0.43510027 -0.00000066
0.52823151 -0.21960630 -0.00000048
0.70164854 -0.79884997 -0.00000000
-0.32874432 -0.36898442 -0.00000027
0.06266493 0.34391903 -0.00000071
0.56613219 0.02958435 -0.00000078
-0.67645762 0.62515752 -0.00000015
-0.64223496 -0.35698378 -0.00000010
0.30541470 -0.48037766 -0.00000020
-0.32736024 0.23689396 -0.00000055
0.10288098 0.27263689 -0.00000067
0.27987172 -0.50984874 -0.00000018
0.65225282 -0.24116570 -0.00000059
0.09983428 0.33074989 0.28012877
0.46768825 0.04341667 -0.00000069
-0.40657549 -0.43630544 -0.00000023
0.10843655 0.41093133 -0.00000076
-0.31724704 0.72225555 -0.00000060
0.59197136 -0.63608814 -0.00000010
0.09644906 0.32965394 0.28352686
-0.58673562 -0.47165639 -0.00000014
0.41400900 0.34066043 0.03437290
-0.64039281 0.05719890 -0.00000018
-0.36969097 -0.05520190 -0.00000045
0.60762444 -0.78194898 -0.00000001
0.17345082 -0.17829265 -0.00000039
-0.09795009 0.67989663 -0.00000087
-0.26145187 0.48509342 -0.00000066
0.10415857 -0.31605822 -0.00000030
-0.00665663 -0.12756467 -0.00000042
-0.51527010 -0.37805286 -0.00000023
-0.16685280 0.00335845 -0.00000050
0.34014046 0.22853254 0.17541591
-0.78902698 -0.30423076 0.00000000
-0.13314724 -0.00160262 -0.00000050
0.49969823 0.22831542 0.05458625
-0.58647320 -0.76781280 -0.00000002
-0.35357748 0.42682653 -0.00000055
0.33155926 0.13984056 0.24917886
0.07535293 0.44379237 0.21297227
-0.77914116 0.67120624 -0.00000003
0.30999917 -0.66069936 -0.00000009
0.34946594 0.23926796 -0.00000077
0.44190193 -0.03574797 -0.00000058
-0.71717202 0.17282616 -0.00000010
0.21999320 0.43104176 -0.00000084
0.23728950 -0.66137859 -0.00000009
0.06397989 -0.19553840 -0.00000038
-0.40520561 -0.15754112 -0.00000039
0.17508314 0.57503181 0.03782661
0.59890767 0.18805299 0.00988612
0.33674894 -0.52864850 -0.00000017
0.60784899 -0.63535105 -0.00000012
-0.71056113 0.51076923 -0.00000011
-0.54165262 -0.23373508 -0.00000023
-0.74239525 0.44535180 -0.00000007
-0.06897174 -0.17093383 -0.00000039
-0.76175418 -0.77925139 0.00000000
0.13462874 0.12940546 -0.00000058
-0.41987365 0.59370574 -0.00000048
0.70366543 -0.73298783 -0.00000008
0.56631431 -0.72049859 -0.00000005
0.34332676 0.13129968 -0.00000065
0.38407692 0.35977255 -0.00000094
0.27209308 0.39222722 0.10288557
-0.42076480 -0.30660684 -0.00000031
-0.66079473 0.69863524 -0.00000017
0.66710169 -0.09435343 -0.00000076
-0.62755141 0.02036918 -0.00000019
-0.51075006 0.16790357 -0.00000034
0.13299078 -0.35772465 -0.00000028
-0.22986430 0.44500190 -0.00000069
0.17032362 0.62577958 0.00295324
0.27651795 -0.73270142 -0.00000004
0.13804844 0.62807048 0.02569062
0.18140452 0.13140938 0.36943495
-0.56291327 -0.72653847 -0.00000005
0.61708793 -0.40280376 -0.00000038
-0.57826358 0.23815025 -0.00000028
0.21917035 0.14477550 0.33066142
-0.76412213 -0.57298920 0.00000000
-0.15238121 0.76804782 -0.00000081
-0.76727160 0.00569168 -0.00000004
0.47734938 -0.00164965 -0.00000065
0.56384348 0.18070374 0.04204867
0.16216183 0.56957683 -0.00000093
0.26016649 0.31142856 0.17319998
-0.26244222 0.69048974 -0.00000067
0.39025601 0.39605277 0.01038044
-0.48030959 -0.74594380 -0.00000003
-0.17097203 -0.32727598 -0.00000030
0.33896613 -0.21209353 -0.00000037
0.31206952 0.39358351 0.07154253
-0.30175182 0.33691900 -0.00000059
-0.27294707 -0.07915821 -0.00000045
0.01358886 -0.62982793 -0.00000011
-0.28166261 0.59390428 -0.00000065
0.01068059 -0.31126151 -0.00000031
-0.52715149 -0.01617169 -0.00000029
0.09745263 -0.52596300 -0.00000017
0.28189818 0.38194222 0.10324948
-0.58055223 -0.08866826 -0.00000022
0.76213416 -0.44764505 -0.00000044
-0.54413043 0.22766199 -0.00000031
-0.02479879 0.51844780 -0.00000082
-0.33284585 0.29172996 -0.00000055
0.73793306 -0.16900669 -0.00000075
0.02785031 0.64293277 -0.00000090
0.70973123 -0.10171127 -0.00000080
-0.24157434 -0.64188714 -0.00000010
0.46290277 -0.72727997 -0.00000005
-0.16460743 -0.19487586 -0.00000038
-0.02862617 -0.39446750 -0.00000025
-0.50850264 0.00758102 -0.00000031
-0.22660620 0.33461399 -0.00000067
0.30069699 0.45345156 0.03476789
-0.31102946 0.08291711 -0.00000054
0.23034570 0.55342146 0.01230778
-0.67038262 0.27520762 -0.00000016
-0.11125802 -0.24072456 -0.00000035
0.17316743 0.04589398 -0.00000053
-0.02122687 -0.23671622 -0.00000035
-0.45720830 0.22183562 -0.00000041
-0.07341139 -0.15959184 -0.00000040
0.32554386 0.41340988 -0.00000093
0.14780282 0.60909968 -0.00000095
-0.48546261 -0.40393022 -0.00000025
0.34015474 -0.06351793 -0.00000046
0.18388378 -0.69640203 -0.00000006
0.50731774 0.10706794 0.14075151
-0.19057572 -0.64999519 -0.00000009
0.03618244 -0.47536319 -0.00000020
0.48431004 0.24623864 0.05266391
0.30179017 -0.50791412 -0.00000018
0.58152519 -0.56102377 -0.00000017
-0.55459235 0.36193773 -0.00000031
-0.15411959 -0.00540284 -0.00000050
-0.39121621 -0.55219546 -0.00000015
-0.10037200 -0.61051675 -0.00000012
-0.02342515 0.01899689 -0.00000051
0.49769768 0.11834971 0.13949142
-0.70004440 -0.01353067 -0.00000010
-0.09524170 -0.55548493 -0.00000015
-0.74070052 0.54892262 -0.00000007
0.45590439 0.21796329 -0.00000087
-0.40465604 -0.45611610 -0.00000021
-0.54684274 0.53599054 -0.00000032
-0.19659306 0.68490604 -0.00000075
-0.08943399 -0.47471423 -0.00000020
0.43768715 0.14941889 -0.00000077
-0.56816424 -0.28893548 -0.00000019
-0.49753714 0.70433522 -0.00000038
0.38516645 -0.43532847 -0.00000023
0.06734156 -0.59463619 -0.00000013
-0.30394766 0.04879207 -0.00000053
0.17227355 0.50267877 0.09482320
-0.57930249 0.13688150 -0.00000026
-0.21656840 0.26451243 -0.00000067
-0.05686621 0.46491348 -0.00000079
0.79455356 -0.70651660 -0.00000012
0.26546491 -0.31124092 -0.00000031
0.01964517 -0.39570707 -0.00000025
0.11442243 0.27204179 -0.00000067
0.11092530 0.66437109 0.01873125
0.12475189 0.29111964 -0.00000068
-0.28369733 0.68296668 -0.00000065
0.36264141 -0.19054185 -0.00000038
0.64455738 -0.31507517 -0.00000050
0.24001909 0.39201882 -0.00000082
0.60335004 -0.06325888 -0.00000072
-0.19230537 0.18810597 -0.00000062
-0.32108477 0.20552532 -0.00000055
0.18997467 0.48363088 -0.00000087
-0.65762630 -0.14183605 -0.00000013
0.16043893 0.60232528 -0.00000096
-0.23732547 -0.25406442 -0.00000034
-0.78647040 -0.52790326 0.00000000
-0.78200878 0.30759351 -0.00000002
-0.62598320 0.00271222 -0.00000019
-0.46139169 -0.58497417 -0.00000013
0.13440167 -0.09764156 -0.00000044
0.47199344 0.25307695 -0.00000092
-0.28925854 -0.23951216 -0.00000035
0.49631803 -0.68749880 -0.00000007
0.41537885 0.12155211 -0.00000072
0.28287402 0.06112805 -0.00000054
0.12940276 -0.39184550 -0.00000026
0.63482841 -0.49114097 -0.00000030
0.63982473 -0.73341789 -0.00000005
-0.77043643 -0.33826871 0.00000000
-0.51874236 -0.19602286 -0.00000026
-0.37952162 0.22461267 -0.00000049
-0.00724859 -0.30241067 -0.00000031
-0.61376723 -0.63465619 -0.00000008
0.37008686 0.03260193 -0.00000058
0.14148547 0.16239628 0.37620810
0.51152384 0.25125433 -0.00000096
-0.10577264 0.10055246 -0.00000056
-0.32544443 -0.08790632 -0.00000045
0.33661393 -0.14907199 -0.00000041
0.57835505 -0.25650474 -0.00000049
-0.46078678 0.05701230 -0.00000037
-0.45583236 -0.21168446 -0.00000033
0.52762454 0.19943315 0.05531116
-0.32163503 0.42429793 -0.00000059
-0.76586623 0.05190096 -0.00000004
-0.69007814 0.09212376 -0.00000013
-0.20022257 -0.33733969 -0.00000029
0.50249605 0.28384827 -0.00000099
-0.07228775 0.00805797 -0.00000051
-0.77758743 0.76234897 -0.00000003
-0.11993347 -0.31081799 -0.00000031
0.30828202 -0.47253804 -0.00000020
0.71330195 -0.08815686 -0.00000081
0.65133210 -0.31345138 -0.00000051
0.63263052 -0.12881935 -0.00000068
0.40169258 -0.76374018 -0.00000002
0.13590032 0.50250974 -0.00000083
0.09330273 -0.37085866 -0.00000027
-0.50297595 -0.46401502 -0.00000021
0.74979183 -0.03353534 -0.00000091
-0.31262327 -0.18145846 -0.00000039
-0.66363856 0.23911540 -0.00000017
0.17992915 0.24816225 -0.00000066
-0.43484752 -0.42297943 -0.00000024
0.43140884 -0.63961499 -0.00000010
0.11053124 -0.18891742 -0.00000038
0.08992025 -0.43039614 -0.00000023
0.06882613 0.46197469 -0.00000079
-0.36268535 0.18061765 -0.00000050
0.73225274 -0.65545775 -0.00000018
0.01233517 -0.18300875 -0.00000039
-0.61309946 0.44700297 -0.00000023
0.18743454 0.55695830 -0.00000094
-0.19018075 -0.69813933 -0.00000006
0.27376753 -0.27608775 -0.00000033
0.52754512 0.23164191 0.03094714
0.49537440 -0.36398031 -0.00000029
0.15638216 -0.65917189 -0.00000009
0.41580033 0.31527657 0.05226335
-0.06889491 -0.61497336 -0.00000012
0.54616556 -0.64900829 -0.00000009
0.62127817 -0.55690607 -0.00000022
0.51690342 0.12052267 0.12327974
0.43099520 0.09520760 0.20762151
0.18962665 0.53963251 -0.00000092
-0.70016979 0.39731141 -0.00000012
0.13314386 -0.62991668 -0.00000011
-0.72773809 -0.26045767 -0.00000003
0.30091922 0.30899014 0.14414595
0.20502088 0.57474268 0.01534375
0.51454084 0.16456945 0.09167017
0.50235631 0.11875730 -0.00000081
-0.63445693 0.32860261 -0.00000021
0.17002966 -0.42050185 -0.00000024
-0.17918708 0.10475109 -0.00000057
-0.64486511 -0.26980249 -0.00000012
-0.11203794 -0.17476871 -0.00000039
0.44255746 0.10047153 0.19486203
0.70423382 -0.23311857 -0.00000065
0.50021764 0.06840568 0.17545359
0.03351634 0.75272481 0.01043173
-0.72273798 -0.50843646 0.00000000
0.47441712 0.28770043 -0.00000096
0.66487170 -0.38873985 -0.00000044
0.24077543 0.52458987 0.02626210
-0.28650870 0.67514380 -0.00000064
0.58751082 -0.12439113 -0.00000064
-0.03363337 0.70688458 -0.00000094
0.50881135 0.20875557 -0.00000091
-0.74547079 0.20191509 -0.00000007
0.60191805 -0.48148822 -0.00000027
0.35384307 0.01316795 -0.00000054
0.23125701 -0.18725645 -0.00000038
-0.22195291 -0.78987025 -0.00000001
-0.34682740 0.52146361 -0.00000057
-0.67517842 0.65130563 -0.00000016
0.24971813 0.54142554 0.00671410
0.20634560 0.37163365 0.16835861
0.40161829 -0.41414039 -0.00000024
0.74642609 -0.63962300 -0.00000020
0.58404401 0.11898218 0.07353449
-0.43022146 -0.45215625 -0.00000022
0.55103257 -0.70747846 -0.00000006
0.18175883 0.10643597 -0.00000057
0.35271487 0.41260824 0.02629409
0.57228245 -0.18725101 -0.00000056
0.74794910 -0.05664205 -0.00000088
0.35512048 -0.64367185 -0.00000010
0.38111597 0.39487998 -0.00000097
0.45699568 0.17083655 -0.00000082
0.51320596 -0.49154024 -0.00000019
-0.70267412 -0.34915837 -0.00000004
0.01952453 -0.57200884 -0.00000014
-0.65749189 -0.22499707 -0.00000011
-0.59970585 0.13328494 -0.00000024
-0.62257251 0.61230980 -0.00000022
-0.78376248 -0.08636301 -0.00000000
0.13527747 0.33828618 -0.00000071
-0.27784565 -0.78539183 -0.00000001
0.57472718 -0.22785632 -0.00000052
-0.06287841 -0.01213722 -0.00000049
-0.37636385 0.53408773 -0.00000053
0.05285132 -0.07782217 -0.00000045
0.78289282 -0.72531092 -0.00000009
0.08053594 -0.73290690 -0.00000004
0.33315171 0.24076670 -0.00000076
-0.63675997 -0.39657949 -0.00000010
0.23559862 -0.73742108 -0.00000004
-0.12416515 -0.52762851 -0.00000017
0.69029066 -0.34263732 -0.00000052
-0.76324946 -0.19991940 -0.00000000
-0.73712956 0.57496462 -0.00000008
-0.59423277 0.15471038 -0.00000025
0.67283014 0.09143943 0.02709300
-0.71723649 -0.40544867 -0.00000001
0.03939802 -0.10109149 -0.00000044
-0.71554088 0.00500218 -0.00000009
0.01267730 -0.40172244 -0.00000025
0.53113996 -0.74054225 -0.00000004
-0.53773891 0.61903396 -0.00000033
-0.53602226 0.78771658 -0.00000033
0.57915795 -0.21246261 -0.00000054
0.18987205 -0.55828790 -0.00000015
-0.52223217 0.57080397 -0.00000035
-0.19515631 -0.66215348 -0.00000009
0.09570534 -0.07083339 -0.00000046
-0.40046942 -0.25739190 -0.00000034
-0.02239352 -0.09700773 -0.00000044
0.04005910 0.53485730 -0.00000083
-0.75400932 0.43991603 -0.00000006
-0.35030494 -0.60855281 -0.00000012
-0.07237800 -0.72577628 -0.00000005
0.21152119 0.41132677 0.13433443
0.22916305 -0.05243081 -0.00000047
0.33887953 -0.74595117 -0.00000003
-0.73714112 -0.13702439 -0.00000004
0.13554930 -0.78849487 -0.00000001
0.13961567 0.40925371 -0.00000076
-0.54288191 -0.15733130 -0.00000025
0.17954620 0.52392412 -0.00000090
-0.37281901 0.04190930 -0.00000046
-0.13203450 -0.46184820 -0.00000021
-0.02309573 0.52149167 -0.00000083
-0.47888369 -0.60657940 -0.00000012
-0.44500771 0.66391674 -0.00000044
-0.39245057 -0.35812342 -0.00000028
0.11938908 -0.09641625 -0.00000044
0.05150528 0.74286165 0.00426986
0.34789562 -0.69329963 -0.00000007
0.27428823 -0.47131400 -0.00000021
-0.71828825 0.28298005 -0.00000010
0.23696546 -0.27794421 -0.00000033
0.60630849 -0.12035330 -0.00000066
-0.04954086 0.41049884 -0.00000076
0.26629041 -0.49385160 -0.00000019
-0.20991884 -0.47395440 -0.00000020
-0.15886976 -0.59011454 -0.00000013
-0.30752654 -0.61358971 -0.00000012
0.11158914 -0.39237877 -0.00000025
-0.70808580 0.62122857 -0.00000011
-0.78502000 0.35111323 -0.00000002
-0.54154460 0.01026376 -0.00000028
-0.67376547 0.64139653 -0.00000016
-0.12082341 0.35236026 -0.00000072
0.31565659 0.44177238 -0.00000095
-0.35220953 0.23976128 -0.00000052
-0.66329890 0.13754591 -0.00000017
0.24522761 0.52447652 0.02297192
0.53503745 -0.36399679 -0.00000033
0.71879619 -0.38811177 -0.00000050
0.59708342 -0.50708515 -0.00000024
0.17493625 0.43751763 0.14221619
0.20862490 -0.77094623 -0.00000002
-0.49609655 -0.26343809 -0.00000028
-0.34070749 -0.16247004 -0.00000040
0.22590204 -0.19493172 -0.00000038
-0.78352163 0.09537425 -0.00000002
0.51792102 0.22411988 -0.00000094
0.37034549 0.24996384 0.13625955
0.59674081 -0.20919673 -0.00000056
0.50625934 0.25919847 0.02619195
-0.26763908 0.11448886 -0.00000057
-0.15376298 0.36388574 -0.00000073
0.44267264 0.26410553 0.07068933
0.32521207 0.15406837 0.24320293
-0.72858889 -0.37197732 -0.00000001
-0.60686721 -0.24322820 -0.00000016
-0.77118854 0.30014459 -0.00000004
0.22743600 -0.34373759 -0.00000029
0.39626321 -0.13063760 -0.00000043
-0.51429470 0.22188687 -0.00000035
0.20645692 -0.25636325 -0.00000034
-0.56601587 0.50565594 -0.00000029
0.18161278 0.60702793 0.00861212
-0.42608704 -0.16152506 -0.00000037
0.39012671 -0.22156977 -0.00000036
0.26995283 0.22667998 0.23004432
0.39266041 -0.72096132 -0.00000005
0.52155437 -0.62885115 -0.00000011
0.68050764 -0.26488953 -0.00000059
0.69766688 -0.45996822 -0.00000040
0.21324251 -0.11463324 -0.00000043
0.16698533 0.59970072 0.02526056
0.19167294 0.42270161 -0.00000080
-0.47409997 -0.08737606 -0.00000033
0.00167691 0.51667395 -0.00000082
0.76416813 -0.71688883 -0.00000010
-0.63247503 -0.44885879 -0.00000010
0.13178408 0.28043122 -0.00000068
0.11522250 -0.43084612 -0.00000023
0.22897015 -0.49609258 -0.00000019
0.62212287 -0.09322210 -0.00000071
0.15294341 -0.17381778 -0.00000039
0.29196402 0.18368650 -0.00000065
-0.51268607 -0.60035770 -0.00000012
-0.01477240 -0.67837264 -0.00000008
-0.64226132 -0.09747790 -0.00000015
-0.57517523 0.34277794 -0.00000028
-0.77129307 -0.74374882 0.00000000
-0.46291375 -0.53337773 -0.00000017
0.07689753 0.15605369 -0.00000060
-0.67458336 -0.57184195 -0.00000003
-0.00743686 0.44700059 -0.00000078
0.13365063 0.47234006 0.14711711
0.22569542 -0.74173101 -0.00000004
-0.28700011 -0.69046513 -0.00000007
-0.06556030 -0.70981713 -0.00000006
-0.04462578 -0.77580051 -0.00000002
0.00058184 -0.02508894 -0.00000048
-0.03570468 0.22378971 -0.00000064
0.46320028 -0.16377156 -0.00000047
0.19222319 0.55020825 0.04365309
-0.51448263 0.27695313 -0.00000036
0.65252810 -0.40500652 -0.00000041
-0.66859292 -0.70361196 -0.00000001
-0.20622666 -0.07718739 -0.00000045
0.18181133 -0.41402984 -0.00000024
-0.09446930 -0.09725404 -0.00000044
-0.35336071 -0.38901402 -0.00000026
0.56651140 -0.48423005 -0.00000023
0.20461291 0.47309137 0.09273636
0.07457640 0.69726020 0.02135485
-0.43106450 0.57463829 -0.00000046
0.56936622 -0.48212032 -0.00000024
-0.20377807 0.09884250 -0.00000056
0.27193122 0.36451772 0.12402072
-0.10299106 0.28434719 -0.00000068
0.32131377 -0.43568017 -0.00000023
0.57260205 0.10749590 0.09092122
-0.27655984 0.24856414 -0.00000060
-0.06277208 -0.39301916 -0.00000025
-0.33857327 0.39360456 -0.00000056
-0.59576557 -0.66833215 -0.00000008
-0.67519002 0.05816827 -0.00000014
0.38491951 0.08747569 0.24842425
0.43406519 -0.35010242 -0.00000028
-0.66165416 0.08264268 -0.00000016
0.01664266 0.24166112 -0.00000065
-0.55427040 0.41740066 -0.00000031
-0.04640540 0.24907730 -0.00000066
-0.20947906 -0.54970643 -0.00000016
-0.47368964 -0.15115067 -0.00000032
-0.23891805 -0.59001289 -0.00000013
-0.34087119 -0.52572567 -0.00000017
-0.37472188 -0.39531866 -0.00000025
0.03503716 -0.55754266 -0.00000015
0.04197233 0.65031029 -0.00000091
-0.11685010 -0.07177355 -0.00000046
0.01683900 -0.31631022 -0.00000030
-0.76994560 -0.30943934 0.00000000
0.49142690 -0.17343013 -0.00000049
0.79331479 -0.17929483 -0.00000078
-0.35497962 -0.52006262 -0.00000017
-0.60273698 -0.51841891 -0.00000012
-0.33893675 0.13049302 -0.00000052
-0.28593848 -0.09122586 -0.00000044
-0.29268863 0.44001543 -0.00000062
-0.66785220 0.58407720 -0.00000017
0.12117060 0.31343475 0.27707957
0.13140272 0.34500058 -0.00000072
-0.26397132 -0.18778786 -0.00000038
0.65005173 0.07947539 0.05343856
0.27029346 0.16104734 -0.00000061
0.29224049 0.49598219 0.00892912
0.29639088 -0.43769399 -0.00000023
-0.29635688 0.19038707 -0.00000057
-0.18632471 -0.08614405 -0.00000045
-0.62375613 0.64740821 -0.00000022
-0.54891750 -0.46204363 -0.00000018
-0.01793348 -0.52743632 -0.00000017
0.09233553 0.47123113 -0.00000079
0.32819456 0.44397102 -0.00000097
0.16752810 0.28758517 0.26152846
-0.26798196 0.57350651 -0.00000067
-0.52099579 -0.04396848 -0.00000029
-0.40602159 0.70806699 -0.00000049
0.28646305 0.30704134 0.15658601
-0.72163947 -0.07051673 -0.00000007
-0.17421326 -0.48046631 -0.00000020
-0.68836578 0.40332063 -0.00000014
0.67474647 -0.32945711 -0.00000051
-0.34794130 0.11360627 -0.00000050
0.28888153 0.49188614 0.01458233
0.30325414 0.30530017 -0.00000080
0.53315096 -0.55873094 -0.00000015
0.68578824 -0.11960050 -0.00000075
0.53735048 -0.72348342 -0.00000005
-0.01985958 -0.11878959 -0.00000043
-0.04376293 -0.72031367 -0.00000005
0.47251867 -0.58326385 -0.00000014
-0.26355361 -0.65088151 -0.00000009
0.01664022 0.04570537 -0.00000053
-0.05677215 -0.31474469 -0.00000030
-0.48589282 0.54034553 -0.00000039
0.39878646 -0.32645390 -0.00000030
0.26957549 0.40749229 -0.00000087
0.21829653 -0.19642437 -0.00000038
-0.60468564 -0.26013881 -0.00000016
-0.13792711 0.74711115 -0.00000083
0.05274034 0.60070069 0.11113496
0.02108253 0.42715543 -0.00000077
-0.51891985 -0.45485794 -0.00000022
0.69786419 0.05927716 0.03249841
-0.48833283 -0.16618698 -0.00000030
0.57307867 0.20943484 0.01325843
0.42610352 0.08262787 -0.00000069
-0.69852347 -0.02753470 -0.00000010
0.02502515 -0.04085406 -0.00000047
0.51901746 -0.50239203 -0.00000019
-0.63201552 -0.20381847 -0.00000014
0.32909891 -0.40106693 -0.00000025
0.09264192 -0.17164942 -0.00000039
-0.50952973 0.05505944 -0.00000032
-0.47364459 -0.03665428 -0.00000034
0.32298883 -0.28468656 -0.00000032
0.27088472 -0.75116353 -0.00000003
-0.13803000 -0.44984863 -0.00000022
0.68634067 -0.57528663 -0.00000026
-0.17715761 -0.61275228 -0.00000012
0.34812286 0.28143914 -0.00000082
0.17316637 -0.78963764 -0.00000001
0.28391624 -0.21557828 -0.00000037
-0.39127385 -0.49228626 -0.00000019
-0.74144064 0.28303364 -0.00000007
-0.77393659 -0.44580449 0.00000000
0.09411294 0.31390413 0.29724152
0.20927316 -0.64912514 -0.00000009
-0.21229465 -0.36708511 -0.00000027
0.17163859 0.29613467 -0.00000069
-0.24516532 0.72904738 -0.00000069
0.28441762 0.19920456 0.23991041
-0.04655060 0.12279128 -0.00000058
0.79595088 -0.72828353 -0.00000009
0.41929408 0.18072540 0.15164555
-0.75205655 0.74918358 -0.00000006
0.15073050 0.14838820 0.37981998
0.09794123 0.49004324 0.16077121
0.70302688 -0.69184757 -0.00000014
-0.60542283 0.28127946 -0.00000024
-0.46564018 -0.51067968 -0.00000018
0.39028413 -0.52773263 -0.00000017
0.04402794 0.40654195 -0.00000075
0.13877968 -0.46231900 -0.00000021
0.27926648 0.15803788 0.27503346
0.21211987 0.08889060 -0.00000056
-0.58250576 0.10731208 -0.00000025
-0.67940125 -0.62180940 -0.00000001
-0.03672384 -0.08571832 -0.00000045
-0.13622814 -0.77458816 -0.00000002
0.49893323 -0.13693430 -0.00000053
-0.69485330 0.72334446 -0.00000013
-0.42294274 -0.09429060 -0.00000039
-0.57833909 0.36337197 -0.00000028
-0.18482230 -0.66594268 -0.00000008
-0.65429870 -0.15268632 -0.00000013
-0.60525114 0.42756194 -0.00000024
-0.66551384 -0.27168975 -0.00000009
0.55414436 0.07351000 0.13068973
-0.01054276 0.37051486 -0.00000073
0.52905351 -0.09003588 -0.00000061
-0.34527581 0.17909686 -0.00000052
-0.54745213 -0.52167858 -0.00000017
-0.75667529 -0.23569688 -0.00000000
-0.35801297 -0.67189383 -0.00000008
-0.35449668 0.38160197 -0.00000055
-0.74515529 -0.20813796 -0.00000002
0.59273912 -0.16137305 -0.00000061
0.53821974 -0.23021296 -0.00000048
-0.14460219 -0.34663968 -0.00000028
0.61976952 0.13967103 -0.00000096
0.40169725 -0.41073444 -0.00000024
-0.00169241 0.26942565 -0.00000067
0.02139579 0.67596123 -0.00000092
0.69065328 -0.77352154 -0.00000003
0.09262730 -0.01484265 -0.00000049
-0.11176904 -0.27561140 -0.00000033
0.40727129 -0.51843255 -0.00000018
0.54211315 0.07594289 0.13796825
-0.02906413 0.00819726 -0.00000051
-0.43621254 0.59726067 -0.00000045
0.08350510 -0.58002354 -0.00000014
0.47387960 0.04678088 -0.00000070
0.49587714 -0.09938611 -0.00000057
-0.05380567 0.30534145 -0.00000069
0.49574752 -0.62772954 -0.00000011
-0.33463777 -0.16524814 -0.00000040
0.42171494 -0.64664333 -0.00000010
0.23809000 -0.55488860 -0.00000015
-0.17243496 -0.19096212 -0.00000038
-0.70663562 0.73223609 -0.00000012
-0.70673228 0.75626139 -0.00000012
0.58575665 -0.07488834 -0.00000069
0.51779005 -0.03610627 -0.00000066
0.00929231 0.20949661 -0.00000063
0.37318454 0.26512283 -0.00000083
-0.38987323 -0.36347564 -0.00000027
0.53337809 0.19575423 -0.00000092
-0.08307963 0.03319505 -0.00000052
0.28730263 0.25424144 -0.00000072
0.29972307 0.15898805 0.25880066
0.14760286 0.00745886 -0.00000050
-0.65633389 -0.01207984 -0.00000015
-0.43935688 -0.60081402 -0.00000012
-0.71729579 0.28948459 -0.00000010
-0.48196736 0.50563977 -0.00000040
-0.47381860 -0.06518205 -0.00000034
0.53767632 -0.26163992 -0.00000044
-0.22732582 0.54787713 -0.00000071
0.60762397 0.12613642 0.05022843
0.65784893 -0.01698691 -0.00000083
0.35550911 -0.54340066 -0.00000016
0.51406931 0.07928214 -0.00000078
-0.52105464 -0.20359588 -0.00000026
-0.42672773 0.60354780 -0.00000047
0.68836897 -0.48727934 -0.00000036
-0.26016973 0.07263873 -0.00000055
0.37899677 0.18138955 0.18169979
-0.73479492 0.05648767 -0.00000008
-0.01387870 -0.57009064 -0.00000014
-0.23788014 -0.59876265 -0.00000013
0.53314117 0.10569008 -0.00000083
0.75666173 -0.32751865 -0.00000059
0.02570683 -0.79155382 -0.00000001
-0.49185962 -0.09971896 -0.00000031
0.45192385 0.18890188 -0.00000083
0.25635259 0.40467705 -0.00000085
0.12543276 0.35009670 -0.00000072
-0.26277868 0.00733741 -0.00000050
-0.53889104 -0.55567652 -0.00000015
-0.31783502 0.43279471 -0.00000059
-0.35071543 0.16573497 -0.00000051
0.56570544 -0.66931280 -0.00000008
-0.58631708 0.00314413 -0.00000023
0.47924625 -0.17867432 -0.00000047
0.06342538 0.14370320 -0.00000059
-0.31099091 -0.69634049 -0.00000006
-0.31662222 -0.26805977 -0.00000033
0.61588698 0.02299263 -0.00000083
0.10255879 -0.65452071 -0.00000009
0.07428925 -0.67799349 -0.00000008
0.35535604 0.14212306 0.22940288
0.76710636 -0.31430329 -0.00000061
-0.44088635 0.46537199 -0.00000045
0.56795360 0.11111975 -0.00000087
-0.17541762 0.71344384 -0.00000078
-0.20763005 0.74897681 -0.00000074
-0.48661151 -0.78811205 -0.00000001
-0.65977834 -0.42376276 -0.00000007
-0.55845770 0.71910837 -0.00000030
-0.38445582 0.63200223 -0.00000052
0.35950096 0.27453838 0.12584794
-0.52558975 -0.21182748 -0.00000025
0.48915160 -0.34938543 -0.00000030
-0.47544423 -0.46207312 -0.00000021
-0.32904878 0.52282856 -0.00000059
-0.01024874 0.71951711 -0.00000095
-0.02120134 -0.44637076 -0.00000022
0.65952109 -0.19537583 -0.00000064
0.74268500 -0.34027082 -0.00000057
-0.76896656 0.57970542 -0.00000004
-0.62781751 0.07869155 -0.00000020
-0.29439542 -0.06186175 -0.00000046
-0.41958414 -0.38543275 -0.00000026
-0.77278682 -0.25948002 0.00000000
-0.05582155 -0.34853172 -0.00000028
0.77836367 -0.52461458 -0.00000034
-0.60252083 0.36034612 -0.00000025
0.57750221 -0.53496610 -0.00000019
0.37724868 -0.65248527 -0.00000009
0.41841948 0.19430777 0.14200912
-0.50334095 0.76484571 -0.00000037
0.23892006 0.54153287 0.01482100
-0.68250730 0.65605715 -0.00000015
0.64792353 0.13112269 0.01588772
-0.15870604 -0.21072881 -0.00000037
-0.06209619 -0.40455239 -0.00000025
0.08424242 -0.72797450 -0.00000005
0.04295169 0.05641523 -0.00000054
0.67386726 -0.49302708 -0.00000034
0.43741038 -0.68167222 -0.00000007
-0.48816840 -0.43178228 -0.00000023
0.12759370 0.25066767 0.31980555
0.39419726 0.16081534 -0.00000074
-0.46058310 0.53890437 -0.00000042
0.53790156 0.12623899 0.10302188
-0.56743294 -0.08277350 -0.00000023
-0.43944330 0.74792102 -0.00000045
-0.67864143 -0.35445564 -0.00000006
0.22993937 0.26171810 0.23381700
-0.52452354 -0.75335453 -0.00000003
0.22517506 0.38222741 0.14604688
0.25771747 0.10474801 -0.00000057
-0.36092188 -0.07001805 -0.00000046
0.22518326 -0.00541093 -0.00000050
-0.44196604 -0.47110159 -0.00000021
0.24710349 -0.19247628 -0.00000038
-0.25942504 -0.51522670 -0.00000018
0.42805875 -0.51679946 -0.00000018
-0.45029572 -0.25637487 -0.00000033
-0.43785724 0.65077876 -0.00000045
0.67345801 -0.24522642 -0.00000060
0.42070172 -0.39174475 -0.00000026
0.49410563 0.09293394 0.16148835
0.78283037 -0.66212285 -0.00000017
-0.07191266 -0.32395877 -0.00000030
-0.18424164 0.05847618 -0.00000054
-0.60752917 0.79393379 -0.00000024
-0.42148734 0.04177585 -0.00000041
0.70138315 0.05408126 0.03377005
0.63531756 -0.47374668 -0.00000032
-0.10196936 -0.60055585 -0.00000012
-0.08485236 0.67953678 -0.00000089
0.17177285 0.50767896 -0.00000087
-0.73146950 -0.33561972 -0.00000001
-0.41195248 -0.60644848 -0.00000012
0.68766014 -0.34356806 -0.00000051
0.30435933 -0.48116318 -0.00000020
0.32347743 -0.13176792 -0.00000042
0.14530331 0.21368605 0.33441970
0.07338999 -0.56710761 -0.00000015
0.52121651 0.05394577 0.17049503
0.57814895 -0.48817501 -0.00000024
0.63510690 -0.49756306 -0.00000029
-0.46733602 0.35652836 -0.00000042
0.34989221 0.42670551 -0.00000098
-0.03542293 -0.42940496 -0.00000023
0.13606668 0.57716603 0.06579479
-0.24736454 -0.41699441 -0.00000024
0.02567790 0.14266073 -0.00000059
0.13510664 -0.23366914 -0.00000035
-0.58587615 -0.44473365 -0.00000015
0.44310858 0.29565745 0.04643260
-0.34654756 -0.74252492 -0.00000004
-0.43383808 -0.29047672 -0.00000032
0.44475933 0.13159683 0.16958969
0.01699941 -0.10914709 -0.00000043
0.27654594 -0.24700450 -0.00000035
-0.12018718 -0.31269843 -0.00000030
-0.30844779 0.01781066 -0.00000051
0.30954330 -0.66767955 -0.00000008
0.12803781 -0.68564592 -0.00000007
0.02956686 -0.58152015 -0.00000014
-0.13255255 0.34588388 -0.00000072
-0.29686047 -0.35758730 -0.00000028
0.12030583 0.28913049 -0.00000068
0.37372899 -0.46686260 -0.00000021
-0.24276707 0.56404280 -0.00000070
0.08248365 0.53298602 0.13992897
-0.46983064 -0.49327086 -0.00000019
-0.18584142 0.70881559 -0.00000077
-0.28073454 -0.58268419 -0.00000014
0.45642156 0.25297066 0.06870707
-0.29478305 0.23875214 -0.00000058
0.34296090 0.31958210 0.10423332
0.64483106 0.13958076 -0.00000098
0.23687967 -0.37475422 -0.00000027
0.04285092 0.16949541 -0.00000061
-0.03477272 0.07515131 -0.00000055
0.21532834 0.47696933 0.08167004
-0.14178542 0.04769406 -0.00000053
-0.02340403 0.42882387 -0.00000077
0.76043169 -0.53375851 -0.00000033
-0.54789952 -0.73118744 -0.00000004
-0.16575683 0.14122106 -0.00000059
-0.10016284 -0.19124369 -0.00000038
-0.78089374 0.64244717 -0.00000002
0.24428899 0.55566503 0.00003312
-0.14594478 -0.09694881 -0.00000044
-0.40982994 -0.33020456 -0.00000029
0.27443152 -0.68401942 -0.00000007
-0.63639420 -0.28546358 -0.00000012
-0.63458287 -0.58057578 -0.00000007
-0.60837168 0.65186393 -0.00000024
0.41099047 -0.44113691 -0.00000022
0.70810516 -0.04027625 -0.00000086
-0.31850121 -0.30496156 -0.00000031
-0.70772735 0.38358671 -0.00000012
-0.58569067 -0.07892839 -0.00000021
0.04659496 0.35491579 -0.00000072
0.25658381 -0.72468181 -0.00000005
0.02534621 0.60624571 -0.00000088
0.30437545 0.05287441 -0.00000053
-0.32169315 0.38447752 -0.00000058
0.21726583 -0.08546302 -0.00000045
0.02525906 0.71741547 -0.00000095
-0.61731948 -0.44116356 -0.00000011
-0.10489900 0.18833666 -0.00000062
0.28355235 0.41303624 0.07841620
-0.78906332 0.27457192 -0.00000001
0.09079425 -0.50325468 -0.00000019
-0.24516508 0.40839189 -0.00000067
-0.32532119 0.36632175 -0.00000057
0.76472114 -0.73172165 -0.00000009
-0.49410590 -0.59360741 -0.00000013
-0.56395118 -0.47941090 -0.00000016
-0.26765950 -0.06519424 -0.00000046
-0.10920811 -0.62844364 -0.00000011
-0.02246728 0.56027814 -0.00000085
0.34860308 0.19962711 0.19091791
-0.79309352 0.28560528 -0.00000001
0.38737539 -0.43116207 -0.00000023
0.50730741 0.29247901 -0.00000100
0.63851916 -0.25372884 -0.00000056
-0.51922806 0.36976899 -0.00000035
0.02558085 -0.15399623 -0.00000040
0.08640868 0.46620875 -0.00000079
-0.19122169 -0.61326570 -0.00000012
-0.39450636 -0.42326478 -0.00000024
0.53162498 -0.27328812 -0.00000042
-0.33518341 0.42826483 -0.00000057
0.47273105 -0.02571077 -0.00000062
0.39591130 -0.09687002 -0.00000047
0.19745711 -0.03603699 -0.00000048
-0.26386511 -0.49277521 -0.00000019
0.60327894 -0.11979377 -0.00000066
0.39240754 -0.46159894 -0.00000021
-0.65439555 -0.00083403 -0.00000016
0.18967054 0.39646774 -0.00000077
0.42243232 -0.66787278 -0.00000008
-0.78169070 0.17060503 -0.00000002
0.39117558 0.18036943 -0.00000076
0.04500300 0.16469845 -0.00000060
-0.41530868 0.23054530 -0.00000045
0.26092494 0.29573859 0.18452265
0.47377142 -0.45724942 -0.00000021
-0.06188091 0.57993388 -0.00000086
-0.01465472 0.44631015 -0.00000078
-0.27296208 -0.28840957 -0.00000032
-0.60555812 0.14936414 -0.00000023
-0.27087167 -0.76779524 -0.00000002
-0.41260017 -0.19311442 -0.00000038
-0.27329892 -0.31416739 -0.00000030
-0.08266945 0.27346461 -0.00000067
0.05667552 0.70854534 0.02637163
-0.23183459 -0.34241430 -0.00000029
0.48376918 -0.04765971 -0.00000061
-0.09025277 0.76233875 -0.00000089
0.08109605 0.44015379 -0.00000078
-0.63709377 -0.42339904 -0.00000010
0.79801352 -0.26590804 -0.00000067
-0.26037389 0.34381472 -0.00000064
0.57092265 0.06214803 -0.00000082
-0.05429037 0.06452228 -0.00000054
-0.53664183 0.75320825 -0.00000033
0.27180646 -0.17139692 -0.00000039
0.37289983 -0.17592950 -0.00000039
0.69146620 -0.06572982 -0.00000081
-0.53284153 -0.26018757 -0.00000024
0.22179205 -0.34414966 -0.00000028
-0.72116892 0.57581678 -0.00000010
0.03480719 0.62915180 0.10315907
0.33224336 0.25777251 0.15923140
0.19806245 0.18587746 0.31549974
0.21009123 -0.69213787 -0.00000007
-0.54096392 -0.50359272 -0.00000018
-0.15535723 -0.76695876 -0.00000002
-0.77976923 -0.16087164 0.00000000
-0.21996582 0.13262137 -0.00000058
-0.38725596 -0.09145857 -0.00000042
0.77069917 -0.32698372 -0.00000059
0.53196889 -0.74735710 -0.00000003
-0.29902437 0.78412042 -0.00000063
0.47450304 -0.10588171 -0.00000054
-0.04905649 -0.76294191 -0.00000002
-0.31146368 -0.33788373 -0.00000029
0.07637436 0.48832876 0.17842551
0.60809522 -0.46837978 -0.00000030
0.11978162 0.55785945 0.09278417
-0.19523326 -0.37081378 -0.00000027
0.33498147 0.14053527 0.24605700
0.53727917 -0.56967757 -0.00000014
0.21182823 0.42449454 -0.00000083
0.09615126 -0.40297058 -0.00000025
0.45536055 -0.47418408 -0.00000020
0.06444824 0.44055750 -0.00000078
-0.39540514 -0.44992325 -0.00000022
0.02285224 -0.69399352 -0.00000007
0.17228136 -0.21185895 -0.00000037
-0.36537816 0.62794627 -0.00000054
-0.38910882 0.05647503 -0.00000045
-0.70691375 0.43248499 -0.00000012
0.55770535 0.09306966 -0.00000084
0.75432455 -0.33754976 -0.00000058
0.79055467 -0.44694008 -0.00000044
-0.46256046 -0.06837536 -0.00000035
-0.01728764 -0.19706390 -0.00000038
-0.13387672 -0.27091769 -0.00000033
-0.79768547 -0.64737181 0.00000000
0.40052089 -0.50438904 -0.00000018
-0.30825100 -0.65137751 -0.00000009
0.33067750 -0.05500506 -0.00000047
0.75931687 -0.35572333 -0.00000056
-0.71870228 0.06258609 -0.00000010
-0.79625999 0.77542223 -0.00000000
0.13961160 0.23567323 0.32206272
-0.00340203 0.58776060 -0.00000087
0.06318454 -0.34543193 -0.00000028
-0.18579126 0.04109237 -0.00000053
0.69302622 0.08450359 0.01703763
0.73375239 -0.10838471 -0.00000081
-0.77384483 0.16524291 -0.00000003
0.08597261 0.26855930 -0.00000067
0.05868510 0.70966372 0.02399968
0.10340607 0.49810471 0.15051415
-0.59428612 0.70067312 -0.00000026
0.22904082 -0.58482398 -0.00000013
0.08901932 -0.13208145 -0.00000042
-0.70594465 0.48341172 -0.00000012
0.04773177 -0.28703255 -0.00000032
-0.35171732 0.55680789 -0.00000056
0.15846058 -0.22478292 -0.00000036
0.22354518 0.41178922 0.12486588
0.69138623 0.10431461 -0.00000100
0.61038515 -0.65581244 -0.00000010
-0.37616369 0.31453500 -0.00000051
0.12590801 0.24845218 0.32276384
-0.13240105 0.03554163 -0.00000052
0.62626772 -0.30906754 -0.00000048
-0.51334038 -0.01920058 -0.00000030
-0.10253278 -0.42074703 -0.00000024
0.60412771 0.17429729 0.01635880
-0.47974095 -0.53823130 -0.00000016
0.43234690 -0.19555216 -0.00000040
-0.64126375 0.53211892 -0.00000020
-0.78976080 0.12338341 -0.00000001
0.22378907 0.03925179 -0.00000052
-0.24292707 -0.50557859 -0.00000018
0.16317055 -0.70382545 -0.00000006
-0.67456890 0.01780135 -0.00000014
0.16519832 0.58368207 -0.00000095
-0.36627611 0.07744288 -0.00000048
0.11925390 0.26023253 0.31887655
0.08443112 0.49915845 0.16410384
-0.50625723 -0.51424690 -0.00000018
0.08295223 -0.17383613 -0.00000039
-0.61608524 -0.19072684 -0.00000016
-0.02908128 0.01153842 -0.00000051
-0.04679819 0.08174572 -0.00000055
0.78634637 -0.12864115 -0.00000084
0.72341708 -0.72743807 -0.00000009
0.18325341 -0.71918222 -0.00000005
0.67041154 0.10546184 -0.00000097
-0.75210959 0.33229499 -0.00000006
0.16478208 0.34901570 -0.00000072
-0.79560388 0.12648231 -0.00000001
-0.12660071 -0.76395231 -0.00000002
-0.62929748 -0.51411408 -0.00000009
0.42192363 -0.60553584 -0.00000012
-0.73769619 0.19982461 -0.00000008
-0.41327930 0.54414978 -0.00000048
-0.38507419 -0.40071637 -0.00000025
0.12127523 -0.26295517 -0.00000034
-0.78943587 0.66667719 -0.00000001
0.26740969 0.46788189 -0.00000093
-0.50463335 0.00724003 -0.00000032
0.02620850 0.77303407 -0.00000100
-0.23348940 -0.40052137 -0.00000025
-0.20750525 0.58178201 -0.00000074
0.21653076 -0.31776361 -0.00000030
-0.56535836 -0.51989357 -0.00000016
0.26564780 0.28737144 -0.00000074
0.30795100 0.30108210 0.14481043
-0.20854221 -0.28602875 -0.00000032
-0.46664738 -0.23457222 -0.00000031
0.66677309 -0.73615708 -0.00000007
0.14024779 0.57527620 0.06405728
0.36109372 0.04374290 -0.00000058
0.28598799 0.42213848 -0.00000090
0.67894521 -0.73946634 -0.00000008
-0.56827103 -0.42587824 -0.00000017
-0.57349393 -0.64519528 -0.00000010
0.14206840 0.27048027 -0.00000067
0.50888133 0.20521551 0.06513951
-0.05513349 -0.38593376 -0.00000026
-0.60925431 -0.06938694 -0.00000019
-0.56787790 0.46134283 -0.00000029
0.66237237 0.07681096 -0.00000094
0.27445161 -0.58664416 -0.00000013
0.05121251 0.60608321 0.10821192
-0.21570269 -0.31146986 -0.00000031
0.30036748 0.31697175 0.13851181
0.15596252 -0.70855596 -0.00000006
-0.21977830 0.09222492 -0.00000056
0.38271504 -0.68861232 -0.00000007
-0.68968565 -0.69982907 0.00000000
-0.25171924 -0.12545065 -0.00000042
0.35049504 -0.79395770 -0.00000000
0.33149324 0.01619493 -0.00000052
0.30214520 0.42715460 0.05361095
0.43408187 -0.51395159 -0.00000018
-0.68346946 -0.01143216 -0.00000012
0.20026749 0.58282660 -0.00000098
-0.71661904 -0.52385205 0.00000000
0.46633495 0.33254129 0.00085041
-0.42338512 -0.61085555 -0.00000012
0.67453505 -0.59087400 -0.00000024
0.34113967 0.33530571 -0.00000087
0.79674029 -0.07104562 -0.00000091
0.58799774 -0.00809305 -0.00000077
0.35335880 0.25077059 -0.00000079
0.17919824 0.18930348 0.32720654
-0.20863049 -0.73159116 -0.00000004
-0.22897234 0.12254405 -0.00000058
-0.46430606 -0.31938160 -0.00000030
-0.64783617 0.14287746 -0.00000019
-0.10704225 0.33496822 -0.00000071
-0.08588107 -0.24398239 -0.00000035
-0.07319044 0.21699087 -0.00000064
-0.29462213 -0.13296530 -0.00000042
-0.16961332 -0.78643692 -0.00000001
0.57211269 -0.40618110 -0.00000032
-0.01417219 0.72808665 -0.00000096
0.05184782 0.22015237 -0.00000064
0.79643578 -0.25187801 -0.00000069
0.25470129 -0.40312527 -0.00000025
0.54494025 0.02238463 -0.00000075
0.75206450 -0.15534271 -0.00000078
0.01572557 0.25836290 -0.00000066
-0.26829217 -0.09986786 -0.00000044
0.41602403 -0.65488285 -0.00000009
-0.15557049 -0.03698972 -0.00000048
-0.05799316 -0.05706331 -0.00000046
-0.52701022 0.68931200 -0.00000034
-0.28961582 -0.72074564 -0.00000005
-0.00388210 -0.40874214 -0.00000024
-0.68550090 -0.23599593 -0.00000008
-0.51062888 -0.23085705 -0.00000027
-0.73813589 -0.08829247 -0.00000005
-0.50754838 -0.65335494 -0.00000009
0.12082631 0.31355775 -0.00000070
0.35716970 -0.73355002 -0.00000004
0.26758625 0.18829146 0.26094914
-0.31367835 -0.04891626 -0.00000047
0.51936356 0.08774416 0.14627047
0.27837830 -0.12379138 -0.00000042
0.06495425 -0.43135675 -0.00000023
0.75661428 -0.67954267 -0.00000015
0.46982328 0.08074424 0.18914549
0.06598417 -0.26312031 -0.00000034
0.38999988 0.24023542 0.12873258
-0.44277963 0.24954711 -0.00000043
-0.53604424 -0.00413120 -0.00000028
0.54194776 -0.34015394 -0.00000036
-0.51284159 0.49422502 -0.00000036
0.39047900 0.32964951 -0.00000091
0.46859156 -0.33421912 -0.00000029
0.55985204 -0.56280576 -0.00000015
0.52382298 -0.20883985 -0.00000048
-0.19817351 0.08718029 -0.00000055
-0.00730289 -0.70191706 -0.00000006
0.12904186 0.58287888 -0.00000091
0.37927737 0.22977839 0.14479325
0.15366361 0.44776724 0.15057494
0.06493064 -0.11865647 -0.00000043
0.41049134 0.12700015 0.19906117
0.48138007 -0.60049068 -0.00000012
0.13691274 0.06536301 -0.00000054
-0.66321724 0.28984255 -0.00000017
0.66235508 -0.05279318 -0.00000080
0.38609891 0.27009140 0.10905062
0.21814111 0.20294157 -0.00000063
0.37943447 -0.70587333 -0.00000006
0.16427231 0.56105352 0.05662445
-0.72247490 -0.79162379 0.00000000
-0.25250660 -0.60772753 -0.00000012
0.29363193 0.43429861 0.05464927
0.76397294 -0.44754134 -0.00000044
-0.62521751 -0.16631459 -0.00000016
-0.17447615 0.33949395 -0.00000071
0.72024169 -0.34463015 -0.00000055
-0.75633878 -0.64805758 0.00000000
0.58273697 -0.48495493 -0.00000025
0.38557887 -0.49758220 -0.00000019
0.17858658 -0.14125318 -0.00000041
0.20014919 0.14699962 0.34339865
-0.11736822 0.50559771 -0.00000082
-0.34243472 0.04401035 -0.00000050
-0.10787530 -0.79138470 -0.00000001
-0.00945603 -0.47241254 -0.00000020
-0.49267654 -0.03619233 -0.00000032
0.07385994 0.44853290 0.21050963
0.07566064 0.54572796 0.13544058
-0.37595253 -0.34439239 -0.00000028
-0.70806115 -0.32708745 -0.00000004
0.40842378 -0.62488140 -0.00000011
-0.78559571 0.26941193 -0.00000002
-0.79161470 0.19802270 -0.00000001
0.39462335 -0.62735299 -0.00000011
0.70119479 0.03717338 0.04673431
-0.02197212 -0.23287699 -0.00000035
0.66631219 0.00213177 -0.00000086
-0.68959202 0.43949556 -0.00000014
0.48945682 -0.64005335 -0.00000010
-0.14101094 0.34343126 -0.00000071
0.07239341 0.10305402 -0.00000056
-0.50495826 0.74385779 -0.00000037
-0.49339095 -0.02460148 -0.00000032
-0.08109333 -0.77660677 -0.00000001
0.18702038 0.23286379 0.28824297
0.07513166 0.34687591 -0.00000072
0.22305305 -0.36563558 -0.00000027
-0.28143981 0.24673180 -0.00000060
-0.49119239 -0.78917543 -0.00000001
0.74679002 -0.59894110 -0.00000025
0.40443889 0.30310645 -0.00000090
0.38609347 -0.24473633 -0.00000035
0.12629961 0.16225962 0.38782720
-0.18526191 -0.49952916 -0.00000019
-0.54328164 -0.13694454 -0.00000025
0.69855796 -0.45460154 -0.00000041
-0.51890105 0.35498567 -0.00000035
-0.02142855 -0.57913796 -0.00000014
0.41396268 0.24517331 -0.00000085
0.12962090 0.52854537 0.10755206
0.11713142 0.39348869 0.21943712
-0.06863307 -0.43831961 -0.00000023
0.21541842 -0.20698220 -0.00000037
0.29183318 -0.02928979 -0.00000048
0.41979397 0.08354315 -0.00000068
0.50460687 -0.22999557 -0.00000044
0.58261448 -0.35894630 -0.00000039
0.06686870 -0.34062603 -0.00000029
0.28650250 -0.20899534 -0.00000037
-0.08997607 0.19577834 -0.00000062
0.21140281 0.44860549 0.10615541
0.00200148 0.72873595 -0.00000096
-0.28599197 0.73125542 -0.00000064
0.43021896 -0.31862125 -0.00000030
-0.79009657 0.13032767 -0.00000001
0.32042736 -0.76913760 -0.00000002
0.16134652 0.16008233 0.36290210
0.13657146 -0.52794851 -0.00000017
-0.46616259 -0.08470722 -0.00000034
0.29715367 -0.72653903 -0.00000005
0.15339562 0.23521391 0.31195858
0.11322447 0.12434624 -0.00000058
0.74346165 -0.33284603 -0.00000058
-0.78813260 -0.66547319 0.00000000
-0.65329912 -0.79168773 -0.00000001
-0.06299898 -0.40398612 -0.00000025
0.18739056 0.15725638 0.34529579
0.64829513 -0.29070707 -0.00000053
0.55409052 -0.67207780 -0.00000008
0.00160405 0.22313242 -0.00000064
0.41079577 0.20074330 0.14291013
-0.75808072 -0.58333401 0.00000000
-0.57557099 -0.03038831 -0.00000023
0.39301222 -0.34259997 -0.00000029
-0.56918355 0.38430774 -0.00000029
-0.70965240 -0.33832715 -0.00000003
-0.23501051 0.71252374 -0.00000071
0.15819311 0.07787720 -0.00000055
0.36088117 -0.03282703 -0.00000050
0.65596530 -0.67378010 -0.00000013
