ply
format ascii 1.0
element vertex 1371
property float x
property float y
property float z
end_header
-0.47305521 -0.79886713 -0.00000285
-0.14130025 0.45886674 0.01326345
-0.08679684 0.45948115 -0.00000019
-0.43708811 0.22970622 -0.21347532
-0.22680351 0.08022213 0.00000709
-0.71105906 -0.78880848 -0.05626939
-0.15760928 0.17522675 0.00000739
-0.58573873 -0.61411164 0.19712699
-0.20237159 0.42350722 -0.04933444
-0.59911296 0.01492933 -0.29112457
-0.55603752 -0.34365214 -0.08748408
-0.25715352 -0.52402141 -0.00000086
-0.14485812 0.06371876 0.00000128
-0.32865453 -0.50664480 -0.00000125
-0.41567046 -0.20352402 0.01160408
-0.39177243 0.01340613 -0.07009088
-0.01755666 -0.33842060 0.00000105
-0.57388587 -0.28136835 -0.13387290
-0.23598362 -0.01797556 0.00000053
-0.49779088 0.08508878 -0.21432420
-0.04352079 -0.29933026 0.00000099
-0.22650765 -0.76952202 -0.00000129
-0.06831889 -0.76682932 -0.00000033
-0.12867286 -0.71608185 -0.00000057
-0.04918138 0.27921049 0.00000240
-0.56424431 -0.30521406 -0.11312808
-0.55484974 -0.53954088 0.20600434
-0.17553140 -0.36803239 0.00000002
-0.25820418 0.05017218 0.00000057
-0.19070277 -0.27950839 0.00000015
-0.38509916 0.08357462 -0.09388559
-0.03668307 0.24891778 0.00000240
-0.65886293 -0.16149678 -0.27695875
-0.51484853 -0.44296236 0.02048319
-0.09928615 0.39046211 -0.00000119
-0.17775804 0.01542029 0.00000097
-0.41504896 0.07090164 -0.12013782
-0.14344835 0.29742763 0.00000383
-0.32308339 0.01998939 0.30435979
-0.40765733 0.11175069 -0.13026809
-0.07913606 0.60894725 0.01859432
-0.40942659 -0.18846536 0.37566977
-0.03559388 0.20420822 0.00000278
-0.46556563 0.17816353 -0.22105040
-0.28770518 0.39963590 -0.12951830
-0.35619365 -0.05994058 0.27290296
-0.30196177 0.30578752 -0.10335554
-0.40884142 -0.18703781 0.02642887
-0.67410310 -0.76103890 -0.02921741
-0.47727119 0.04479044 -0.17477612
-0.15539443 0.42484383 0.04149684
-0.52635262 -0.72503227 -0.00000299
-0.30431642 0.06530578 0.09840600
-0.54731043 0.00068415 -0.22979734
-0.51912144 -0.45328543 0.19285627
-0.54258307 -0.50992627 0.17525196
-0.69995102 -0.40735160 -0.21239391
-0.26896175 0.15066608 0.11095518
-0.34288035 0.06785146 -0.04209210
-0.55013161 -0.36171036 -0.07325739
-0.03518332 -0.41497031 0.00000123
-0.38459453 -0.22781685 0.00000433
-0.28624887 0.10584348 0.00000054
-0.11882643 -0.42646381 0.00000022
-0.46334362 -0.08697612 -0.10196569
-0.15230030 0.26163307 -0.00000217
-0.63670257 -0.78441030 -0.00000380
-0.34305507 0.24651020 -0.12093223
-0.29288789 -0.52616051 -0.00000108
-0.02261247 -0.00131386 0.00000217
-0.24604085 0.03639170 0.00000395
-0.01859087 0.65841366 0.00000173
-0.52687905 -0.47200869 0.06748845
-0.54353295 -0.71939425 0.00000430
-0.18579346 0.35145766 0.00873695
-0.25086126 0.29498440 -0.04428675
-0.28658088 0.10811657 0.28227689
-0.51387986 -0.12401005 -0.13937245
-0.09529582 0.51424128 0.00000400
-0.14874218 -0.25469443 0.00000249
-0.23419771 -0.58542465 -0.00000088
-0.22046163 0.26774521 0.20945923
-0.64229694 -0.24339569 -0.22329761
-0.15861649 0.08912186 0.00000127
-0.28980410 0.11688273 -0.00727197
-0.53226977 -0.71799993 0.00000422
-0.13376397 -0.15951478 0.00000261
-0.19519874 -0.10646307 0.00000056
-0.02742225 -0.02162166 0.00000215
-0.30182594 0.07131458 0.25292334
-0.06467826 -0.26685059 0.00000094
-0.13018955 -0.05964455 0.00000283
-0.31968966 0.02818582 0.22883516
-0.31266760 0.04513409 0.33568908
-0.19254182 0.33515266 0.17404631
-0.14271496 0.45545036 0.03601473
-0.20143731 0.25920864 0.00000143
-0.07084159 -0.55965041 0.00000017
-0.55427436 -0.53815183 0.23938842
-0.36831908 -0.08922218 0.36404757
-0.33847529 -0.01715851 0.03141383
-0.17194664 0.16034448 0.00000136
-0.19544936 0.32813158 0.19577125
-0.06914633 0.09811480 0.00000183
-0.21903330 -0.33036836 -0.00000015
-0.16780391 0.25296914 -0.00000188
-0.32608720 0.01273941 0.26021762
-0.34535450 -0.07456374 0.00000442
-0.52375633 -0.46447393 0.16583657
-0.10037725 0.07361036 0.00000158
-0.02212634 -0.62396311 0.00000061
-0.34761747 0.00020583 -0.01735140
-0.05426246 0.33012315 0.00000772
-0.11604319 -0.70407512 0.00000112
-0.57920891 -0.59834762 0.13851100
-0.36955333 -0.35777009 0.00000389
-0.21219335 0.28771286 0.06361895
-0.36935695 -0.09172118 0.20716212
-0.04615338 0.28542866 -0.00000490
-0.15368126 0.16736437 0.00000149
-0.11591188 0.28672156 0.00000202
-0.22464793 0.25764738 0.00141116
-0.17064948 0.29375990 -0.00000098
-0.32818833 0.29739682 -0.12753548
-0.56454544 -0.19591370 -0.16156583
-0.10466957 0.54729752 0.10435188
-0.17387593 -0.44164074 -0.00000015
-0.62749309 -0.66952124 -0.01996907
-0.13067249 0.48452161 0.08214445
-0.54519049 -0.51622197 0.25405256
-0.13131869 0.05923109 0.00000136
-0.35418858 -0.05510345 0.31638856
-0.08382956 -0.55789497 0.00000124
-0.10604391 0.05119261 0.00000149
-0.21954388 0.26996790 0.04370349
-0.41780274 0.12995345 -0.14906419
-0.19155367 -0.17381385 0.00000301
-0.39927593 -0.09464577 -0.03049757
-0.39485792 -0.39302230 -0.00000137
-0.31852412 -0.71163374 0.00000262
-0.17011824 0.35525799 0.00000186
-0.11499129 -0.65359526 0.00000123
-0.17684988 0.37303954 0.07164163
-0.20059412 0.50748048 -0.08441268
-0.19951660 -0.31834202 -0.00000000
-0.10557566 0.54511261 0.07658107
-0.55113350 -0.73508668 0.00000432
-0.00322520 -0.25621066 0.00000134
-0.43770010 -0.21385565 -0.01885488
-0.33832324 -0.08629377 0.00000434
-0.28381597 0.04574828 -0.00000252
-0.15080357 0.16533208 -0.00000414
-0.33877507 -0.35870059 -0.00000094
-0.40760196 -0.60747633 -0.00000198
-0.04922566 -0.73091744 -0.00000012
-0.01371348 0.50483891 -0.00000149
-0.32625163 -0.18813096 0.00000399
-0.48487238 -0.09636382 -0.12071385
-0.29149568 0.05395006 0.00000618
-0.09523212 -0.73125009 0.00000089
-0.66152154 -0.79706294 0.06590306
-0.10077383 0.00262231 -0.00000891
-0.59212243 -0.62952288 0.20023318
-0.21158519 -0.54586439 0.00000223
-0.62682406 -0.59675394 -0.05129264
-0.35004141 -0.04509345 0.34155794
-0.34862571 -0.33781439 0.00000379
-0.47091585 -0.33690469 0.15321940
-0.03345867 0.37754512 0.00000320
-0.68404326 -0.57806594 -0.12033278
-0.49460180 -0.39408338 0.04766532
-0.25690493 0.17976565 0.14646434
-0.03234570 -0.13659444 0.00000146
-0.43958289 -0.26125750 0.09540813
-0.58786832 -0.61924946 0.04555154
-0.52242497 -0.46126251 0.27201993
-0.35807376 0.11290090 -0.07807310
-0.39314398 0.29126081 -0.19386961
-0.25411362 0.15635738 0.00000086
-0.43827547 -0.16410952 -0.04136631
-0.01688507 0.39550465 -0.00000358
-0.55917036 0.04524116 -0.26201719
-0.10861056 -0.16190309 0.00000241
-0.45721350 -0.30382383 0.14537763
-0.10469231 0.59002286 -0.01882472
-0.22830340 -0.42737499 -0.00000045
-0.16929172 0.57327579 -0.08011007
-0.04382947 -0.78451355 -0.00000023
-0.65296725 -0.47559807 -0.13241476
-0.23070577 0.26913996 -0.01149056
-0.56107703 -0.55456760 0.00481789
-0.46913918 -0.33261764 0.20547364
-0.55844006 -0.60708675 0.00000470
-0.04252306 0.45988954 0.00000289
-0.06709148 0.24136453 -0.00000515
-0.37675923 -0.10959140 0.19489105
-0.09009643 0.42979566 -0.00000069
-0.00872369 0.30978445 0.00000284
-0.59553224 -0.06227290 -0.25333207
-0.21793892 0.45513008 -0.07980000
-0.08147342 0.23565594 0.00000210
-0.01700978 0.15850347 -0.00000832
-0.05758220 0.46257363 0.00000633
-0.24609768 -0.12566076 0.00000354
-0.24206152 -0.51469592 0.00000254
-0.34274302 -0.02745872 0.15318131
-0.24268693 -0.65529806 -0.00000110
-0.38320698 -0.12516247 0.35775172
-0.27904918 0.12630819 0.17341317
-0.28578492 0.11004123 0.24411287
-0.12649789 0.28263231 0.00000366
-0.41583342 0.12376100 -0.14424289
-0.08488222 0.25644088 -0.00000431
-0.60631577 -0.66378621 0.05756722
-0.22547900 0.25563246 0.20226069
-0.31077067 0.04973114 0.11850579
-0.35581044 -0.05901520 0.26990301
-0.18086454 -0.31100853 0.00000259
-0.26015103 -0.19959622 0.00000346
-0.13932591 -0.35761873 0.00000216
-0.27384238 -0.52692196 0.00000275
-0.34013132 -0.27652385 0.00000387
-0.22785925 0.24989685 0.08790573
-0.61807594 -0.69217860 0.12183621
-0.00791244 0.71495211 0.00000385
-0.18222314 0.50990269 -0.06595470
-0.07817272 -0.77642583 0.00000065
-0.14476884 0.12975664 0.00000145
-0.37617469 -0.62010194 -0.00000182
-0.20175820 -0.30121228 0.00000277
-0.39670560 0.03887860 -0.08654384
-0.24904382 0.43538049 -0.10416442
-0.15891105 -0.18141654 0.00000059
-0.13225886 0.25036136 0.00000183
-0.33444931 -0.04328550 0.00000441
-0.49794862 -0.50414833 -0.00000227
-0.68926308 -0.47611354 -0.17076334
-0.31759879 0.03324127 0.04906777
-0.65120678 -0.58640197 -0.08176409
-0.09171376 0.03152164 0.00000277
-0.12618664 0.48495528 0.00000416
-0.57128364 -0.17082502 -0.17977214
-0.59622602 -0.63942564 0.01803272
-0.38065746 -0.39209878 -0.00000128
-0.43117186 -0.08138299 -0.07023556
-0.42439114 -0.22457805 0.02023737
-0.65283921 -0.45988423 -0.13919645
-0.34439938 -0.03146190 0.06230696
-0.04146126 0.73330252 -0.01469994
-0.27098346 0.32516307 -0.07896130
-0.06180314 -0.78705271 0.00000050
-0.05459223 0.42255942 0.00000347
-0.39720737 -0.10783090 -0.02249454
-0.07235006 -0.64706817 -0.00000005
-0.25488732 0.43373369 -0.10965006
-0.11069278 0.52207484 0.00000414
-0.30664394 -0.67222862 -0.00000153
-0.20885872 0.47078554 -0.07704253
-0.26302835 0.03527670 -0.00000336
-0.39064227 -0.17636218 -0.00000080
-0.26276577 0.15445829 0.00000080
-0.25711848 0.14498335 0.00000589
-0.41668016 -0.21731607 -0.00000106
-0.63924812 -0.67801961 -0.02872114
-0.24885302 0.32609614 -0.05585165
-0.00042723 0.12095059 -0.00000957
-0.31670027 -0.48475455 -0.00000112
-0.07478631 0.08329111 0.00000981
-0.06844366 0.59995024 0.00000402
-0.04281543 0.10746866 0.00000201
-0.20864862 -0.44984896 -0.00000038
-0.00361969 0.68803489 0.00000370
-0.33816432 0.00332610 -0.00867816
-0.02654801 0.35616348 0.00000273
-0.06919547 0.21157675 -0.00000568
-0.04369814 0.65834035 0.00000463
-0.50346557 -0.79158314 0.00000382
-0.09162120 0.13250383 0.00000178
-0.48674359 -0.78822174 -0.00000291
-0.25300041 0.35379058 -0.07244968
-0.59855080 -0.16061134 -0.21324831
-0.17715752 0.18331161 0.00000139
-0.13391955 0.47667996 0.14168466
-0.16343683 0.29635294 0.00000175
-0.14787211 0.44299465 0.15917160
-0.70100386 -0.49209068 -0.17620786
-0.26555038 0.26211418 -0.04543072
-0.60433329 -0.26313445 -0.17425985
-0.22758667 0.25056153 0.00512031
-0.10902521 -0.78830898 -0.00000063
-0.33262334 -0.12448078 -0.00000032
-0.08876057 -0.70072714 -0.00000029
-0.04960969 -0.63127733 0.00000012
-0.25445874 0.45503381 -0.11857218
-0.56996970 -0.70761253 0.00000453
-0.30841574 -0.58405547 0.00000287
-0.33425708 0.08411229 -0.04009032
-0.68346492 -0.70473349 -0.06395477
-0.31559361 -0.72502412 -0.00000172
-0.05337578 0.55967812 0.00000308
-0.16084852 0.38546342 0.00000199
-0.25682908 0.00289525 0.00000732
-0.69680192 -0.55544721 -0.14385032
-0.11947932 0.39688843 -0.00000046
-0.14552180 0.13111796 0.00000343
-0.19912661 0.03938239 0.00000090
-0.04418048 0.63762020 0.00000482
-0.28277225 -0.76030571 -0.00000161
-0.10658793 0.17106437 0.00000178
-0.11325992 0.08232493 -0.00000694
-0.43747357 -0.49443869 -0.00000188
-0.53248759 -0.48555522 0.27142941
-0.09681643 0.41500181 0.00000377
-0.15107228 -0.71349146 -0.00000070
-0.57856125 -0.59678085 0.06278949
-0.52518689 -0.46793021 0.23825067
-0.20272604 0.31056432 0.17530487
-0.21353516 0.28447021 0.13978111
-0.13830373 0.11304278 0.00000145
-0.59210511 -0.13217500 -0.21891641
-0.34780019 -0.03968534 0.37401603
-0.29845185 -0.53783732 0.00000291
-0.32232966 0.19525292 -0.07634163
-0.35354645 -0.08779476 0.00000445
-0.27091528 -0.73208631 -0.00000147
-0.57504357 -0.58828715 0.03365476
-0.55631719 -0.54308046 0.10366596
-0.20558118 0.01904063 0.00000809
-0.33096440 0.00096110 0.35176855
-0.59449549 -0.13818900 -0.21880936
-0.06229070 0.37391393 -0.00000264
-0.45603650 -0.30098934 0.31133233
-0.22849146 0.11852542 0.00000092
-0.00785312 0.38766471 0.00000292
-0.04762247 0.33220034 -0.00000392
-0.29695830 0.08306546 0.25902863
-0.07146148 -0.15588789 0.00000215
-0.34682070 0.34987513 -0.17044084
-0.38593360 -0.32298457 0.00000410
-0.60496149 -0.66051533 0.02550584
-0.25910678 0.44755154 -0.12021794
-0.14096021 0.45968810 0.00304714
-0.01502358 -0.32624820 0.00000109
-0.36412983 -0.07910688 0.32815897
-0.43406480 0.02343347 -0.11945057
-0.05880148 0.04169994 0.00000175
-0.06077974 0.21717239 0.00000218
-0.30719190 0.35138037 -0.12898567
-0.00380991 -0.02172505 0.00000197
-0.04960795 0.67399333 0.00000298
-0.18637713 -0.44665062 0.00000229
-0.10165233 -0.30468290 0.00000062
-0.14245776 0.01210371 0.00000117
-0.54500247 0.07545857 -0.26026235
-0.14295722 0.45487066 0.02712890
-0.63785730 -0.75072015 -0.00000373
-0.17457375 0.46503009 -0.03807043
-0.06687639 -0.40986623 0.00000148
-0.30112920 -0.36942906 -0.00000074
-0.43879774 -0.25936476 0.16142250
-0.15380449 0.39404132 0.00000206
-0.08849382 0.62644673 -0.01764502
-0.25546682 -0.33174812 0.00000310
-0.31511475 0.03925004 0.03949165
-0.57342178 -0.55225644 -0.01412555
-0.53648673 0.08595976 -0.25583503
-0.23717787 0.12246276 -0.00000239
-0.34398466 -0.03046636 0.27940919
-0.67937625 -0.51080255 -0.14498426
-0.09007343 0.35831173 0.00000358
-0.58275547 -0.00010051 -0.26712320
-0.08846753 -0.06934241 0.00000129
-0.39052678 -0.50170983 0.00000369
-0.30900017 0.05400774 0.08977390
-0.44381677 -0.27148642 0.26944068
-0.41502294 -0.20196185 0.03732458
-0.07055007 -0.51461612 0.00000125
-0.04210005 0.31229616 -0.00000448
-0.12047737 0.39207002 -0.00000052
-0.12396038 -0.53396698 0.00000160
-0.10511556 0.12322985 0.00000886
-0.38121702 -0.37468992 0.00000394
-0.03139379 0.51700761 0.00000353
-0.02811987 0.51998495 0.00000351
-0.60261454 -0.03213435 -0.27412720
-0.24306604 0.21318058 0.03375350
-0.13544081 0.19594043 0.00000351
-0.02194397 -0.46505377 0.00000070
-0.25560904 -0.39658687 -0.00000053
-0.25269428 0.18994754 0.00070887
-0.16624846 -0.57295963 -0.00000044
-0.56238905 -0.32661171 -0.10173632
-0.17086554 -0.70005776 -0.00000078
-0.01474352 0.76440323 0.00535690
-0.07233366 -0.58129363 0.00000011
-0.12144041 -0.18608938 0.00000245
-0.21794945 0.18248007 0.00000410
-0.28085893 0.12193707 0.10602776
-0.06111127 -0.07325770 0.00000228
-0.29144671 0.09637389 0.15084562
-0.19711740 0.32410619 0.17638258
-0.28945184 -0.09846260 0.00000001
-0.36540936 -0.08218684 0.11355193
-0.01688859 0.16372194 0.00000231
-0.27268420 0.12486319 0.00000437
-0.21437626 -0.38932186 0.00000264
-0.35958221 -0.06812754 0.31948462
-0.11602798 -0.24458676 0.00000069
-0.25538058 0.38673642 -0.08948509
-0.26333754 -0.71757529 -0.00000138
-0.41594835 -0.12986671 -0.03271171
-0.42286833 -0.10515349 -0.05094591
-0.28344046 0.05092571 0.00000636
-0.49529506 -0.39576424 0.21703269
-0.56310013 -0.00788652 -0.24280443
-0.34725099 -0.03833885 0.11632852
-0.45736954 -0.30419609 0.04018034
-0.20219077 0.00504804 -0.00000580
-0.12480103 -0.65159258 -0.00000038
-0.14577472 0.44805892 0.14215138
-0.46313449 -0.13262588 -0.08164686
-0.13738842 0.45731248 0.00000418
-0.34146341 -0.02438078 0.22667180
-0.50786471 0.02824013 -0.20000517
-0.66279649 -0.13625599 -0.29225122
-0.24622074 0.28074285 -0.03308799
-0.33314312 -0.06996464 -0.00000019
-0.23995717 0.22067810 0.22188159
-0.22164903 0.01317670 0.00000785
-0.66665398 -0.38471581 -0.18697058
-0.27959048 0.12500234 0.03639647
-0.09569460 0.35866695 0.00000362
-0.20738310 -0.36338691 0.00000266
-0.05831219 -0.47509970 0.00000125
-0.28068714 0.12235682 0.13644054
-0.51712359 0.05988982 -0.22377773
-0.27693462 0.19687069 -0.02880374
-0.28191595 0.11939036 0.13484309
-0.10424886 0.39558706 0.00000236
-0.04558649 0.69630719 -0.00279698
-0.20673136 0.01247234 0.00000813
-0.17596324 0.47490429 -0.04389262
-0.12652144 -0.25548638 0.00000060
-0.15557907 0.51801182 -0.04120708
-0.45192217 -0.29104773 0.10597327
-0.46970655 -0.33398947 0.25445055
-0.15332434 -0.71588299 0.00000137
-0.57298163 -0.64499586 0.00000471
-0.54527521 -0.51642215 0.09159347
-0.25235720 0.30152914 -0.04875799
-0.54154223 -0.57224276 0.00000465
-0.49140109 -0.01374501 -0.16402421
-0.26554184 0.15892855 0.03359579
-0.10251431 -0.08651322 0.00000116
-0.24543838 -0.27902931 0.00000315
-0.09413810 -0.79846981 0.00000071
-0.27124299 0.14514469 0.28027565
-0.56644684 -0.78657060 -0.00000339
-0.52562467 0.01624829 -0.21359976
-0.30927371 0.05334160 0.00792644
-0.13872782 0.34922996 0.00000204
-0.50528989 -0.55490521 0.00000442
-0.48239934 -0.36462895 0.16599861
-0.23927555 0.22232335 0.22983530
-0.48054033 -0.36014660 0.32813271
-0.24812295 0.20097285 0.01520590
-0.18362176 0.35669003 0.08773144
-0.08405330 0.45023237 0.00000376
-0.56152458 -0.41742755 -0.06083735
-0.41156456 0.25330085 -0.19673590
-0.31164617 -0.14053307 0.00000400
-0.43565739 -0.60553587 -0.00000214
-0.19248824 0.18444369 0.00000391
-0.65158747 -0.72095430 -0.02293420
-0.02026523 0.00869146 0.00001155
-0.23670664 0.48601825 -0.11334537
-0.40603584 -0.60406650 0.00000355
-0.05507860 -0.06994093 0.00000149
-0.13656239 0.13444592 0.00000818
-0.42601696 -0.39408638 0.00000423
-0.46742420 0.09122560 -0.18475135
-0.00623632 0.54199078 0.00000647
-0.30511814 -0.68068847 -0.00000154
-0.47532945 -0.45135948 0.00000446
-0.25393132 -0.43469650 0.00000283
-0.14479704 0.30919670 0.00000387
-0.15980304 -0.57173831 0.00000178
-0.38348682 0.04035847 -0.07315020
-0.37891756 0.10923004 -0.09861039
-0.00595628 -0.56279708 0.00000064
-0.33494744 -0.00864908 0.21027006
-0.48078223 0.04473034 -0.17848123
-0.35479203 -0.05655045 0.02442531
-0.23254583 -0.51731703 0.00000246
-0.20050232 -0.12916223 0.00000319
-0.29281142 0.09308337 0.05233097
-0.46121494 -0.57811470 0.00000403
-0.18615793 0.23034737 0.00000145
-0.58116534 -0.60185018 -0.00052263
-0.21386720 0.28367481 0.10520581
-0.25597207 -0.37833445 -0.00000049
-0.29028110 0.09918703 0.17200329
-0.66607548 -0.49720360 -0.13683481
-0.05293868 -0.07993769 0.00000148
-0.51850621 -0.52316429 0.00000460
-0.16590082 0.39947779 0.06263427
-0.19052634 0.03992226 0.00000095
-0.31435117 0.04107292 0.25737863
-0.19815632 0.32160291 0.11565620
-0.24926578 0.26679363 -0.03018005
-0.54186017 -0.69755334 0.00000434
-0.30698263 0.05888006 0.06969147
-0.28249758 0.39889972 -0.12365997
-0.03599944 0.16408904 0.00000268
-0.45766099 -0.30490409 0.14301325
-0.30301365 0.06846599 0.01854717
-0.23828818 0.48785604 -0.11583543
-0.30146016 0.36542076 -0.12907499
-0.21333869 0.21251313 0.00000124
-0.38855379 -0.13806306 0.12305250
-0.08620852 0.22894213 -0.00000482
-0.33022534 0.00274579 0.34608981
-0.40852785 -0.18628830 0.20329527
-0.31653254 -0.03641366 -0.00000000
-0.34346793 -0.67562201 0.00000290
-0.20910242 0.29518286 0.04258712
-0.18283153 -0.14729227 0.00000301
-0.11569988 0.04269024 -0.00000765
-0.32662879 0.01143814 0.11287919
-0.01433428 0.76539127 0.00949245
-0.03132048 -0.76925278 -0.00000011
-0.26046203 -0.36331614 -0.00000048
-0.56248056 -0.55795635 0.01284575
-0.00220243 0.67739975 0.00000519
-0.25037872 0.09128246 -0.00000262
-0.19362252 0.06300286 0.00000099
-0.14949945 -0.16596213 0.00000271
-0.29059551 -0.34003109 -0.00000060
-0.11950473 -0.63099342 0.00000132
-0.20988230 -0.05381576 0.00000345
-0.75259479 -0.80871137 -0.09165199
-0.36112648 -0.31965879 -0.00000098
-0.25909869 0.28801155 -0.04997193
-0.50270271 -0.41364953 0.25379323
-0.54317413 -0.51135416 0.23575935
-0.17662013 -0.02253631 0.00000328
-0.22637156 -0.73605330 0.00000187
-0.46370323 0.11196339 -0.18992640
-0.17069119 0.38791409 0.04859784
-0.65326760 -0.12302013 -0.28795071
-0.62601930 -0.35291780 -0.15778225
-0.18062194 0.36393284 0.13134581
-0.00674102 0.15116655 0.00000243
-0.24216254 0.24042674 -0.01102251
-0.19995558 0.14591837 0.00000692
-0.18315206 0.39752368 -0.01746893
-0.37359932 -0.10195993 0.13047418
-0.19403355 0.33155529 0.12492242
-0.19763404 0.36644350 -0.01917516
-0.31660527 0.03564034 0.03745630
-0.05464365 0.39350342 0.00000340
-0.61563343 -0.68628038 0.04009524
-0.01425680 0.51810931 -0.00000121
-0.46520067 -0.32311398 0.31825701
-0.19700109 -0.07956952 0.00000061
-0.00863969 -0.59068963 0.00000047
-0.34714461 -0.03809148 0.23462625
-0.30193072 0.07105588 0.32458695
-0.08031204 0.26281717 0.00000326
-0.02173913 -0.13892267 0.00000182
-0.09857504 0.48191784 0.00000061
-0.49245703 -0.38890476 0.03193420
-0.19160381 0.30444195 0.00000421
-0.48513474 -0.03053373 -0.14997332
-0.42070638 -0.21568918 0.18451362
-0.06857107 0.63444911 0.06815563
-0.47825859 -0.44489263 -0.00000200
-0.07637779 0.57571221 0.00000486
-0.47829322 -0.35471367 0.11438565
-0.22648901 0.12202425 0.00000401
-0.40687970 0.17391760 -0.15680960
-0.21650479 0.27730196 0.11414014
-0.00953608 0.77639879 0.00000388
-0.51283280 0.01294634 -0.19855052
-0.36765380 0.27159005 -0.15811869
-0.30198156 0.36328954 -0.12869089
-0.63727478 -0.79587338 0.00000482
-0.35052102 -0.04624043 0.05124017
-0.57049339 -0.68530481 -0.00000316
-0.50816568 0.03961918 -0.20533449
-0.05692112 0.14777136 0.00000203
-0.65127284 -0.77232101 0.10614326
-0.00522003 0.27467068 0.00000266
-0.32884039 0.00579127 -0.00000196
-0.23423836 0.39570950 -0.07096522
-0.18855956 -0.79302214 -0.00000112
-0.26891756 0.15076296 0.18234768
-0.50473515 -0.48785955 -0.00000227
-0.64849740 -0.08382019 -0.30013804
-0.44053895 -0.76437647 -0.00000257
-0.21571664 0.37469154 -0.04202735
-0.09036961 -0.15942099 0.00000228
-0.50353931 -0.41566868 0.24010851
-0.44450354 0.21294196 -0.21397619
-0.22370613 -0.01131316 0.00000366
-0.23955784 -0.34870573 0.00000294
-0.12570552 -0.79888229 0.00000095
-0.18061701 -0.31297458 0.00000258
-0.26048860 0.35875488 -0.08259552
-0.18922687 0.05641179 0.00000357
-0.15109910 0.42133688 0.00000419
-0.10144864 -0.58112584 -0.00000007
-0.31326036 0.04370420 0.30834638
-0.24806211 0.20111160 0.23605286
-0.21633917 0.43711199 -0.07016728
-0.02703562 0.50402032 0.00000647
-0.24169306 0.21649331 0.07993484
-0.49299730 -0.62623654 -0.00000254
-0.19569627 0.00241155 -0.00000605
-0.00636226 -0.42811279 0.00000098
-0.12280193 0.50352107 0.12524217
-0.23275953 0.23805484 0.23588494
-0.46435945 0.12376527 -0.19582081
-0.26196785 -0.46022171 0.00000283
-0.03572703 0.28255694 0.00000298
-0.37653770 -0.41358612 0.00000381
-0.28306005 0.11662592 0.16463434
-0.07806262 0.60494317 0.00000245
-0.35120428 -0.04790145 0.32180028
-0.57251738 -0.14030651 -0.19451864
-0.33962262 -0.65813268 0.00000292
-0.09510415 0.07198659 0.00000290
-0.14249474 0.59673362 -0.06195694
-0.18315412 -0.10760981 0.00000063
-0.00964407 -0.14393549 0.00000171
-0.32536920 0.01447302 0.25506014
-0.04594403 0.22749420 0.00000229
-0.28404354 -0.66206266 -0.00000137
-0.36131657 0.11042497 -0.08042962
-0.25808755 0.17690760 0.24570127
-0.04320883 0.50395342 0.00000300
-0.21661412 0.05153182 0.00000756
-0.33972181 -0.02017332 0.25737338
-0.32486736 0.01569328 0.19178771
-0.30332786 0.06769625 0.15803143
-0.02306973 0.75797481 -0.00601466
-0.27476083 0.41662406 -0.12324014
-0.22812293 0.41961252 -0.07498861
-0.58078968 -0.60216385 0.17735975
-0.33746377 -0.05258852 0.00000441
-0.22975182 0.24531799 0.17747357
-0.41574249 -0.24050589 -0.00000111
-0.33000657 0.00330045 0.01492587
-0.41436162 -0.20037317 0.22375166
-0.13288852 0.25975978 -0.00000279
-0.35122537 -0.76158522 0.00000275
-0.05250311 -0.03697297 0.00000230
-0.01454542 0.76488181 0.00623735
-0.18292821 0.35836140 0.15858110
-0.00737423 0.26420267 0.00000922
-0.35987033 0.05420631 -0.05414228
-0.52518244 -0.76399547 -0.00000308
-0.53776247 -0.07609281 -0.18584987
-0.09808230 -0.78265335 0.00000078
-0.08665804 -0.69334202 0.00000092
-0.09338814 0.39912966 -0.00000120
-0.35333926 -0.24203488 0.00000406
-0.31839375 -0.02098927 0.00000003
-0.50552911 -0.42046976 0.17541142
-0.24690414 -0.35729483 0.00000297
-0.22257300 0.26265141 0.12656029
-0.19384064 0.19680962 0.00000132
-0.39382368 0.00460266 -0.06839538
-0.28000386 -0.67190070 0.00000243
-0.59936982 -0.75973998 0.00000462
-0.12427201 0.57598378 -0.03345488
-0.01013289 -0.33714744 0.00000123
-0.36881243 -0.50449595 -0.00000149
-0.38733479 0.25262735 -0.17068707
-0.11092320 0.58514485 -0.02329955
-0.35110039 -0.04764618 0.29373938
-0.09750665 0.26206540 0.00000207
-0.05425329 0.33175924 0.00000324
-0.50448320 -0.16291871 -0.11225668
-0.15486401 0.41248774 0.00000210
-0.10944152 0.53578054 0.06610537
-0.52889388 0.06005168 -0.23635880
-0.20700566 -0.31103930 -0.00000003
-0.56585396 -0.67839786 0.00000457
-0.23883595 0.38642295 -0.07176168
-0.19692267 0.32458228 0.00236307
-0.49920032 -0.40518442 0.02856175
-0.58715042 -0.61751967 0.19887632
-0.62606936 -0.18169548 -0.23321332
-0.37629015 -0.30724088 -0.00000104
-0.58738775 -0.61585896 -0.00096873
-0.40424312 0.23242602 -0.17976411
-0.29340555 -0.42025134 0.00000316
-0.43726876 -0.25567951 0.30382828
-0.36947522 0.23180939 -0.14254031
-0.03756492 0.33010760 0.00000311
-0.19434920 -0.20287908 0.00000296
-0.21738035 0.27519452 0.09159858
-0.11015027 0.38475045 0.00000616
-0.07315185 -0.54255995 0.00000120
-0.47947194 0.10448374 -0.20339411
-0.49202847 -0.18658461 -0.08860116
-0.19127562 0.33820881 0.16064926
-0.00909060 -0.40589316 0.00000093
-0.64439052 -0.10821723 -0.28503281
-0.33291435 -0.00372489 0.08263706
-0.64414149 -0.46909568 -0.12589723
-0.16082520 0.30463287 0.00000604
-0.05036976 0.66925260 0.00000337
-0.20788100 0.05150869 0.00000087
-0.57512639 -0.04180425 -0.24065401
-0.09199249 0.58221794 -0.00189243
-0.24823825 0.20068825 0.21247749
-0.35082993 -0.04699987 0.37377115
-0.14714260 -0.70312119 0.00000135
-0.15546691 -0.56806544 -0.00000036
-0.20937192 0.11033106 0.00000386
-0.21490527 -0.64828563 0.00000200
-0.52032855 -0.55231543 -0.00000252
-0.22785634 -0.00298587 0.00000062
-0.11460429 -0.13870052 0.00000252
-0.34259029 -0.41948274 0.00000354
-0.06417217 -0.13738802 0.00000214
-0.27981177 0.12446765 0.04666542
-0.05832344 -0.16954991 0.00000122
-0.04308436 -0.04039985 0.00000222
-0.22326554 0.27462157 -0.00599249
-0.43892644 -0.78929895 0.00000334
-0.25122981 0.19346555 0.21904753
-0.12865586 0.07144013 -0.00000669
-0.51570047 -0.74134311 0.00000404
-0.16826626 0.47009021 -0.03359441
-0.33631787 -0.01195809 0.28865833
-0.42125529 -0.70566036 0.00000341
-0.29940111 0.30525340 -0.10039891
-0.39040407 -0.14253051 0.13442339
-0.64395686 -0.75465897 0.02866169
-0.55471459 0.01806735 -0.24531821
-0.36306717 -0.22125614 -0.00000074
-0.12835867 0.49011330 0.03877827
-0.00825644 0.07331155 0.00000213
-0.18292850 -0.63928638 0.00000178
-0.20794859 0.22378358 0.00000600
-0.07798764 0.44544101 -0.00000074
-0.27857785 -0.08243518 0.00000011
-0.02533709 0.50589366 0.00000311
-0.72396464 -0.55895095 -0.17117661
-0.00206071 -0.70384443 0.00000023
-0.20984921 0.42877235 -0.05959803
-0.20997488 0.29306568 0.13604914
-0.15881181 0.56185243 -0.06394246
-0.32343427 0.01914267 0.29542256
-0.26807635 -0.20221721 0.00000352
-0.23101219 -0.38492426 -0.00000036
-0.29020050 0.07725946 0.00000597
-0.67271138 -0.73563716 -0.03892098
-0.02958487 0.12196706 -0.00000867
-0.08387267 0.24814345 0.00000211
-0.20714317 -0.11180373 0.00000047
-0.34493732 -0.67157281 0.00000292
-0.52510860 0.03549423 -0.22152562
-0.55435097 -0.40688291 -0.05785528
-0.40651091 -0.18142336 0.30765113
-0.35386587 -0.05431363 0.18230962
-0.22563792 -0.45654988 0.00000256
-0.03400931 -0.16254881 0.00000139
-0.41519040 -0.20236691 0.05570494
-0.38442062 -0.12809065 0.33577475
-0.03081270 0.39157734 0.00000753
-0.58731279 -0.28313529 -0.14736527
-0.35493973 0.27252711 -0.14501752
-0.26863195 0.16866064 -0.00755997
-0.26157211 -0.50600562 -0.00000084
-0.25997184 0.17236711 0.01249554
-0.36686073 -0.08569349 0.28099024
-0.42073169 -0.11344235 -0.04502604
-0.34670022 0.09678504 -0.05889397
-0.62264676 -0.21617431 -0.21439701
-0.47074878 -0.33650137 0.15385140
-0.12865666 0.47139184 0.00000496
-0.05935433 0.45130545 0.00000277
-0.51099197 -0.37204723 -0.02710882
-0.09681190 -0.24254114 0.00000081
-0.06867408 0.00506921 -0.00000983
-0.17737459 -0.20456299 0.00000283
-0.17102060 0.31539774 0.00000575
-0.00032863 -0.03765644 0.00000191
-0.00466537 -0.33839780 0.00000113
-0.11016184 0.53404173 0.06407891
-0.24152885 0.21690069 0.02854817
-0.23417283 -0.11639436 0.00000030
-0.30924387 -0.13534761 0.00000399
-0.20959720 0.29397516 0.20762446
-0.07549623 0.59817352 0.00000407
-0.11276249 0.47042023 0.00000081
-0.43649950 -0.25382528 0.37318301
-0.39928708 -0.16397189 0.03510272
-0.05519352 -0.58595920 0.00000020
-0.33102740 0.06514606 -0.02830822
-0.10237733 -0.18694214 0.00000091
-0.52984067 -0.09907338 -0.16731370
-0.07592801 0.61669015 0.00739225
-0.39982702 -0.16528620 0.28939404
-0.36525014 -0.08180408 0.26646390
-0.25715937 0.22688735 -0.02100086
-0.08290888 0.35593882 0.00000694
-0.42757864 0.06423808 -0.13052397
-0.29813849 0.05181756 -0.00000197
-0.37116536 -0.01418247 -0.03604408
-0.47958157 0.01963964 -0.16615687
-0.07327988 -0.20393245 0.00000105
-0.28164601 0.12003659 0.11286706
-0.09053658 0.25305752 0.00000783
-0.16121713 0.41078239 0.02647999
-0.18485748 -0.23124033 0.00000031
-0.47346062 -0.33229685 -0.00471963
-0.34740791 -0.63717814 -0.00000169
-0.32213289 0.19810174 -0.07738664
-0.15806801 0.26004803 0.00000170
-0.49920381 -0.21157818 -0.08522416
-0.50722365 -0.16657333 -0.11356037
-0.08865069 0.07556179 -0.00000781
-0.04644123 0.55128541 0.00000043
-0.49610220 -0.39770843 0.11215763
-0.34964306 -0.29342895 -0.00000084
-0.42420832 -0.17090300 -0.02342491
-0.38675137 -0.35922609 0.00000402
-0.52257831 -0.46162349 0.01390520
-0.48557631 -0.77185458 -0.00000286
-0.13833410 0.46602714 0.08423708
-0.25367746 -0.34960593 -0.00000041
-0.48707996 -0.37593062 0.20402645
-0.43241499 -0.60813124 0.00000374
-0.14267991 0.02542623 0.00000916
-0.45803702 -0.03153708 -0.12073193
-0.21983768 0.26925335 0.16726173
-0.42044372 -0.28194843 0.00000447
-0.39803688 -0.16095898 0.16190619
-0.30278674 0.06899152 0.26904844
-0.16728697 -0.63019751 -0.00000059
-0.19393197 -0.03011704 0.00000339
-0.42123691 -0.46998798 0.00000400
-0.45455078 0.19656663 -0.21744570
-0.39992087 0.21778837 -0.16872607
-0.40030654 -0.52519441 0.00000371
-0.24204539 0.21308416 -0.00000043
-0.01169540 0.65981959 0.00000374
-0.68241020 -0.35021749 -0.21890374
-0.09883183 -0.78717605 0.00000078
-0.26559296 0.06998960 -0.00000259
-0.31979968 -0.27079467 -0.00000061
-0.22402348 0.18501225 0.00000609
-0.29258104 -0.41483021 0.00000317
-0.27209097 0.11398803 0.00000064
-0.52366742 -0.63523689 0.00000436
-0.02366504 0.46413582 0.00000693
-0.14809450 0.25719430 0.00000175
-0.20205451 -0.13812662 0.00000318
-0.14649885 0.44631516 0.09413774
-0.16120290 0.42248109 -0.00512561
-0.17023548 0.38901425 0.04875438
-0.11784189 0.37413320 0.00000612
-0.69218368 -0.53456545 -0.14813487
-0.38135562 0.16915759 -0.12758687
-0.55299218 -0.53504989 0.02678207
-0.43634144 -0.02643951 -0.09991780
-0.23370656 -0.04644357 0.00000047
-0.01071027 0.01688509 0.00000198
-0.53500422 -0.49281266 -0.00000246
-0.17641477 0.03554850 0.00000845
-0.07563117 0.12365988 0.00000288
-0.24004008 0.22048520 0.14901610
-0.41008015 -0.19004217 0.35177533
-0.34897430 -0.04251071 0.15538350
-0.42492759 0.10519894 -0.14573877
-0.17545429 -0.68982392 -0.00000078
-0.33287099 -0.22956794 -0.00000058
-0.03225002 0.58787409 0.00000328
-0.03622409 0.48005370 -0.00000131
-0.02349423 0.27628967 0.00000881
-0.18049645 0.24790526 0.00000153
-0.35194564 -0.04968928 0.27551447
-0.36902939 -0.12619971 0.00000447
-0.25040278 0.19546523 0.10032022
-0.65346591 -0.17147518 -0.26682992
-0.63224332 -0.69701110 -0.01291568
-0.22274851 0.33009679 -0.02986591
-0.38867847 -0.13836231 0.08219588
-0.01091822 0.77363841 0.00774881
-0.35958819 -0.06813055 0.05008994
-0.01676486 0.53019761 0.00000322
-0.44257471 -0.29094487 -0.00000140
-0.65149341 -0.62919647 -0.06322913
-0.18108196 0.40258864 -0.01749857
-0.18311764 -0.58937133 -0.00000058
-0.55153961 -0.11174792 -0.18479575
-0.26883483 0.24681411 -0.04218262
-0.62891600 -0.71834815 0.06959936
-0.33367451 -0.61222385 -0.00000154
-0.57045532 -0.03113183 -0.24038799
-0.46958480 -0.03261187 -0.13253186
-0.13498136 0.25204230 0.00000182
-0.04253716 -0.13049683 0.00000199
-0.29439326 0.08926492 0.17166348
-0.62834724 -0.53052306 -0.08206857
-0.04230407 0.34414178 0.00000318
-0.12933481 0.38310934 -0.00000043
-0.13970295 0.09693816 0.00000850
-0.20247311 -0.39610811 0.00000254
-0.48161728 0.00328184 -0.16111897
-0.38640042 0.08682939 -0.09670152
-0.31609040 0.03688455 0.16565343
-0.07983645 0.13123308 0.00000924
-0.16418405 -0.56882771 0.00000182
-0.08826045 0.56655063 0.00000199
-0.41599194 -0.46489295 -0.00000167
-0.21741038 0.27511540 0.12033970
-0.19065196 -0.07441050 0.00000325
-0.22226132 -0.27097936 -0.00000002
-0.35866958 -0.06592201 0.26689387
-0.31494291 0.03965363 0.18017706
-0.12345969 -0.59536739 -0.00000023
-0.05658753 0.37921201 0.00000337
-0.51523505 -0.52067511 0.00000459
-0.52757466 -0.47369466 0.26571418
-0.09980258 -0.66513739 -0.00000027
-0.50795576 0.03267626 -0.20205488
-0.30459619 0.20700543 -0.06266820
-0.08970058 0.57299500 0.00000411
-0.50025401 -0.55846269 0.00000438
-0.20025127 0.36880850 -0.02300072
-0.56402670 -0.56168904 0.01194120
-0.34019359 -0.07364236 -0.00000024
-0.15155108 -0.77843184 -0.00000086
-0.44225588 -0.62683657 0.00000377
-0.12276032 0.01807998 0.00000960
-0.36879232 -0.75839751 0.00000289
-0.39357267 -0.34847371 0.00000410
-0.03303070 -0.42753214 0.00000118
-0.66724499 -0.68207576 -0.05669080
-0.41310246 -0.19733871 0.35202229
-0.10987748 0.43490679 0.00000001
-0.09854406 -0.53372777 0.00000007
-0.38918955 -0.13959505 0.05531425
-0.17519139 0.37704279 0.08856193
-0.31766206 0.03308505 0.13120344
-0.05558796 0.67237127 -0.00288905
-0.12024348 0.01762095 0.00000965
-0.01196263 0.27340229 0.00000905
-0.16008134 0.41352840 0.04626529
-0.03147996 0.45526551 0.00000295
-0.29292807 0.01864530 0.00000426
-0.27897856 0.12648125 0.14123542
-0.37977185 -0.03620291 -0.03549699
-0.27488261 0.01883065 0.00000683
-0.34959418 -0.35772304 -0.00000100
-0.17915653 0.36747547 0.07037887
-0.37462918 -0.50252899 0.00000357
-0.59906421 -0.64627936 0.05818799
-0.45998560 -0.72773437 -0.00000260
-0.41904824 -0.34212965 0.00000431
-0.08354960 0.57791188 0.00000294
-0.10359688 -0.55646122 -0.00000002
-0.02886777 -0.31021222 0.00000105
-0.37868313 0.25271771 -0.16153161
-0.02840955 -0.11895927 0.00000192
-0.40169416 0.24850105 -0.18413252
-0.01958571 -0.17073952 0.00000172
-0.49834673 -0.29312199 -0.04841491
-0.61073416 -0.48708315 -0.08247295
-0.30390183 -0.31700000 -0.00000063
-0.09519754 0.08817345 0.00000165
-0.19580806 -0.69679512 0.00000174
-0.11042949 0.53340051 0.00233659
-0.29084382 -0.00579841 0.00000023
-0.69122499 -0.51519965 -0.15564144
-0.61663718 -0.40969197 -0.12281695
-0.05465064 0.51547541 0.00000296
-0.18939431 -0.21806935 0.00000288
-0.23918010 0.24116631 -0.00818220
-0.26394466 0.06600027 0.00000416
-0.25127306 -0.50766228 0.00000263
-0.64341941 -0.72696930 -0.01160511
-0.24740429 -0.43554102 0.00000278
-0.23285168 -0.32492168 0.00000294
-0.56478513 -0.05756700 -0.22272548
-0.23246020 -0.39281473 0.00000277
-0.44855569 -0.28358327 0.00000468
-0.14666956 0.21897291 0.00000715
-0.35560932 -0.42132141 -0.00000120
-0.13261229 -0.08969969 0.00000278
-0.46191895 -0.31518133 0.08598547
-0.05626917 0.06224354 -0.00000906
-0.12879598 -0.39785016 0.00000023
-0.25623636 0.18139310 0.04072799
-0.03300903 -0.24082491 0.00000120
-0.18397942 -0.74313447 -0.00000097
-0.36677783 0.15744978 -0.10693666
-0.22443963 0.04693028 0.00000381
-0.27850120 0.28676886 -0.07004637
-0.45459661 -0.25293527 -0.01960846
-0.34266789 -0.02727685 0.14697930
-0.20694450 -0.67001985 0.00000189
-0.62342434 -0.70508795 0.00603206
-0.02870096 0.58815463 0.00000369
-0.40606996 -0.12633865 -0.02376604
-0.62247438 -0.70279699 0.06441263
-0.43040875 -0.02729798 -0.09323456
-0.35906581 -0.06687785 0.31484757
-0.58202011 -0.64948296 -0.00000314
-0.73855193 -0.68190575 -0.13255125
-0.18301299 -0.33690433 0.00000254
-0.28227276 -0.26734180 -0.00000037
-0.02490664 0.07618245 -0.00000972
-0.61570890 -0.02356599 -0.29181566
-0.32666752 -0.36256501 -0.00000088
-0.25272217 -0.66235127 0.00000225
-0.16885553 0.39233895 0.13294056
-0.26248951 -0.46577693 -0.00000075
-0.53193959 -0.48423213 0.21289178
-0.46988195 -0.54584771 0.00000418
-0.42375709 0.23933672 -0.20354674
-0.17120442 0.35930859 0.00000531
-0.20228597 0.31163106 0.07365826
-0.29446695 0.08909256 0.10228545
-0.15016951 0.43745230 0.10929386
-0.10202667 0.55367901 0.08170276
-0.53919708 -0.66178218 -0.00000291
-0.01780674 0.40801129 0.00000291
-0.41722071 -0.27330011 -0.00000120
-0.00620918 -0.16994830 0.00000162
-0.27355906 -0.69377399 0.00000233
-0.42385175 -0.01554960 -0.09143356
-0.38201849 -0.15109415 0.00000450
-0.08745592 0.30955068 0.00000225
-0.45565427 -0.65860691 -0.00000240
-0.02880432 0.58146776 0.00000050
-0.10754703 0.06296031 -0.00000750
-0.42612088 -0.22876809 0.35238967
-0.00916254 0.50867372 0.00000322
-0.12842847 0.36104662 -0.00000090
-0.24946570 0.13524128 0.00000613
-0.59733163 -0.31205650 -0.14528128
-0.48168482 -0.66884001 0.00000396
-0.13472771 0.47473012 0.11206941
-0.15319793 0.45682899 -0.01173934
-0.30377934 0.06660541 0.02780122
-0.15980494 -0.18067844 0.00000275
-0.07883472 -0.57110152 0.00000010
-0.26399373 0.36206937 -0.08777844
-0.08902433 0.17589140 -0.00000580
-0.36546246 -0.47940691 0.00000356
-0.05567363 -0.52490651 0.00000035
-0.06817507 0.67932972 -0.01933095
-0.07904582 0.60916019 0.08013497
-0.51869495 -0.45224845 0.02032943
-0.02508866 0.01453358 -0.00001095
-0.26489512 0.19527790 -0.01530659
-0.30719382 0.26898245 -0.09271336
-0.11109620 0.56317785 -0.01381392
-0.09652916 0.28289500 0.00000344
-0.32665201 0.01138613 0.17546413
-0.65046483 -0.77037035 0.10864888
-0.61052920 -0.67395964 0.19269126
-0.01977901 0.33553061 0.00000829
-0.11445648 0.52367286 0.03016583
-0.37034217 0.22740241 -0.14152155
-0.12540427 -0.07654445 0.00000275
-0.44992569 0.17408902 -0.20263402
-0.08894142 0.39137106 0.00000648
-0.26199317 0.10581216 -0.00000198
-0.22369447 0.25994683 0.05806805
-0.08488135 0.60447196 -0.00413027
-0.60768451 0.01178643 -0.29885100
-0.03489064 -0.26158274 0.00000114
-0.16896523 0.00175473 0.00000098
-0.01783240 0.50656389 0.00000340
-0.04805538 0.68398082 0.00910665
-0.38662071 -0.32404493 0.00000411
-0.33821185 -0.21941244 -0.00000059
-0.19067897 0.32106754 0.00000018
-0.60870753 -0.25198720 -0.18381623
-0.39816813 -0.08232416 -0.03474457
-0.23005787 0.33807146 -0.04114794
-0.14868486 0.58065234 -0.06145590
-0.46070274 -0.31225506 0.32000409
-0.01539052 0.26568555 0.00000906
-0.36895547 -0.57848047 -0.00000167
-0.29992868 0.20017849 -0.05470208
-0.34629061 -0.03602625 0.19053610
-0.21734673 0.27527093 0.07596901
-0.05811343 -0.49499568 0.00000120
-0.05309372 0.36330979 0.00000331
-0.40510216 -0.17801366 0.10281800
-0.44595221 -0.20631269 -0.03094595
-0.06974723 0.63161126 0.02295042
-0.36761355 -0.25807775 -0.00000086
-0.12199949 -0.36013186 0.00000036
-0.26556018 -0.62117827 -0.00000116
-0.10859494 -0.31558921 0.00000056
-0.64063755 -0.74664576 0.07615906
-0.64380020 -0.06655481 -0.30274663
-0.04293435 -0.35475813 0.00000085
-0.34830050 -0.17956776 -0.00000055
-0.05928058 -0.44066604 0.00000054
-0.63918909 -0.03200593 -0.31305549
-0.55174997 0.08359890 -0.27101757
-0.34306126 -0.53977084 -0.00000142
-0.58577116 -0.54955513 -0.02843979
-0.63288869 -0.44444048 -0.12479173
-0.44638926 -0.27031258 -0.00323554
-0.05837755 0.47042468 0.00000282
-0.12657400 0.24494448 0.00000357
-0.19304597 0.16425050 -0.00000289
-0.52837889 0.03427895 -0.22446631
-0.24473715 0.10854219 -0.00000244
-0.35112823 -0.04771188 0.18153094
-0.64422131 -0.75529754 0.12031079
-0.15612114 0.17852336 0.00000362
-0.39520921 -0.36221558 0.00000408
-0.48526161 -0.09368266 -0.12230787
-0.28103571 -0.20515172 -0.00000021
-0.22111147 0.26617584 0.22994218
-0.36723553 -0.08659768 0.27293584
-0.19213667 0.33613807 0.08256437
-0.16538494 -0.16919499 0.00000058
-0.20777808 -0.01631688 0.00000071
-0.56203279 -0.54564006 -0.00493399
-0.33282382 -0.00352652 0.31239471
-0.27919193 -0.63877696 -0.00000128
-0.26903017 -0.35360172 0.00000315
-0.14211566 0.45689349 0.13773661
-0.30642686 -0.25113610 0.00000368
-0.24620761 0.17113318 -0.00000115
-0.53343333 -0.02037047 -0.20577764
-0.13738272 0.46070926 0.00000232
-0.75110644 -0.77045572 -0.10691159
-0.26491628 -0.63818735 0.00000240
-0.00242171 0.15770766 0.00001038
-0.36965785 0.12123672 -0.09405800
-0.66562949 -0.80698019 0.13552621
-0.15345792 0.42951478 0.09299812
-0.27831395 -0.56124321 0.00000270
-0.45418510 -0.43383986 0.00000434
-0.11478232 0.20386187 0.00000182
-0.07320162 0.13203473 -0.00000715
-0.19038124 0.35561952 -0.00670141
-0.10497859 -0.45032793 0.00000167
-0.36998641 -0.09324849 0.39367041
-0.62171625 -0.56252631 -0.06093217
-0.55180009 -0.53217184 0.02514008
-0.20960985 -0.68476282 0.00000187
-0.60698124 -0.77885780 0.00000463
-0.16118722 -0.26222307 0.00000256
-0.35469884 -0.05632925 0.11323815
-0.50188455 -0.25596673 -0.06853193
-0.43147350 -0.07805381 -0.07202176
-0.60104366 -0.71873185 0.00000474
-0.29510494 0.08754828 0.00532989
-0.25234527 0.19077547 0.18355588
-0.33325710 -0.41698995 0.00000347
-0.04422086 0.25973113 0.00000238
-0.06314458 0.28288645 -0.00000444
-0.56527244 -0.56470286 0.20228671
-0.59155350 -0.62814668 0.05465902
-0.50875471 -0.04400161 -0.16914781
-0.43437591 0.12114457 -0.16280033
-0.35032384 -0.04577152 0.29465953
-0.34421774 -0.33326409 0.00000376
-0.51253179 -0.43737196 0.08534994
-0.33855570 -0.01736465 0.31506469
-0.59442596 -0.63508075 0.03812945
-0.49473692 -0.55549661 0.00000434
-0.44655455 -0.23450890 -0.01917321
-0.09463373 0.25870368 0.00000336
-0.18914866 0.15997484 0.00000698
-0.69111674 -0.72274623 -0.06415737
-0.27057122 0.29392917 -0.06477049
-0.38090558 -0.55847210 -0.00000170
-0.41189011 -0.19441123 0.33787517
-0.46242065 -0.31639960 0.25272556
-0.08365515 -0.40729733 0.00000048
-0.59607140 -0.63905343 0.04325354
-0.37014197 -0.27178051 -0.00000091
-0.52830372 -0.22290315 -0.11116615
-0.11202913 0.43245524 0.00000240
-0.01776201 -0.50689508 0.00000087
-0.02911743 0.31046857 0.00000260
-0.55389518 -0.72360383 -0.00000315
-0.19972658 0.12173933 0.00000381
-0.32410323 0.05150984 -0.01494086
-0.34865754 0.08316455 -0.05497803
-0.19837616 -0.01541487 0.00000346
-0.36902319 -0.09092065 0.33092329
-0.11373839 0.50541062 0.00000412
-0.00409079 0.46642282 0.00000314
-0.20235664 0.31146215 0.03353546
-0.48935191 0.12643579 -0.22355803
-0.59431210 -0.05977258 -0.25313602
-0.58700064 -0.61715686 0.09714915
-0.16034540 0.24488903 0.00000164
-0.19032217 -0.56341184 -0.00000056
-0.54547569 -0.51690475 0.05829168
-0.17596956 0.56483133 -0.08348968
-0.17346783 0.14425366 -0.00000388
-0.05472611 0.58339127 0.00000132
-0.51060176 -0.63939696 -0.00000268
-0.40266753 -0.17214973 0.42897094
-0.59048300 -0.71128858 -0.00000334
-0.56372355 -0.56095919 0.05920892
-0.41625409 0.08009144 -0.12546448
-0.44967964 -0.35451823 0.00000451
-0.36648277 0.21373345 -0.13140193
-0.04288250 -0.74689881 0.00000046
-0.66689186 -0.72090956 -0.03921954
-0.59337409 -0.53784996 -0.04167326
-0.55073342 -0.52959635 0.01740959
-0.08885876 -0.23430594 0.00000208
-0.30722212 -0.52692313 -0.00000117
-0.20087697 0.40199136 -0.03827177
-0.67135251 -0.79844468 -0.00982677
-0.34548541 -0.43700598 -0.00000118
-0.46506172 -0.12158730 -0.08855469
-0.11806590 -0.02596559 0.00000122
-0.41078714 -0.19174741 0.31399636
-0.24749926 -0.37196037 0.00000294
-0.54133835 -0.77821684 0.00000414
-0.01766703 0.75266404 0.00000359
-0.00694623 0.39994113 0.00000305
-0.05201532 0.67489685 -0.00020474
-0.55898180 -0.65994244 0.00000457
-0.43648766 -0.25378749 0.15578549
-0.58195574 -0.60497392 0.01589076
-0.24826450 -0.62650258 0.00000231
-0.09832928 -0.26693906 0.00000074
-0.42146866 -0.38504234 0.00000422
-0.42235269 -0.21966184 0.13968205
-0.52145239 -0.45891458 0.29825037
-0.54684861 -0.10868319 -0.18115931
-0.53559977 -0.10930937 -0.16892829
-0.22193079 -0.29299688 0.00000294
-0.18029823 0.01244899 0.00000339
-0.34546946 0.00597169 -0.01760681
-0.19502945 -0.38589646 0.00000251
-0.13775038 0.20054612 0.00000167
-0.14626481 0.44687636 0.12740365
-0.50533202 -0.46285333 -0.00000221
-0.26122244 -0.25686962 -0.00000022
-0.08925394 0.61370428 -0.01284323
-0.05011064 0.04414003 -0.00000960
-0.02344426 -0.40887852 0.00000115
-0.28369117 0.42564819 -0.13670411
-0.35893552 -0.06656382 0.32120755
-0.48296605 -0.25291013 -0.04977081
-0.08524750 0.20677580 0.00000839
-0.03253593 0.37357505 -0.00000355
-0.25236310 0.19073572 0.02644143
-0.05204037 -0.43669088 0.00000059
-0.47827305 0.17018768 -0.23104502
-0.13134601 0.06810086 -0.00000667
-0.22124752 0.28501954 -0.00842538
-0.52194257 -0.23659723 -0.09837688
-0.21617628 0.27809774 0.05058361
-0.24240495 0.17821410 0.00000098
-0.26754713 -0.39188701 0.00000304
-0.25212686 0.18486587 0.00000436
-0.37545284 -0.10643835 0.21518853
-0.38908969 -0.13935187 0.00578341
-0.33744982 -0.63310282 0.00000296
-0.45511043 -0.29874880 0.19833632
-0.42673193 -0.04739752 -0.08047831
-0.04648878 0.60175737 0.00000144
-0.18608016 -0.60162825 -0.00000063
-0.13873648 -0.46743511 -0.00000001
-0.64611347 -0.16421371 -0.26221244
-0.59505421 -0.63660063 0.19416766
-0.24604941 0.20597899 0.13137054
-0.32722857 0.00999974 0.10607882
-0.01213748 -0.15057172 0.00000172
-0.26372011 -0.50956654 -0.00000087
-0.43482683 -0.28561110 0.00000457
-0.07437608 -0.26600276 0.00000089
-0.12089895 0.13638833 0.00000845
-0.33226829 0.17078432 -0.07612945
-0.47230916 -0.34026966 0.18157795
-0.35807620 -0.38816440 0.00000373
-0.39168189 -0.37151686 0.00000403
-0.15603169 -0.61694793 0.00000163
-0.45523057 0.05471292 -0.15571693
-0.30379227 0.05221441 -0.00000179
-0.00327984 -0.19449346 0.00000154
-0.61095384 -0.67498475 0.11891698
-0.48228070 -0.38878643 -0.00000188
-0.59063849 -0.57972588 -0.02033064
-0.55740094 -0.54569421 0.04084644
-0.31080119 0.01021887 0.00000437
-0.01940455 0.42415199 0.00000741
-0.35012553 -0.70859162 -0.00000188
-0.31920034 0.02936392 0.30501593
-0.20730958 -0.45313854 0.00000243
-0.13459016 0.47506781 0.05801530
-0.36775030 -0.08783765 0.09620801
-0.09578848 0.22572005 0.00000329
-0.40273061 -0.55727442 0.00000365
-0.05588876 0.07830748 0.00000186
-0.34435118 -0.03134395 0.02509347
-0.19026356 0.34065994 0.08477327
-0.24471703 0.20919977 0.07950048
-0.18811289 -0.02266891 0.00000081
-0.25883987 0.42515779 -0.11007542
-0.14684629 0.13095216 -0.00000495
-0.07067227 -0.63051863 -0.00000000
-0.37890225 0.16269189 -0.12213299
-0.48512839 0.00520139 -0.16569839
-0.34797592 -0.18760435 0.00000416
-0.08128394 0.60376141 0.02458999
-0.50078700 -0.40901952 0.13482697
-0.44366271 -0.71879730 0.00000355
-0.42843193 0.16537735 -0.17595452
-0.19721261 0.00175725 0.00000081
-0.27001612 -0.76210011 -0.00000153
-0.27080647 0.10401522 0.00000430
-0.60445437 -0.65929404 0.13133493
-0.22133031 0.12977445 0.00000099
-0.39990499 -0.16546761 0.12846385
-0.07119151 0.62812317 0.05344211
-0.08005554 0.04078575 0.00001014
-0.54501578 -0.51579881 0.16210718
-0.57300653 -0.11743747 -0.20510625
-0.45553601 -0.48848520 0.00000422
-0.38512285 -0.75805167 0.00000301
-0.09856570 0.66751919 -0.04643090
-0.07738559 0.44131312 -0.00000084
-0.10972226 0.22023157 0.00000189
-0.34491592 -0.03270705 0.18505181
-0.08054194 -0.63564693 0.00000102
-0.26152958 0.16861598 0.01988302
-0.42891022 0.07113430 -0.13497514
-0.29902552 -0.47906720 -0.00000100
-0.33578560 -0.01066874 0.11945527
-0.04068144 0.73343154 -0.01392772
-0.18863252 0.06160544 0.00000358
-0.13436827 -0.19836704 0.00000069
-0.43890057 -0.18272058 -0.03383746
-0.62594674 -0.71117992 0.12701961
-0.38393847 0.24013706 -0.16157852
-0.32454101 0.17937760 -0.07170302
-0.13404705 -0.73530439 0.00000117
-0.04995822 -0.03939295 0.00000228
-0.03551202 -0.09088481 0.00000156
-0.19612297 0.33441843 -0.00347345
-0.62943638 -0.47594444 -0.10725347
-0.50732620 -0.19365789 -0.10174582
-0.13247450 0.57687751 -0.04256520
-0.13450589 -0.59448027 0.00000153
-0.42073693 -0.21575569 0.01358362
-0.35408291 -0.05484689 0.22283825
-0.08050390 0.62494401 -0.00849060
-0.05415446 0.06633295 0.00000257
-0.46317756 -0.31823021 0.36390173
-0.27857352 -0.38599623 0.00000314
-0.24474176 0.20913892 0.09378856
-0.55071651 -0.35166840 -0.07829984
-0.04776447 0.11471431 0.00000265
-0.01076281 -0.59407737 0.00000045
-0.45620086 0.14175281 -0.19506745
