ply
format ascii 1.0
element vertex 1381
property float x
property float y
property float z
end_header
-0.32847334 0.34015228 -0.00000059
-0.15782430 -0.09450868 0.18809247
-0.10036873 -0.30601005 0.11961785
-0.00359358 0.54439253 0.00000000
-0.59006338 0.02016396 -0.00000114
-0.23463251 -0.55917538 0.00000000
-0.54752951 -0.75297945 0.00000000
-0.07824549 0.43111422 0.00000435
-0.01527942 -0.34242439 0.01820977
-0.27251845 -0.40227586 0.00000000
-0.53854850 -0.63958350 0.00000000
-0.21778942 -0.37661367 0.25955794
-0.00964355 0.07305099 0.01147720
-0.00983785 -0.03125809 0.01172459
-0.10050650 -0.69051055 0.11978204
-0.78126086 -0.30506221 -0.00000124
-0.11991091 0.10760431 0.14289603
-0.12240573 -0.30037435 0.00000000
-0.41510035 0.21048494 0.00000188
-0.10673765 -0.08815809 0.12720822
-0.23548858 -0.14403909 0.28065152
-0.29674152 -0.32551701 0.00000000
-0.64622855 -0.33175979 -0.00000076
-0.49991201 0.01217909 0.59579105
-0.77054487 -0.67520189 -0.00000031
-0.02636093 0.39622433 0.03141653
-0.45971098 -0.47473953 0.00000000
-0.43561748 -0.76102862 0.00000000
-0.02460607 0.74505022 0.02932484
-0.01883882 0.65834528 0.02244921
-0.32255965 0.09248120 0.38441817
-0.22575793 -0.70525025 0.26905469
-0.43058490 0.15729911 0.00000247
-0.15654093 0.14263364 0.18656298
-0.79549175 -0.41982713 -0.00000095
-0.00149345 0.10038822 0.00177987
-0.17678728 0.05597257 0.00000849
-0.09622902 0.22482076 0.11468420
-0.26298032 -0.56589140 0.31341573
-0.53412677 -0.61446645 0.00000000
-0.01747639 0.19046227 0.02081508
-0.04674497 0.64036958 0.05570782
-0.42812775 -0.05891785 0.51023849
-0.00867926 0.17738467 0.01034380
-0.18424941 -0.39232263 0.00000000
-0.12609038 0.26624809 0.00000610
-0.16739278 0.16911759 0.19948690
-0.02577149 0.34929999 0.03070481
-0.47409351 -0.75258955 0.00000000
-0.45204776 -0.53948332 0.00000000
-0.06885691 0.31745815 0.08205387
-0.08997590 0.38148020 0.10722517
-0.05151066 -0.67997616 0.06138958
-0.64832290 -0.61465657 -0.00000027
-0.22808522 -0.34837509 0.00000000
-0.19828752 0.25912425 0.23631089
-0.16857578 -0.67529702 0.20090592
-0.28573027 -0.71448109 0.34052876
-0.32557487 0.21202509 0.38801720
-0.02028267 -0.17455499 0.02417256
-0.01041055 0.10062176 0.01240713
-0.32000850 -0.63249399 0.38138100
-0.69859720 -0.60035457 -0.00000050
-0.32669233 0.46472800 -0.00000067
-0.53204721 -0.62266398 0.00000000
-0.66224410 -0.28956915 -0.00000090
-0.38997450 -0.58955035 0.00000000
-0.45015477 -0.05932650 0.53649024
-0.41894829 0.01721654 0.49929871
-0.22508967 -0.17843794 0.00000000
-0.34622642 0.11193338 0.41262930
-0.40721234 -0.14518301 -0.00000007
-0.58256147 -0.55335622 -0.00000009
-0.11580544 0.02441656 0.13800124
-0.32034304 0.14438854 -0.00000021
-0.23025437 -0.75423212 0.00000000
-0.31309191 0.20293257 -0.00000028
-0.54395359 -0.73313018 0.00000000
-0.11847960 -0.56761067 0.14120209
-0.56121967 -0.34618406 -0.00000037
-0.18838887 -0.33794329 0.22451884
-0.57429737 0.01439456 -0.00000106
-0.00973819 0.58471147 0.01160133
-0.30603097 0.43428948 0.00000023
-0.04016420 0.32674846 0.00000000
-0.04699100 0.40957876 0.05600312
-0.02449216 0.29142078 0.02917880
-0.15507790 0.27902682 0.00000000
-0.07823505 -0.37739558 0.00000000
-0.37621575 -0.04831692 -0.00000011
-0.31984987 0.04420359 0.00000648
-0.30374596 -0.68340561 0.00000000
-0.16458996 0.23091789 0.00000000
-0.26170026 -0.17825058 0.31189019
-0.25795818 -0.12833840 0.30743057
-0.06025218 0.46764084 0.07180758
-0.33277784 -0.13603143 0.00000000
-0.30719689 0.34637138 -0.00000051
-0.36035177 -0.75312632 0.42946146
-0.49767710 0.16538899 0.00000104
-0.29121301 0.24142498 0.00000374
-0.03512889 0.03658693 0.04185015
-0.17183257 -0.09694528 0.20478730
-0.54763800 0.15998012 0.00000017
-0.13367920 0.10423061 0.15931673
-0.00232177 0.07332438 0.00276704
-0.70139110 0.04782887 -0.00000166
-0.54348834 -0.60097260 0.00000000
-0.02307247 0.08304549 0.02749740
-0.20755864 0.15115429 0.24735749
-0.05931426 0.29195579 0.07068024
-0.23558693 0.07084309 0.00000000
-0.50439009 -0.40857133 0.60112628
-0.27390950 -0.30633856 0.00000000
-0.43464059 0.05507938 0.00000410
-0.07924434 0.56027682 0.09444235
-0.20270527 -0.41327372 0.24158089
-0.01591396 0.47470047 0.00000464
-0.50084415 -0.40650811 0.59690026
-0.43403499 0.33245067 -0.00000053
-0.12119375 0.33685468 0.14443677
-0.28928306 0.27258659 0.00000325
-0.28507306 0.25487084 0.33974489
-0.47951132 -0.26772025 0.57147655
-0.51388240 -0.15152891 0.61244023
-0.32565278 -0.53602260 0.00000000
-0.04899533 0.31308922 0.05838248
-0.37207738 -0.68099131 0.44343586
-0.30675875 0.44104083 0.00000011
-0.20456721 0.10637421 0.00000000
-0.63997129 -0.72628533 -0.00000003
-0.05079278 0.52909511 0.00000000
-0.36110441 -0.24100029 0.43035959
-0.66265975 0.11716238 -0.00000162
-0.52120736 0.00574403 -0.00000082
-0.31795189 0.14865438 0.00000477
-0.09560030 0.42825640 0.00000413
-0.04932958 0.24530028 0.05879021
-0.12274841 0.63525055 0.00000039
-0.39817260 0.23451642 0.00000180
-0.13170316 -0.09174152 0.15696171
-0.31346751 0.04954214 0.37358061
-0.61707690 -0.55876596 -0.00000023
-0.16522412 0.39047175 0.19690845
-0.45700147 -0.21162322 0.54464956
-0.40948544 0.23415710 -0.00000075
-0.31837544 0.04855733 0.37943634
-0.30956923 0.08283820 -0.00000005
-0.21719145 0.17129057 0.25884596
-0.30235011 0.30000947 0.36033757
-0.07360642 -0.58314226 0.08772296
-0.01432666 0.75823532 0.01707433
-0.15658877 0.15789990 0.00000727
-0.15133494 -0.50565995 0.18035856
-0.09110350 0.36165337 0.10856862
-0.03004503 0.61107228 0.00000000
-0.41965509 -0.13167654 0.50014054
-0.34447721 0.02187713 0.41053831
-0.17365228 -0.36652135 0.00000000
-0.39926355 -0.47870240 0.47583670
-0.11433731 -0.71068285 0.13626538
-0.36885498 -0.21653197 0.00000000
-0.26125770 0.20314146 0.31135943
-0.40953438 -0.07833977 0.48807889
-0.00133467 0.54507954 0.00158503
-0.43343722 -0.78787267 0.00000000
-0.20801194 -0.25760153 0.24790530
-0.25924146 -0.72165569 0.30895982
-0.28111420 -0.74359495 0.33502740
-0.24326861 0.23996125 0.28992043
-0.06162559 0.56306878 0.07344093
-0.16826735 0.40626749 0.20053918
-0.11045364 0.12499981 0.13162512
-0.57576622 0.04990577 0.00000147
-0.25753581 0.15821239 0.30692227
-0.43821010 -0.67510242 0.52225240
-0.00781218 0.68447265 0.00931043
-0.66623671 -0.05381996 -0.00000133
-0.12270546 0.12046461 0.00000834
-0.03822559 0.60829014 0.04555665
-0.37512831 -0.71568690 0.44707191
-0.05162060 -0.06123852 0.06152061
-0.49128617 -0.06558597 -0.00000057
-0.21071877 0.51912559 -0.00000040
-0.31443535 -0.14896747 0.37473985
-0.01886169 -0.47129105 0.02247906
-0.10330616 -0.65615351 0.12311862
-0.19688181 0.24254722 0.00000000
-0.28086438 0.34865374 0.00000215
-0.15035279 0.04484806 0.17917566
-0.39038854 0.08216616 0.46526150
-0.51991602 -0.41224896 -0.00000008
-0.07677253 -0.17205226 0.09149627
-0.28552017 0.31395853 0.00000264
-0.31681656 0.20550463 0.00000385
-0.24442737 -0.56845134 0.29130462
-0.11151924 -0.51394605 0.00000000
-0.38139459 -0.21744934 0.00000000
-0.01517432 -0.40078751 0.01808451
-0.48324967 -0.71966456 0.57592998
-0.19229786 0.38567823 0.00000323
-0.50950426 -0.49719704 0.00000000
-0.07599662 0.07893667 0.09057156
-0.16463914 -0.12539856 0.00000000
-0.05376091 0.46319743 0.00000424
-0.04577539 0.08755546 0.05455437
-0.48850971 -0.76502051 0.58219865
-0.36618618 0.01341611 0.00000611
-0.74077314 0.00738961 -0.00000176
-0.18320419 0.48770150 0.21834118
-0.25606049 0.00940907 0.30516940
-0.38123533 0.04452643 0.45434859
-0.20925088 0.23458434 0.00000000
-0.11683589 0.43620231 0.13923892
-0.13392213 0.19472863 0.15960624
-0.66100673 -0.72190122 -0.00000013
-0.24744738 -0.26446887 0.29490383
-0.03008813 0.26780443 0.00000000
-0.18482218 -0.35044402 0.22026811
-0.54233547 0.00270191 -0.00000091
-0.32575408 0.43690781 -0.00000075
-0.09807936 0.21210471 0.11687923
-0.48637047 0.03144021 0.57965234
-0.50750656 -0.02897769 0.60484206
-0.06242905 0.17120668 0.07440195
-0.71869099 -0.59827395 -0.00000050
-0.27761030 0.10464958 0.33085276
-0.32831856 -0.12205769 0.39128592
-0.16979226 0.33228676 0.00000000
-0.21241954 -0.55884387 0.00000000
-0.59980760 0.08615287 -0.00000130
-0.32227004 0.19142689 0.38407844
-0.24431377 -0.67001234 0.00000000
-0.10443024 -0.53871822 0.12445828
-0.09264579 0.21330984 0.11041376
-0.10100707 0.53626971 0.12037639
-0.49019027 -0.65883091 0.58420199
-0.24744527 0.13187848 0.00000629
-0.27554499 0.34358903 0.32839151
-0.09405574 -0.27810759 0.00000000
-0.23459854 -0.32984705 0.00000000
-0.04044021 -0.45960510 0.00000000
-0.45780893 -0.78979256 0.00000000
-0.49958617 0.24001534 -0.00000024
-0.16321393 -0.60965796 0.19451574
-0.18377439 -0.08194122 0.21901938
-0.20700118 -0.69153298 0.24670069
-0.20491500 -0.47321420 0.24421441
-0.00121454 -0.43806929 0.00144747
-0.09339751 0.30133741 0.11130131
-0.22742690 -0.03959441 0.00000000
-0.15602629 0.02323699 0.00000930
-0.16245865 0.25493206 0.19361585
-0.22475286 -0.43508601 0.26785686
-0.21713844 0.30395396 0.25877937
-0.24312390 -0.05268705 0.28975139
-0.03857115 0.12730228 0.00000000
-0.12842305 0.45644071 0.00000322
-0.45656643 -0.34105607 0.00000000
-0.59891628 -0.16157391 -0.00000086
-0.06738140 0.62087644 0.00000167
-0.39981822 -0.09814211 -0.00000012
-0.25982607 0.41895857 -0.00000044
-0.37491811 0.22733961 -0.00000059
-0.35561964 0.26780748 -0.00000058
-0.31408645 0.22691404 0.37432538
-0.21580533 0.19304081 0.00000585
-0.02005666 0.09981768 0.00000000
-0.20673477 0.04169938 0.24637248
-0.42677149 -0.25981546 0.00000000
-0.12229465 0.09244864 0.14573666
-0.26522090 0.43792248 -0.00000049
-0.06881413 0.39275276 0.08201158
-0.50239841 -0.23638853 -0.00000031
-0.19129043 -0.07935005 0.22797687
-0.10038317 0.16271073 0.00000804
-0.45281650 -0.16373975 -0.00000023
-0.30174221 -0.46660735 0.00000000
-0.64338974 0.01346559 0.00000078
-0.55030142 0.21995284 -0.00000132
-0.27530153 0.37112504 0.32810212
-0.11526404 0.57648745 0.00000152
-0.32573037 0.19415929 -0.00000032
-0.19204479 0.12416194 0.22886677
-0.65785221 -0.65237900 -0.00000024
-0.04571579 0.62166239 0.05448334
-0.01944983 0.70881838 0.02317999
-0.16537786 -0.74278150 0.19709469
-0.74378498 -0.54356195 -0.00000064
-0.42588083 0.04408837 0.50756099
-0.24368807 -0.17845406 0.29042354
-0.42716010 0.23097240 -0.00000082
-0.33628233 -0.57124460 0.00000000
-0.09740454 0.12085841 0.11607294
-0.63676651 -0.00900827 -0.00000129
-0.10885805 0.58647067 0.12973490
-0.42383364 0.06812347 0.50511945
-0.37305198 -0.67311735 0.44459737
-0.33105125 -0.76371260 0.00000000
-0.42045314 -0.61081017 0.00000000
-0.57703364 -0.37586175 -0.00000038
-0.28630725 -0.76615816 0.00000000
-0.12879925 -0.12953158 0.00000000
-0.36871371 -0.49225946 0.43942742
-0.04289853 0.49197861 0.00000000
-0.39798472 -0.67943089 0.00000000
-0.40443374 0.16034520 0.00000292
-0.44355511 0.06696567 0.52862417
-0.10120577 0.03886472 0.12061541
-0.15629356 -0.09834318 0.18626817
-0.09247916 0.14465196 0.11020334
-0.14358395 0.32768223 0.17111516
-0.07170296 0.40709123 0.08545444
-0.46468130 -0.64083581 0.55380069
-0.16264393 0.00612260 0.00000945
-0.34322747 -0.75756409 0.40905300
-0.10420057 0.29457392 0.12418457
-0.19772396 0.34534977 0.23564528
-0.19955099 -0.09078405 0.23782167
-0.00256303 -0.00185582 0.00305458
-0.21931640 0.33300853 0.00000359
-0.52289491 -0.70481917 0.00000000
-0.04658403 0.61090509 0.05551526
-0.13817252 0.42032707 0.00000361
-0.40855755 -0.39336785 0.48691357
-0.20524943 -0.04731387 0.24461298
-0.11648002 0.52150480 0.00000242
-0.12074976 0.25150886 0.00000641
-0.22052090 0.19293998 0.00000578
-0.00250127 -0.46038724 0.00298098
-0.57446310 0.01159223 -0.00000106
-0.63921531 -0.23337014 -0.00000090
-0.10203707 -0.66683999 0.12160615
-0.24770115 0.27283668 0.00000405
-0.79502486 -0.66175255 -0.00000035
-0.04907204 0.25821927 0.00000739
-0.11276291 0.41801643 0.00000000
-0.14969807 -0.34967194 0.17840776
-0.08033918 -0.27630174 0.09574695
-0.01529320 -0.24460594 0.01822619
-0.01914099 -0.67126180 0.00000000
-0.15393483 0.32649782 0.18345744
-0.01991322 0.05958434 0.00001081
-0.12976934 -0.49223463 0.00000000
-0.09534228 -0.68857945 0.11362741
-0.10831608 0.11707104 0.12907738
-0.40603156 0.34009964 -0.00000012
-0.21693897 0.19525201 0.25854514
-0.48580041 -0.05884802 0.57897262
-0.22200737 0.29894209 0.00000411
-0.03374600 0.64025319 0.00000189
-0.15618403 0.55447952 -0.00000023
-0.16299224 -0.11592448 0.00000000
-0.13782806 -0.24119081 0.16426128
-0.00355252 -0.56560105 0.00000000
-0.06837595 0.51840775 0.08148511
-0.05548122 -0.09816275 0.06612163
-0.29951916 0.12808088 0.00000547
-0.23780184 0.23876059 0.28340962
-0.01495094 -0.30097215 0.01781829
-0.55265562 0.20597788 -0.00000069
-0.12992526 -0.16792021 0.15484284
-0.03327781 0.55327438 0.03965996
-0.11431414 0.40257033 0.00000424
-0.04697012 -0.67245437 0.00000000
-0.30966832 -0.19534432 0.36905835
-0.50155933 -0.18151117 -0.00000041
-0.35986888 -0.66084582 0.00000000
-0.45900280 -0.33983044 0.54703429
-0.07068470 0.65482329 0.08424133
-0.12489742 0.06005495 0.14883796
-0.38674329 0.32992655 0.00000043
-0.73033114 -0.00933497 -0.00000169
-0.05122936 -0.77115289 0.06105433
-0.29513754 -0.11418424 0.00000000
-0.33337117 -0.35890933 0.39730676
-0.41922869 -0.04924860 0.49963265
-0.05384519 -0.54097989 0.00000000
-0.20380117 -0.15669347 0.00000000
-0.05490869 0.03722226 0.06542399
-0.19793425 0.23061238 0.00000555
-0.28059005 0.21380932 0.33440441
-0.15598835 -0.24127700 0.18590441
-0.38649301 0.07362603 0.46061879
-0.12923885 -0.55928693 0.00000000
-0.02763361 -0.42703009 0.00000000
-0.43561452 0.26199738 0.00000062
-0.04067896 -0.79863842 0.04848053
-0.24589861 0.40424004 0.00000189
-0.09275691 0.01269527 0.11054620
-0.03538203 0.13640193 0.00000000
-0.45449738 0.30127200 -0.00000040
-0.41042050 0.01353446 -0.00000036
-0.27729839 0.35658506 -0.00000040
-0.09064213 0.64880117 -0.00000012
-0.16166332 0.37705573 0.19266419
-0.17528065 0.46862547 -0.00000016
-0.02061346 0.07160758 0.00000000
-0.20085734 -0.36873474 0.23937856
-0.25460245 0.24402992 0.30342862
-0.44731620 0.07711811 0.00000348
-0.00594536 -0.65534078 0.00000000
-0.20702933 -0.18217231 0.24673424
-0.15300931 0.45282529 0.18235487
-0.25772969 0.45024840 -0.00000048
-0.16447167 0.56244921 -0.00000028
-0.28336724 0.03861534 0.33770572
-0.33536174 0.08883392 0.39967605
-0.39289166 0.17470155 -0.00000057
-0.34373064 -0.27976099 0.00000000
-0.35734623 -0.39985978 0.00000000
-0.48713019 0.13965208 0.00000168
-0.28711933 -0.67902109 0.00000000
-0.66850587 -0.07142740 -0.00000131
-0.10051592 -0.59845427 0.11979327
-0.01341694 0.10213840 0.00001027
-0.01331256 -0.65267859 0.01586569
-0.20497801 -0.01515055 0.24428951
-0.25758730 0.14118932 0.30698953
-0.20831564 0.33188156 0.24826838
-0.00933215 0.26722969 0.00000000
-0.22840254 0.07061554 0.00000000
-0.41458420 -0.28764380 0.00000000
-0.50398928 -0.55935207 0.60064795
-0.21885610 0.32247385 0.26083043
-0.45008786 0.02264193 0.53640888
-0.54744615 0.23050970 -0.00000100
-0.15719467 -0.46066719 0.00000000
-0.17158818 0.02941747 0.00000000
-0.22264696 0.09190549 0.00000000
-0.04741723 -0.72785966 0.00000000
-0.46611457 -0.68430353 0.55550867
-0.30876949 0.32762425 -0.00000048
-0.00291708 -0.18411398 0.00000000
-0.53109296 -0.72379495 0.00000000
-0.08802083 0.30763287 0.10489345
-0.13993481 -0.48097904 0.00000000
-0.00283733 0.42417208 0.00000559
-0.02166283 0.13951702 0.02581741
-0.26200107 -0.64082594 0.31224868
-0.13684589 0.02695689 0.16307758
-0.32598452 0.06331178 0.38849922
-0.47913095 -0.47546489 0.00000000
-0.16944978 0.45707072 0.20194859
-0.57769758 -0.67903401 0.00000000
-0.07971427 -0.22863831 0.09500219
-0.08717645 0.27504637 0.10388638
-0.42161402 -0.41848858 0.00000000
-0.32805978 0.03798676 0.39097808
-0.22255032 -0.26818657 0.26523191
-0.27755843 0.35209980 0.33079183
-0.23291734 0.00466113 0.00000842
-0.39013826 0.13173088 0.46496340
-0.17719274 -0.75876740 0.21117547
-0.42397534 -0.09864767 0.50528952
-0.26009287 0.15754718 0.30996985
-0.26481333 0.28277269 0.00000355
-0.03025532 -0.69489287 0.00000000
-0.17865561 -0.39032370 0.21291889
-0.05951651 0.19629923 0.07091916
-0.08765217 0.33156691 0.00000570
-0.06029451 0.07665718 0.07184375
-0.25545251 0.14564175 0.30443897
-0.50918100 -0.49858384 0.60683565
-0.08212367 -0.34647510 0.00000000
-0.28661848 0.11428380 0.34158280
-0.44501888 0.06102167 0.53036973
-0.04511794 0.47953623 0.05377084
-0.58683099 0.16007481 -0.00000058
-0.23825020 0.19136605 0.00000553
-0.15927977 -0.68744632 0.18982708
-0.74071029 -0.42847972 -0.00000093
-0.61642995 -0.41766692 -0.00000048
-0.23223448 -0.27670785 0.27677333
-0.23631584 -0.29852676 0.28163743
-0.69582549 -0.71814498 -0.00000020
-0.32523362 0.32784977 0.00000164
-0.10359398 0.38116892 0.12346164
-0.11838545 -0.70970985 0.00000000
-0.68838507 -0.32388902 -0.00000095
-0.62083066 -0.20599323 -0.00000087
-0.69288457 -0.66582159 -0.00000034
-0.23127953 0.16207619 0.00000608
-0.00932085 0.67026433 0.01110583
-0.03184414 0.23502645 0.03793974
-0.20130636 0.37636623 0.00000321
-0.34301082 0.11900661 0.00000479
-0.17901045 -0.07285240 0.21334179
-0.34692313 0.11324823 0.41345601
-0.15055644 0.30725542 0.17942464
-0.01300814 0.67112250 0.00000174
-0.07108783 0.27509703 0.08472134
-0.19019131 0.31897001 0.22666323
-0.01618337 -0.38693657 0.01928708
-0.00792030 0.35038513 0.00942956
-0.50871467 -0.54259541 0.60627971
-0.25418745 -0.11480717 0.30293668
-0.22793865 -0.59944635 0.27165363
-0.02720723 0.04323211 0.03242514
-0.14186475 -0.60802539 0.16907213
-0.27965042 0.35076721 -0.00000040
-0.11155155 0.02245602 0.13293135
-0.79673116 -0.61329635 -0.00000047
-0.26246524 0.43325991 0.00000109
-0.22320637 0.43565406 0.26601506
-0.33128654 -0.12089320 0.39482315
-0.01987755 -0.02518223 0.02368974
-0.35153023 -0.47049727 0.00000000
-0.38174152 -0.25089467 0.45495481
-0.09660157 -0.21189783 0.00000000
-0.42032150 -0.14103873 -0.00000013
-0.01954244 -0.33626286 0.02329036
-0.31511493 -0.56022498 0.37554893
-0.00437022 -0.36246566 0.00520836
-0.31339805 0.24526506 0.37350336
-0.23093881 0.40365112 0.00000219
-0.42451823 -0.06172132 -0.00000029
-0.45726427 0.01454409 0.54496359
-0.14060923 0.53357760 0.16757677
-0.27221676 0.12454247 0.00000602
-0.25227094 0.04035231 0.30064409
-0.40895281 -0.03219581 -0.00000027
-0.11885378 -0.30375148 0.14164803
-0.47439602 -0.60336345 0.00000000
-0.20879316 0.30298495 0.24883313
-0.26528916 0.27242086 0.31616623
-0.31421232 -0.74291286 0.00000000
-0.33275851 0.12628591 0.39657833
-0.20908174 0.09303202 0.24917114
-0.14738377 0.15744410 0.00000000
-0.05839606 -0.78824396 0.06959549
-0.33931660 0.04686963 0.40438841
-0.49518151 -0.49352663 0.00000000
-0.46050223 -0.25374756 0.54882161
-0.10862353 0.57561351 -0.00000007
-0.16573846 0.10718617 0.00000789
-0.49958295 -0.50431760 0.59539677
-0.31594802 0.17605055 0.00000436
-0.04327967 0.60871177 0.05157703
-0.44674626 -0.26731995 0.53242723
-0.11905499 -0.48313750 0.00000000
-0.45253407 0.25867376 -0.00000097
-0.23259269 -0.15906264 0.27720024
-0.18907032 0.44043960 0.00000238
-0.20821941 0.11232448 0.00000000
-0.39456911 0.12395261 0.47024404
-0.68994309 -0.20050138 -0.00000118
-0.35188827 0.05786695 0.41937689
-0.11164437 0.47738349 0.00000315
-0.38359169 -0.61452949 0.00000000
-0.10756430 0.12145880 0.00000000
-0.29007630 -0.56999853 0.34570828
-0.01905464 0.04204066 0.00001108
-0.11355503 -0.44806597 0.00000000
-0.35263217 0.01170645 0.00000640
-0.09489347 -0.42737968 0.11309252
-0.14190829 -0.25394752 0.16912403
-0.29999390 -0.24096890 0.35752823
-0.19961705 0.05376014 0.23790041
-0.17766984 -0.47732903 0.00000000
-0.27401829 -0.62152612 0.00000000
-0.76156850 -0.54080169 -0.00000065
-0.52394855 -0.17884470 -0.00000051
-0.41947927 -0.69962419 0.49992895
-0.04342947 0.56171022 0.05175855
-0.32453025 -0.30860245 0.38677035
-0.32694495 -0.46570713 0.00000000
-0.42717526 -0.40237450 0.50910208
-0.23221258 -0.10601298 0.00000000
-0.06769612 0.25733408 0.08067915
-0.12515520 0.14388527 0.14915796
-0.59530835 0.01960276 -0.00000116
-0.23559953 0.35150994 0.28078330
-0.09347969 0.05883674 0.11139388
-0.34534976 -0.10196652 0.00000000
-0.34554029 -0.73245699 0.41180938
-0.11983127 0.50352620 0.14281082
-0.27595703 0.25523083 -0.00000021
-0.17110891 -0.37927464 0.00000000
-0.32925105 0.24757189 0.39239859
-0.11387325 0.20245563 0.13571232
-0.03011209 0.72367751 0.00000069
-0.27347778 0.10315741 0.00000000
-0.47360688 -0.41442294 0.56443910
-0.06018479 0.51154651 0.00000000
-0.04919716 -0.58390498 0.05863239
-0.39744587 0.20605673 -0.00000065
-0.54621460 -0.48578937 -0.00000006
-0.24766047 -0.58391831 0.29515778
-0.49509646 -0.28680383 0.59005074
-0.13543700 -0.19362181 0.00000000
-0.72477991 -0.01663900 -0.00000165
-0.53911246 -0.05256563 -0.00000079
-0.26673502 0.10795995 0.00000000
-0.14648410 0.00842004 0.17457740
-0.28024612 0.26958697 0.33399239
-0.29859053 0.12831107 0.00000549
-0.03099811 0.33173038 0.00000000
-0.45014941 -0.52098356 0.53648219
-0.19433933 0.46927786 0.23161193
-0.17372495 0.02799313 0.00000000
-0.07329571 -0.23135668 0.00000000
-0.08420576 -0.13905474 0.10035508
-0.64380123 0.04954942 0.00000017
-0.00705307 -0.45127423 0.00840574
-0.09060078 0.41042765 0.10797655
-0.11140966 -0.39428216 0.13277625
-0.30054945 0.17705648 0.35818800
-0.04513014 0.26217843 0.05378538
-0.36234946 0.01064323 0.43184433
-0.48906937 -0.79477334 0.58286552
-0.00409018 -0.26009690 0.00000000
-0.27501644 -0.70803428 0.32776018
-0.19847760 -0.52065757 0.00000000
-0.65637949 -0.71065097 -0.00000013
-0.18120326 -0.03690900 0.00000000
-0.06890787 0.17047502 0.08212329
-0.61890411 -0.01103228 -0.00000121
-0.21729045 -0.66972007 0.25896328
-0.41488307 0.06890439 0.49445398
-0.07733067 0.41335170 0.00000463
-0.00775760 0.47624646 0.00923843
-0.14361651 0.45220033 0.00000000
-0.20275683 0.34029295 0.00000379
-0.23503898 -0.65080802 0.28011569
-0.20660032 -0.06728650 0.00000000
-0.24524063 -0.08642867 0.00000000
-0.49132167 -0.28597465 0.58555197
-0.19597469 0.49526648 -0.00000030
-0.09859183 -0.08067714 0.11750017
-0.04715565 -0.03692715 0.05619935
-0.24371445 -0.72063639 0.29045498
-0.33655346 0.06328353 0.00000584
-0.65508971 0.02085416 0.00000043
-0.18601493 -0.75078492 0.22168962
-0.25881871 -0.78868676 0.30845600
-0.74821515 -0.15118419 -0.00000151
-0.28084297 0.20442329 0.33470189
-0.40697626 -0.62680656 0.48502815
-0.36007763 0.11501678 0.00000453
-0.19117532 -0.39294498 0.00000000
-0.17070975 0.08610011 0.00000813
-0.38631702 -0.45002787 0.46040716
-0.28357567 0.12099588 0.33795646
-0.27926393 0.33706753 0.33282439
-0.15427639 0.10280916 0.00000813
-0.41350929 -0.24782315 0.49281556
-0.19369833 -0.73450973 0.23084657
-0.03129731 0.23284787 0.00000804
-0.08378022 0.57574019 0.00000000
-0.14784890 0.51748256 0.17620364
-0.00585220 0.26998690 0.00697456
-0.19816173 0.38061229 -0.00000010
-0.40286251 -0.10631215 -0.00000012
-0.32211858 0.23911162 0.38389810
-0.32982394 0.18823000 0.39308115
-0.32093858 0.43960391 -0.00000073
-0.15550339 -0.65689110 0.18532645
-0.04747892 0.13488753 0.05658461
-0.19889411 -0.02131820 0.23703881
-0.42017293 -0.61799943 0.50075594
-0.61644667 -0.48312132 -0.00000036
-0.33355878 0.42989902 -0.00000022
-0.12983658 -0.78062593 0.00000000
-0.73765734 -0.13334517 -0.00000150
-0.70772173 -0.01125559 -0.00000159
-0.46343855 -0.74059956 0.00000000
-0.66058204 -0.15835465 -0.00000113
-0.57563050 0.21769097 -0.00000143
-0.41869423 0.16699108 0.00000253
-0.03528342 -0.61724908 0.04205021
-0.46398921 -0.75428570 0.00000000
-0.19863714 0.01885363 0.00000000
-0.62312211 0.10317994 -0.00000143
-0.57590657 -0.28982929 -0.00000053
-0.01269519 0.15217183 0.00000000
-0.24667010 0.27173048 0.29397890
-0.44505818 0.09694073 0.53041670
-0.29208421 0.02979524 0.34810246
-0.41857477 0.34992908 -0.00000052
-0.30308879 -0.33427322 0.36121638
-0.11438075 -0.19890374 0.00000000
-0.48960805 -0.49944417 0.58350878
-0.07031051 0.27805724 0.08378541
-0.07879482 0.19600574 0.09389530
-0.51976535 -0.74979599 0.00000000
-0.51360828 -0.57471996 0.61211173
-0.65951827 0.07925212 -0.00000063
-0.22451410 -0.47452352 0.26757231
-0.41055660 -0.66491905 0.48929506
-0.79988495 -0.56748823 -0.00000058
-0.12171374 0.44154817 0.00000354
-0.73638376 0.01831153 -0.00000108
-0.55711557 0.07075694 0.00000148
-0.31309014 -0.26172508 0.37313622
-0.42770627 -0.57885371 0.00000000
-0.12069229 -0.13670682 0.00000000
-0.43196271 -0.64950015 0.51480686
-0.45163282 -0.22149897 -0.00000012
-0.24595854 0.02739606 0.29313000
-0.11546461 0.12794838 0.13760887
-0.79670251 -0.53128730 -0.00000067
-0.47151546 -0.47983338 0.00000000
-0.21079850 -0.77332358 0.00000000
-0.49492133 -0.73095285 0.58984011
-0.61848124 -0.49578927 -0.00000035
-0.39599916 -0.27601280 0.47194694
-0.08109939 0.40351264 0.09665296
-0.35577380 0.34423368 -0.00000071
-0.19946258 0.47514627 -0.00000028
-0.20930683 -0.08738718 0.00000000
-0.09172951 0.52834688 0.00000000
-0.05960689 -0.19020497 0.07103853
-0.54119908 0.09625868 0.00000136
-0.09522168 0.00743576 0.11348367
-0.44819090 -0.40313834 0.00000000
-0.11165006 -0.76596722 0.00000000
-0.43207967 -0.31716650 0.00000000
-0.26943396 -0.23067945 0.32110707
-0.20203979 -0.69124572 0.24078779
-0.04914764 0.32740688 0.00000000
-0.08895151 -0.09270448 0.00000000
-0.19695308 -0.56733254 0.00000000
-0.28268761 0.22443034 0.33690432
-0.15949787 -0.45497512 0.00000000
-0.73923888 -0.22827587 -0.00000134
-0.02118413 -0.23674206 0.00000000
-0.22066697 0.31610617 0.00000385
-0.71191847 -0.48213281 -0.00000077
-0.58358967 -0.46386221 -0.00000026
-0.15295561 -0.79920861 0.18229004
-0.27124571 -0.02468453 0.32326699
-0.48555916 -0.40581125 0.57868376
-0.44550903 -0.16773716 0.53095307
-0.24729586 0.31510113 0.29472484
-0.02705406 -0.25651971 0.03224259
-0.35806694 -0.77016216 0.42673844
-0.60104329 -0.56697563 -0.00000015
-0.10459152 0.06714489 0.12463729
-0.11797602 -0.22970581 0.00000000
-0.22923772 -0.75557991 0.27320185
-0.37020397 0.10328715 -0.00000035
-0.11806640 0.12451510 0.14070965
-0.00292078 -0.79272425 0.00348093
-0.42819449 -0.05558678 -0.00000031
-0.42145325 -0.35952523 0.00000000
-0.78261645 -0.67889193 -0.00000030
-0.23640612 -0.08567036 0.00000000
-0.17872944 0.26008669 0.21300089
-0.40712514 -0.00260535 -0.00000032
-0.32775125 -0.03001339 0.00000000
-0.33485871 -0.00602473 -0.00000000
-0.05731798 -0.23916092 0.06831065
-0.54719731 -0.63617440 0.00000000
-0.10520677 0.21431947 0.12537381
-0.01374917 0.65566308 0.00000196
-0.33459986 -0.64432336 0.39877075
-0.42659717 -0.48826883 0.50841280
-0.46706190 -0.68972910 0.00000000
-0.02631806 -0.68123859 0.00000000
-0.42093622 -0.49893082 0.00000000
-0.34774991 -0.69211174 0.41444277
-0.40383892 0.04328521 0.48128833
-0.38911604 -0.31564001 0.46374350
-0.45536798 -0.56427953 0.00000000
-0.74771798 -0.23493151 -0.00000136
-0.45571835 -0.70826631 0.54311843
-0.15107273 0.51147327 0.18004575
-0.03728123 0.51944718 0.04442604
-0.32094559 -0.08021798 0.38249899
-0.08647787 0.09853330 0.10304990
-0.05456434 0.05291906 0.00001038
-0.09128615 0.68967123 -0.00000019
-0.73309565 0.01203287 -0.00000174
-0.48071670 -0.19314228 -0.00000030
-0.47691073 -0.49024797 0.56837627
-0.36275815 -0.51977012 0.00000000
-0.02065907 0.29203624 0.02462114
-0.30372165 -0.27176666 0.36197085
-0.39350935 -0.54143200 0.00000000
-0.43785939 0.35111639 -0.00000108
-0.10027661 0.60264998 0.00000137
-0.26367084 0.09431224 0.00000000
-0.33541116 0.12124275 0.39973974
-0.06597430 0.50659578 0.00000341
-0.03580020 -0.64917638 0.00000000
-0.34401792 0.41518623 -0.00000018
-0.32159098 -0.71988459 0.00000000
-0.33432864 0.22531972 -0.00000041
-0.70344159 -0.18752045 -0.00000126
-0.16622676 -0.79716276 0.00000000
-0.04507244 0.42288025 0.00000000
-0.68970450 -0.50029872 -0.00000064
-0.09800051 -0.23414155 0.11679544
-0.40801037 0.12487126 0.48626231
-0.40610069 -0.38495686 0.00000000
-0.17623526 0.03752724 0.00000000
-0.24051734 -0.66444336 0.28664472
-0.14027880 0.37748567 0.16717737
-0.06699108 0.23957751 0.07982842
-0.47190047 0.03476019 0.00000372
-0.03595238 -0.40893091 0.04284747
-0.06437444 0.48563953 0.00000000
-0.38493436 -0.55346575 0.00000000
-0.02895962 0.37177771 0.03451361
-0.02131647 -0.26752369 0.00000000
-0.19698639 0.20430056 0.00000596
-0.07044869 -0.03045266 0.08395962
-0.00989405 -0.32011864 0.01179157
-0.24833537 0.31648785 0.29596373
-0.49014783 -0.22409280 0.58415326
-0.23230431 0.04965794 0.27684740
-0.13931546 0.54978036 0.16603409
-0.17042482 -0.15071769 0.00000000
-0.05732794 0.20542164 0.06831101
-0.29253706 0.00756331 0.34864209
-0.20567296 -0.60140772 0.00000000
-0.25189748 -0.36205906 0.00000000
-0.07461156 0.58940418 0.00000203
-0.50383265 -0.37481474 0.60046208
-0.57450011 -0.34636921 -0.00000043
-0.09499736 -0.06074345 0.00000000
-0.02825051 -0.22812662 0.00000000
-0.24367031 -0.16627537 0.29040237
-0.07454252 -0.28554578 0.08883858
-0.22393047 -0.65459478 0.00000000
-0.40679627 -0.06211644 0.48481568
-0.07401576 0.21215464 0.08821080
-0.08593547 0.66302008 -0.00000012
-0.03166487 0.57750884 0.00000286
-0.20078176 -0.17620900 0.00000000
-0.10826569 0.54674952 -0.00000001
-0.07289382 -0.27220126 0.08687369
-0.14551788 0.21965001 0.00000000
-0.31642676 0.23601645 0.37711282
-0.43207879 -0.52223454 0.51494566
-0.06462065 0.15675842 0.00000000
-0.16250914 0.10695033 0.19367579
-0.16175286 0.53455858 0.19277536
-0.32079922 -0.02436717 0.38232474
-0.58636058 0.16587031 -0.00000067
-0.37200247 0.09461924 0.44334907
-0.01890245 -0.04450935 0.02252763
-0.42399248 0.09267180 0.50531064
-0.05394679 -0.35638334 0.06429292
-0.25513970 0.33522703 -0.00000027
-0.14775801 0.43720437 0.17609632
-0.07387223 0.25012257 0.08802970
-0.32640541 0.15279512 0.38900339
-0.01410793 0.21600211 0.00000855
-0.21750885 -0.61591209 0.00000000
-0.41571881 -0.66305898 0.49544737
-0.02280304 0.04776810 0.00000000
-0.09592060 -0.64144426 0.11431663
-0.18840730 -0.70272048 0.00000000
-0.11887451 0.41685453 0.00000000
-0.07565898 0.36526541 0.09016916
-0.02150547 -0.68327814 0.02562987
-0.22778502 -0.14424959 0.00000000
-0.43458102 -0.62975648 0.00000000
-0.12778424 0.49316221 0.15228917
-0.29577652 0.26282423 0.35250189
-0.67187094 -0.63472216 -0.00000033
-0.50507966 0.21232419 0.00000012
-0.59795847 -0.67123848 0.00000000
-0.48837119 0.01740741 0.58203675
-0.50394181 0.24498638 -0.00000041
-0.18269660 -0.31373138 0.21773488
-0.07698175 0.59705487 0.00000188
-0.34328744 0.03497040 0.40912066
-0.40781289 0.16128381 -0.00000061
-0.07003594 0.63775038 0.08346807
-0.37650681 0.09633583 0.44871734
-0.48693608 0.28301760 -0.00000116
-0.06197047 0.69775607 0.07385574
-0.08848631 -0.27850101 0.10545657
-0.07724729 -0.35150836 0.00000000
-0.00282787 0.06414018 0.00000000
-0.46557055 0.03370669 0.55486203
-0.03582739 0.66682402 0.04269661
-0.68762971 -0.62115732 -0.00000042
-0.11823307 0.53241111 0.00000220
-0.17621652 0.38267662 0.21001291
-0.05907098 0.16593181 0.07038751
-0.05616157 0.49354670 0.00000000
-0.10794644 0.15782828 0.12863773
-0.11739015 -0.66037488 0.00000000
-0.09020479 0.03712567 0.10749033
-0.19217046 0.21139358 0.22901900
-0.01536083 -0.66713735 0.00000000
-0.22556016 0.36074338 0.26881827
-0.42811307 -0.04213862 0.51022106
-0.00227252 0.35422529 0.00000665
-0.15862523 0.46169083 0.18904794
-0.05102404 0.55086395 0.06080559
-0.11140548 0.41965944 0.13277141
-0.71754991 0.05300149 -0.00000130
-0.20274003 0.43972595 0.24162266
-0.79772758 -0.20624420 -0.00000148
-0.36677289 0.14130553 -0.00000040
-0.09962996 0.12080728 0.11873739
-0.34524593 -0.35148166 0.41145909
-0.21546413 -0.78118650 0.00000000
-0.07938689 -0.67698041 0.09461202
-0.30812086 -0.02364628 0.36721471
-0.14009623 -0.06423622 0.00000000
-0.04298896 0.41839431 0.05122634
-0.30083887 -0.79118520 0.00000000
-0.13073453 0.11400226 0.00000832
-0.20730086 -0.04886114 0.24705784
-0.33836824 0.14831411 0.40326099
-0.76733711 -0.20975909 -0.00000148
-0.54234006 -0.29776556 -0.00000037
-0.43483898 0.00260069 0.51823714
-0.07491575 0.39186744 0.08927651
-0.29711462 -0.26125591 0.35409664
-0.26280372 0.36493200 0.31320661
-0.34587231 -0.57446364 0.41220507
-0.03999490 0.39680019 0.04766528
-0.45451108 -0.79856055 0.54167924
-0.16015284 0.33398724 0.00000457
-0.36946748 -0.40484576 0.00000000
-0.09082694 -0.19169028 0.00000000
-0.23699919 -0.20302888 0.28245184
-0.11763604 0.49878464 0.14019434
-0.58913552 0.05800573 -0.00000120
-0.08472593 -0.39088912 0.10097501
-0.45864759 -0.58732665 0.00000000
-0.15184783 -0.07506463 0.18096981
-0.35831134 0.39954405 -0.00000082
-0.34408980 -0.47014968 0.41008079
-0.15880960 -0.36072124 0.18926674
-0.19512475 0.24918229 0.23254110
-0.12379590 0.09618111 0.00000869
-0.45033269 -0.43924258 0.53670091
-0.27768828 -0.69036009 0.33094444
-0.01453165 0.00749354 0.00001167
-0.10322640 -0.61967498 0.12302357
-0.25452084 -0.67591217 0.00000000
-0.26027798 0.18208290 0.31019117
-0.48522077 -0.26910626 -0.00000018
-0.06865192 0.72571454 -0.00000016
-0.19457270 0.35161940 0.23188605
-0.27471156 -0.05622951 0.32739747
-0.08356310 0.26772504 0.00000672
-0.21934993 0.38058723 0.26141919
-0.08847663 0.67567576 0.00000038
-0.03477082 0.07353322 0.04143931
-0.03271874 0.01917019 0.03897731
-0.53993120 0.00185044 0.00000296
-0.34733692 -0.49959668 0.41395059
-0.45467749 0.24436758 0.00000055
-0.01554634 0.77103649 0.01852787
-0.25004254 0.25500226 0.00000430
-0.05923324 0.13208636 0.00000912
-0.39513155 0.01845412 0.47090987
-0.37647767 -0.12799731 0.00000000
-0.16894435 0.03939427 0.20134517
-0.31949358 -0.33939367 0.00000000
-0.31334429 -0.74805397 0.00000000
-0.42992940 -0.68071639 0.51238346
-0.25726722 -0.08483521 0.00000000
-0.26761950 -0.10689046 0.31894499
-0.22845209 0.54498385 -0.00000013
-0.45620874 0.20129101 0.00000124
-0.07467716 0.57701623 0.08899662
-0.34786581 0.12748819 0.00000455
-0.05153818 -0.76622891 0.00000000
-0.20146028 0.48077267 -0.00000030
-0.08517361 0.14398014 0.10150854
-0.06978263 -0.78022800 0.08316583
-0.72397809 -0.34941981 -0.00000106
-0.22987644 0.43178712 0.27396484
-0.17228796 0.07855492 0.20533003
-0.27292871 0.45896377 0.00000046
-0.15354259 -0.28450818 0.18298959
-0.27983975 -0.23568292 0.33350859
-0.49522440 -0.79464108 0.00000000
-0.64631061 -0.46181197 -0.00000053
-0.09965422 -0.15031604 0.11876630
-0.35041853 0.16473974 0.41762342
-0.40945316 -0.38248088 0.48798099
-0.49382434 0.13165217 0.00000168
-0.26278838 0.50213275 -0.00000059
-0.11610999 0.10145879 0.00000000
-0.46641426 -0.35511896 0.55586719
-0.25708342 -0.00373354 0.30638848
-0.12171227 0.52561028 0.14505329
-0.61231046 -0.12917975 -0.00000097
-0.38244371 -0.05016677 0.45579240
-0.32690627 -0.12659697 0.38960274
-0.32702493 -0.04786941 0.38974444
-0.43418458 -0.27448005 0.51745623
-0.22239204 -0.69083677 0.00000000
-0.40091766 -0.65639974 0.47780742
-0.31159010 -0.06745506 0.37134918
-0.41994515 0.14095337 0.50048706
-0.30627809 -0.27650003 0.36501759
-0.18537815 0.19221177 0.00000632
-0.21862561 0.33803064 0.26055279
-0.36828033 -0.48275955 0.43891096
-0.23593866 -0.03513567 0.28118809
-0.48701795 0.15211233 -0.00000093
-0.14516818 -0.44463761 0.17300911
-0.55589168 -0.15734882 -0.00000068
-0.08250860 0.60854864 0.00000161
-0.12854427 -0.21388381 0.00000000
-0.57033430 -0.17175606 -0.00000072
-0.40729425 0.01476605 0.48540570
-0.15038579 -0.57816006 0.00000000
-0.50737469 -0.36821807 0.60468347
-0.47206193 -0.45309300 0.56259766
-0.26049476 0.11461631 0.31044763
-0.07024206 0.54373058 0.08370977
-0.53713593 0.19477328 -0.00000021
-0.31846346 0.19577630 0.00000398
-0.43790493 -0.30195049 0.00000000
-0.36639927 -0.13909011 0.43667035
-0.00585168 0.32041856 0.00696348
-0.47373178 -0.36907642 0.00000000
-0.31315508 0.37077686 -0.00000058
-0.73138445 -0.49305905 -0.00000077
-0.04049249 0.66311048 0.00000000
-0.02114272 0.64498486 0.00000000
-0.58991338 -0.14856171 -0.00000084
-0.28317326 -0.22561641 0.00000000
-0.39120970 -0.66233004 0.00000000
-0.12096843 0.26222004 0.14415982
-0.02641032 0.41934190 0.03147540
-0.52130279 0.15977503 0.00000068
-0.26088565 0.15119937 0.00000000
-0.79126160 -0.78091165 -0.00000005
-0.32153124 -0.10730759 0.00000000
-0.34709141 0.09668041 0.00000508
-0.03260183 0.34625468 0.00000000
-0.08327233 0.62488700 0.09924201
-0.27207600 0.26363497 -0.00000021
-0.08590966 -0.19707589 0.00000000
-0.29714969 -0.49845539 0.35413824
-0.40714443 -0.21213731 0.00000000
-0.47942425 -0.05793895 -0.00000053
-0.50067516 -0.30526490 0.59669930
-0.25133307 -0.47881574 0.29953473
-0.30433462 -0.14125598 0.36270185
-0.71574262 -0.09252131 -0.00000148
-0.53908780 -0.30967715 -0.00000034
-0.02402927 -0.36002543 0.02863769
-0.04377673 0.30908558 0.05216279
-0.42510701 -0.06092499 0.50663837
-0.49162537 0.02842986 0.58591511
-0.10438036 -0.33065246 0.12439884
-0.24746264 0.06499240 0.29492271
-0.41779320 0.11820297 0.49792244
-0.02134969 -0.17255595 0.02544422
-0.36441293 -0.78818697 0.43430149
-0.24988345 0.33542707 -0.00000025
-0.47844729 -0.47554611 0.57020759
-0.30258906 0.03214842 0.36062213
-0.16157360 0.26937454 0.19255421
-0.29475380 0.14560335 0.35128448
-0.47743830 -0.78848231 0.56900374
-0.18867788 0.55769403 0.00000042
-0.31652080 0.03942317 -0.00000001
-0.11250444 0.21405875 0.00000709
-0.06238518 -0.47629391 0.00000000
-0.48125859 0.18254550 -0.00000096
-0.04556869 0.28801384 0.05430803
-0.35279177 -0.25099603 0.42045257
-0.01634127 -0.66506597 0.01947527
-0.01674336 -0.74038599 0.01995447
-0.46663348 0.00500779 -0.00000059
-0.08963378 0.51331309 0.00000000
-0.03592497 0.39720518 0.00000000
-0.51293811 0.14106314 0.00000116
-0.07636749 -0.45185776 0.00000000
-0.39612326 0.05442984 0.47209284
-0.70918331 -0.64330705 -0.00000039
-0.39036937 -0.41822014 0.46523686
-0.44194434 0.07992311 0.52670557
-0.03199723 -0.07421794 0.00000000
-0.60116332 0.07451972 0.00000057
-0.02959940 -0.36916413 0.00000000
-0.35426667 0.01977961 0.00000623
-0.79870492 -0.23871331 -0.00000140
-0.22306549 0.11949528 0.26584644
-0.37540739 0.26073411 0.00000180
-0.04569864 0.11155055 0.00000000
-0.07530766 -0.07941773 0.08975046
-0.44972871 -0.58138350 0.00000000
-0.16735448 -0.05438358 0.19945038
-0.65386967 0.14162674 -0.00000163
-0.50567628 -0.41149841 -0.00000002
-0.01241231 0.19231368 0.00000893
-0.37121889 -0.57581176 0.44241279
-0.74029868 0.00473972 -0.00000093
-0.36980149 0.05763527 0.44072170
-0.04747116 0.16992372 0.05657537
-0.18762186 -0.03610092 0.00000000
-0.40868778 -0.69090834 0.00000000
-0.51496752 -0.63741129 0.00000000
-0.40807694 -0.59765411 0.48634005
-0.18484578 -0.48390717 0.22029623
-0.74766334 -0.17707333 -0.00000146
-0.38352305 -0.48889197 0.00000000
-0.26478966 -0.39522565 0.31557208
-0.02554544 0.01241801 0.00000000
-0.09125330 -0.06892272 0.10875422
-0.66299117 -0.17237647 -0.00000111
-0.01578653 0.39998449 0.00000576
-0.01378845 0.24429065 0.00000000
-0.69067600 -0.73562223 -0.00000016
-0.20304575 -0.06603939 0.24198667
-0.04885851 0.21842399 0.00000799
-0.04185569 0.21685877 0.04988294
-0.49951975 -0.15801066 0.59532292
-0.29610791 -0.52921022 0.00000000
-0.65931750 -0.43329436 -0.00000063
-0.17406443 -0.01840914 0.00000000
-0.09650229 -0.75179508 0.00000000
-0.75504144 -0.71743522 -0.00000021
-0.34993591 0.04609360 0.41704486
-0.39896432 0.08100840 0.47548210
-0.12558645 -0.33827085 0.14967192
-0.42430087 0.06771840 0.50567808
-0.62014297 -0.77041104 0.00000000
-0.35334200 -0.50346266 0.42110742
-0.04871144 -0.03648860 0.05805351
-0.38385329 -0.55439462 0.45747052
-0.03736057 0.56871019 0.04452573
-0.42631623 -0.19093845 0.50807905
-0.01569744 0.02663099 0.01869128
-0.10787464 -0.67551216 0.12856327
-0.48540091 -0.34631949 -0.00000005
-0.76876105 -0.35836619 -0.00000110
-0.64746905 0.04498558 -0.00000143
-0.54371206 -0.46191948 -0.00000009
-0.35187746 0.17578548 0.41936253
-0.19599570 0.34335969 -0.00000003
-0.32875504 0.33712650 0.00000142
-0.29012583 -0.44375915 0.00000000
-0.76760893 -0.51003552 -0.00000072
-0.32976858 -0.03613631 0.00000000
-0.44163762 -0.15608464 0.52633917
-0.09172570 0.69514748 -0.00000001
-0.37795723 0.17614176 0.45044535
-0.28079492 -0.10836652 0.33464741
-0.33641363 0.20039841 0.40093477
-0.39449485 -0.41466863 0.00000000
-0.41660925 0.08120826 0.49651128
-0.06095810 0.42251387 0.00000474
-0.05794806 0.68496263 0.06906194
-0.22446582 0.57392232 -0.00000053
-0.18010720 -0.65429610 0.00000000
-0.22509499 0.42082765 0.00000201
-0.01108273 0.48642361 0.01320822
-0.15434150 -0.45900252 0.18394173
-0.18383242 -0.06867132 0.00000000
-0.41264318 -0.78211122 0.00000000
-0.21344712 -0.73284253 0.25438286
-0.30976867 -0.22883471 0.36917783
-0.27899260 0.17252876 0.33250043
-0.43182507 0.06698047 0.51464541
-0.43261874 0.31331285 -0.00000018
-0.31357164 -0.68567110 0.00000000
-0.63659095 0.09173182 -0.00000039
-0.66605100 -0.12144754 -0.00000121
-0.04388546 0.35870977 0.00000000
-0.07332610 -0.64642713 0.08738887
-0.34158892 -0.15074082 0.40710140
-0.47035381 -0.31301183 0.56056249
-0.71641230 0.03566654 -0.00000099
-0.43134703 0.16451361 -0.00000072
-0.12757145 0.22482090 0.15202856
-0.00808279 0.67160219 0.00963032
-0.03551094 -0.69569711 0.04232136
-0.02731847 0.63137883 0.03255477
-0.17808092 -0.30936060 0.21223398
-0.18335464 -0.11217260 0.00000000
-0.38033056 -0.05387745 -0.00000011
-0.05906130 -0.74740346 0.07038832
-0.15458526 0.63486431 -0.00000021
-0.14992436 0.10052988 0.17866629
-0.12730072 -0.55065809 0.00000000
-0.66317616 -0.31163339 -0.00000087
-0.38726173 0.08855068 0.46153501
-0.07497430 0.30044556 0.08934427
-0.07303041 0.02755201 0.08702148
-0.14103330 -0.08029074 0.16808123
-0.34832180 0.02116990 -0.00000011
-0.53172086 -0.70812511 0.00000000
-0.04272919 -0.35891971 0.00000000
-0.28102710 0.08928546 0.00000642
-0.10215118 0.04657048 0.12172841
-0.36400506 -0.56267721 0.00000000
-0.03043987 -0.14822976 0.03627775
-0.09328718 0.05213098 0.11117817
-0.27629299 -0.59086994 0.00000000
-0.23031148 -0.10932144 0.27448153
-0.27911702 0.12354562 0.33264256
-0.05170241 0.58750641 0.06161489
-0.07776399 0.25583022 0.00000699
-0.16312538 0.01570833 0.19441021
-0.00549018 0.53140059 0.00654311
-0.15298049 0.21933343 0.00000000
-0.31993114 0.13731317 -0.00000019
-0.13014371 0.32712801 0.15510325
-0.48627023 0.30353013 -0.00000105
-0.02862182 -0.04695694 0.03411103
-0.47084342 0.13889994 0.00000200
-0.42203490 0.24926520 -0.00000083
-0.25216617 0.23296301 0.30052897
-0.52549452 -0.51504923 0.00000000
-0.03848994 0.28679700 0.00000712
-0.08913917 0.36944882 0.10623463
-0.33333224 -0.25620944 0.00000000
-0.17804308 -0.30891956 0.21218888
-0.48824736 -0.23685748 0.58188824
-0.79127926 -0.45461449 -0.00000086
-0.33322498 0.10701505 0.39712990
-0.00127256 -0.72932158 0.00151661
-0.61431617 0.10007827 -0.00000011
-0.15018075 0.03089339 0.00000000
-0.52317541 0.02552581 -0.00000086
-0.27605253 -0.06045834 0.32899562
-0.43361917 0.04217230 0.51678147
-0.35427135 0.02158441 0.42221691
-0.70375671 -0.56065313 -0.00000060
-0.15076220 -0.56218222 0.17967597
-0.56567657 -0.56708896 0.00000000
-0.16142599 0.03452292 0.00000905
-0.61579091 0.12410891 -0.00000143
-0.03403903 0.64928209 0.04056717
-0.07409896 0.54415191 0.08830657
-0.17737306 0.52625735 -0.00000027
-0.09065431 -0.46377466 0.10804035
-0.62069931 0.10803700 -0.00000036
-0.69263914 -0.42680407 -0.00000079
-0.06680985 0.47185723 0.07961757
-0.49732046 -0.33057322 0.59270109
-0.28300406 0.26718127 -0.00000027
-0.02860664 0.53277793 0.03408784
-0.17070192 -0.38919842 0.20343981
-0.18500611 -0.25100248 0.22048732
-0.58010744 0.17285081 -0.00000137
-0.38821476 0.09987382 0.00000424
-0.29213628 -0.36113969 0.00000000
-0.08912229 -0.38800563 0.00000000
-0.05469453 0.41680847 0.06518406
-0.02139649 0.20272508 0.02548738
-0.23672385 -0.17644893 0.00000000
-0.09422085 0.23106956 0.11229090
-0.37283361 -0.50213468 0.44433748
-0.04054424 0.39955330 0.04831228
-0.07323067 0.68773081 0.00000047
-0.69500401 -0.27179048 -0.00000107
-0.39357902 -0.50391675 0.00000000
-0.08199687 0.26629902 0.09771310
-0.02122609 0.49943583 0.02529691
-0.25315713 0.33130491 -0.00000025
-0.11188201 0.57099568 0.13333852
-0.71841962 -0.25074702 -0.00000121
-0.03967248 0.23633248 0.04726969
-0.42691492 -0.07464419 -0.00000028
-0.18458687 0.29598555 0.00000000
-0.39820153 -0.16080156 -0.00000000
-0.13897595 0.03847939 0.16561646
-0.24508316 0.05297709 0.29208680
-0.26465686 0.14792448 0.00000000
-0.47935216 -0.64084739 0.57128530
-0.22597788 0.03988863 0.00000799
-0.45737359 0.04284818 -0.00000061
-0.03515847 -0.69919750 0.00000000
-0.29053836 0.25370155 0.34626092
-0.15932839 0.34111735 0.18988552
-0.46961006 -0.01833820 -0.00000056
-0.14637830 -0.58626982 0.17445131
-0.22753658 -0.19106210 0.27117445
-0.05133449 0.08605110 0.06117962
-0.35739548 -0.12598921 0.00000000
-0.43773031 -0.50115616 0.00000000
-0.18808254 -0.71413980 0.22415376
-0.37028003 0.19605491 0.44129663
-0.30885430 0.08079270 0.00000608
-0.00131872 0.35034632 0.00156170
-0.03055154 0.59175853 0.03640710
-0.35729993 0.01371350 0.42582633
-0.41973538 -0.74231631 0.50023402
-0.22361747 0.22650359 0.26650467
-0.24792031 -0.23179280 0.00000000
-0.12091471 0.40257781 0.00000414
-0.16598515 0.46132327 0.19781749
-0.33637622 0.15811339 0.40088710
-0.06071983 -0.60411658 0.07236493
-0.15425523 -0.17586806 0.18383891
-0.48935595 -0.36508410 -0.00000003
-0.60944041 -0.48171464 -0.00000034
-0.48484091 -0.54536739 0.57782715
-0.16615721 0.62154769 -0.00000039
-0.79804040 -0.23067287 -0.00000142
-0.21253096 0.35040723 0.00000343
-0.79175913 -0.04252120 -0.00000189
-0.25017034 -0.55086171 0.29814900
-0.35721143 0.19833645 0.00000319
-0.29044624 -0.02446299 0.34615013
-0.59796700 -0.42428863 -0.00000039
-0.10298876 0.27425623 0.00000633
-0.09704443 -0.55970389 0.11565600
-0.32864379 -0.17256982 0.39167334
-0.32525886 0.26236781 0.38764076
-0.38429767 -0.08314014 0.45800183
-0.26264463 0.36695411 0.31301766
-0.07248063 0.60141895 0.08637940
-0.28187123 -0.02170562 0.00000000
-0.31655675 -0.58019105 0.37726726
-0.00992934 0.24981440 0.00000000
-0.47227602 -0.04972672 -0.00000051
-0.42961432 -0.51827463 0.51200853
-0.42617114 0.25284368 -0.00000085
-0.24415014 -0.11054791 0.29097425
-0.14833984 -0.42997340 0.00000000
-0.31280474 -0.79467706 0.00000000
-0.17733300 0.46701201 0.21134383
-0.38565360 0.00693043 -0.00000024
-0.21305096 0.44952087 0.25391234
-0.13790623 -0.66226240 0.00000000
-0.19990859 -0.55055374 0.23824785
-0.37226028 -0.79250080 0.00000000
-0.76703771 -0.52681117 -0.00000068
-0.25884989 -0.72043000 0.00000000
-0.41377695 -0.18874818 0.49313478
-0.48696424 -0.47565311 0.58035802
-0.71942033 0.02960209 -0.00000095
-0.10307866 0.01597185 0.00000000
-0.37865186 0.07349751 0.45127034
-0.26007772 -0.70791038 0.30995645
-0.24516832 0.35068590 -0.00000025
-0.28280239 -0.29851246 0.33703935
-0.18183950 -0.30481154 0.00000000
-0.22995261 -0.53279040 0.27405384
-0.26086479 0.18233052 0.31089578
-0.15203590 -0.57449532 0.18119395
-0.25732080 0.25687212 0.30666881
-0.07124542 -0.12045417 0.08490915
-0.00847578 -0.29241501 0.01010130
-0.32436836 -0.16848169 0.38657791
-0.04222950 0.00094789 0.05032844
-0.46173125 -0.19895739 -0.00000020
-0.01358222 0.11914030 0.01618708
-0.16191217 0.06564162 0.00000857
-0.08488746 -0.20828686 0.00000000
-0.43643487 -0.49847003 0.52013731
-0.64435341 -0.62400870 -0.00000023
-0.04211904 0.72864535 -0.00000005
-0.10297677 -0.49276450 0.12272607
-0.42881717 0.05162957 0.00000427
-0.29924279 0.06823199 0.35663418
-0.04232740 0.75488276 -0.00000010
-0.09847325 0.55939630 0.11735931
-0.41164214 -0.16066250 -0.00000006
-0.22567717 -0.73524621 0.00000000
-0.35835346 0.22210545 0.42708268
-0.14941199 0.50123249 0.17806777
-0.43265594 -0.05829622 0.51563517
-0.08508309 0.32363691 0.00000000
-0.05796311 -0.00190506 0.06907951
-0.03635374 -0.64807930 0.04332581
-0.68554022 -0.26132936 -0.00000105
-0.01596414 -0.37461817 0.00000000
-0.32132123 -0.79972870 0.00000000
-0.38193632 -0.31899243 0.45518672
-0.03727848 0.62290151 0.04442505
-0.13551180 -0.27803172 0.00000000
-0.10918993 0.62315996 0.13013165
-0.27534368 0.34601022 0.32815165
-0.67437557 -0.53907305 -0.00000051
-0.42416587 -0.16831099 -0.00000010
-0.61869817 -0.33674056 -0.00000063
-0.38654977 -0.00823080 0.46068614
-0.07189939 0.12387047 0.08568854
-0.07277818 -0.17277269 0.00000000
-0.13012481 -0.48951721 0.15508067
