ply
format ascii 1.0
element vertex 1380
property float x
property float y
property float z
end_header
-0.09593678 -0.63412868 0.00000010
-0.18823959 -0.38371728 0.00000338
-0.19041825 -0.69800105 0.00000322
-0.63965039 0.11417249 -0.00000069
-0.01711925 -0.35427110 0.00000056
-0.12108812 0.18401378 0.00000262
-0.03342769 0.70917606 0.00000053
-0.01081983 0.52029927 0.00000083
-0.46533968 -0.50056754 0.00000019
-0.04591505 0.22196485 0.00000826
-0.02568869 0.22343592 0.00000854
-0.51765337 -0.22836705 -0.00000013
-0.14154874 0.19617698 -0.00000454
-0.78543769 -0.50319786 -0.00000074
-0.08567117 0.64612667 0.00000079
-0.23183276 0.39527262 0.00259413
-0.79724889 -0.42486602 0.01170821
-0.49987690 0.03337806 0.00736445
-0.61500171 0.17502493 -0.00000115
-0.24576364 -0.53586923 0.00000017
-0.08755791 -0.05569922 0.00000047
-0.35059145 -0.71167009 0.00000006
-0.23871806 0.38618019 0.00000281
-0.31632551 -0.74314267 0.00000004
-0.01553027 0.54064567 0.00000110
-0.64349931 -0.14541909 0.01017300
-0.53250217 -0.28657595 0.00333451
-0.46718236 -0.63374875 0.00000010
-0.09623604 -0.69683834 0.00000166
-0.62686879 -0.65768915 0.00094145
-0.40784760 -0.52348040 0.00000017
-0.72951780 0.00454966 0.01614953
-0.02240816 -0.57183318 0.00000051
-0.36107915 0.30358445 0.00627813
-0.63772467 0.09503615 0.01395697
-0.03352724 0.45966284 -0.00000352
-0.27546429 -0.43201520 0.00000480
-0.78609045 -0.35462167 0.01243174
-0.33570242 -0.13270885 0.00000599
-0.66165296 -0.39008221 -0.00000064
-0.24048061 0.23752825 0.00000061
-0.76206009 -0.30046741 -0.00000125
-0.08361392 -0.47209470 0.00000159
-0.61054977 -0.43499006 0.00400429
-0.29857227 0.40632090 0.00000135
-0.30070905 0.42860859 -0.00000002
-0.07761500 -0.32403168 0.00000030
-0.06894587 0.06733418 0.00000054
-0.01951842 0.43673837 0.00000110
-0.23276434 0.15208677 0.00000060
-0.25391859 -0.14399335 0.00000462
-0.50639026 -0.25234914 0.00285263
-0.32347215 -0.78242709 0.00000001
-0.34754696 0.30839260 -0.00000008
-0.12093985 0.53513948 0.00000277
-0.43425826 -0.78556868 0.00000001
-0.47154174 -0.25840026 0.00000016
-0.71382515 -0.52603728 0.00665084
-0.34499828 0.41530544 0.00749539
-0.04550778 -0.73123349 0.00000080
-0.26780865 -0.43744263 0.00000467
-0.00631888 -0.69474610 0.00000007
-0.48227464 0.05830935 0.00706627
-0.55641282 -0.43208859 -0.00000002
-0.57471410 -0.35318421 0.00392505
-0.39051881 0.04079091 0.00000523
-0.17843216 0.14180496 0.00000355
-0.21461230 0.24566602 -0.00000153
-0.69850863 -0.63496121 -0.00000041
-0.60636732 -0.34926297 -0.00000041
-0.14420797 0.17316827 0.00000744
-0.12393093 -0.30541305 0.00000031
-0.35418301 0.17041250 0.00000393
-0.05686498 0.65452749 0.00000035
-0.02533258 -0.36351345 0.00000027
-0.22111967 -0.72246033 0.00000005
-0.11595085 0.27964648 -0.00000396
-0.00239575 -0.02369060 0.00000049
-0.01154026 0.06893740 0.00000073
-0.72180893 -0.51625262 -0.00000071
-0.43332744 -0.10428799 0.00237813
-0.75562252 -0.42550509 -0.00000094
-0.31342504 0.04246585 0.00000573
-0.34287861 -0.10937822 0.00000043
-0.73469477 0.01799115 -0.00000168
-0.01930823 0.57472912 0.00000381
-0.50114706 -0.28171385 0.00215032
-0.21138036 0.08552268 0.00000406
-0.59803110 -0.03879977 0.01011965
-0.12233046 -0.03864348 0.00000251
-0.13953932 0.28953828 0.00000300
-0.51279534 -0.29583712 0.00000000
-0.13874869 0.25711767 0.00000637
-0.22628526 0.38809575 0.00225031
-0.44209048 -0.69407731 0.00000007
-0.74501466 0.03171926 -0.00000176
-0.20362797 0.15081186 0.00000397
-0.13285217 0.54558216 0.00000238
-0.36014743 0.28261997 -0.00000010
-0.29411218 -0.24836383 0.00000523
-0.08520331 0.60189796 0.00012733
-0.25828459 -0.57916918 0.00000014
-0.54383192 -0.19208729 0.00537073
-0.24016361 0.48226413 0.00000022
-0.10179248 -0.67049795 0.00000008
-0.49975465 -0.29634641 0.00184960
-0.52962072 0.06668161 -0.00000066
-0.12571424 0.34421311 -0.00000261
-0.08383180 -0.14042645 0.00000041
-0.21235386 0.15980471 -0.00000299
-0.71585150 0.00037016 -0.00000039
-0.49736183 0.10268832 -0.00000055
-0.14052892 -0.36388509 0.00000261
-0.25374098 -0.56970659 0.00000436
-0.34210525 -0.50671179 0.00000586
-0.56105081 0.08553759 0.01070235
-0.00891620 0.50821405 0.00000097
-0.43805996 -0.08389154 0.00290997
-0.00411905 0.67407298 0.00000099
-0.08664722 0.35060268 0.00000587
-0.11677998 -0.79016630 0.00000001
-0.16722241 -0.52025522 0.00000017
-0.52024392 0.10610191 0.00000173
-0.22717299 -0.74426259 0.00000003
-0.41509193 0.26949328 0.00788635
-0.24652689 0.50308395 0.00000016
-0.09473936 -0.76882825 0.00000002
-0.18640691 -0.14794569 0.00000350
-0.22500696 -0.72699996 0.00000378
-0.22317397 0.06928297 -0.00000414
-0.29141911 0.35692502 0.00000015
-0.14384237 0.27033398 0.00000306
-0.63076438 -0.73756791 0.00001051
-0.14313644 0.38015913 0.00000311
-0.79967331 -0.43536659 0.01163058
-0.60407535 -0.17725441 0.00804992
-0.00875447 -0.08154340 0.00000059
-0.37602892 0.04070364 0.00248857
-0.20426661 0.18693731 0.00000062
-0.21861264 -0.45433053 0.00000384
-0.32038449 0.47886279 0.00756478
-0.12759786 0.34772918 -0.00000250
-0.01934756 -0.45415347 0.00000022
-0.30196648 0.34722812 0.00462175
-0.39085782 0.06352195 0.00346248
-0.52634733 -0.63017835 0.00000884
-0.32890307 -0.41913195 0.00000024
-0.75871544 -0.59537163 -0.00000051
-0.60086121 -0.63384041 0.00000007
-0.26707136 0.39512648 0.00401386
-0.38343913 -0.00367852 0.00204597
-0.71963941 -0.65487690 -0.00000036
-0.60192984 0.04602143 0.01169442
-0.65588924 -0.32027175 0.00775113
-0.15889278 0.40219068 0.00000339
-0.08658844 0.26630236 0.00000210
-0.39919680 -0.01832602 0.00243716
-0.33958613 0.43764884 0.00765063
-0.29109195 -0.69514738 0.00000490
-0.20745874 0.45893796 0.00267206
-0.40833991 -0.25775341 0.00000034
-0.21521398 0.11402861 0.00000057
-0.22483455 -0.34513597 0.00000028
-0.25524961 0.02348124 0.00000051
-0.33937799 -0.37334122 0.00000027
-0.06992717 -0.46094634 0.00000137
-0.52093047 0.21611114 0.01126667
-0.58340935 0.08337463 0.01156890
-0.52703819 0.12285920 0.00995338
-0.29834899 0.32071795 0.00402969
-0.02430394 -0.32004168 0.00000070
-0.13035093 0.34006214 0.00000071
-0.67863216 0.06090119 -0.00000061
-0.62979758 0.14057549 -0.00000131
-0.04427291 0.58542898 0.00000087
-0.00080219 -0.58140027 0.00000015
-0.00400785 0.70443342 0.00000225
-0.05666280 -0.55003626 0.00000110
-0.30261758 -0.02356222 0.00000049
-0.09504004 0.52391134 0.00000083
-0.48540356 -0.00462617 -0.00000031
-0.70371599 -0.36247273 -0.00000091
-0.29471621 0.44010444 0.00588007
-0.07505305 0.62364541 0.00008302
-0.54384954 0.09405422 0.01015305
-0.21816729 -0.18323658 0.00000401
-0.33319080 0.00941314 0.00022904
-0.25690081 -0.42777487 0.00000023
-0.60209955 -0.11346014 0.00903623
-0.33227411 -0.00001712 0.00000050
-0.37894979 0.33551258 0.00753145
-0.00319295 -0.71626737 0.00000011
-0.11542864 -0.28593436 0.00000224
-0.08209065 0.39054573 0.00000074
-0.75356373 -0.05268569 0.01616465
-0.01883492 -0.08371129 0.00000045
-0.10291197 -0.36517079 0.00000198
-0.52593058 0.10947172 -0.00000071
-0.16573213 0.47788332 0.00130689
-0.52476949 -0.13401101 -0.00000032
-0.11404473 -0.33678678 0.00000029
-0.56701178 -0.37986827 -0.00000016
-0.05697266 0.69509602 0.00054649
-0.22953168 -0.30283364 0.00000412
-0.18317310 -0.36966345 0.00000027
-0.54764922 -0.09845193 -0.00000050
-0.19392256 0.16290128 0.00000382
-0.45515502 -0.61550367 0.00000767
-0.00009586 0.15209915 0.00000060
-0.31590531 -0.52497717 0.00000542
-0.02305520 0.77273180 0.00000092
-0.36478067 -0.57627464 0.00000619
-0.01809226 -0.32498284 0.00000030
-0.31469083 0.10616619 0.00110698
-0.43902176 0.32029604 0.00970234
-0.36215891 0.35021084 0.00000100
-0.69982458 0.02327451 0.01526387
-0.49364429 -0.74425480 0.00000003
-0.51017138 0.14713615 0.00967847
-0.37042471 0.29376260 0.00000171
-0.34479579 -0.32869387 0.00000602
-0.38953128 -0.50361452 0.00000665
-0.36496444 -0.16582026 0.00000645
-0.00969929 0.76941556 0.00000098
-0.28200602 0.21159570 0.00000468
-0.05413907 0.21220478 0.00000153
-0.31500645 -0.12613243 0.00000565
-0.06017389 -0.01169511 0.00000149
-0.48957295 -0.22975521 0.00000002
-0.63728222 -0.79846231 0.00001058
-0.28202647 -0.71436711 0.00000473
-0.02914111 0.64736704 0.00000266
-0.03100755 -0.20284462 0.00000037
-0.69928249 -0.38340707 0.00844738
-0.72754040 -0.76542752 0.00320390
-0.64685866 -0.48491121 -0.00000041
-0.24775539 0.01308159 0.00000462
-0.05850139 0.33714169 0.00000071
-0.56153992 -0.03221463 -0.00000068
-0.32200047 0.27766333 0.00426442
-0.11647636 -0.42726714 0.00000217
-0.15302191 0.13083473 0.00000058
-0.49739599 -0.04929589 -0.00000031
-0.42974790 0.17441201 0.00688761
-0.78168612 -0.02136011 0.01782310
-0.00517278 0.15055543 0.00000068
-0.16229616 -0.51237921 0.00000018
-0.72721873 0.00866118 -0.00000163
-0.38446194 0.29135488 -0.00000024
-0.27912000 -0.06137343 0.00000046
-0.78979127 -0.32625542 0.01305512
-0.58474526 -0.44411666 -0.00000015
-0.07108049 0.13042404 0.00000913
-0.25110570 0.26411049 0.00118015
-0.69364578 -0.61086092 0.00441899
-0.08357409 0.35976112 0.00000072
-0.14944326 0.07217119 0.00000875
-0.15237116 -0.04969139 0.00000300
-0.11752151 -0.66830124 0.00000203
-0.60000573 0.02927443 0.00000139
-0.55027868 0.23493820 0.01276679
-0.00019208 0.51410655 0.00000493
-0.37327514 0.22657092 0.00548339
-0.26001497 -0.21252505 0.00000037
-0.54423157 0.14497641 0.00000067
-0.31864963 -0.19137222 0.00000567
-0.47056754 -0.24265977 0.00000014
-0.08319196 0.67772396 0.00000129
-0.40254842 -0.70597380 0.00000006
-0.42969826 -0.32407455 0.00000030
-0.50402921 -0.74636649 0.00000840
-0.47650578 0.09513553 0.00745324
-0.19087626 -0.36194867 0.00000344
-0.23846424 0.44631856 0.00371282
-0.47913515 -0.38224468 0.00000026
-0.53700806 -0.65398281 0.00000009
-0.28761539 0.22768981 0.00000037
-0.78484232 -0.56183141 0.00891870
-0.13977399 0.55217938 0.00000215
-0.35363963 -0.31737359 0.00000030
-0.25045455 0.20649849 0.00019113
-0.68087154 -0.70001055 -0.00000025
-0.69032075 -0.31057996 0.00930269
-0.20813172 0.11758314 0.00000724
-0.03879890 0.14181133 0.00000946
-0.04362369 -0.76983185 0.00000074
-0.09139667 -0.12528431 0.00000194
-0.10223993 -0.15590169 0.00000040
-0.00726402 -0.29963684 0.00000043
-0.17829841 0.03497152 0.00000348
-0.64788966 0.06594190 0.01388217
-0.13552540 0.49256542 0.00033023
-0.68807456 -0.77662459 -0.00000006
-0.76379351 -0.35097889 0.01159279
-0.24890423 0.06995178 0.00000728
-0.39184038 0.37454854 0.00870546
-0.09554500 0.32304923 0.00000070
-0.12747143 0.14888749 -0.00000573
-0.69094298 -0.53390235 0.00559593
-0.38969177 -0.43313629 0.00000670
-0.15238282 0.19429713 0.00000315
-0.29547578 0.21090847 0.00207683
-0.62162800 0.08861456 -0.00000119
-0.28716713 -0.36057636 0.00000027
-0.35958061 -0.11380575 0.00000640
-0.01115608 0.31977000 0.00000070
-0.56018825 0.07405299 0.01047541
-0.14455716 0.33894444 0.00000311
-0.37002993 0.24981430 -0.00000010
-0.37975760 0.41185086 -0.00000029
-0.75388682 -0.12826428 -0.00000155
-0.09270609 0.22022099 -0.00000562
-0.60111580 -0.02537699 -0.00000090
-0.18504110 -0.67095670 0.00000008
-0.38746952 0.18779143 0.00000302
-0.56321101 -0.10726020 0.00757035
-0.39897414 0.24774583 0.00000187
-0.64876441 -0.44097081 0.00544662
-0.03061100 0.67506545 -0.00000011
-0.40797427 -0.39376719 0.00000703
-0.41341509 -0.49432805 0.00000705
-0.07255968 -0.11822574 0.00000043
-0.75689786 -0.72897728 0.00499779
-0.63654816 0.13481668 -0.00000134
-0.26157184 0.20031227 0.00000524
-0.23604153 0.16501163 -0.00000220
-0.44734966 -0.28591111 0.00000775
-0.16679745 0.26049138 0.00000343
-0.31199336 0.21199317 0.00276187
-0.21956978 -0.30254442 0.00000396
-0.19572868 -0.55364415 0.00000340
-0.03345067 0.11753020 0.00000113
-0.59800262 -0.47969518 0.00275085
-0.15138412 -0.10413769 0.00000043
-0.29621959 0.08018065 -0.00000176
-0.22816194 0.10208677 -0.00000346
-0.44644935 -0.42324370 0.00000765
-0.15400537 0.40917824 -0.00000070
-0.19381623 0.21657763 -0.00000263
-0.23880723 0.22672287 0.00005335
-0.20700806 0.33312085 0.00055365
-0.01576579 0.67600875 0.00000092
-0.19240026 -0.60073801 0.00000012
-0.45726665 0.26957194 0.00959049
-0.51270153 0.17868659 0.01031023
-0.32259924 0.24999971 0.00382585
-0.03077516 0.56868847 0.00000137
-0.06915139 0.12677017 -0.00000785
-0.61830223 0.13412248 -0.00000058
-0.28295850 -0.67183649 0.00000008
-0.27378080 0.01335487 0.00000769
-0.58643752 -0.60843674 0.00013275
-0.31276861 -0.78007856 0.00000520
-0.39421306 -0.47418933 0.00000675
-0.57688489 -0.63237229 0.00000968
-0.04861476 -0.58629500 0.00000013
-0.46372514 0.33488831 -0.00000074
-0.55328266 -0.44297138 0.00000002
-0.17656684 -0.70462682 0.00000299
-0.59689585 0.18188978 0.01376135
-0.05514954 0.29089391 0.00000068
-0.13878196 0.45659022 0.00000309
-0.26901254 0.15431167 0.00006163
-0.65621618 -0.14574178 -0.00000100
-0.78399020 -0.13434048 -0.00000166
-0.11419789 0.40931820 0.00000265
-0.62560846 -0.67036460 -0.00000001
-0.24852241 -0.42848196 0.00000436
-0.03577386 -0.78536268 0.00000060
-0.64525880 -0.24364743 -0.00000079
-0.47176549 0.19994681 -0.00000057
-0.31502799 -0.18936627 0.00000038
-0.10840922 0.52419965 0.00000263
-0.73816007 0.00171054 0.01645198
-0.00683123 0.13037216 -0.00000968
-0.08248206 0.59982792 0.00000224
-0.30557844 -0.72164636 0.00000512
-0.19775710 0.10065469 -0.00000440
-0.35568565 0.03820837 0.00161896
-0.04021004 0.65547009 0.00000238
-0.02777869 0.19728552 0.00000887
-0.22356256 0.39403944 0.00223665
-0.64216940 -0.00160638 0.01252253
-0.25330546 0.49610243 0.00514481
-0.76119126 -0.23879859 -0.00000140
-0.45024827 -0.26411709 0.00000028
-0.50433103 -0.42440897 0.00000861
-0.29215843 0.32247017 0.00380905
-0.73938208 -0.63589951 -0.00000041
-0.28882553 -0.46248394 0.00000500
-0.27210846 -0.51577656 0.00000469
-0.26572507 0.44243496 0.00474852
-0.07867204 -0.70905059 0.00000136
-0.65861565 0.04676308 -0.00000001
-0.34223358 0.23850304 0.00442628
-0.09601833 -0.13192038 0.00000201
-0.65013564 -0.74772904 -0.00000002
-0.65135626 -0.69593278 -0.00000010
-0.44889656 0.17400334 0.00000205
-0.54573502 0.21641815 0.01227393
-0.53092857 0.01448300 0.00829758
-0.53313187 0.09359501 -0.00000072
-0.24544025 0.14157445 0.00000466
-0.34834225 0.01683172 0.00097226
-0.59138478 0.03223641 0.00000151
-0.37470485 -0.06544122 0.00066138
-0.07891881 -0.07527815 0.00000045
-0.21402799 -0.68954573 0.00000007
-0.53373201 -0.20038611 0.00482443
-0.56308378 -0.09001696 -0.00000059
-0.19795680 0.19319166 0.00000391
-0.68741533 -0.50431273 -0.00000060
-0.00456462 -0.47867016 0.00000020
-0.32620495 0.22829232 0.00360832
-0.06545018 -0.60121521 0.00000121
-0.25871226 0.00870050 -0.00000405
-0.25400978 -0.24911066 0.00000456
-0.19103255 0.27570920 -0.00000175
-0.19902546 -0.75768188 0.00000333
-0.79926920 -0.16558884 -0.00000159
-0.37293176 -0.14972906 0.00000041
-0.65236939 -0.10920854 0.01113608
-0.40614901 -0.61387578 0.00000012
-0.51938963 -0.58830983 0.00000013
-0.50778985 -0.66035083 0.00000852
-0.20406416 0.07933452 -0.00000455
-0.67532582 -0.40922038 0.00704917
-0.64794395 0.05651361 0.01372519
-0.07696494 0.66548626 0.00085936
-0.02023125 0.20008870 0.00000096
-0.10702033 0.69223688 0.00000061
-0.67690156 -0.42573109 0.00683686
-0.53818214 0.03519630 0.00893693
-0.10694538 0.37407630 0.00000524
-0.57270675 -0.10300386 0.00802471
-0.75561282 -0.11328402 -0.00000158
-0.48331690 -0.56665254 0.00000015
-0.21157679 0.19882312 0.00000607
-0.05176203 0.24448463 0.00000065
-0.05077198 -0.20325835 0.00000122
-0.55657269 -0.23367427 0.00518998
-0.27769197 -0.13179735 0.00000042
-0.24831872 -0.00202766 0.00000462
-0.52660446 -0.56603158 0.00000015
-0.17689798 0.38317307 0.00017079
-0.50464440 0.24328368 -0.00000081
-0.18230157 0.14065906 0.00000361
-0.04107840 0.04214561 0.00001080
-0.08042166 -0.41086484 0.00000024
-0.22275308 0.16692145 0.00000060
-0.24519572 0.25334147 0.00075656
-0.58176328 0.05110226 -0.00000092
-0.68095450 -0.32545542 0.00867610
-0.35416024 -0.65178624 0.00000597
-0.21183374 0.28405856 0.00000068
-0.10073585 0.53893157 0.00000251
-0.18843502 -0.42423562 0.00000336
-0.28239925 -0.32987692 0.00000498
-0.08315836 0.47508295 -0.00000177
-0.06442166 0.68404878 0.00000155
-0.07910252 0.39184815 0.00000206
-0.04862520 -0.71868466 0.00000086
-0.42714481 -0.14645836 0.00142392
-0.54186572 0.25359441 0.01273901
-0.06549389 0.49335096 -0.00000201
-0.76926942 0.00943148 -0.00000156
-0.11699165 -0.04457560 0.00000241
-0.51999498 0.16042595 0.00000090
-0.29338504 -0.21804631 0.00000036
-0.71859692 -0.72994899 0.00343586
-0.31401239 0.42736415 -0.00000008
-0.54400606 -0.53760350 0.00000919
-0.21247592 0.40167301 0.00000050
-0.36240722 -0.74612397 0.00000003
-0.49044402 -0.36591245 0.00031135
-0.73928196 -0.46019987 0.00877840
-0.23781797 0.51845230 0.00489335
-0.61022903 0.03373144 -0.00000104
-0.74342330 -0.16333678 -0.00000144
-0.48510168 0.01592206 0.00647137
-0.49498313 -0.60318067 0.00000834
-0.54961247 -0.64463072 0.00000922
-0.29283810 -0.13481089 0.00000528
-0.75251056 -0.71179601 -0.00000022
-0.15964006 -0.70416945 0.00000006
-0.48585678 0.15340932 0.00880170
-0.16517398 -0.09134534 0.00000318
-0.10094150 -0.15376186 0.00000208
-0.22308943 -0.48773030 0.00000390
-0.13523089 0.63242187 0.00265781
-0.15113680 0.41985842 0.00000076
-0.29294660 -0.58358767 0.00000500
-0.09508326 0.28009089 0.00000225
-0.77033517 -0.78679487 -0.00000003
-0.69207356 -0.07195160 -0.00000131
-0.77428305 -0.19082886 0.01469237
-0.38487642 -0.69867642 0.00000006
-0.28558753 0.02160207 0.00000051
-0.06324768 -0.08043942 0.00000045
-0.67569937 0.10451329 -0.00000123
-0.33342771 -0.31064464 0.00000031
-0.14043780 0.38623245 0.00000457
-0.12351353 -0.74506626 0.00000003
-0.66074754 0.13423236 0.01554227
-0.37411447 0.21994921 -0.00000008
-0.19524280 0.13599461 -0.00000390
-0.69787660 -0.28838297 -0.00000100
-0.28285037 -0.74403842 0.00000473
-0.29043569 0.21169035 0.00000038
-0.19872348 0.23474905 0.00000065
-0.00103570 0.65777888 -0.00000128
-0.27373556 -0.14157945 0.00000041
-0.38307019 -0.68118108 0.00000007
-0.28524392 -0.34754351 0.00000502
-0.16291334 0.03117702 0.00000052
-0.00463565 0.35000935 0.00000080
-0.62024150 -0.27086169 -0.00000061
-0.33603944 -0.55713170 0.00000573
-0.47831509 -0.43898869 0.00000816
-0.58331276 -0.44427286 -0.00000014
-0.15094888 0.47865892 0.00000070
-0.56270339 -0.46637945 0.00000000
-0.18834355 0.02341129 0.00000051
-0.03942973 -0.00429180 0.00000050
-0.00936365 0.46322795 0.00000549
-0.69730093 0.00194624 -0.00000146
-0.63207772 0.13728126 -0.00000132
-0.49322461 0.02726737 0.00698912
-0.33418431 0.39843170 0.00677766
-0.25196598 -0.54907648 0.00000434
-0.72063168 -0.45061606 -0.00000086
-0.12653082 0.47343857 0.00000290
-0.69213709 -0.15543502 0.01196856
-0.72698671 -0.77229896 0.00306673
-0.08226089 -0.53747825 0.00000153
-0.72735571 -0.01570965 0.01572483
-0.51616496 -0.52161497 0.00000874
-0.24567154 0.30910823 0.00000047
-0.28869176 0.18705007 0.00140933
-0.50877655 0.25697468 0.01145950
-0.03460283 -0.03485049 0.00000105
-0.47822376 0.00020714 0.00000418
-0.40374754 -0.18234311 0.00000039
-0.63725505 -0.06117986 -0.00000103
-0.49010082 -0.11163092 0.00454671
-0.31920529 -0.06541833 0.00000046
-0.36461358 -0.09810227 0.00000649
-0.07858572 0.10156983 -0.00000798
-0.18184468 -0.38600632 0.00000328
-0.16851732 0.09893508 0.00000336
-0.44407223 -0.50143280 0.00000756
-0.20932602 -0.08274869 0.00000392
-0.48402172 -0.00773480 0.00603754
-0.00698950 0.13815715 0.00000059
-0.02281101 0.26336635 0.00000803
-0.72201529 -0.61384950 -0.00000047
-0.05706500 0.65869277 0.00000091
-0.31072085 -0.03925119 0.00000048
-0.06841465 -0.57842027 0.00000014
-0.34042973 0.30584070 0.00000210
-0.43549486 0.35419547 0.01012717
-0.26479906 0.48219982 0.00537631
-0.23710866 -0.74292293 0.00000397
-0.06345433 -0.65667085 0.00000009
-0.49344203 -0.37800288 0.00023030
-0.65436330 -0.72622602 0.00090578
-0.26114022 0.15286155 0.00000596
-0.08196560 -0.39958832 0.00000161
-0.46353318 -0.00443223 -0.00000020
-0.14835570 0.54814410 0.00000204
-0.37705345 0.25647760 0.00613564
-0.20743556 0.12030450 0.00000402
-0.22733101 0.21530880 0.00000441
-0.15063268 -0.49781734 0.00000269
-0.21618793 0.52082372 0.00000029
-0.45657744 0.08604714 -0.00000030
-0.24767486 -0.78043127 0.00000412
-0.00878115 -0.62493081 0.00000026
-0.57198303 -0.79384791 0.00000000
-0.31955630 0.44328108 0.00000038
-0.08357346 0.65548249 0.00000078
-0.25202629 0.27817984 0.00145241
-0.59626843 -0.04097433 -0.00000085
-0.54190398 -0.72876576 0.00000004
-0.45042452 -0.56746873 0.00000762
-0.68001351 0.02892892 0.01455858
-0.14526833 0.58847913 0.00000148
-0.63916617 0.00349460 0.00000103
-0.65061186 -0.23604141 -0.00000083
-0.16956076 0.37386051 0.00000073
-0.27068137 0.42579642 0.00467031
-0.48944208 -0.75550319 0.00000815
-0.12089265 0.03042759 0.00000253
-0.74720223 0.05150047 0.01764892
-0.14633574 0.16975924 -0.00000483
-0.59225889 0.05153978 0.01139633
-0.53210392 -0.71943374 0.00000005
-0.09145508 -0.64744370 0.00000010
-0.02357547 0.69363105 -0.00000002
-0.50923868 0.27341784 0.01175350
-0.61886052 -0.17848549 -0.00000075
-0.42951646 -0.23120189 0.00000034
-0.42027233 0.05701006 0.00454665
-0.10285934 -0.24076816 0.00000206
-0.70809584 -0.33111992 0.00967682
-0.21101401 0.15680166 -0.00000308
-0.30842965 0.37021902 0.00000004
-0.27587823 -0.55499721 0.00000015
-0.40344409 0.15470465 0.00549593
-0.02996369 -0.35573894 0.00000028
-0.06059431 0.35979737 0.00000614
-0.59357433 -0.79254925 0.00000986
-0.36333977 0.23543801 0.00523059
-0.04123025 -0.29310572 0.00000100
-0.33105571 -0.34368119 0.00000578
-0.30065563 0.37512156 0.00000179
-0.46077214 -0.09951134 -0.00000003
-0.76485048 0.03431439 -0.00000186
-0.71268217 -0.78542689 -0.00000004
-0.45570820 -0.56469434 0.00000771
-0.04004373 -0.10987881 0.00000110
-0.09234440 -0.62200987 0.00000164
-0.10192194 -0.06285767 0.00000215
-0.34383123 -0.21787353 0.00000036
-0.24220873 -0.04860599 0.00000449
-0.11227074 0.35999970 -0.00000276
-0.75227975 -0.34794109 0.01117890
-0.13662033 -0.51976630 0.00000018
-0.42754408 0.35500270 0.00981949
-0.14078817 0.06075765 0.00000287
-0.15508852 0.08969505 0.00000056
-0.72995100 -0.58425519 -0.00000054
-0.70486705 -0.12663850 0.01296353
-0.17130669 -0.14548639 0.00000041
-0.05156739 0.70378693 0.00047439
-0.11374547 0.65466083 0.00216287
-0.76580749 -0.02711553 -0.00000177
-0.43792983 0.36071915 0.01033445
-0.57588637 -0.64932960 0.00000009
-0.45910828 0.12264765 0.00000265
-0.54163767 -0.40287526 0.00175977
-0.18815410 -0.42720144 0.00000336
-0.27379160 0.48982727 0.00000003
-0.27098569 -0.74591775 0.00000453
-0.04765772 0.67349590 0.00000202
-0.05088216 -0.08557021 0.00000045
-0.47248185 0.10035977 0.00737814
-0.38881283 0.10988342 0.00416054
-0.17547622 0.22021523 0.00000632
-0.23945276 -0.76713376 0.00000002
-0.00516394 -0.22134248 0.00000045
-0.34751694 -0.13253592 0.00000619
-0.56958056 0.05856816 0.01059561
-0.24748304 -0.27061167 0.00000444
-0.66344643 0.00180280 0.01343820
-0.75935642 -0.19729501 -0.00000147
-0.15027332 0.02323795 0.00000941
-0.16489588 0.43168920 0.00000070
-0.24715385 0.09841344 -0.00000294
-0.61881531 -0.79284767 0.00001028
-0.10915944 0.54900471 0.00000278
-0.15639003 -0.41105228 0.00000284
-0.66580300 0.05315194 -0.00000024
-0.21987315 0.15383789 0.00000657
-0.22646281 0.31636051 0.00105437
-0.04662675 0.01027850 0.00001116
-0.10552625 -0.42723954 0.00000023
-0.31843210 0.34774216 0.00000002
-0.22199654 0.29879222 0.00000448
-0.69853395 0.08145106 -0.00000131
-0.25081368 0.19612168 0.00002623
-0.26806040 -0.53247725 0.00000017
-0.00553985 -0.33577616 0.00000038
-0.43727710 0.35836142 0.01026864
-0.39598427 0.07336734 0.00000004
-0.20699163 -0.06378753 0.00000390
-0.42115456 -0.49170943 0.00000718
-0.02600929 0.03658491 0.00000095
-0.32789384 0.19136441 0.00000411
-0.61143267 0.02732650 -0.00000104
-0.06507909 0.41475065 0.00000532
-0.43280041 0.23899422 -0.00000042
-0.32604629 -0.65681540 0.00000550
-0.30298987 -0.75831820 0.00000506
-0.64669974 -0.69563592 0.00110768
-0.40139207 0.30617719 0.00794842
-0.41396060 0.19500732 0.00659470
-0.06960762 -0.65491029 0.00000009
-0.44190817 0.25718415 0.00876488
-0.11591553 0.29610529 -0.00000369
-0.07186614 0.14084528 -0.00000754
-0.24108954 -0.60405708 0.00000412
-0.38879720 -0.75828626 0.00000648
-0.18040520 0.11257312 0.00000773
-0.01619879 -0.04184992 0.00000074
-0.35853506 0.04018454 0.00176706
-0.06040552 0.10106859 0.00000157
-0.28335602 -0.22944143 0.00000036
-0.59950710 -0.79365245 0.00000000
-0.24201724 0.19974455 -0.00000145
-0.42835456 0.04158256 0.00460943
-0.44674250 0.12706458 0.00678176
-0.69348694 0.00039425 0.01462705
-0.23694246 -0.46854232 0.00000414
-0.60980178 0.14508958 -0.00000122
-0.64052764 -0.43666905 -0.00000046
-0.52657479 -0.12468431 -0.00000034
-0.74152286 -0.48465579 0.00846015
-0.33948167 0.17872848 0.00331528
-0.13412846 0.55939954 0.00139181
-0.43767899 0.08099406 0.00564517
-0.15620669 0.01814255 0.00000310
-0.49798048 -0.41672061 0.00000024
-0.32512527 -0.63314182 0.00000010
-0.41820284 0.25362431 0.00774651
-0.14861151 0.42397275 -0.00000063
-0.26556210 -0.48940486 0.00000019
-0.10877165 -0.43978062 0.00000023
-0.62355563 -0.59312067 0.00188671
-0.01824179 -0.76796383 0.00000032
-0.78296948 -0.59040746 0.00836559
-0.35237138 -0.01166166 0.00000041
-0.51536110 0.03892154 0.00000286
-0.65309125 -0.07241107 0.01178012
-0.77369859 -0.37222928 -0.00000107
-0.42326015 -0.50400242 0.00000018
-0.11375167 0.31705162 0.00000259
-0.20627127 0.46508551 0.00000221
-0.40268906 -0.58753606 0.00000013
-0.02730900 0.56256763 0.00000085
-0.14102030 0.44400239 0.00000312
-0.03534532 -0.56736427 0.00000073
-0.44954760 0.25953378 0.00000072
-0.03756304 0.72296561 0.00000092
-0.08379381 -0.25303423 0.00000173
-0.50985898 -0.65746043 0.00000009
-0.56976039 -0.32695496 0.00416343
-0.48919972 0.07546331 -0.00000046
-0.44300664 0.32897456 0.01000840
-0.38563198 -0.43927636 0.00000663
-0.08462593 -0.37429898 0.00000027
-0.58847774 -0.14971584 -0.00000063
-0.60678376 0.06629167 -0.00000107
-0.41962643 -0.42682369 0.00000720
-0.50861044 -0.51997117 0.00000862
-0.31073022 -0.47410694 0.00000020
-0.03243368 -0.77673172 0.00000001
-0.26627676 -0.03612752 0.00000490
-0.61003057 -0.65764926 0.00000006
-0.54862561 -0.63073714 0.00000011
-0.34552295 0.40572007 0.00735624
-0.22669179 -0.65781232 0.00000385
-0.57632641 -0.65988672 0.00000009
-0.40865397 0.10345878 0.00000392
-0.00650087 0.09052905 0.00000066
-0.29360442 0.02514927 -0.00000273
-0.61582689 -0.54287101 -0.00000016
-0.09987355 0.37532408 0.00000239
-0.17070070 0.24242498 0.00000065
-0.19170692 0.06185843 0.00000826
-0.19722587 -0.79921236 0.00000000
-0.33881802 0.40013819 -0.00000017
-0.22440969 0.42262475 0.00000252
-0.28410421 0.41155078 0.00000155
-0.64592115 -0.16873644 0.00988109
-0.13552045 0.02368001 0.00000963
-0.54116221 -0.71240255 0.00000005
-0.07642289 0.27647061 0.00000705
-0.61422189 -0.68910088 0.00000007
-0.13911589 0.06286930 0.00000904
-0.66150203 -0.76542736 -0.00000005
-0.34130814 -0.16880665 0.00000039
-0.67873738 -0.07848275 -0.00000123
-0.07198304 -0.47116714 0.00000140
-0.63672369 0.12884235 0.01448206
-0.33536865 -0.31865820 0.00000030
-0.01520588 -0.44511723 0.00000022
-0.46664130 -0.56997424 0.00000014
-0.40690013 0.18319752 0.00611564
-0.02028467 0.13985848 0.00000977
-0.08572153 0.30718943 0.00000648
-0.05305070 -0.19852333 0.00000126
-0.34181860 -0.20786444 0.00000037
-0.47470631 -0.77804845 0.00000789
-0.33848822 0.34424992 0.00000154
-0.49395938 -0.57442059 0.00000014
-0.48903614 0.07117469 -0.00000045
-0.09172514 -0.77999883 0.00000001
-0.03237946 -0.33053198 0.00000029
-0.29527469 -0.50667458 0.00000018
-0.46704494 -0.14336933 0.00000000
-0.18934080 -0.20647083 0.00000351
-0.49152968 0.02121061 0.00682424
-0.43625008 -0.70316647 0.00000006
-0.52098964 -0.71905216 0.00000870
-0.12255353 -0.41347582 0.00000024
-0.31336351 0.35947586 0.00000179
-0.63844876 -0.67641954 0.00109580
-0.28224854 -0.56201767 0.00000483
-0.41233814 0.37238828 0.00949636
-0.34604939 -0.67761312 0.00000582
-0.26500821 0.33148147 0.00000315
-0.06548888 0.12467212 0.00000166
-0.30341896 0.05895172 0.00000054
-0.46846829 -0.54404141 0.00000016
-0.07313418 0.52755708 0.00000083
-0.22797033 -0.45959279 0.00000400
-0.25413202 -0.35969155 0.00000449
-0.35747133 0.28530076 0.00582699
-0.15791514 0.20569459 0.00000063
-0.36391379 0.38968946 0.00783062
-0.08328535 -0.46532038 0.00000159
-0.50985635 -0.15327740 0.00464807
-0.26089441 0.04291257 -0.00000343
-0.68993109 -0.04369483 -0.00000134
-0.03131086 0.40170906 -0.00000453
-0.24694061 0.45178838 0.00414827
-0.17862477 0.26927559 -0.00000223
-0.34151836 -0.00937946 0.00025885
-0.60472782 -0.22755843 -0.00000060
-0.18647622 0.50091657 0.00000204
-0.02824224 0.16561444 0.00000060
-0.16301174 0.43043068 0.00040414
-0.07021295 0.20826791 0.00000063
-0.07816972 -0.71140503 0.00000006
-0.16220035 0.10801915 -0.00000535
-0.08274107 -0.03311043 0.00000185
-0.22947909 -0.56315413 0.00000396
-0.56881798 -0.00466142 -0.00000076
-0.16008530 0.14015860 0.00000766
-0.20957549 0.11400226 -0.00000382
-0.37596939 0.28161662 0.00651198
-0.29198376 -0.33329554 0.00000514
-0.03131578 0.18081953 0.00000061
-0.27462590 -0.48557036 0.00000475
-0.76593774 -0.29306975 0.01264704
-0.56968160 -0.48404181 0.00153523
-0.51040136 0.16385287 0.00996952
-0.72153660 -0.09094920 -0.00000144
-0.28291100 0.44496169 0.00548590
-0.03163703 -0.60020317 0.00000065
-0.13323050 -0.40041647 0.00000246
-0.13541151 0.53408575 0.00000251
-0.03518448 -0.72073033 0.00000063
-0.69894678 -0.48404244 0.00675215
-0.26912135 0.23870637 0.00148271
-0.10625044 0.56538740 0.00000259
-0.63591690 -0.07570615 0.01103193
-0.53953817 -0.61509872 0.00000907
-0.02475744 0.06293709 0.00000054
-0.05831737 -0.75758386 0.00000099
-0.77926272 -0.53829681 -0.00000065
-0.08480815 -0.73149356 0.00000145
-0.20153339 -0.52869029 0.00000351
-0.22347683 -0.02033368 0.00000420
-0.07878123 -0.09312567 0.00000044
-0.49182367 -0.55604521 0.00000832
-0.17810848 0.21027348 -0.00000321
-0.30735636 0.07244833 0.00000634
-0.46480118 -0.71394755 0.00000777
-0.51996133 0.17839775 -0.00000079
-0.10386204 0.26154757 0.00000066
-0.56267290 -0.35857887 0.00334894
-0.17218417 -0.00911915 0.00000335
-0.36947809 0.26032251 0.00000224
-0.44916672 -0.29808009 0.00000031
-0.60463490 -0.00710668 0.01091578
-0.35346089 0.07175079 0.00000547
-0.04906841 0.07857491 0.00000055
-0.48556359 -0.38366358 0.00000026
-0.30721604 -0.21372264 0.00000547
-0.13281842 0.36590288 -0.00000205
-0.68196420 -0.77329667 -0.00000007
-0.06834641 0.03539457 -0.00000936
-0.16104136 0.30995358 0.00000337
-0.57469323 0.07771861 0.01112238
-0.00817401 0.59782525 -0.00000204
-0.17728572 0.14605872 -0.00000428
-0.29706080 0.33479037 0.00000015
-0.53427045 -0.76205824 0.00000889
-0.53646491 -0.58238828 0.00000904
-0.07978396 0.56932521 0.00000086
-0.09625679 0.21776464 -0.00000556
-0.32852051 -0.45992305 0.00000567
-0.46819498 0.28883263 -0.00000069
-0.76882423 -0.31242508 0.01244008
-0.42872247 -0.32139649 0.00000030
-0.03491065 0.58205717 0.00000086
-0.38706119 0.36844063 -0.00000038
-0.23914772 0.45540536 0.00389242
-0.13078717 0.12610128 0.00000829
-0.03277652 0.65558747 -0.00000036
-0.19876931 0.26019997 0.00000542
-0.68675279 -0.68018441 -0.00000030
-0.62894907 -0.25841208 0.00769759
-0.53056333 0.25138204 -0.00000096
-0.16178368 0.08670954 0.00000837
-0.46604445 0.30238073 0.01049424
-0.19277626 0.26741912 -0.00000184
-0.27428064 0.47889550 0.00570386
-0.79246604 -0.37403130 -0.00000106
-0.19946777 0.49924007 0.00000182
-0.22204226 0.24748146 0.00000065
-0.30026427 0.15085417 0.00127152
-0.43801355 0.06675872 0.00542556
-0.07392579 -0.30574219 0.00000031
-0.36265657 0.20467516 0.00468895
-0.00104338 -0.28253575 0.00000034
-0.56182203 -0.79381080 0.00000000
-0.15238446 -0.30175929 0.00000284
-0.76270152 -0.09466042 0.01583201
-0.01761392 0.18751005 -0.00000842
-0.07808732 0.27240475 0.00000067
-0.09547127 0.03602294 0.00000052
-0.20035304 0.40837400 0.00154259
-0.34802572 0.00942693 0.00000653
-0.34569335 -0.57787440 0.00000588
-0.50084726 0.03742282 0.00746677
-0.47809881 -0.55430326 0.00000015
-0.29693619 0.27987743 0.00329326
-0.13142708 0.23243155 0.00000682
-0.35285618 0.21437258 0.00445153
-0.46643316 -0.10946645 0.00362769
-0.10127932 0.38117410 0.00000074
-0.45712088 -0.07446973 -0.00000005
-0.41042027 -0.63011753 0.00000011
-0.48073469 -0.73818113 0.00000004
-0.35182286 0.20677616 0.00000341
-0.00106309 0.52736753 0.00000085
-0.06143995 0.47068432 0.00000079
-0.38206493 -0.16590458 0.00000674
-0.25858257 -0.32167624 0.00000459
-0.47769351 0.07119875 0.00710117
-0.58222059 -0.01500045 -0.00000081
-0.56652585 0.22645481 -0.00000111
-0.60949544 -0.57459861 -0.00000007
-0.48737811 0.22851377 0.00000047
-0.57573292 -0.03727223 0.00924526
-0.19349491 -0.12691203 0.00000042
-0.18237715 -0.08276016 0.00000045
-0.09420942 0.41842971 0.00000483
-0.04945401 0.54034872 -0.00000173
-0.53826137 -0.18551535 0.00525573
-0.53904838 0.23918805 0.01238420
-0.05028895 0.43072226 -0.00000348
-0.54319368 -0.20231441 0.00517407
-0.35225330 -0.42052716 0.00000608
-0.53780482 0.22307373 0.01206444
-0.25882826 -0.78099531 0.00000431
-0.25255424 0.47265298 0.00000121
-0.18533135 0.34908717 0.00000379
-0.72081829 -0.70002018 -0.00000025
-0.49910718 0.24047481 0.01079309
-0.21207268 -0.73184429 0.00000356
-0.72327150 -0.47379417 0.00790510
-0.09994738 0.32905654 0.00000236
-0.20646397 0.02111488 0.00000394
-0.02214913 0.07226868 0.00000091
-0.04490779 0.38664459 0.00000074
-0.25556509 -0.36749667 0.00000451
-0.03659263 0.49869581 0.00000081
-0.02566227 0.37412914 0.00000647
-0.25039136 -0.03744048 0.00000463
-0.29628428 -0.15466307 0.00000040
-0.08447196 0.61227411 0.00000085
-0.16502864 0.01525239 0.00000930
-0.14313498 -0.08531833 0.00000282
-0.35208433 -0.75808693 0.00000003
-0.61900977 -0.18249484 0.00856508
-0.22531437 0.40134126 0.00242953
-0.17303820 0.34799707 -0.00000112
-0.07241362 -0.38738153 0.00000026
-0.32247279 0.36865001 0.00580548
-0.01832223 0.58981433 0.00000087
-0.47719239 -0.43644937 0.00000815
-0.63804503 0.01117078 -0.00000115
-0.38940318 -0.27293653 0.00000033
-0.03350784 -0.23377871 0.00000035
-0.66030695 0.03126292 0.01380196
-0.12406963 0.13792027 0.00000265
-0.08109411 -0.37707436 0.00000161
-0.43332947 0.24839587 0.00000120
-0.00948090 0.03120231 0.00000068
-0.10080578 0.40876575 0.00000076
-0.16794769 0.10668919 0.00000335
-0.18157913 0.00130193 0.00000050
-0.68979797 -0.01772696 0.01417535
-0.00802164 0.02538351 0.00001153
-0.16679143 -0.16906338 0.00000316
-0.36133864 0.19396399 0.00000003
-0.58374718 -0.61947604 0.00000011
-0.10846705 -0.48606546 0.00000020
-0.36018006 -0.26458856 0.00000631
-0.55877395 -0.73509746 0.00000004
-0.11643535 0.23512159 0.00000065
-0.11711702 -0.62097292 0.00000011
-0.53983591 -0.37235633 0.00219704
-0.11563598 -0.56687368 0.00000015
-0.43408120 -0.52764233 0.00000017
-0.23113279 -0.45075538 0.00000405
-0.06799585 -0.15733845 0.00000153
-0.09878755 0.61691899 0.00000076
-0.09511407 0.21095021 0.00000766
-0.23039158 -0.38826752 0.00000408
-0.51403306 -0.66110949 0.00000009
-0.69551645 -0.71442524 0.00276382
-0.43787207 0.27006062 -0.00000050
-0.40560717 0.00611982 0.00309779
-0.03293131 0.24223989 -0.00000707
-0.43429404 -0.34904689 0.00000749
-0.39710174 -0.49039742 0.00000678
-0.30942765 -0.71308793 0.00000519
-0.20682074 0.18044996 0.00000640
-0.71709030 -0.32683265 0.01011147
-0.25825552 0.32235740 0.00000038
-0.73597896 -0.33798136 -0.00000112
-0.67521900 -0.26934810 -0.00000091
-0.47414016 0.32069413 -0.00000077
-0.38492005 0.35829620 0.00815458
-0.42446124 -0.47264113 0.00000020
-0.07124174 0.32573437 0.00000189
-0.77296066 -0.50272149 0.00942698
-0.40422605 0.01203746 0.00314101
-0.30029634 0.46401000 0.00650585
-0.41607834 0.28103057 0.00812092
-0.76502237 -0.30973479 -0.00000123
-0.09953841 0.33021712 -0.00000363
-0.72241690 -0.06551195 0.01469328
-0.17354604 -0.63631522 0.00000010
-0.47084778 -0.36414011 0.00000027
-0.08486079 0.00254969 0.00001068
-0.35930847 -0.22220456 0.00000632
-0.58776276 -0.78463422 0.00000977
-0.76950053 -0.39561576 -0.00000101
-0.55099501 -0.38338581 0.00246310
-0.32427581 0.05247422 0.00058941
-0.12212143 -0.45223396 0.00000022
-0.62663906 -0.78956490 0.00000001
-0.74820071 -0.34848672 0.01100516
-0.77715585 -0.54981160 -0.00000063
-0.22920588 0.12122703 0.00000687
-0.03337349 0.19245312 0.00000117
-0.77828528 -0.29264071 -0.00000127
-0.49680359 -0.72007399 0.00000005
-0.78557488 0.00739966 -0.00000184
-0.11126893 -0.66099800 0.00000009
-0.46608536 -0.70651673 0.00000006
-0.02933275 0.47298730 -0.00000343
-0.54608224 0.18178613 -0.00000093
-0.27032397 0.05629844 -0.00000293
-0.30304869 -0.42941562 0.00000526
-0.15258067 -0.04002977 0.00000047
-0.14019052 -0.30334754 0.00000031
-0.61437442 0.14457264 0.01384352
-0.31273457 0.18859129 0.00240034
-0.27514690 0.29431960 0.00265522
-0.06107964 0.27526944 0.00000067
-0.40953879 -0.71935900 0.00000005
-0.36395125 -0.21548939 0.00000037
-0.71023253 0.08238719 0.01667292
-0.28297835 -0.43494591 0.00000023
-0.48424757 -0.49535592 0.00000019
-0.27197521 0.10103232 0.00000508
-0.27550668 0.01059167 0.00000051
-0.52020396 -0.58482681 0.00000013
-0.02086811 0.42018260 0.00000076
-0.25204697 -0.12067193 0.00000042
-0.39222233 -0.08025224 0.00112085
-0.38587125 0.05746363 0.00000012
-0.27993340 -0.67893046 0.00000008
-0.61266438 0.00601847 -0.00000101
-0.63829534 -0.16708852 -0.00000087
-0.12662308 0.67192098 0.00297101
-0.07852779 0.65005303 0.00000181
-0.40047321 -0.70781096 0.00000006
-0.40033133 -0.42425989 0.00000023
-0.18779621 -0.36174199 0.00000027
-0.57353201 -0.58326935 0.00000013
-0.67602461 0.01985384 0.01424572
-0.29454341 -0.56235173 0.00000015
-0.28748078 -0.54974462 0.00000493
-0.40209870 0.10795139 -0.00000005
-0.08536764 -0.53234622 0.00000158
-0.12979888 0.52174293 0.00000281
-0.19033890 0.13852529 0.00000722
-0.58599172 -0.47374363 0.00236557
-0.66844249 -0.11296028 0.01172207
-0.16141857 -0.53384814 0.00000285
-0.48192634 0.28392321 0.01082677
-0.70033293 -0.15025926 -0.00000123
-0.30165221 0.14682205 0.00126015
-0.29551640 0.37960878 0.00000182
-0.34497382 0.18369438 0.00000014
-0.20837445 0.51632251 0.00367021
-0.15459310 0.09411900 0.00000056
-0.28977960 -0.13643529 0.00000522
-0.76959414 -0.38032225 -0.00000105
-0.54650500 -0.09676952 -0.00000049
-0.25524660 0.29848571 0.00000385
-0.18520307 0.25554259 0.00000569
-0.47528190 -0.56941191 0.00000803
-0.17997721 0.13818408 0.00000059
-0.01273291 0.19208498 0.00000083
-0.00938450 -0.29846988 0.00000031
-0.65040476 -0.63786971 -0.00000019
-0.16586634 0.60790544 0.00348507
-0.01996993 -0.45717350 0.00000055
-0.16108004 0.33477256 0.00000497
-0.60621353 -0.41865371 0.00410227
-0.16651688 -0.01549942 0.00000325
-0.36558944 0.22274129 -0.00000004
-0.14742043 0.20172852 0.00000307
-0.06960279 -0.07648561 0.00000161
-0.48471950 -0.28342785 0.00145869
-0.40583445 0.11145208 0.00486892
-0.01390298 0.18410577 0.00000062
-0.21122606 0.50379894 0.00357458
-0.64593173 0.05741450 0.01366065
-0.37683966 0.41717686 -0.00000040
-0.17188848 -0.78792821 0.00000001
-0.05369967 0.43734647 0.00000518
-0.51792339 -0.50665590 0.00000878
-0.07777752 0.58040779 -0.00000022
-0.10778531 -0.06471008 0.00000046
-0.15651791 0.61558399 0.00323562
-0.31962276 -0.78948988 0.00000001
-0.13697143 0.25709789 -0.00000369
-0.11396084 0.30093724 0.00000258
-0.65060050 -0.18417024 0.00981203
-0.23516877 0.12305317 -0.00000290
-0.64172678 0.14950447 -0.00000127
-0.24345117 -0.05164533 0.00000047
-0.58036225 0.15888032 0.01270891
-0.11174969 -0.18445949 0.00000038
-0.11865839 0.25170010 0.00000263
-0.63880914 -0.77141011 0.00000002
-0.08555014 0.66237928 0.00000076
-0.23687153 -0.07228443 0.00000439
-0.46473542 -0.18522632 0.00229318
-0.34720973 -0.51900592 0.00000594
-0.51336052 0.19241373 -0.00000078
-0.40150615 -0.73308670 0.00000671
-0.43079457 -0.55362791 0.00000730
-0.53779658 -0.46504133 0.00000014
-0.66715431 -0.09287607 -0.00000114
-0.30723155 -0.62762131 0.00000011
-0.37437599 0.13505271 0.00399849
-0.23414492 0.30590682 0.00119408
-0.00176348 0.29653638 0.00000069
-0.32832803 -0.75952507 0.00000547
-0.40177538 0.04124453 0.00353063
-0.70665046 -0.67265875 -0.00000032
-0.08765178 -0.78970383 0.00000146
-0.65424649 -0.03557751 -0.00000117
-0.46051966 -0.41787537 0.00000788
-0.34362837 -0.62269026 0.00000011
-0.72715082 -0.09800202 0.01434140
-0.58311567 -0.72766230 0.00000005
-0.47757545 -0.61535944 0.00000012
-0.77939087 -0.79039919 -0.00000002
-0.09932933 -0.54001508 0.00000016
-0.05366530 -0.74200488 0.00000004
-0.44980452 -0.43628188 0.00000769
-0.04382162 -0.51059656 0.00000018
-0.64074584 -0.03519732 -0.00000109
-0.15419204 0.61785214 0.00318013
-0.01502963 -0.57200863 0.00000014
-0.12726234 -0.41498771 0.00000024
-0.47211752 -0.13359560 -0.00000004
-0.72912083 -0.09324021 0.01450048
-0.29778262 -0.25902324 0.00000034
-0.02463003 0.52405028 0.00000442
-0.03671312 0.59662652 -0.00000120
-0.72244781 -0.25982102 0.01144750
-0.08200393 -0.02138384 0.00000185
-0.29389260 -0.69111553 0.00000007
-0.51137524 0.14937203 0.00976448
-0.21579634 0.31027486 0.00000442
-0.18168215 0.09293950 0.00000357
-0.30108350 -0.48662582 0.00000519
-0.13059197 -0.09684266 0.00000261
-0.05562996 0.61289252 0.00000181
-0.04752342 -0.07326783 0.00000045
-0.27342841 -0.59414622 0.00000467
-0.13756996 0.01869806 0.00000280
-0.74196365 0.03959557 -0.00000175
-0.12403006 -0.50469862 0.00000018
-0.04985748 0.55633003 0.00000085
-0.06961849 0.15175333 -0.00000743
-0.02958852 -0.59904325 0.00000013
-0.07713407 -0.56661547 0.00000015
-0.25863455 0.15310953 -0.00000171
-0.18057103 0.36003837 -0.00000070
-0.27899515 -0.07870869 0.00000045
-0.42806510 0.01500286 0.00415918
-0.24886070 0.03473394 0.00000777
-0.04010826 -0.22693144 0.00000036
-0.02661188 0.38247210 -0.00000498
-0.09814434 -0.73367526 0.00000004
-0.04677833 0.61016248 -0.00000067
-0.19868455 0.36387866 0.00073171
-0.38114191 -0.43179908 0.00000023
-0.75941337 -0.06741120 0.01615466
-0.36646810 0.16094780 0.00411207
-0.24136588 0.25727047 0.00000057
-0.18215277 0.35156604 0.00000442
-0.40323563 -0.15613260 0.00029732
-0.54739892 -0.51268780 0.00015724
-0.46827497 0.18211195 -0.00000052
-0.26805697 0.33724477 0.00308639
-0.42776489 -0.10618582 0.00212192
-0.09487099 0.50747725 0.00000359
-0.25125235 0.01702273 0.00000051
-0.18151627 -0.41283402 0.00000325
-0.38889897 0.04036147 0.00299597
-0.18676444 0.08743209 0.00000798
-0.63754890 0.16066483 -0.00000136
-0.37878835 0.19750913 0.00000304
-0.35899180 -0.70290906 0.00000602
-0.22593360 0.26017689 0.00009851
-0.12385751 0.46187439 0.00000079
-0.72067376 0.05697820 0.01666945
-0.23423298 0.31558728 0.00135516
-0.64500578 -0.05648424 -0.00000108
-0.01492234 -0.03375092 0.00000048
-0.55296125 -0.15763734 0.00631485
-0.66379733 -0.07976673 -0.00000115
-0.09335455 0.12482852 0.00000887
-0.01666200 0.59517706 -0.00000183
-0.39662617 -0.20991052 0.00000695
-0.48360247 0.02641150 0.00659123
-0.19193213 0.45413879 0.00196750
-0.64642264 0.08169631 -0.00000031
-0.54399085 0.05204184 0.00945324
-0.41457466 0.08417177 0.00477059
-0.57157000 -0.62166781 0.00000960
-0.51337031 0.20263458 0.01073599
-0.35795608 0.41971980 0.00809241
-0.63787542 -0.70564840 0.00058423
-0.22255168 0.16781947 0.00000060
-0.12391989 -0.63355527 0.00000010
-0.61630051 -0.50917396 0.00299671
-0.13695967 0.06267305 0.00000281
-0.68265468 -0.47895365 0.00617966
-0.26496243 0.19940642 0.00065813
-0.25189838 0.32921577 0.00230009
-0.73812742 -0.62224082 -0.00000044
-0.16407952 -0.21934430 0.00000036
-0.58873164 -0.45418328 0.00280301
-0.46344032 0.09862549 -0.00000036
-0.78469979 -0.25184080 -0.00000137
-0.32459442 -0.77881479 0.00000540
-0.67084477 -0.78387532 -0.00000004
-0.75427091 -0.36595839 0.01095817
-0.10289636 -0.07240928 0.00000045
-0.06865002 0.43243680 0.00000077
-0.56179146 -0.61416862 0.00000944
-0.06200443 0.62087449 0.00000253
-0.50266910 0.10242929 0.00862773
-0.45723253 0.22383168 -0.00000053
-0.59183302 -0.59227407 0.00000005
-0.71938194 -0.16017558 0.01298890
-0.04756284 -0.71174077 0.00000084
-0.62311164 -0.75617247 0.00001037
-0.40359274 0.33391500 -0.00000041
-0.62139236 -0.13692899 -0.00000083
-0.12236509 0.57145966 0.00111859
-0.55166919 -0.46393639 0.00114425
-0.43366732 -0.37485530 0.00000746
-0.42290866 0.22767672 0.00750247
-0.26742623 0.28639855 0.00220709
-0.10477384 -0.72980573 0.00000004
-0.12523247 0.23264226 0.00000065
-0.07263038 0.33041997 0.00000636
-0.15924907 0.46284558 0.00079094
-0.35695820 0.29946351 0.00604295
-0.47733538 -0.13264390 0.00368038
-0.36474998 -0.39558449 0.00000631
-0.67477214 -0.36784530 0.00771823
-0.60156083 0.05848015 -0.00000103
-0.05723060 0.40518205 0.00000170
-0.38090598 0.28590671 0.00678290
-0.21628654 0.20396261 0.00000422
-0.50809511 -0.04030471 0.00646484
-0.05360828 -0.06941993 0.00000046
-0.03425307 0.72271144 0.00000154
-0.33227409 -0.59467840 0.00000013
-0.12222929 0.44467084 0.00000404
-0.58605404 0.04655482 0.01106261
-0.45266883 -0.08905985 0.00341319
-0.22174852 -0.08771232 0.00000413
-0.46843412 -0.24240695 0.00148692
-0.18338797 0.03628756 0.00000357
-0.58195156 0.18363590 -0.00000113
-0.58266720 0.04408685 0.01088468
-0.07325526 -0.14544524 0.00000162
-0.14997618 0.00579690 0.00000966
-0.06525168 -0.47852779 0.00000020
-0.64419772 0.09741437 0.01425909
-0.56831494 -0.72155142 0.00000948
-0.64948249 -0.29467363 0.00792033
-0.00377757 0.54873298 0.00000440
-0.07300450 -0.69633097 0.00000128
-0.58420115 -0.57756989 0.00055830
-0.09595911 0.20468333 0.00000063
-0.21839371 0.02704681 0.00000052
-0.66573321 0.04842953 -0.00000017
-0.62032837 -0.32439527 -0.00000053
-0.07827399 0.01780098 -0.00000935
-0.18331570 -0.41591489 0.00000024
-0.47990879 -0.02029287 -0.00000026
-0.03432426 0.75521367 0.00000103
-0.17129385 0.17612206 0.00000699
-0.68247990 -0.17373687 0.01127298
-0.68234279 0.11362788 0.01606950
-0.64825034 -0.74581637 0.00033171
-0.32737181 0.33699975 -0.00000001
-0.00476413 0.40507698 0.00000083
-0.35560734 -0.17304179 0.00000039
-0.01298953 -0.74501401 0.00000025
-0.30181720 -0.03685416 0.00000048
-0.71833158 0.02287093 -0.00000160
-0.15369627 0.27367980 0.00000322
-0.54306837 -0.57609176 0.00000915
-0.00738392 -0.02536597 0.00000048
-0.48599996 0.16322511 0.00000151
-0.21441671 0.42141071 0.00232803
-0.47632912 -0.00045568 0.00584872
-0.27917949 0.05551408 0.00000517
-0.04731354 0.52038001 0.00000161
-0.52323486 0.05600743 0.00868155
-0.11717088 0.12880102 0.00000058
-0.03087195 -0.70790112 0.00000057
-0.78105714 -0.13309598 0.01593052
-0.39019712 -0.20898106 0.00000037
-0.11734935 -0.03622951 0.00000048
-0.12055120 -0.22993409 0.00000036
-0.04552185 0.08867820 0.00000131
-0.10622974 -0.44133549 0.00000199
-0.17160921 0.30443408 0.00000354
-0.43724820 -0.66234622 0.00000009
-0.41253510 0.03983905 0.00000000
-0.18496837 -0.15258347 0.00000347
-0.71310659 -0.47007218 0.00755706
-0.53849155 0.20889719 0.01185591
-0.21101489 0.10992394 0.00000057
-0.01293425 -0.40869014 0.00000024
-0.31142257 0.10915318 0.00102500
-0.51676474 -0.17840813 0.00450693
-0.19239708 0.17706496 0.00000666
-0.58710570 0.10593609 0.01209735
-0.76760248 -0.08029964 0.01626978
-0.22938366 -0.73847547 0.00000385
-0.44886903 -0.27584349 0.00013856
-0.09244083 -0.55570954 0.00000015
-0.27940417 -0.77578631 0.00000002
-0.20533557 0.58394247 0.00467754
-0.07341564 0.52922572 0.00000083
-0.24751849 0.54597222 0.00000008
-0.64000801 -0.79405950 0.00001063
-0.15204125 -0.71605844 0.00000258
-0.06158898 -0.32737956 0.00000132
-0.26308853 0.29173697 0.00000040
-0.12950020 -0.01779898 0.00000264
-0.52114739 -0.56637097 0.00000880
-0.16008448 0.13853442 0.00000324
-0.77880656 -0.65423666 -0.00000036
-0.74033826 -0.28791414 -0.00000123
-0.25002069 0.31723283 0.00202012
-0.44254347 0.33054101 0.01001636
-0.37839612 0.42119444 0.00894235
-0.22399414 0.15836740 0.00000432
-0.30198086 0.38724099 0.00000004
-0.31593523 -0.13177300 0.00000042
-0.61948044 -0.50750603 0.00315292
-0.77041667 -0.64037997 0.00702391
-0.65453742 -0.30341741 0.00797822
-0.03553738 -0.03238132 0.00000107
-0.05113540 0.17910996 -0.00000755
-0.23054945 -0.36071549 0.00000027
