ply
format ascii 1.0
element vertex 1372
property float x
property float y
property float z
end_header
-0.12596952 0.49587508 0.05162739
-0.55009498 -0.72446388 0.00000356
-0.03766183 0.20585151 0.00000963
-0.47656419 -0.26017021 -0.02420816
-0.33304550 0.14142052 -0.03897105
-0.31434541 -0.42998517 -0.00000074
-0.49979112 -0.40661062 0.01177924
-0.19554298 0.02868919 -0.00000549
-0.28318998 0.11630446 0.19975528
-0.12741386 0.12527154 0.00000212
-0.06030658 0.58199356 0.00000468
-0.15390673 -0.69348504 0.00000126
-0.24360073 0.21188155 0.23271112
-0.54579154 -0.73317187 0.00000350
-0.10969501 0.49638611 0.00000339
-0.21315522 0.28526961 0.00000049
-0.30177826 0.07142383 0.31879569
-0.07693319 -0.23182887 0.00000224
-0.24686282 0.20400765 0.16382417
-0.03261791 0.75520930 -0.00909510
-0.27296645 -0.60550466 -0.00000104
-0.52223962 -0.56102903 -0.00000241
-0.11738855 0.17397444 0.00000375
-0.24442463 0.04925421 -0.00000358
-0.13310543 0.17335044 0.00000224
-0.67058570 -0.40300353 -0.11144947
-0.45244626 -0.29232024 0.27311639
-0.03679132 -0.29443231 0.00000136
-0.20317897 0.30946847 0.21129895
-0.25191379 0.47546396 -0.07599973
-0.23150384 -0.44577902 0.00000250
-0.31000340 0.05157580 0.20915645
-0.41344161 -0.22228929 0.00000430
-0.17602928 0.37501931 0.06483927
-0.20249705 -0.16086811 0.00000322
-0.08403249 -0.35041751 0.00000090
-0.62536933 -0.70978599 0.17684845
-0.09613973 -0.57953916 0.00000127
-0.25679119 0.49113783 -0.08335496
-0.05050887 -0.32825113 0.00000117
-0.48450639 -0.66274415 -0.00000250
-0.00187595 -0.26018192 0.00000168
-0.03873602 0.07871584 0.00001073
-0.40061305 0.08636637 -0.06792930
-0.43522882 -0.25074325 0.01655572
-0.53376373 0.16594923 -0.17539405
-0.48892913 -0.37199742 -0.00224195
-0.13579197 0.51958022 -0.01270046
-0.01991027 0.67453220 0.00000449
-0.16439460 0.34713112 0.00000259
-0.68168983 -0.65680646 -0.05062363
-0.72913700 -0.36033819 -0.16075908
-0.45123094 -0.28938241 0.17894126
-0.25359215 0.18777204 0.09078343
-0.38112432 0.30435414 -0.11373627
-0.17790312 0.47610483 -0.02829153
-0.43677173 -0.37295014 -0.00000130
-0.42461806 -0.69628465 -0.00000224
-0.12119445 0.62123965 -0.03049734
-0.06328182 -0.25637358 0.00000132
-0.04620021 -0.44391309 0.00000083
-0.28410274 0.11411364 0.09693347
-0.30983589 0.05197009 0.33362506
-0.24568085 0.20687178 0.08486454
-0.38416759 -0.12748074 0.27782484
-0.45768464 0.15363501 -0.12287812
-0.25952211 -0.14968763 0.00000360
-0.13248789 0.05326244 0.00000187
-0.07488169 0.61184336 0.00000552
-0.58726271 -0.61778988 0.10382936
-0.47780451 -0.35354052 0.27101308
-0.35647350 0.18872842 -0.06680699
-0.12973135 0.42429724 0.00000633
-0.62468055 -0.75633409 0.00000391
-0.51834814 -0.30583238 -0.03900308
-0.26641842 0.15680708 0.09190829
-0.03707043 -0.34864626 0.00000163
-0.71508858 -0.59606966 -0.08850418
-0.37784299 -0.11865605 -0.00000015
-0.10147100 -0.55711610 0.00000015
-0.17371682 -0.31774010 0.00000256
-0.20319793 -0.69517430 0.00000155
-0.49710344 -0.08111173 -0.08547583
-0.03740981 0.25861578 0.00000308
-0.29979392 -0.69462684 0.00000214
-0.06613370 -0.51425476 0.00000049
-0.06054176 0.23567357 0.00000902
-0.11820072 0.42928980 0.00000455
-0.08461295 -0.22665757 0.00000230
-0.21491960 0.28112625 0.19043349
-0.41844435 -0.74308349 0.00000270
-0.32250123 0.03992531 -0.00495175
-0.26433958 -0.19809630 0.00000348
-0.29408381 0.09000776 0.11527882
-0.46547740 -0.32377886 0.23812842
-0.49702060 -0.52942757 0.00000385
-0.09320369 -0.30432874 0.00000099
-0.17365736 -0.38303785 0.00000235
-0.24896607 -0.10280026 0.00000368
-0.01408056 0.45046709 0.00000785
-0.25959149 0.17327824 0.15407327
-0.13587955 0.30722680 -0.00000137
-0.60294008 0.03818687 -0.18591018
-0.26709574 0.15515597 0.28731168
-0.39996011 -0.06239174 -0.02764879
-0.56493148 -0.04771034 -0.13830489
-0.15842565 -0.40965742 0.00000218
-0.54787344 -0.52269902 0.24130831
-0.02952100 0.72872482 0.01854995
-0.30260410 0.06943319 0.23340842
-0.16371119 -0.71385635 0.00000126
-0.35044929 -0.04606487 0.17481738
-0.09112806 0.57998919 0.07172657
-0.02844500 -0.15450443 0.00000219
-0.09233194 0.56346209 0.00000568
-0.56658866 -0.29352060 -0.07350955
-0.55587337 -0.54200922 0.10573400
-0.19450185 -0.09598319 0.00000103
-0.27134294 -0.41198582 -0.00000043
-0.37662267 -0.72861778 -0.00000205
-0.48506059 -0.37105918 0.33152700
-0.10647869 0.12311399 -0.00000617
-0.20782209 0.21854562 0.00000193
-0.42289674 -0.43800999 -0.00000142
-0.03877515 -0.56957112 0.00000049
-0.23003396 0.29113538 -0.01245265
-0.00137455 0.18327043 -0.00000806
-0.14594357 0.19448239 0.00000223
-0.62055260 -0.78274802 -0.00000369
-0.44501285 -0.00576675 -0.07196356
-0.13867212 -0.16484066 0.00000115
-0.29204433 -0.20860517 0.00000361
-0.46718557 0.09491093 -0.11328655
-0.06116606 -0.40090621 0.00000088
-0.24185950 -0.26431049 0.00000021
-0.58309478 -0.60772611 0.06669123
-0.52789344 -0.48140934 0.00000418
-0.00207886 0.02817644 0.00001172
-0.74263940 -0.39853793 -0.15925759
-0.66046369 -0.79450910 0.02496817
-0.28550639 0.11071356 0.16435605
-0.08999021 0.49865240 0.00000352
-0.59217316 -0.00370475 -0.16771805
-0.42176912 -0.39785255 0.00000380
-0.14975920 -0.70832724 0.00000119
-0.36694495 0.37824437 -0.12436382
-0.29948608 0.39201201 -0.08441222
-0.27151815 0.44588716 -0.08075663
-0.48027893 -0.64173887 -0.00000240
-0.10151610 0.49173860 0.00000342
-0.25560468 0.06440951 0.00000116
-0.33654995 -0.10423914 0.00000421
-0.18089054 -0.12243873 0.00000103
-0.47578535 -0.52711053 -0.00000202
-0.42564482 -0.00172055 -0.06052203
-0.30736773 0.05792958 0.32235788
-0.32214864 0.36536100 -0.09193149
-0.49995558 0.11890059 -0.14091628
-0.47232327 0.23445569 -0.15400444
-0.37530975 0.02217954 -0.03436391
-0.32729481 0.00982007 0.34753441
-0.28944636 -0.26384457 -0.00000007
-0.16534214 0.40082151 0.03728162
-0.60001531 -0.58913249 -0.01592142
-0.68011333 -0.25675583 -0.15680159
-0.64485857 -0.75683596 0.05830600
-0.00453844 -0.44318087 0.00000109
-0.58010008 -0.60049909 0.22482279
-0.21605521 0.27838604 0.11255008
-0.41670051 -0.20601535 0.10359858
-0.16732434 0.07438954 0.00000172
-0.49566350 -0.37319354 -0.00627798
-0.32045660 -0.72736536 0.00000216
-0.26691396 -0.27913488 0.00000002
-0.39387704 -0.29470714 0.00000396
-0.67003694 -0.68548378 -0.03540098
-0.17143053 0.38612316 0.02875650
-0.16289352 0.35030493 0.00000458
-0.22028981 0.01604220 0.00000854
-0.35086320 -0.04707802 0.31214994
-0.09514058 0.41921026 0.00000324
-0.23707386 -0.00394658 0.00000392
-0.02532535 -0.38139707 0.00000146
-0.21326944 0.28511835 0.08783462
-0.16374192 0.23778295 -0.00000201
-0.27969986 0.04815436 0.00000736
-0.17501053 -0.41731479 0.00000014
-0.04687994 0.21596826 0.00000346
-0.11535457 0.32283874 0.00000281
-0.24308116 -0.38394042 0.00000277
-0.23160869 0.24083351 0.18719172
-0.42672098 -0.23021134 0.21272845
-0.04378757 0.51551128 0.00000028
-0.22124919 -0.32716522 0.00000281
-0.38336355 -0.12553066 0.05460513
-0.72518113 -0.55299490 -0.10657537
-0.15715817 0.13133820 0.00000386
-0.24524064 0.01178586 0.00000106
-0.29452126 0.08895519 0.02794426
-0.27699262 0.47975094 -0.09337223
-0.28248997 0.11799903 0.08593392
-0.44630496 0.19388823 -0.12630153
-0.17136165 -0.21468830 0.00000286
-0.34329278 0.20383344 -0.06232524
-0.08430265 0.59647080 0.03746803
-0.13825372 -0.75960853 -0.00000071
-0.52425846 -0.46568885 0.27690206
-0.41865740 -0.21074572 0.25300229
-0.59154558 -0.09352993 -0.14324406
-0.30986327 0.05192821 0.03547756
-0.36500685 -0.22018646 -0.00000039
-0.21706474 -0.13323392 0.00000339
-0.09914272 0.56063995 0.09077255
-0.02292489 0.42848287 -0.00000220
-0.57109202 -0.57874797 0.04579731
-0.11110906 0.53174989 0.09128520
-0.10290649 0.55130620 0.00000360
-0.53034981 -0.48039430 0.24792245
-0.24924091 -0.61977510 0.00000207
-0.28446456 -0.51080486 -0.00000081
-0.74460269 -0.54867733 -0.12029597
-0.00684952 0.26580141 0.00000337
-0.37833270 -0.11338370 0.02035292
-0.66366004 -0.27904220 -0.14018589
-0.18360263 -0.19019888 0.00000301
-0.55953457 0.07549725 -0.16782725
-0.24751628 0.21319381 -0.00287319
-0.56168115 0.04772992 -0.16177504
-0.05272084 0.45365757 0.00000723
-0.05499316 0.09112639 0.00001037
-0.33922803 0.20120663 -0.05899174
-0.24052510 0.41897662 -0.05349588
-0.02896009 0.16930582 -0.00000753
-0.38419646 -0.26124241 -0.00000064
-0.10173594 -0.35489358 0.00000200
-0.27565450 -0.63177127 0.00000219
-0.46745717 -0.32855336 0.11099173
-0.42418004 -0.40510870 0.00000379
-0.28867601 0.10306509 0.19400292
-0.21845242 0.27259885 0.10708545
-0.28647062 -0.52385542 0.00000259
-0.48194075 -0.01124951 -0.09438719
-0.22192069 -0.66009925 0.00000178
-0.15015384 -0.65854078 -0.00000046
-0.33505313 0.26494883 -0.07337205
-0.46032277 -0.31133597 0.27606746
-0.52192175 -0.46004428 0.14799058
-0.24938054 0.19792708 0.24484959
-0.20938032 -0.23187353 0.00000304
-0.32455316 -0.40792389 -0.00000073
-0.18667375 -0.58570596 0.00000180
-0.04755617 0.63257307 0.00000288
-0.17824721 0.36967026 0.06161223
-0.23209103 0.23967314 0.08521617
-0.16369734 -0.54848911 0.00000177
-0.09296882 0.14286757 -0.00000616
-0.13737032 0.03153545 0.00000965
-0.35577154 -0.20661204 -0.00000029
-0.45041270 -0.40444149 0.00000395
-0.15417405 0.42778425 0.09629277
-0.15799254 0.23368760 0.00000228
-0.30418126 0.35116958 -0.07650626
-0.70287881 -0.13116673 -0.20518177
-0.03143617 -0.27472768 0.00000183
-0.36533633 -0.08201150 0.11676059
-0.11794966 0.59631573 -0.02171927
-0.24553658 -0.43653891 -0.00000035
-0.06464557 0.53958092 0.00000630
-0.16491280 0.02935471 0.00000359
-0.05300425 0.30000136 0.00000376
-0.51162360 -0.34223637 -0.02489807
-0.32751423 0.01524255 -0.00158554
-0.32884977 0.04955842 -0.01164481
-0.52667545 -0.69849532 -0.00000286
-0.04371547 -0.36633183 0.00000109
-0.65443559 -0.77995633 0.03357321
-0.08765334 0.50043306 0.00000459
-0.63343103 -0.17803962 -0.14769504
-0.15173123 -0.39186049 0.00000036
-0.25335895 0.09067952 0.00000125
-0.67448327 -0.72502505 -0.02768177
-0.00957237 -0.43346457 0.00000120
-0.37289211 -0.10025813 0.24956915
-0.22421767 0.12606414 0.00000751
-0.18118319 0.48109187 -0.03174989
-0.30311838 0.06820986 0.05630868
-0.19125555 0.29279877 0.00000655
-0.32917645 0.15930247 -0.04125993
-0.15796602 -0.17730659 0.00000290
-0.06112208 -0.14179320 0.00000243
-0.38247752 0.28973715 -0.11069474
-0.42846095 0.30414252 -0.14430289
-0.38538276 0.33315345 -0.12420859
-0.28195670 0.12674168 -0.00199114
-0.73315643 -0.35721994 -0.16419478
-0.41435868 0.09121254 -0.07812326
-0.38331643 -0.60698413 -0.00000171
-0.27258285 0.14191361 0.16969622
-0.06098928 -0.16603153 0.00000235
-0.04586813 -0.69799463 0.00000004
-0.53229513 -0.08550987 -0.10706325
-0.04719544 0.48587679 0.00000704
-0.24653105 0.40476580 -0.05357186
-0.34658349 -0.03673636 0.07566348
-0.42837995 -0.23421939 0.28570562
-0.61281295 -0.67947293 0.12556727
-0.46189880 0.00754850 -0.08645893
-0.06030388 0.40165565 0.00000339
-0.49581264 -0.44240577 -0.00000188
-0.43014589 -0.19661637 -0.01120949
-0.13268975 -0.37019127 0.00000054
-0.18380444 0.18747835 0.00000420
-0.34472063 -0.03224129 0.13202918
-0.28832420 0.10392370 0.07971391
-0.53797507 -0.29198680 -0.05541005
-0.31673303 -0.30170536 -0.00000035
-0.53940786 -0.50225572 0.05204143
-0.35882976 -0.16577979 0.00000415
-0.20702131 0.30019303 0.18270550
-0.24376341 0.21148807 0.24177333
-0.20586657 -0.78209938 0.00000130
-0.15159651 0.12340637 0.00000380
-0.69912298 -0.47974835 -0.10934585
-0.09140226 0.15926849 0.00000355
-0.56371803 -0.56094485 0.02872011
-0.37252098 -0.30790490 0.00000379
-0.63045572 -0.72206522 0.05239742
-0.57526208 -0.58881938 0.19454650
-0.00728120 0.10163941 0.00000277
-0.45560450 0.00192130 -0.08087920
-0.48786222 -0.66277348 0.00000337
-0.06686742 0.51880867 0.00000645
-0.37366364 -0.10211938 0.21465293
-0.38398912 -0.12704866 0.33219195
-0.32612662 -0.79809311 0.00000197
-0.12878963 -0.41813177 0.00000042
-0.01254386 0.33562812 -0.00000449
-0.70754933 -0.03548357 -0.23384248
-0.03957367 0.43733385 0.00000411
-0.54062515 -0.41244803 -0.02484560
-0.14618507 -0.75367956 -0.00000074
-0.24850582 0.20005172 0.08584103
-0.53886877 -0.49063836 -0.00275747
-0.11071304 0.29804475 0.00000772
-0.26926432 -0.23760132 0.00000013
-0.46926122 -0.07156968 -0.07002124
-0.41025133 -0.28181733 0.00000410
-0.45315054 -0.29220693 -0.00047701
-0.05864723 -0.64495130 0.00000084
-0.61910593 -0.01042042 -0.18334325
-0.72704879 -0.59542927 -0.09641275
-0.16468362 0.56221890 -0.04281570
-0.10967893 0.27647346 -0.00000282
-0.38684834 -0.13395085 0.23269949
-0.09088626 0.10584989 0.00000970
-0.17998240 0.10651586 0.00000392
-0.24623871 0.27512904 -0.01864364
-0.55474444 -0.53928569 0.15432219
-0.70691807 -0.08060788 -0.22134258
-0.53306576 -0.48694939 0.17385486
-0.03359235 0.08696072 0.00001073
-0.11417696 0.47033620 0.00000144
-0.07908850 0.47482643 0.00000048
-0.14925233 0.36971031 0.00000651
-0.10716270 -0.74897490 -0.00000049
-0.39725130 0.04484548 -0.05462803
-0.39336682 -0.42814603 0.00000354
-0.27821599 0.12830970 0.27631107
-0.65506319 -0.78147152 0.11775221
-0.15540182 0.06805087 0.00000177
-0.37322078 -0.58422898 0.00000293
-0.15715976 -0.19113845 0.00000285
-0.20457480 0.11417326 0.00000791
-0.00461957 -0.79678080 0.00000004
-0.34691660 -0.26547311 0.00000376
-0.36628438 -0.08429728 0.04210359
-0.14785311 -0.67965129 0.00000127
-0.28614005 -0.23268235 0.00000350
-0.00371945 0.52191716 0.00000738
-0.39585253 -0.03231338 -0.03305136
-0.28071130 0.12228594 0.26489315
-0.62974193 -0.76565909 0.00000391
-0.19978707 -0.52746582 -0.00000035
-0.03554569 0.65132341 0.00000432
-0.34330045 -0.02881357 0.26424286
-0.49756612 0.19831141 -0.16064903
-0.45692304 0.27070603 -0.15375581
-0.52215674 -0.46060821 0.06386380
-0.24310962 0.00390454 0.00000104
-0.39052404 -0.15018337 -0.00000033
-0.34134212 0.38892801 -0.11066385
-0.38972749 0.02114379 -0.04341339
-0.23351821 0.23622359 0.18506600
-0.10515049 0.54613714 0.04280735
-0.53980122 0.05405989 -0.14931659
-0.18364367 -0.62013471 -0.00000055
-0.02839072 0.16803393 0.00000285
-0.26343799 0.16399133 0.16925407
-0.39436942 0.12300312 -0.07371057
-0.08467547 0.29538213 0.00000291
-0.05575503 -0.49507397 0.00000129
-0.11352652 -0.47315189 0.00000034
-0.31018962 -0.40704158 -0.00000064
-0.09316765 0.39466992 0.00000714
-0.22715940 0.25848563 -0.00184075
-0.03410849 0.16208215 0.00000321
-0.66841962 -0.38694070 -0.11435241
-0.02773319 0.11411371 -0.00000874
-0.03129643 0.28344150 0.00000357
-0.20264794 0.51417785 -0.05450215
-0.20728534 0.29955688 0.15081858
-0.36122312 -0.22904773 0.00000396
-0.70090187 -0.54812529 -0.09217417
-0.43559899 -0.07205662 -0.04811423
-0.51965960 -0.45457926 0.05651261
-0.36159774 -0.10876987 0.00000434
-0.23856520 0.22404872 0.10307157
-0.03422185 0.73928653 -0.00586603
-0.61853044 -0.69327515 0.05634530
-0.45119284 -0.28929724 0.36343234
-0.24609024 -0.34242868 -0.00000006
-0.56936746 -0.66748454 -0.00000302
-0.13730995 0.32494118 0.00000269
-0.60805918 -0.15374221 -0.13779242
-0.46796257 -0.67644420 0.00000321
-0.34842555 -0.16820885 0.00000408
-0.45770436 -0.11167076 -0.05179946
-0.18122462 -0.51297875 -0.00000020
-0.27202999 0.14326232 0.06053129
-0.02259704 0.50017430 0.00000420
-0.34339032 -0.49773722 0.00000302
-0.51305963 -0.49417988 0.00000405
-0.28224197 -0.23620391 0.00000347
-0.46597266 -0.77762362 0.00000288
-0.18906323 0.31681412 0.00000235
-0.66701343 0.03399570 -0.22623691
-0.58219602 -0.60555899 0.20689314
-0.31787717 0.02867401 -0.00000180
-0.34905030 -0.35267350 -0.00000071
-0.49821818 -0.40282333 0.26436255
-0.54490239 -0.51552435 0.14228355
-0.53504459 -0.68418179 0.00000359
-0.42958088 -0.56014818 -0.00000184
-0.35389094 0.11100435 -0.04430582
-0.33719115 -0.01406892 0.31692946
-0.36081095 -0.40335421 0.00000342
-0.32141237 -0.36963585 0.00000328
-0.19582554 -0.24785223 0.00000054
-0.00833157 -0.32875071 0.00000152
-0.24098910 -0.52294953 0.00000232
-0.46912602 -0.50156630 -0.00000190
-0.22054071 0.26755788 0.09147189
-0.35287734 -0.05193648 0.29643244
-0.00797983 0.44197050 -0.00000237
-0.47484545 -0.60717042 0.00000347
-0.13358551 0.09446435 0.00000199
-0.22345244 -0.22715354 0.00000314
-0.54525852 -0.51638137 0.07415195
-0.51312450 -0.23683493 -0.05411242
-0.29202131 -0.38426201 -0.00000046
-0.20210340 0.04622976 0.00000855
-0.01084146 -0.20264204 0.00000193
-0.45876777 -0.72975080 -0.00000255
-0.20355535 0.30856663 0.03304970
-0.40993358 -0.18967498 0.01600198
-0.43272841 -0.53774933 0.00000343
-0.56832040 -0.57206111 0.19646089
-0.19931757 0.31879762 0.03126018
-0.07674715 -0.02861022 0.00000287
-0.08757070 0.31329203 0.00000794
-0.45238115 -0.30350607 0.00000428
-0.64179320 -0.45758182 -0.07819843
-0.47159722 0.00111254 -0.09100837
-0.27222415 -0.11597580 0.00000049
-0.10888115 0.04864884 0.00000199
-0.45266460 0.21462059 -0.13597231
-0.57669684 -0.59228104 0.09070705
-0.14969355 0.02347269 0.00000348
-0.37202662 0.24331588 -0.09149577
-0.03838428 0.50017887 -0.00000021
-0.23846480 0.22428487 0.17978166
-0.01093659 -0.22400887 0.00000187
-0.52619228 -0.11643540 -0.09482843
-0.36521046 0.23769814 -0.08557919
-0.19145533 0.43660081 -0.02647282
-0.21829482 0.27297624 0.18408324
-0.08211030 0.48436907 0.00000077
-0.43658375 -0.62652883 0.00000318
-0.28072746 -0.50817815 -0.00000078
-0.41590788 -0.52392697 0.00000337
-0.06530581 -0.54423243 0.00000041
-0.48070224 -0.77622487 -0.00000283
-0.34576185 0.39783490 -0.11590972
-0.47003111 -0.60978463 -0.00000224
-0.01137052 0.67304217 0.00000467
-0.28286320 -0.53214530 -0.00000087
-0.59225615 -0.74681044 0.00000374
-0.05475708 -0.37992032 0.00000164
-0.47067280 0.01709144 -0.09468904
-0.27776944 -0.11766239 0.00000046
-0.21465067 0.28177987 0.13645728
-0.02743296 -0.22875774 0.00000195
-0.23494390 0.23278182 0.18157894
-0.36607562 -0.33597585 -0.00000076
-0.39900408 0.19858139 -0.09696077
-0.37980404 0.31181997 -0.11488346
-0.39397138 -0.50679062 0.00000329
-0.57428132 0.05054814 -0.17068163
-0.37148497 -0.39870625 -0.00000099
-0.61210085 -0.33299685 -0.09237390
-0.14239099 0.19805939 -0.00000349
-0.57914519 -0.63526841 -0.00000298
-0.50978274 -0.43073720 0.12675757
-0.05972779 0.39763494 0.00000338
-0.30442930 0.06504067 0.11044386
-0.33349514 0.31792893 -0.08656260
-0.13904549 -0.04937024 0.00000318
-0.34037956 -0.02176799 0.30625812
-0.33663909 -0.38724154 -0.00000074
-0.71751424 -0.02175648 -0.24396717
-0.58701517 -0.72786765 0.00000377
-0.49405987 -0.30843761 -0.02259259
-0.08030119 0.60158445 0.00000486
-0.35680835 0.37618551 -0.11725467
-0.34764667 -0.63646375 -0.00000159
-0.17423756 0.04198636 0.00000158
-0.07138742 0.25022807 0.00000285
-0.10914929 0.53648777 0.02385632
-0.64441005 -0.75575316 0.07561925
-0.22243939 0.26297424 0.08681530
-0.57942141 -0.10763113 -0.13162222
-0.04898677 0.42833834 0.00000354
-0.14115068 0.27047674 -0.00000199
-0.22032726 -0.63887807 -0.00000083
-0.57903766 -0.53714545 -0.01628118
-0.48018068 -0.35927152 0.13128344
-0.55419043 -0.78284887 0.00000340
-0.75118386 -0.62456877 -0.10421726
-0.08716228 0.69268684 -0.02762691
-0.37612801 -0.19768645 0.00000415
-0.40127344 0.18708848 -0.09534920
-0.31988226 -0.02856381 0.00000048
-0.10690100 -0.70561544 -0.00000035
-0.21002545 -0.36471448 0.00000009
-0.42052467 -0.37366114 0.00000387
-0.38620259 -0.22862349 -0.00000055
-0.67434663 -0.65506006 -0.04634132
-0.30264086 0.06934909 0.11749337
-0.02828730 0.00556772 0.00000235
-0.67246435 -0.25921214 -0.15119518
-0.43925928 -0.44812009 -0.00000155
-0.59296828 -0.12521383 -0.13567440
-0.14540826 0.44894339 0.10884094
-0.08200630 0.34716235 -0.00000215
-0.34668013 0.00022718 -0.00995571
-0.27545440 -0.05396885 0.00000399
-0.70138433 -0.07795236 -0.21847431
-0.04097890 0.29045868 0.00000884
-0.37394764 -0.10280431 0.19739402
-0.06546693 0.26817374 0.00000373
-0.04342180 0.69516454 0.02236228
-0.05266228 -0.32871265 0.00000115
-0.51904197 -0.45308724 0.03348666
-0.11559049 0.35034237 0.00000719
-0.15513331 0.28997393 0.00000434
-0.06708888 0.57863301 0.00000592
-0.42862194 -0.23480212 0.24866461
-0.39109293 -0.65719485 -0.00000191
-0.52743889 -0.47336460 0.16650809
-0.41164275 0.14085832 -0.08966706
-0.12194094 -0.58608752 0.00000140
-0.09996457 -0.00269946 0.00000189
-0.36382711 -0.02420381 -0.01450675
-0.26664569 0.15624816 0.14610527
-0.31968873 0.10902643 -0.02164947
-0.06785940 -0.33484907 0.00000104
-0.08706030 0.04912983 0.00000213
-0.20118420 0.11296462 0.00000407
-0.05210803 0.13350364 0.00001005
-0.07366718 0.03522657 0.00000217
-0.07461280 0.55747795 0.00000600
-0.36104238 -0.27363759 -0.00000053
-0.24135043 0.21731904 0.08201308
-0.54242983 -0.50955146 0.05307224
-0.56658423 -0.56786463 0.03187069
-0.04798893 0.46999229 0.00000426
-0.10597339 0.14920265 0.00000361
-0.04563139 0.14106765 0.00000322
-0.63862340 -0.11056143 -0.16913553
-0.44492983 0.28728250 -0.15043909
-0.57481496 -0.70731136 -0.00000318
-0.35387454 -0.35994610 0.00000351
-0.61806289 -0.62598375 -0.01772196
-0.05582046 0.50888738 0.00000670
-0.28996052 0.44514316 -0.09248758
-0.32175960 -0.47041150 -0.00000091
-0.02939903 0.07042918 0.00000254
-0.18384983 0.47992688 -0.03316418
-0.38151850 -0.71260204 -0.00000203
-0.56642231 -0.07771487 -0.13122931
-0.15615537 0.28227146 -0.00000129
-0.43716261 -0.25542132 0.25238859
-0.07954736 0.00901987 0.00000205
-0.06933284 -0.15841020 0.00000159
-0.05315882 0.51534470 0.00000443
-0.19130480 -0.22093459 0.00000065
-0.66264713 -0.79978032 0.14756466
-0.17204274 0.38465228 0.02034437
-0.02837141 0.25294085 0.00000346
-0.32512100 0.01506936 0.31024978
-0.20521135 0.39788025 -0.02499591
-0.13845473 -0.26539274 0.00000083
-0.00323413 -0.16228936 0.00000201
-0.10332921 0.41552812 -0.00000005
-0.35568654 -0.05871694 0.17076364
-0.47254924 -0.34085341 0.27751693
-0.14378961 0.25404061 0.00000416
-0.51951029 -0.35160837 -0.02748874
-0.04995567 0.67938997 0.04291949
-0.34547924 -0.65603593 -0.00000164
-0.10559050 -0.41531990 0.00000184
-0.07649959 0.31629536 0.00000303
-0.25674334 0.18017004 0.02270929
-0.54188330 -0.60462207 0.00000388
-0.33382579 -0.54274453 -0.00000121
-0.07834480 0.60014254 0.00000557
-0.05348523 0.50256616 0.00000029
-0.42514237 -0.49793415 -0.00000162
-0.11670662 0.12563107 0.00000219
-0.36660854 -0.50044444 0.00000315
-0.61552189 -0.60837127 -0.02079759
-0.26860576 0.14333679 -0.00000085
-0.21223644 0.21742012 0.00000190
-0.45196418 -0.29115937 0.36707927
-0.63470801 -0.40118159 -0.08872795
-0.12036607 0.50940436 0.07510566
-0.66900419 -0.06974655 -0.19972602
-0.15136926 -0.36821105 0.00000044
-0.06730266 -0.77749212 -0.00000034
-0.26154137 0.16858273 0.07213758
-0.62864475 -0.71769333 0.12332737
-0.02223517 -0.52838991 0.00000071
-0.03807144 -0.17778041 0.00000171
-0.56619376 -0.37921379 -0.05029171
-0.28187747 0.10469515 0.00000113
-0.06992028 -0.39510604 0.00000084
-0.28867542 0.10306378 0.22767499
-0.10021078 -0.03409059 0.00000300
-0.33893825 0.34997099 -0.09866982
-0.26070786 -0.15114265 0.00000045
-0.17699774 0.50379301 -0.03512549
-0.51502361 -0.53702642 -0.00000229
-0.59127319 -0.62747266 0.19426198
-0.22333993 -0.26678297 0.00000301
-0.57288828 -0.58308868 0.19706602
-0.07777176 -0.51855485 0.00000041
-0.20708029 0.30006248 0.05782455
-0.03752114 -0.75610847 0.00000036
-0.42599085 0.25919068 -0.13065906
-0.13426804 0.23106399 0.00000241
-0.07432112 0.50753761 0.00000103
-0.55501117 0.06315247 -0.16159415
-0.19174962 -0.30555651 0.00000270
-0.28618771 0.05844690 0.00000096
-0.14498586 -0.19457634 0.00000102
-0.28208511 0.11897940 0.01251799
-0.40434934 0.15581732 -0.08895961
-0.25168941 0.29155673 -0.02657201
-0.14508249 0.44973153 0.11302951
-0.08568660 0.35051228 0.00000411
-0.13111427 0.15475335 0.00000219
-0.38807702 0.12489207 -0.07014610
-0.35620090 0.37048956 -0.11533513
-0.22774646 -0.32289993 0.00000012
-0.26124713 0.16927603 0.28150882
-0.48806127 -0.37830327 0.28956868
-0.30014235 0.05897849 0.00000696
-0.11428275 -0.68004309 0.00000106
-0.36648079 -0.24347730 0.00000395
-0.29157038 0.07452080 0.00000097
-0.53735600 -0.20217488 -0.07907560
-0.32136068 0.19004676 -0.04444233
-0.30328390 0.06779160 0.28614259
-0.29800283 0.08056139 0.03522816
-0.22416928 0.03259285 0.00000833
-0.03257333 -0.67069134 0.00000021
-0.04200417 -0.08628115 0.00000248
-0.40131274 -0.23513050 -0.00000066
-0.32570174 0.01366815 0.28954965
-0.46449384 0.07309979 -0.10570283
-0.03804683 0.51194312 0.00000387
-0.46705372 -0.32757621 0.03341842
-0.09255589 0.01765709 -0.00000883
-0.07292314 0.57053679 0.00000384
-0.00842388 0.13833245 0.00001066
-0.73474027 -0.52169660 -0.12114586
-0.67202213 -0.36267544 -0.12318505
-0.21275702 -0.77743200 0.00000135
-0.21936204 -0.27965593 0.00000030
-0.03475860 0.11791852 0.00000266
-0.44449028 -0.27310417 0.05976568
-0.16721730 -0.52798613 0.00000186
-0.18022544 -0.30103300 0.00000047
-0.33273118 -0.00328038 0.05333526
-0.55613293 -0.56173828 -0.00000261
-0.47078465 -0.33658854 0.15868667
-0.13024722 -0.48368111 0.00000177
-0.34646402 -0.03645431 0.23372083
-0.46795688 -0.02823200 -0.08079022
-0.35498974 0.15916382 -0.05792499
-0.09285326 0.07238355 -0.00000766
-0.32830925 0.00738184 0.07099290
-0.29537400 -0.19473883 0.00000367
-0.11794550 0.51524847 0.06985509
-0.11169129 -0.73618437 0.00000087
-0.47392981 -0.34418570 0.25966686
-0.22373948 0.19633495 -0.00000108
-0.27841541 0.12783132 0.25125403
-0.13438304 0.38120130 0.00000288
-0.19671802 0.25005711 0.00000209
-0.20750358 -0.33189958 0.00000272
-0.19896926 0.31963878 0.02446615
-0.13909979 -0.72363561 0.00000108
-0.21651935 0.18485437 -0.00000154
-0.06156195 0.63460082 0.00000411
-0.18425783 0.35067314 0.00000471
-0.11426780 0.52413118 0.01903467
-0.30487812 0.27811157 -0.05738042
-0.48163479 -0.29800493 -0.01735020
-0.51104309 -0.43378491 0.26328521
-0.23450602 0.23384426 0.04945368
-0.34100086 -0.02326610 0.26023868
-0.35651415 -0.06071757 0.23508204
-0.26607127 0.15765214 0.00600828
-0.10807356 0.15894632 0.00000365
-0.27960526 0.12495847 0.20709751
-0.28443481 0.11330277 0.21005848
-0.04162967 0.69949032 0.04277780
-0.02114238 -0.71640776 0.00000013
-0.23317928 -0.15957933 0.00000059
-0.53663885 -0.73363275 0.00000345
-0.44337836 0.28087611 -0.14771860
-0.17443873 -0.05793937 0.00000337
-0.69544175 -0.71170460 -0.04480902
-0.25931126 0.17395907 0.16508225
-0.47297063 -0.71382523 -0.00000259
-0.75909227 -0.51459344 -0.13880237
-0.21342548 0.28474477 0.04932768
-0.30062132 0.07422324 0.24056024
-0.22094322 -0.46673175 -0.00000029
-0.10681557 0.47999797 0.00000336
-0.08808373 -0.00107898 0.00000303
-0.34144669 -0.52290391 -0.00000119
-0.10838555 0.53832813 0.01421204
-0.24957902 0.41554315 -0.05843172
-0.63261771 -0.72728466 0.09723799
-0.41923041 -0.03183852 -0.04830205
-0.07122623 -0.08058819 0.00000268
-0.48683843 0.18308823 -0.14963037
-0.39952284 -0.16455302 0.31066376
-0.35892918 0.37748178 -0.11897401
-0.28456770 -0.08251015 0.00000396
-0.16960628 -0.32526557 0.00000046
-0.65339188 -0.75513153 -0.00597025
-0.33329897 0.05431278 -0.01579254
-0.23386709 -0.74303552 0.00000159
-0.28947408 -0.54065068 -0.00000094
-0.47746058 -0.35270233 0.07488950
-0.15815572 0.41817146 0.02880940
-0.30628836 -0.50850077 0.00000276
-0.51229125 -0.43678864 0.01147412
-0.37835588 -0.11344119 0.05814015
-0.13353416 0.39427510 0.00000293
-0.15617271 -0.73968121 -0.00000075
-0.15111889 0.22497084 -0.00000266
-0.06715539 0.50164942 0.00000447
-0.19419119 0.16970857 0.00000186
-0.12257779 0.07640580 0.00000200
-0.49590559 -0.78823116 -0.00000296
-0.13584969 -0.05001798 0.00000316
-0.75691118 -0.77532529 -0.06752520
-0.43601812 -0.25265300 0.12147774
-0.48665982 -0.60932108 0.00000353
-0.53144133 -0.43119664 -0.01388058
-0.37241113 0.33655401 -0.11672863
-0.04602310 -0.63770910 0.00000023
-0.05727294 0.25430868 0.00000364
-0.02003861 -0.27759703 0.00000151
-0.28590847 -0.12619232 0.00000383
-0.19104514 0.20615718 0.00000430
-0.49684196 -0.39949071 0.01264367
-0.15572645 -0.54432025 -0.00000014
-0.03295846 0.58442741 0.00000639
-0.03008624 -0.61044465 0.00000041
-0.51938797 -0.45393074 0.29020798
-0.27348662 0.13972883 0.24142463
-0.33850297 -0.46488631 -0.00000100
-0.30156431 -0.09952786 0.00000401
-0.05776695 -0.62789125 0.00000019
-0.39169352 0.04298928 -0.05053897
-0.25965380 0.17312361 0.25837552
-0.07411722 0.37129846 0.00000411
-0.10960994 0.53536935 0.10180807
-0.32557164 -0.73175363 -0.00000175
-0.40842627 -0.18706156 0.00000438
-0.18514254 -0.75808008 0.00000125
-0.32744635 -0.51511751 0.00000287
-0.42901994 -0.49892914 0.00000353
-0.47049684 -0.65065129 0.00000331
-0.13768053 0.11836566 0.00000889
-0.33172353 -0.22090228 0.00000381
-0.33492253 -0.51117434 0.00000292
-0.29019605 -0.16616589 0.00000023
-0.07412341 0.28158859 0.00000293
-0.11021155 0.25766405 0.00000397
-0.30340256 0.22586451 -0.04242292
-0.29188976 0.18552938 -0.02416974
-0.25423615 0.49860296 -0.08370229
-0.31920222 0.02938040 0.05948001
-0.34379404 -0.07756480 0.00000433
-0.28824446 -0.14881085 0.00000030
-0.03497409 -0.71722852 0.00000047
-0.08691945 -0.69581464 0.00000085
-0.19441191 -0.32782468 0.00000265
-0.07743658 0.61147234 0.00000488
-0.22028392 0.05372369 -0.00000421
-0.32073651 0.02567392 0.08949972
-0.02755932 -0.30159905 0.00000172
-0.43271511 0.16617762 -0.11008420
-0.16693826 0.56125486 -0.04401654
-0.02348942 0.18794669 0.00000323
-0.43901811 -0.73187208 0.00000286
-0.46810197 -0.33182253 0.00000429
-0.04651854 0.74271840 -0.01474047
-0.25588448 0.18224177 0.04376901
-0.19673630 -0.41507674 0.00000002
-0.06767617 -0.41474581 0.00000080
-0.28455809 0.11301385 0.10296198
-0.00596998 0.43004676 0.00000388
-0.16537670 -0.66493058 0.00000142
-0.06819846 0.53940682 0.00000152
-0.19417793 0.22060832 0.00000436
-0.26481105 0.16877552 -0.00216280
-0.34774465 -0.03954313 0.27030955
-0.64546282 -0.18955976 -0.15239162
-0.28067609 -0.77803372 -0.00000163
-0.59239121 -0.15958357 -0.12609135
-0.19334051 0.33323327 0.05071607
-0.58235837 -0.25789371 -0.09325777
-0.30784725 0.32466778 -0.07177641
-0.18575434 0.10521656 0.00000171
-0.21505530 0.06690403 -0.00000409
-0.25150134 0.19280857 0.22672247
-0.23420916 0.30101580 -0.01779835
-0.05444326 0.50536794 0.00000375
-0.23169113 -0.11848556 0.00000353
-0.53786864 0.08608943 -0.15664939
-0.24066486 0.41985843 -0.05382258
-0.65148232 -0.77377985 0.00000401
-0.47021695 -0.33521731 0.14224196
-0.47831915 -0.35478127 0.22873073
-0.60806688 -0.02657555 -0.17187301
-0.00476512 0.13702996 0.00000290
-0.22522840 -0.58352780 0.00000204
-0.08613700 -0.43928199 0.00000165
-0.00571137 0.13464101 -0.00000897
-0.20057077 -0.51286144 0.00000211
-0.18041585 0.22092364 0.00000734
-0.51725792 -0.44878849 0.30027064
-0.03150171 0.24067875 0.00000344
-0.41103919 0.24705045 -0.11773318
-0.28618318 0.07036244 0.00000099
-0.00600507 -0.36964270 0.00000138
-0.46335214 -0.52651344 0.00000365
-0.69205044 -0.36991111 -0.13420274
-0.42489811 0.31097358 -0.14382853
-0.56793141 -0.46585633 -0.02819906
-0.30233673 0.07007862 0.23447134
-0.30786734 0.05672573 0.25410625
-0.12980923 0.34951223 0.00000438
-0.20963698 0.29387985 0.18496042
-0.15098174 -0.22659530 0.00000088
-0.31173785 -0.28163852 0.00000350
-0.47520879 -0.34727163 0.21446719
-0.61998180 -0.54574766 -0.04046341
-0.51363646 -0.44003773 0.04737408
-0.46560710 0.21709611 -0.14500831
-0.31824724 -0.73638830 -0.00000172
-0.50762169 -0.15966432 -0.07123124
-0.67616688 -0.06990748 -0.20431653
-0.39689247 0.34600185 -0.13509757
-0.18069557 0.01713474 0.00000912
-0.07018660 -0.43563468 0.00000072
-0.27653981 0.34500495 -0.05697106
-0.29693211 0.08312375 0.31303542
-0.29550157 -0.30363839 -0.00000023
-0.59952275 -0.64738835 0.14426886
-0.55863192 -0.35675642 -0.05141755
-0.14140261 -0.68799977 0.00000120
-0.39093271 -0.56175054 0.00000310
-0.41384760 -0.19913561 0.29767954
-0.02146791 0.52413816 0.00000401
-0.25735608 0.17868049 0.14936889
-0.09524455 0.65131815 -0.02177036
-0.13578691 0.46322797 0.00000313
-0.37964543 0.19876376 -0.08448421
-0.64598806 -0.75956273 0.09791020
-0.47560518 -0.48569398 0.00000385
-0.19433125 0.02699300 -0.00000556
-0.39175096 0.05594571 -0.05404427
-0.21389785 0.28359780 0.13035280
-0.42696310 0.19183553 -0.11323869
-0.02066064 0.75011655 0.00292178
-0.04873827 0.05241251 0.00001081
-0.21358762 0.14576585 0.00000750
-0.05705202 0.17532115 0.00000339
-0.18362242 -0.67966828 0.00000148
-0.64935983 -0.09500728 -0.18024896
-0.19269768 0.33477776 0.07423516
-0.12021459 0.16954506 -0.00000477
-0.35316026 -0.20048119 0.00000401
-0.04322806 0.59638916 0.00000613
-0.52650697 0.06676319 -0.14412195
-0.36862307 -0.08994893 0.17953798
-0.71515574 -0.01932802 -0.24309220
-0.38307963 -0.61897400 0.00000288
-0.51565263 -0.44490483 0.03809785
-0.44973101 -0.41451628 0.00000392
-0.48663893 -0.37486652 0.21542145
-0.05599750 -0.33394767 0.00000112
-0.28538696 0.22118884 -0.02951832
-0.54420645 -0.51384254 0.10143483
-0.01661410 0.64385165 0.00000461
-0.64302534 -0.75240902 0.00186640
-0.00711979 0.20840593 0.00000319
-0.23590036 -0.11266987 0.00000357
-0.33817517 0.26728831 -0.07601869
-0.30464283 0.24450899 -0.04822405
-0.68174384 -0.52518435 -0.08592820
-0.02349451 0.03688291 0.00001132
-0.31409570 -0.78518635 -0.00000185
-0.31884942 -0.08794425 0.00000030
-0.13950497 -0.78702909 0.00000088
-0.16991835 -0.00736594 0.00000145
-0.00654829 -0.13261376 0.00000205
-0.29346777 0.09150369 0.11080794
-0.15076069 0.26290933 0.00000742
-0.00178390 0.01665460 0.00001183
-0.13478690 -0.52123740 0.00000168
-0.14192929 -0.77428121 -0.00000078
-0.08518849 -0.40367831 0.00000175
-0.36135501 -0.07240240 0.18354504
-0.44032594 -0.45070055 0.00000375
-0.47793320 -0.35384991 0.23848239
-0.28014977 -0.45456952 0.00000277
-0.46657604 -0.32642635 0.11733502
-0.45895783 -0.78630438 0.00000281
-0.24505552 0.02832811 0.00000111
-0.24733176 0.14664374 0.00000698
-0.34976335 -0.79375757 -0.00000209
-0.15407168 0.42803582 0.04195000
-0.26339901 -0.35802254 -0.00000021
-0.30580547 0.06170438 0.23310279
-0.32448240 0.01663394 0.04927755
-0.55275907 -0.53449369 0.22831723
-0.32420361 0.01729562 0.18933127
-0.48611217 -0.37358898 0.07061449
-0.36779471 -0.08794746 0.13946279
-0.54070853 -0.36058814 -0.03879593
-0.42348850 -0.22240749 0.21429160
-0.08996325 -0.56604069 0.00000019
-0.42200850 -0.21882935 0.08742041
-0.11547559 0.22056470 0.00000249
-0.53118770 -0.17306154 -0.08288647
-0.35824025 0.07609222 -0.03776789
-0.11221540 -0.58227026 0.00000136
-0.05489961 -0.66092322 0.00000010
-0.28074737 -0.04385636 0.00000406
-0.39114273 -0.24638827 -0.00000063
-0.02851210 0.37365564 -0.00000320
-0.05229703 0.08050907 0.00000307
-0.52239487 0.12635044 -0.15742880
-0.53111154 -0.58774853 0.00000387
-0.24786392 -0.41078106 0.00000271
-0.02544449 0.63591118 0.00000228
-0.35081013 -0.04693833 0.20362480
-0.32228072 -0.59627244 0.00000258
-0.20267816 0.31067871 0.17360209
-0.45405035 -0.29618487 0.07425178
-0.47550980 0.05604625 -0.10825704
-0.20585535 0.46686047 -0.04389734
-0.27131556 -0.62102944 0.00000220
-0.33293390 -0.60833755 0.00000261
-0.11009788 0.36651278 0.00000431
-0.35624413 -0.26137773 -0.00000047
-0.09093081 0.58567510 -0.00138866
-0.05411150 -0.79116884 0.00000035
-0.07456023 -0.21286963 0.00000228
-0.01504786 0.32230681 0.00000342
-0.10998217 0.49475020 0.00000183
-0.60507059 -0.66077966 0.04516962
-0.30668395 -0.46889570 -0.00000082
-0.59641061 -0.63987519 0.18749926
-0.02486006 -0.19782883 0.00000203
-0.07598621 -0.10573658 0.00000171
-0.10439442 -0.35631506 0.00000202
-0.00138111 0.73214873 0.00000557
-0.40781747 -0.18456575 0.00459367
-0.52503281 -0.46755825 0.27116980
-0.27219205 0.08577550 0.00000441
-0.32003412 -0.60433798 -0.00000132
-0.37203755 -0.66502634 0.00000267
-0.19545918 -0.05615401 0.00000114
-0.12975056 0.48674409 0.11927674
-0.16238358 0.42600205 -0.00482768
-0.04272268 -0.01074234 0.00000272
-0.04580706 0.57148516 0.00000631
-0.74785233 -0.39679005 -0.16309816
-0.12244993 -0.36678387 0.00000209
-0.00512806 -0.76111757 0.00000015
-0.13547209 0.47293556 0.00724622
-0.51522307 -0.44387033 0.10206039
-0.52235421 0.20172263 -0.17759925
-0.61038545 -0.30931679 -0.09760950
-0.04259697 -0.26982285 0.00000140
-0.38764393 -0.13587113 0.22121316
-0.30147755 0.07215455 0.19258379
-0.03045338 0.54446611 0.00000402
-0.47848583 -0.77633827 0.00000296
-0.23568771 0.23098835 0.12523395
-0.08270820 -0.72815216 0.00000072
-0.25033754 -0.61518245 0.00000209
-0.22752116 0.27062264 -0.00533049
-0.70095058 -0.00658541 -0.23731722
-0.43248698 -0.73132118 0.00000282
-0.12029017 0.65019909 -0.03767267
-0.23875135 0.22359601 0.02677474
-0.39883056 -0.16287648 0.18075570
-0.31123158 0.36796160 -0.08556585
-0.23311717 0.23720913 0.00565163
-0.51412514 -0.23081764 -0.05637214
-0.02400700 0.55279330 0.00000408
-0.46818745 -0.56707646 -0.00000210
-0.05646450 -0.62820537 0.00000088
-0.02036690 0.33860125 0.00000873
-0.69193569 -0.39423976 -0.12760940
-0.42308568 -0.22143591 0.23685031
-0.23450735 -0.57880719 -0.00000072
-0.21438521 0.07382735 0.00000402
-0.31302497 0.36525806 -0.08600252
-0.27902409 0.12637131 0.13471849
-0.05138624 -0.71951467 -0.00000006
-0.04801708 -0.11986951 0.00000242
-0.65056265 -0.16354559 -0.16266153
-0.32752500 0.00927052 0.18744883
-0.38188183 -0.12196317 0.29670871
-0.04700201 -0.15118917 0.00000174
-0.27754669 -0.51163968 0.00000258
-0.05346082 0.35521887 0.00000393
-0.60818490 -0.22335142 -0.11922124
-0.21380937 0.28380411 0.20869364
-0.08462960 0.59567958 0.02985272
-0.09780953 0.56385765 0.09663455
-0.54516056 0.00844350 -0.14056183
-0.27945180 -0.61335401 0.00000227
-0.44286065 -0.50743607 -0.00000176
-0.20539520 0.30412681 0.10414990
-0.42339630 -0.17585980 -0.01240503
-0.11225462 0.07725468 0.00000963
-0.05234806 0.26530762 0.00000365
-0.08751512 0.58871093 0.08921308
-0.06002836 -0.39001610 0.00000164
-0.03764886 0.25004576 -0.00000555
-0.34012135 -0.04746867 0.00000030
-0.14938131 -0.42983691 0.00000026
-0.29713023 0.08264818 0.23678443
-0.73453264 -0.36026557 -0.16426893
-0.29331512 0.09186073 0.18570507
-0.52912574 0.16455307 -0.17201987
-0.44740887 -0.28016086 0.32262644
-0.14435159 0.35188413 0.00000273
-0.19766898 0.24991517 0.00000447
-0.19962810 -0.19551745 0.00000068
-0.62906061 -0.48361561 -0.06298553
-0.42838938 -0.13020666 -0.02786834
-0.16873412 -0.45753214 0.00000209
-0.43807657 -0.63980324 0.00000314
-0.10878905 0.39519144 -0.00000032
-0.21407630 0.09211525 0.00000408
-0.05986007 0.10119649 0.00000245
-0.18654932 0.40807233 -0.01565635
-0.41943784 0.28308458 -0.13282265
-0.52106638 -0.27279577 -0.04961404
-0.13693966 0.46938945 0.11638301
-0.29824925 0.05507816 0.00000087
-0.59455736 -0.20169168 -0.11620936
-0.44547751 -0.27549726 0.30054929
-0.74335115 -0.51907555 -0.12741852
-0.03090310 0.64072410 0.00000432
-0.22970871 -0.57551168 0.00000209
-0.33750397 0.26147999 -0.07402801
-0.70891462 -0.77815795 -0.03571755
-0.28430910 0.11360445 0.23227172
-0.04371347 0.31830012 0.00000856
-0.27473940 0.13670893 0.12768762
-0.27673371 -0.31900665 -0.00000017
-0.00277918 -0.23591304 0.00000178
-0.37503690 -0.10543133 0.13037807
-0.41484602 -0.72247231 0.00000275
-0.39130093 -0.14470717 0.40146988
-0.02658516 -0.31955761 0.00000166
-0.31908369 0.02964404 0.32793584
-0.50402637 -0.34612489 -0.01894135
-0.00252397 0.02761808 -0.00001134
-0.39021423 -0.59240663 -0.00000171
-0.08397813 -0.68258497 -0.00000014
-0.43182037 0.20181383 -0.11905620
-0.38970222 -0.14083816 0.16820397
-0.32395492 -0.60782967 -0.00000135
-0.10295510 -0.77082922 -0.00000053
-0.04074593 0.35199244 0.00000385
-0.13846846 0.34086132 -0.00000058
-0.35778242 -0.09771346 0.00000435
-0.05006578 -0.18651263 0.00000222
-0.21459812 0.17939981 0.00000177
-0.56626151 -0.30453139 -0.07034746
-0.43632062 -0.25338084 0.05989209
-0.71331826 -0.40224307 -0.13929713
-0.63061446 -0.72244850 0.12175386
-0.48812693 -0.16792411 -0.05640654
-0.02469599 0.19874074 0.00000989
-0.05862639 -0.03005804 0.00000205
-0.55990801 -0.19484938 -0.09562773
-0.38370240 -0.12635374 0.18006552
-0.20812457 0.29753929 0.08374574
-0.32014111 -0.53900266 0.00000275
-0.18263209 0.44168173 -0.02212823
-0.49186127 -0.59636360 -0.00000233
-0.55989411 0.01603909 -0.15212847
-0.02953145 -0.62075124 0.00000074
-0.44292792 -0.65381420 0.00000313
-0.11644365 0.51887117 0.08794609
-0.03111668 -0.14734746 0.00000223
-0.32982035 -0.07365490 0.00000028
-0.13778509 -0.06719868 0.00000146
-0.59522036 -0.63700168 0.11076175
-0.21010825 0.19636661 0.00000438
-0.45119306 -0.42356111 0.00000390
-0.44115796 -0.42196330 -0.00000148
-0.40962038 -0.27527700 -0.00000083
-0.23792229 0.22559669 0.15377656
-0.25842354 0.40458595 -0.06121724
-0.17121029 0.38666098 0.03231548
-0.34180405 -0.02519628 0.03888009
-0.45458526 -0.54227234 -0.00000194
-0.36065254 -0.38057439 0.00000349
-0.27880715 -0.63238307 -0.00000116
-0.24212030 0.09277860 0.00000753
-0.67295641 -0.79922030 -0.00681255
-0.33942620 -0.50355451 0.00000298
-0.20423086 -0.16515556 0.00000075
-0.26039519 0.06658550 -0.00000273
-0.67940000 -0.10625313 -0.19666888
-0.27977929 0.12454650 0.00405243
-0.43641877 -0.35911793 -0.00000126
-0.20512257 -0.08318264 0.00000348
-0.13306439 0.31825356 0.00000269
-0.04041636 -0.41034464 0.00000097
-0.38397541 0.33348701 -0.12338753
-0.48255663 -0.18894072 -0.04717143
-0.38962357 -0.14065339 0.29526531
-0.40338870 -0.23931976 0.00000419
-0.76766007 -0.65526907 -0.10664909
-0.14737085 -0.54641673 0.00000168
-0.12806388 0.38714955 0.00000448
-0.40379982 -0.17486977 0.09162491
-0.02944120 -0.34632722 0.00000124
-0.47518806 -0.34721709 0.10317398
-0.30149229 0.07212239 0.10756180
-0.29376885 0.32314488 -0.06226083
-0.71839926 -0.02136480 -0.24464470
-0.06734884 0.26227042 0.00000291
-0.14874953 -0.26283601 0.00000258
-0.37253001 -0.09938498 0.27499755
-0.07714750 -0.79888623 -0.00000046
-0.50049765 -0.40832055 0.11701462
-0.13253177 0.44519006 0.00000146
-0.35969714 -0.57205709 0.00000288
-0.15204219 -0.57661329 -0.00000022
-0.19274560 0.02596145 0.00000374
-0.61892385 -0.62606499 -0.01825715
-0.36256369 -0.07532788 0.36926056
-0.18966890 0.34208479 0.20151613
-0.15135592 0.47344699 -0.01040521
-0.59526881 0.09759337 -0.19686612
-0.72350386 -0.08616614 -0.23058273
-0.06720159 -0.54742634 0.00000119
-0.05043253 0.15615897 0.00000987
-0.64167151 -0.77366932 0.00000396
-0.10658523 0.56433074 -0.00579622
-0.24268919 0.21408959 0.14111577
-0.59956320 -0.25067913 -0.10632101
-0.69095688 -0.53075697 -0.09039489
-0.30098850 0.07334268 0.16815693
-0.11225431 0.52898591 0.06893094
-0.18032352 0.30422035 0.00000454
-0.28295344 0.38657324 -0.07225938
-0.30906753 0.10059929 -0.01252436
-0.10433747 -0.01496713 0.00000308
-0.18265203 0.07822856 0.00000856
-0.25800269 0.17712011 0.14130700
-0.71337853 -0.46565296 -0.12234468
-0.23708886 0.22760483 0.14638197
-0.27000081 -0.64183341 -0.00000114
-0.24539835 0.18750048 0.00000160
-0.10469433 0.54723640 0.09276348
-0.19908826 0.31935037 0.13491427
-0.71613455 -0.12163074 -0.21631234
-0.39829823 -0.50236642 -0.00000147
-0.38803807 -0.48399207 -0.00000135
-0.27870584 0.12713401 0.20395848
-0.11730235 0.63250118 -0.03099763
-0.27935014 0.12557071 0.29881002
-0.32437773 -0.12581059 0.00000406
-0.51942980 -0.56313869 -0.00000239
-0.07609936 -0.76207071 -0.00000034
-0.36102494 -0.28366827 -0.00000057
-0.33423778 -0.46820693 0.00000305
-0.53820048 -0.49934339 0.11550001
-0.11697119 0.51760611 0.00218191
-0.04843836 0.35366650 0.00000331
-0.13211293 0.43991039 0.00000467
-0.08745496 0.58886033 0.04061401
-0.13867974 0.46518926 0.06535831
-0.30001417 0.07569371 0.03763093
-0.09464414 0.31249324 0.00000784
-0.30102747 -0.66103937 -0.00000138
-0.01175265 0.58692211 0.00000441
-0.46815159 -0.33023706 0.29064707
-0.01417833 0.02402874 0.00000249
-0.24751291 0.20243825 0.16245979
-0.48205459 -0.36380085 0.26346697
-0.33185130 -0.00117119 0.11436859
-0.48725975 -0.41064632 0.00000416
-0.13837354 -0.75784608 0.00000097
-0.07932625 -0.61911228 0.00000009
-0.25508368 -0.07364112 0.00000073
-0.31697130 0.08102278 -0.01238728
-0.28583213 0.10993298 0.16592596
-0.24552493 -0.47264414 0.00000250
-0.06371951 0.42304057 0.00000421
-0.20125767 0.31410958 0.13621323
-0.03100990 0.65676211 0.00000289
-0.49368053 -0.70985827 -0.00000270
-0.49652353 -0.57210119 0.00000371
-0.33190539 0.12864005 -0.03480867
-0.33384281 -0.00597641 0.04666738
-0.50948744 -0.43002140 0.05565383
-0.38823400 -0.13729717 0.25844995
-0.52326013 -0.48695458 -0.00000218
-0.20527270 -0.33349649 0.00000270
-0.41618545 -0.62946517 0.00000304
-0.32125908 0.02440388 0.03625218
-0.65010272 -0.78572925 0.00000397
-0.01038449 -0.21502319 0.00000177
-0.39150160 -0.79634478 0.00000237
-0.00537996 0.16519638 -0.00000833
-0.44643916 -0.06909276 -0.05592107
-0.73825761 -0.40717603 -0.15410837
-0.04697180 0.44333149 0.00000360
-0.03259428 0.16435304 0.00000321
-0.22893203 0.24730069 0.15471408
-0.23418291 0.23462669 0.12320958
-0.25673615 0.18018070 0.10515911
-0.08383737 -0.59320375 0.00000115
-0.47615497 -0.06063972 -0.07740969
-0.12189854 0.48031650 0.00000474
-0.04370193 0.69448929 0.02225008
-0.11933160 0.10006425 -0.00000627
-0.36730811 -0.08677734 0.25493578
-0.55538545 -0.54082742 0.01006387
-0.11536320 -0.11228323 0.00000285
-0.43344719 -0.25616832 0.00000432
-0.04930308 -0.35735232 0.00000168
-0.26818533 -0.55926006 0.00000237
-0.26434010 -0.28032324 0.00000003
-0.04428956 -0.29574556 0.00000184
-0.72795099 -0.42168910 -0.14355214
-0.65994865 -0.15436897 -0.17119242
-0.33236718 -0.29220150 -0.00000042
-0.55294504 -0.36649355 -0.04512947
-0.01097922 -0.70296839 0.00000024
-0.36306687 -0.18887276 -0.00000028
-0.43194226 0.03103005 -0.07336839
-0.30346511 0.06735459 0.28047822
-0.04993053 -0.23248977 0.00000207
-0.27240145 -0.34180406 0.00000308
-0.34023764 0.02043513 -0.01120307
-0.10276617 0.55189105 0.10620289
-0.47986363 0.20960446 -0.15222304
-0.12622018 -0.33306222 0.00000070
-0.16917357 -0.09483740 0.00000322
-0.20949230 0.29422965 0.17867598
-0.25507080 0.18419331 0.12573384
-0.31998043 0.31697318 -0.07756367
-0.37443120 -0.24334109 -0.00000052
-0.61334768 -0.01543989 -0.17827172
-0.31589894 0.08788349 -0.01353203
-0.54190929 -0.09099271 -0.11181359
-0.72524530 -0.28914843 -0.17731771
-0.52927147 -0.47778261 0.01145565
-0.60021897 -0.75915706 0.00000375
-0.27734683 -0.48189221 -0.00000068
-0.35845539 -0.68015358 -0.00000179
-0.46325903 -0.44847397 0.00000389
-0.53313146 -0.50396912 -0.00000229
-0.02561476 0.59466135 0.00000451
-0.30383033 0.36611280 -0.08028235
-0.41012488 -0.10300769 -0.02334105
-0.46839213 -0.33081131 0.13024382
-0.38953346 -0.14042916 0.12888389
-0.16778522 0.59493986 -0.05359070
-0.25289569 0.38522151 -0.05245198
-0.27500063 0.13607570 0.24494146
-0.05721893 0.42385703 -0.00000127
-0.11048132 0.60017839 -0.01792289
-0.32282759 -0.00151596 0.00000055
-0.61449790 -0.50831489 -0.04694630
-0.32375447 0.27802136 -0.06956760
-0.04294114 -0.56419960 0.00000100
-0.17316255 -0.45625063 0.00000003
-0.47391231 -0.40825357 -0.00000164
-0.30394654 0.06619879 0.07049024
-0.10375300 0.60526813 -0.01493501
-0.53684392 0.15439952 -0.17429170
-0.16792742 -0.55585980 0.00000178
-0.60688301 -0.66515719 0.20376963
-0.24676856 0.20424073 0.14791727
-0.09389904 -0.18459173 0.00000136
-0.12101671 0.37024725 0.00000693
-0.07199677 -0.40551889 0.00000167
-0.21512291 0.28063270 0.21442388
-0.29215737 0.34988590 -0.06838244
-0.10524474 -0.28657329 0.00000224
-0.08753434 -0.24499676 0.00000121
-0.08720410 0.36649496 -0.00000158
-0.11877251 0.19060035 0.00000238
-0.72130907 -0.62627035 -0.08443553
-0.01491114 0.26089688 0.00000341
-0.45957546 0.03466734 -0.09221973
-0.44725186 -0.20900556 -0.01895574
-0.23523136 0.02308394 0.00000115
-0.00760016 -0.17139186 0.00000201
-0.75328959 -0.47966156 -0.14440907
-0.30300726 -0.21134832 0.00000367
-0.14938091 0.61235867 -0.04635205
-0.36248108 -0.72437655 0.00000242
-0.68120430 -0.70249770 -0.03806602
-0.74014598 -0.48117293 -0.13550158
-0.60698741 0.03733012 -0.18829888
-0.16957909 -0.49172372 0.00000199
-0.24554971 0.20717566 0.24158276
-0.21945289 0.31484088 -0.01195687
-0.09247272 0.02175598 0.00000313
-0.07507595 0.61291789 0.00000396
-0.32587326 0.01325241 0.34185523
-0.18851024 -0.47360086 0.00000216
-0.49735765 -0.75371072 0.00000315
-0.29621235 0.32722562 -0.06493338
-0.01112081 0.22447961 0.00000327
-0.37063089 0.25429564 -0.09353349
-0.00877195 0.03410966 0.00000266
