ply
format ascii 1.0
element vertex 1406
property float x
property float y
property float z
end_header
0.23922475 0.59300178 0.02200606
-0.06596908 -0.20589441 0.00000000
-0.55412692 -0.71218836 0.00000000
0.21619029 -0.25657815 0.00000000
0.66696137 -0.28183424 0.00000000
0.41560543 0.51010710 0.08584152
-0.27463815 0.70821810 0.00000000
0.26331916 0.43394151 0.00000000
0.71487343 -0.08908055 0.00000000
-0.41804051 0.17777477 0.00000000
-0.59203219 0.66085380 0.00000000
0.48970899 -0.18620743 0.00000000
0.63107115 -0.18285508 0.00000000
-0.32631144 0.74616826 0.00000000
0.02363619 0.16189083 0.00000000
0.28677386 -0.60255170 0.00000000
-0.19600078 -0.06277091 0.00000000
0.56562167 -0.75881946 0.00000000
-0.21771275 0.39094484 0.00000000
0.19321366 0.59206057 0.00000000
-0.67585373 0.38568151 0.00000000
-0.13881248 -0.01231332 0.00000000
-0.13830946 -0.07484725 0.00000000
-0.64486837 0.31399092 0.00000000
-0.30306289 0.59166324 0.00000000
0.74038726 -0.01694912 0.00000000
0.66395223 0.04602693 0.00000000
-0.53798324 -0.69337648 0.00000000
-0.44476077 0.74852526 0.00000000
0.00506884 0.74633205 0.00000000
-0.48050320 0.69988674 0.00000000
0.35391331 -0.25741762 0.00000000
0.39281535 -0.73723543 0.00000000
0.34467858 -0.55233783 0.00000000
0.20436925 0.75043058 0.10570369
0.52720183 -0.52301931 0.00000000
-0.11927154 -0.77002311 0.00000000
0.25541002 -0.04841737 0.00000000
0.20324527 -0.31311485 0.00000000
0.10178819 0.02563295 0.00000000
0.08786821 0.34178811 0.00000000
0.26646319 -0.43432075 0.00000000
-0.75539678 -0.08686899 0.00000000
0.46972421 0.21726480 0.00000000
-0.25426573 -0.37143239 0.00000000
-0.08153233 -0.15542202 0.00000000
-0.47970325 0.15588827 0.00000000
-0.68745291 0.03869121 0.00000000
0.25796491 0.71039438 0.11496250
-0.24660985 -0.52152050 0.00000000
0.77464753 -0.26684707 0.00000000
0.02353921 -0.44926631 0.00000000
0.13690346 -0.61735237 0.00000000
-0.77265233 0.67602336 0.00000000
-0.10322059 -0.72361934 0.00000000
0.27101681 -0.54968703 0.00000000
0.42355311 0.71480703 0.23104547
0.43812579 -0.12022024 0.00000000
-0.10362310 -0.00586638 0.00000000
-0.06290512 0.41488338 0.00000000
-0.42081189 0.22404975 0.00000000
-0.36917788 -0.71509451 0.00000000
0.18859214 -0.65522623 0.00000000
0.76689428 -0.47660711 0.00000000
-0.32269254 -0.55989534 0.00000000
0.71817476 0.20844306 0.08645969
0.58068138 0.12896448 0.00000000
-0.48216906 -0.78604347 0.00000000
-0.33396968 0.11617334 0.00000000
0.04030541 0.47802842 0.00000000
-0.21085697 -0.47383669 0.00000000
-0.34377259 -0.79569769 0.00000000
0.73534691 -0.60971206 0.00000000
-0.60539120 0.70105541 0.00000000
-0.60622567 -0.09343583 0.00000000
-0.37256974 0.45237860 0.00000000
-0.58293229 0.49992961 0.00000000
0.22232597 0.49297139 0.00000000
-0.60684818 0.12920725 0.00000000
0.07735304 0.53929406 0.00000000
-0.79166651 -0.64677483 0.00000000
0.10465907 -0.15391816 0.00000000
-0.79808605 0.58132333 0.00000000
-0.25741890 0.14750113 0.00000000
0.01166919 -0.52299553 0.00000000
-0.38454214 -0.13474376 0.00000000
0.14564948 0.52611697 0.00000000
-0.50256282 -0.03519251 0.00000000
-0.27509588 -0.61390710 0.00000000
0.50412506 -0.22911188 0.00000000
0.34657326 -0.17894055 0.00000000
0.01803586 0.15873963 0.00000000
0.23813967 0.10580829 0.00000000
-0.43257064 0.40857720 0.00000000
0.63952160 -0.14707412 0.00000000
-0.05952324 0.05223496 0.00000000
0.29264286 -0.65527749 0.00000000
-0.76053607 0.60581106 0.00000000
0.11991036 -0.47537199 0.00000000
0.04621426 0.31038147 0.00000000
0.51471013 0.65870029 0.25497895
-0.39510283 -0.21222512 0.00000000
-0.46973705 0.02175222 0.00000000
0.07462521 -0.59192133 0.00000000
-0.29627094 0.48714855 0.00000000
0.22835977 0.05950229 0.00000000
-0.40512186 0.77188420 0.00000000
-0.48232576 -0.26104060 0.00000000
-0.33221847 -0.23785309 0.00000000
-0.11355719 0.06069706 0.00000000
-0.22815272 -0.30987200 0.00000000
0.09394840 0.25031298 0.00000000
0.11616405 -0.21719258 0.00000000
-0.22287145 -0.58081079 0.00000000
-0.46977147 -0.41541272 0.00000000
-0.65681428 -0.70090741 0.00000000
-0.16997585 -0.33983448 0.00000000
-0.79246867 -0.48698685 0.00000000
-0.58777767 -0.48406065 0.00000000
-0.51939207 -0.37274992 0.00000000
0.35986727 -0.59170973 0.00000000
0.11379693 0.23925991 0.00000000
-0.49488071 -0.23071922 0.00000000
-0.06125442 0.53393841 0.00000000
-0.70525509 0.38970751 0.00000000
0.15318814 -0.27548575 0.00000000
0.51362121 0.42082614 0.09180599
0.63523787 0.61941367 0.31045336
0.25161135 -0.73058873 0.00000000
-0.54319787 0.42028645 0.00000000
-0.33343083 -0.73589325 0.00000000
0.49599826 -0.72495431 0.00000000
-0.69222623 0.43695953 0.00000000
-0.51288402 0.31840131 0.00000000
-0.68637407 0.02346580 0.00000000
0.46089590 -0.15708426 0.00000000
-0.50762516 0.13018776 0.00000000
0.10045162 0.15393649 0.00000000
-0.09103783 0.20313841 0.00000000
-0.60644722 -0.33011106 0.00000000
-0.25820553 0.03429412 0.00000000
0.46640116 0.00755103 0.00000000
-0.70154411 0.78070086 0.00000000
-0.68221599 -0.76806009 0.00000000
0.16114382 0.01234343 0.00000000
0.46818686 -0.16978119 0.00000000
0.05485929 0.47974738 0.00000000
-0.26269010 -0.78251606 0.00000000
-0.79119843 -0.24169505 0.00000000
-0.33271217 -0.73142743 0.00000000
0.49410498 -0.25473428 0.00000000
-0.37639138 -0.58407664 0.00000000
0.26406056 -0.32904929 0.00000000
0.47511512 -0.12653436 0.00000000
0.31873947 -0.53203952 0.00000000
0.39183515 -0.10518184 0.00000000
-0.20217423 -0.47183567 0.00000000
-0.53764516 -0.44158190 0.00000000
0.23356932 -0.42701674 0.00000000
-0.11760844 0.10383361 0.00000000
-0.66463965 0.24321878 0.00000000
-0.66501355 -0.63966054 0.00000000
0.55487680 -0.03123506 0.00000000
0.06975259 0.77752441 0.03228313
0.44819191 -0.65803581 0.00000000
-0.00826336 0.24120715 0.00000000
-0.66186738 -0.49399886 0.00000000
-0.00403217 -0.48728812 0.00000000
0.68402898 -0.17992385 0.00000000
-0.26044840 0.58123386 0.00000000
0.61344165 0.64190948 0.31093112
-0.20824459 -0.75691468 0.00000000
-0.44950676 0.60633898 0.00000000
-0.76754630 0.35748062 0.00000000
-0.59833622 0.07919522 0.00000000
0.75218266 -0.42999884 0.00000000
0.61044914 -0.57779551 0.00000000
0.43886167 -0.10120176 0.00000000
-0.62513095 -0.28980145 0.00000000
-0.48873553 -0.07940318 0.00000000
0.65773785 0.06224280 0.00000000
0.12940672 0.05796028 0.00000000
-0.27406749 -0.17774975 0.00000000
-0.40203318 -0.34364861 0.00000000
-0.62449670 0.44091514 0.00000000
-0.61818701 0.05037761 0.00000000
-0.31996402 -0.15505593 0.00000000
0.24162006 -0.53427494 0.00000000
0.71210265 -0.02605038 0.00000000
0.58429283 -0.65489733 0.00000000
-0.57207906 0.03668191 0.00000000
-0.12555973 -0.11285726 0.00000000
-0.56289083 -0.16154054 0.00000000
0.11365180 -0.02011113 0.00000000
0.65113258 0.67478180 0.35911444
0.19544856 0.49586576 0.00000000
0.56752133 -0.78078979 0.00000000
0.15524450 0.18420295 0.00000000
0.29912934 0.27326652 0.00000000
-0.10074400 0.67470306 0.00000000
-0.68963492 0.56345129 0.00000000
-0.44205987 0.22449060 0.00000000
-0.26075056 0.01246758 0.00000000
-0.74301291 -0.71383590 0.00000000
-0.79693741 0.12583020 0.00000000
-0.76830864 -0.01172231 0.00000000
0.77097839 -0.12793139 0.00000000
0.70515805 -0.20027789 0.00000000
0.69210702 -0.60553104 0.00000000
-0.14919797 -0.16944283 0.00000000
0.56888080 -0.55391717 0.00000000
-0.30780470 0.50359792 0.00000000
-0.49077779 -0.27183038 0.00000000
0.06509496 0.13210995 0.00000000
0.02320780 -0.31769326 0.00000000
0.57016194 -0.10363040 0.00000000
-0.59642506 -0.12174764 0.00000000
-0.67052537 -0.66252911 0.00000000
-0.35634521 -0.75874418 0.00000000
0.64994878 0.22545555 0.05148938
0.61103326 0.43465301 0.16776375
0.03855683 0.03761200 0.00000000
-0.56317347 0.42632353 0.00000000
-0.07040972 0.02170588 0.00000000
0.66143477 0.14609279 0.00514075
-0.75443375 0.52523386 0.00000000
0.23356390 0.68267977 0.07937593
0.37365711 -0.79175377 0.00000000
-0.29920417 0.24689850 0.00000000
0.18444330 0.21856390 0.00000000
-0.19754313 0.52126694 0.00000000
-0.23164073 0.10538921 0.00000000
-0.40835062 0.10214863 0.00000000
0.17881015 -0.66656989 0.00000000
0.49296832 -0.27749312 0.00000000
-0.70028204 0.54778355 0.00000000
0.09904240 0.33000538 0.00000000
-0.26143324 0.27279434 0.00000000
-0.14008176 -0.42281458 0.00000000
0.24727505 -0.07161738 0.00000000
-0.60193032 0.15530954 0.00000000
0.13381694 -0.51387459 0.00000000
0.16559651 0.03603825 0.00000000
-0.56175429 -0.38364384 0.00000000
-0.52688068 0.32824689 0.00000000
-0.54270011 0.21230373 0.00000000
-0.57055348 -0.75964153 0.00000000
0.08397563 -0.42208350 0.00000000
-0.47899243 -0.36397207 0.00000000
0.54998499 -0.10714897 0.00000000
0.54575610 -0.05076666 0.00000000
0.00070108 0.20930506 0.00000000
0.55734909 0.21757364 0.00000000
-0.28766707 -0.59569353 0.00000000
-0.61886305 0.65173048 0.00000000
-0.43022582 -0.32396570 0.00000000
0.21352509 0.08445773 0.00000000
-0.29358318 -0.71962750 0.00000000
0.41376525 -0.39066735 0.00000000
0.27553573 0.65432543 0.08867439
0.48425940 0.65254271 0.22998144
0.32865456 -0.63947582 0.00000000
-0.35627899 -0.55367786 0.00000000
-0.78391033 -0.04765760 0.00000000
-0.59975743 0.78804076 0.00000000
-0.53301674 0.14590275 0.00000000
-0.34482664 -0.50237805 0.00000000
-0.72689879 0.51861042 0.00000000
-0.49047884 -0.43541798 0.00000000
-0.45889705 -0.05507155 0.00000000
0.22283050 -0.68738401 0.00000000
0.48086324 0.00076887 0.00000000
0.11341090 -0.38343585 0.00000000
0.74191731 0.02636975 0.00000000
0.08986093 -0.48331535 0.00000000
-0.11819784 0.20532911 0.00000000
0.36365157 -0.12000464 0.00000000
0.02244581 -0.22486559 0.00000000
-0.19523250 0.45506233 0.00000000
0.63483018 0.09367079 0.00000000
-0.67676258 0.23888145 0.00000000
-0.42464188 0.63199002 0.00000000
0.63651764 0.49744809 0.22804426
0.08029230 -0.02181345 0.00000000
0.07393209 0.29704985 0.00000000
-0.59178597 0.41094154 0.00000000
-0.43457136 -0.76390249 0.00000000
0.66347212 0.07283565 0.00000000
0.10816557 -0.25649828 0.00000000
0.66158378 0.27380249 0.09244711
-0.50744867 0.32306954 0.00000000
-0.56752318 -0.79366815 0.00000000
-0.26674837 -0.20833769 0.00000000
0.18157201 -0.50628167 0.00000000
-0.74500424 -0.65212220 0.00000000
0.49999201 -0.15611815 0.00000000
0.63254112 -0.11375083 0.00000000
-0.37340567 -0.51892757 0.00000000
-0.12742177 0.69423378 0.00000000
-0.00918394 0.14403816 0.00000000
0.47263557 0.65833610 0.22600020
-0.20496872 0.65941954 0.00000000
-0.20711543 0.66738623 0.00000000
-0.28588548 -0.05147271 0.00000000
-0.12517799 0.29141247 0.00000000
-0.68317533 0.63821310 0.00000000
0.62123853 0.41480118 0.16117676
0.06484688 -0.00133256 0.00000000
0.67980683 -0.41987908 0.00000000
-0.47861952 0.76312912 0.00000000
-0.18557855 -0.09116595 0.00000000
0.48649117 -0.51171941 0.00000000
-0.37532070 0.77416509 0.00000000
0.21028633 0.36377263 0.00000000
0.36363739 0.45191672 0.01062156
0.03055259 -0.16052894 0.00000000
-0.17017439 -0.23005514 0.00000000
0.16256171 0.36662233 0.00000000
0.63588214 -0.25036117 0.00000000
-0.49785951 0.23510155 0.00000000
0.77668810 -0.48944297 0.00000000
-0.52450180 -0.24489118 0.00000000
0.46949908 -0.32584348 0.00000000
-0.70995712 -0.04897534 0.00000000
0.46260813 -0.73095059 0.00000000
-0.03371022 0.79079056 0.00000000
-0.72361821 0.78139096 0.00000000
-0.02389694 -0.10540897 0.00000000
-0.18387938 0.40972078 0.00000000
0.77229470 -0.51217639 0.00000000
0.32817617 -0.70158464 0.00000000
-0.06245367 -0.03786894 0.00000000
-0.01908146 0.45200387 0.00000000
-0.17429759 0.60399061 0.00000000
-0.42647961 0.21629958 0.00000000
0.62432730 -0.76081258 0.00000000
-0.11964288 -0.22709328 0.00000000
0.23235855 0.65166461 0.05737459
0.38604379 -0.01183527 0.00000000
-0.39348373 -0.06029976 0.00000000
0.31324708 -0.33132118 0.00000000
0.49474704 0.26289704 0.00000000
0.02468924 0.38065410 0.00000000
-0.18448573 -0.71876782 0.00000000
0.66578376 0.02681305 0.00000000
0.15697283 0.46162137 0.00000000
0.32548660 -0.64178753 0.00000000
0.19591361 0.06928158 0.00000000
0.06189263 0.17844236 0.00000000
-0.16701370 -0.58125788 0.00000000
0.36848933 0.72615415 0.20119409
-0.53676349 0.26481387 0.00000000
-0.59933275 -0.18963739 0.00000000
0.27201357 -0.77068007 0.00000000
0.51434821 -0.61031801 0.00000000
0.17812423 0.69104815 0.04723397
-0.62593466 -0.03104365 0.00000000
0.44580615 -0.75919056 0.00000000
0.41893598 -0.63256061 0.00000000
0.76543719 0.11677724 0.05613954
-0.51018733 0.16529931 0.00000000
-0.32762322 -0.57462609 0.00000000
0.04510425 0.20879205 0.00000000
-0.55466574 0.69126981 0.00000000
-0.69984192 0.46721765 0.00000000
-0.63181269 0.08132836 0.00000000
-0.19383527 -0.73227400 0.00000000
-0.59373361 -0.49682972 0.00000000
-0.21867172 0.38712803 0.00000000
-0.51732635 -0.37365809 0.00000000
-0.34994259 0.78454548 0.00000000
-0.13207114 0.34217286 0.00000000
0.57757461 -0.22438081 0.00000000
0.74338180 0.01749189 0.00000000
0.19327866 -0.01890121 0.00000000
0.75298625 -0.16499610 0.00000000
-0.28090179 0.30387148 0.00000000
0.51666313 -0.30241510 0.00000000
-0.36061916 0.74513835 0.00000000
-0.23083243 -0.04125606 0.00000000
-0.05995670 -0.39248237 0.00000000
0.77769625 -0.63932067 0.00000000
0.36266577 0.65213883 0.14667696
0.30280697 0.68545496 0.12855271
0.27211317 0.31661880 0.00000000
0.04508315 -0.37214798 0.00000000
-0.00994617 0.41883442 0.00000000
0.05824612 -0.30098781 0.00000000
-0.02283658 -0.59824073 0.00000000
0.44387323 -0.00085218 0.00000000
-0.00401881 -0.06000330 0.00000000
-0.36880708 -0.63312376 0.00000000
-0.55119330 0.00116142 0.00000000
-0.66694951 -0.75809371 0.00000000
0.08958417 0.07617147 0.00000000
0.13940191 -0.43429852 0.00000000
0.68940341 -0.45892504 0.00000000
-0.77506846 -0.55035436 0.00000000
-0.52724046 0.37085217 0.00000000
-0.38063034 -0.70452523 0.00000000
-0.40959612 0.01907994 0.00000000
0.48624772 0.68735409 0.25510973
-0.14877073 -0.15309241 0.00000000
-0.38143316 0.00287640 0.00000000
-0.61009848 -0.73665339 0.00000000
-0.12875281 0.77571392 0.00000000
0.01081051 -0.12233391 0.00000000
0.29267278 -0.00758974 0.00000000
0.67244482 -0.38057593 0.00000000
-0.41445464 0.10376083 0.00000000
0.30046463 0.30038831 0.00000000
-0.00820050 -0.57318860 0.00000000
-0.65274870 0.53753459 0.00000000
0.19053057 0.37309188 0.00000000
0.01087548 0.11828083 0.00000000
0.14076287 -0.38147572 0.00000000
0.20436266 -0.05138237 0.00000000
0.62401611 -0.00349683 0.00000000
0.45418960 -0.40698633 0.00000000
0.17278390 -0.10205392 0.00000000
-0.12832528 0.51152813 0.00000000
0.49665168 -0.44533759 0.00000000
-0.53692400 0.78094232 0.00000000
0.24266712 0.57375717 0.01121574
-0.53492337 0.65607446 0.00000000
-0.65562898 -0.07594162 0.00000000
0.43191326 -0.07730191 0.00000000
-0.39597568 0.10565642 0.00000000
0.18551479 0.32882729 0.00000000
-0.61166221 -0.58186901 0.00000000
0.29958329 0.56861711 0.04657025
0.21339142 -0.53111809 0.00000000
0.66575956 -0.55602592 0.00000000
0.28542820 0.32996237 0.00000000
0.26696396 -0.23777691 0.00000000
-0.02359576 -0.20091555 0.00000000
-0.35234556 -0.56346804 0.00000000
0.74595225 -0.18810736 0.00000000
0.51750237 -0.36387590 0.00000000
-0.64491427 0.53049338 0.00000000
-0.18769310 0.29728341 0.00000000
0.70078814 0.29334113 0.13255887
-0.27818948 0.13770510 0.00000000
0.13856709 -0.43965450 0.00000000
0.12975973 -0.52322322 0.00000000
0.29579902 0.47422549 0.00000000
-0.17241244 -0.74156529 0.00000000
-0.01151451 -0.18164140 0.00000000
-0.79473537 0.22281259 0.00000000
0.25605890 0.20892020 0.00000000
0.24067035 -0.45066643 0.00000000
0.56157994 -0.24730144 0.00000000
-0.52127433 -0.07527990 0.00000000
-0.46770677 0.03796360 0.00000000
-0.67314440 0.52149749 0.00000000
0.68411463 -0.08674328 0.00000000
0.31886956 0.51288778 0.02168570
-0.55916530 0.62280649 0.00000000
-0.67825752 -0.42296147 0.00000000
0.23487386 -0.23596749 0.00000000
-0.10746825 -0.48135027 0.00000000
0.24544939 -0.02876526 0.00000000
0.77961600 -0.15909630 0.00000000
0.46934232 -0.05992353 0.00000000
-0.55317593 0.04067835 0.00000000
0.11599497 -0.15044682 0.00000000
-0.36572713 0.49014041 0.00000000
-0.01441984 -0.41639405 0.00000000
-0.18959625 0.19368054 0.00000000
-0.40188998 0.23845737 0.00000000
-0.32416764 0.61256415 0.00000000
-0.44670510 0.11043383 0.00000000
0.17923976 0.42806292 0.00000000
-0.18393230 0.13401239 0.00000000
0.51136422 -0.66821367 0.00000000
0.68257958 0.44858229 0.22612958
-0.47368455 0.53288168 0.00000000
-0.22543472 -0.22572774 0.00000000
0.05371470 0.21927749 0.00000000
0.43421763 0.36983362 0.00276702
0.13474151 -0.09943071 0.00000000
0.24869262 0.30218345 0.00000000
-0.49667072 -0.62335610 0.00000000
0.06937309 0.10323358 0.00000000
-0.53431100 -0.19736600 0.00000000
0.61775237 -0.01527782 0.00000000
0.27067444 0.12605464 0.00000000
-0.31762666 0.04410169 0.00000000
-0.31232974 0.61319643 0.00000000
0.58512920 -0.67902827 0.00000000
0.06339517 0.43071225 0.00000000
0.32125309 0.68290526 0.13940738
0.41565472 0.53145593 0.10045293
0.32006192 -0.08807715 0.00000000
0.26250085 -0.00096486 0.00000000
-0.25160810 0.25476226 0.00000000
0.77003634 0.17504297 0.09906584
0.24248517 0.70871854 0.10324803
-0.45433319 0.48696202 0.00000000
-0.00498449 0.31205645 0.00000000
-0.02626358 -0.47144246 0.00000000
0.49099380 0.26744530 0.00000000
0.12183557 0.74998057 0.04903929
-0.75763953 -0.62781429 0.00000000
0.51700830 0.28345951 0.00032012
-0.00942738 0.22960071 0.00000000
0.64518434 0.07764478 0.00000000
-0.01737404 -0.72604668 0.00000000
-0.68484038 -0.31803185 0.00000000
-0.42859289 -0.05915248 0.00000000
-0.77288377 -0.23651356 0.00000000
-0.11850168 0.78824830 0.00000000
-0.52641165 -0.10789979 0.00000000
0.37798023 0.23237909 0.00000000
0.25635901 -0.76741064 0.00000000
0.57728189 0.07824117 0.00000000
-0.53263146 -0.43790951 0.00000000
-0.13816363 0.41461918 0.00000000
-0.71905243 0.54070568 0.00000000
0.48041725 0.30969501 0.00000000
-0.19839503 -0.62279600 0.00000000
-0.03022715 -0.09807690 0.00000000
-0.41428530 -0.36447704 0.00000000
0.04623665 0.05469647 0.00000000
-0.57436675 -0.27808130 0.00000000
0.37573415 -0.60986531 0.00000000
0.55340928 -0.78626245 0.00000000
-0.34382486 -0.28378615 0.00000000
-0.12908137 0.06084628 0.00000000
0.15668769 0.14423126 0.00000000
0.74080926 0.00568833 0.00000000
-0.56676728 0.11452853 0.00000000
0.07641055 -0.10228869 0.00000000
-0.65238726 -0.36357656 0.00000000
0.54563630 0.21993764 0.00000000
0.58583558 -0.09125295 0.00000000
-0.66542143 -0.63005859 0.00000000
0.76890290 -0.47246602 0.00000000
-0.31158435 0.43936488 0.00000000
0.04489253 -0.25769731 0.00000000
-0.28737098 0.13304396 0.00000000
-0.72198397 -0.03301998 0.00000000
0.16688934 0.40466717 0.00000000
0.50512153 0.09669653 0.00000000
0.33598867 -0.74521905 0.00000000
-0.05253927 0.21766400 0.00000000
-0.27988380 -0.66118205 0.00000000
0.30052805 0.56090379 0.04194844
0.71640617 -0.02865238 0.00000000
0.11785274 0.74029881 0.03970859
0.42770740 -0.37817386 0.00000000
-0.10864015 -0.37668282 0.00000000
-0.47569808 -0.09185877 0.00000000
0.29860601 -0.23283455 0.00000000
0.24523897 -0.64796871 0.00000000
-0.72914481 0.17856990 0.00000000
-0.02404518 -0.09695535 0.00000000
0.69102079 -0.74845397 0.00000000
0.38715154 0.45364267 0.02785638
-0.39525130 -0.08511199 0.00000000
-0.71223664 0.30093327 0.00000000
-0.63145900 -0.28554124 0.00000000
0.18474551 -0.29397169 0.00000000
-0.39218730 -0.72948736 0.00000000
-0.56035817 -0.06047934 0.00000000
0.72966284 -0.72990751 0.00000000
-0.01930079 0.54336637 0.00000000
0.46059898 -0.31586751 0.00000000
0.55278021 -0.10922167 0.00000000
0.70181280 -0.18828647 0.00000000
0.69757843 -0.73642713 0.00000000
-0.78312117 0.46194005 0.00000000
-0.28418425 -0.35709602 0.00000000
0.42073092 -0.28239667 0.00000000
0.15857385 -0.69185591 0.00000000
-0.03572188 0.19487232 0.00000000
0.42234656 0.00906219 0.00000000
-0.22180381 -0.10384464 0.00000000
-0.41973281 0.10326833 0.00000000
-0.55158275 0.74080360 0.00000000
-0.19004144 0.27791259 0.00000000
-0.72130030 -0.00890830 0.00000000
-0.59676403 -0.39097804 0.00000000
0.19725992 0.62742513 0.01685650
0.56676000 -0.56324816 0.00000000
0.61813849 -0.64632910 0.00000000
-0.20537867 0.17539184 0.00000000
0.46942544 -0.30860117 0.00000000
0.19201815 0.38328156 0.00000000
0.10086701 -0.60105491 0.00000000
-0.30461505 0.57790607 0.00000000
-0.63749516 -0.72938597 0.00000000
0.07635065 -0.16660766 0.00000000
-0.45661518 -0.48993203 0.00000000
0.18503036 -0.03491993 0.00000000
0.60386103 -0.46690333 0.00000000
-0.54365087 0.71202195 0.00000000
0.63397950 -0.30569801 0.00000000
-0.39538151 0.36772844 0.00000000
-0.24686445 0.45664522 0.00000000
0.29609397 0.63214177 0.08756446
0.41172874 -0.30538946 0.00000000
0.38057408 -0.05077175 0.00000000
0.09782340 0.09529301 0.00000000
0.71334732 0.14254156 0.03816354
-0.16733716 -0.34887370 0.00000000
-0.71964258 -0.46691397 0.00000000
0.70106316 -0.37634239 0.00000000
0.74897093 -0.13170612 0.00000000
0.51812035 0.19207072 0.00000000
0.34453267 -0.63939017 0.00000000
-0.73024535 -0.68198746 0.00000000
0.38488823 0.63894379 0.15284120
0.41822046 0.56702077 0.12648980
0.27645457 0.25136048 0.00000000
-0.44967681 0.08638267 0.00000000
0.18059015 0.18606696 0.00000000
-0.45355847 -0.78293854 0.00000000
-0.79775339 0.06255684 0.00000000
-0.65191972 0.23049752 0.00000000
0.35236663 -0.50355393 0.00000000
0.08327972 -0.49237320 0.00000000
0.66742671 -0.58318669 0.00000000
0.15054125 0.64633083 0.00000000
0.32119071 -0.51034409 0.00000000
-0.50186390 -0.70985031 0.00000000
-0.15144926 0.04504738 0.00000000
-0.50319827 -0.74376416 0.00000000
0.22477753 0.14980854 0.00000000
-0.58247274 0.33394966 0.00000000
-0.69694179 -0.54154974 0.00000000
-0.38998526 0.47044235 0.00000000
0.43007648 -0.74756205 0.00000000
-0.08584040 -0.32768613 0.00000000
-0.34746936 0.58041900 0.00000000
-0.04586197 0.34867677 0.00000000
0.37587398 -0.10896989 0.00000000
-0.22610053 -0.55052245 0.00000000
0.61749846 0.36034617 0.12143916
-0.32831809 -0.63243389 0.00000000
0.02907337 -0.69631326 0.00000000
0.32561770 0.14918856 0.00000000
-0.26535797 -0.22013779 0.00000000
0.49423754 -0.16274653 0.00000000
-0.42682120 -0.47696248 0.00000000
-0.27455243 -0.47174817 0.00000000
-0.14174938 -0.07690168 0.00000000
0.73448449 0.25929490 0.13231996
-0.12174382 -0.46534830 0.00000000
0.61123246 -0.66863358 0.00000000
0.04710656 -0.34093645 0.00000000
-0.40584576 -0.46191627 0.00000000
0.24325512 0.68606496 0.08830501
-0.13276543 -0.68340945 0.00000000
0.19480576 0.69266278 0.05972720
0.37114507 0.45672008 0.01902796
0.00845616 -0.37180346 0.00000000
0.17191972 -0.30342823 0.00000000
0.25034443 -0.39556256 0.00000000
-0.32033056 -0.21063735 0.00000000
-0.79232210 -0.60530508 0.00000000
-0.57366532 0.45121679 0.00000000
-0.14258963 0.24521978 0.00000000
0.60953808 0.41077957 0.15044120
-0.55935371 0.16389826 0.00000000
0.07259547 -0.07136039 0.00000000
0.37899402 -0.77415758 0.00000000
-0.40095684 0.19990902 0.00000000
-0.14716335 0.49089110 0.00000000
0.28892452 0.36387804 0.00000000
0.70156300 0.59191328 0.33696428
-0.68588316 0.37515116 0.00000000
-0.43594563 0.35888818 0.00000000
-0.62591505 -0.42051312 0.00000000
0.54757065 0.17925823 0.00000000
-0.43996233 0.41830036 0.00000000
-0.33913848 0.14271314 0.00000000
-0.22870895 0.79949838 0.00000000
0.53082681 -0.26211116 0.00000000
0.46582505 0.63168699 0.20315266
-0.08335886 -0.52740622 0.00000000
-0.17859074 -0.24064022 0.00000000
-0.79032797 -0.35747889 0.00000000
-0.54080319 -0.19534162 0.00000000
0.19534484 -0.77864915 0.00000000
0.27118811 -0.06868348 0.00000000
0.40812373 -0.53638804 0.00000000
-0.72642279 0.68372631 0.00000000
-0.17605144 0.64030236 0.00000000
-0.07141187 0.58884782 0.00000000
-0.77409410 0.75331694 0.00000000
-0.70324522 -0.45706266 0.00000000
-0.73913664 -0.43504763 0.00000000
-0.46578768 0.79130256 0.00000000
-0.59236336 0.38786498 0.00000000
0.27843338 0.17497633 0.00000000
0.63703400 -0.01980682 0.00000000
0.29033646 -0.09518286 0.00000000
-0.74781209 0.61742681 0.00000000
0.59056228 0.19015096 0.00000000
-0.12403995 -0.22516699 0.00000000
-0.22514495 0.07804225 0.00000000
-0.74633735 -0.59632897 0.00000000
0.22692792 -0.20277978 0.00000000
-0.79522341 -0.33967790 0.00000000
-0.32544327 0.76136750 0.00000000
0.48388094 0.35472935 0.02636513
-0.11608740 0.20114538 0.00000000
-0.36724243 -0.36873758 0.00000000
-0.67033511 0.15856875 0.00000000
0.57149804 -0.20778419 0.00000000
-0.56284481 -0.56334573 0.00000000
-0.09840455 -0.75373125 0.00000000
0.07758059 0.45122185 0.00000000
-0.78363073 -0.43220016 0.00000000
-0.50784135 0.66908270 0.00000000
0.15304877 -0.36939585 0.00000000
0.60957533 -0.08689647 0.00000000
0.19114631 -0.20239829 0.00000000
-0.49989134 -0.47182596 0.00000000
-0.38666964 0.63362741 0.00000000
0.13460086 0.32399371 0.00000000
0.63136518 0.06219015 0.00000000
0.21911059 0.12237869 0.00000000
-0.11047888 0.74702448 0.00000000
0.28566191 -0.46076843 0.00000000
-0.27552146 0.34489805 0.00000000
0.74157012 -0.60835403 0.00000000
-0.57899880 -0.01279926 0.00000000
0.14037973 0.02395111 0.00000000
-0.05681011 0.60449487 0.00000000
0.67227024 0.18602286 0.03980522
0.02039329 -0.74778295 0.00000000
-0.33473539 -0.69911069 0.00000000
-0.07101257 0.56712145 0.00000000
0.75467497 -0.48649535 0.00000000
0.70294678 0.08341095 0.00000000
-0.11440603 0.19134077 0.00000000
-0.30521244 -0.35569632 0.00000000
0.58494312 0.35787365 0.09752092
-0.71808374 0.75471789 0.00000000
-0.75697011 0.55318236 0.00000000
-0.57520187 -0.79607326 0.00000000
0.07031140 -0.13415287 0.00000000
-0.48031497 -0.13517007 0.00000000
0.79363012 -0.49887177 0.00000000
-0.42188588 -0.31971276 0.00000000
-0.25085148 0.65115952 0.00000000
0.13593405 0.22965044 0.00000000
0.15945455 -0.66182780 0.00000000
-0.61354709 -0.04337288 0.00000000
0.42299488 -0.11801256 0.00000000
-0.09469482 -0.54269683 0.00000000
-0.40096971 0.71135139 0.00000000
0.53579265 -0.05712256 0.00000000
0.24402365 -0.67739397 0.00000000
-0.61846626 0.20078653 0.00000000
-0.17320403 -0.20132428 0.00000000
-0.48669881 0.62720680 0.00000000
0.30136731 0.12233247 0.00000000
-0.10216311 -0.04941492 0.00000000
0.04186990 0.53922784 0.00000000
-0.49770290 0.24740914 0.00000000
0.26955420 0.05962172 0.00000000
-0.08512785 0.57919735 0.00000000
-0.02608059 -0.13926245 0.00000000
0.50812811 -0.26580545 0.00000000
-0.50268650 0.10683273 0.00000000
-0.03050489 -0.09730702 0.00000000
0.58026075 0.45380190 0.15982676
0.18813497 0.40043974 0.00000000
0.08702661 -0.73630679 0.00000000
0.17787288 0.22561795 0.00000000
0.67643249 -0.61309296 0.00000000
0.79913080 -0.33885369 0.00000000
0.45707709 -0.76452887 0.00000000
-0.37640023 -0.36913902 0.00000000
0.30617392 0.14562204 0.00000000
-0.22164991 -0.72016722 0.00000000
0.03368858 -0.27913636 0.00000000
0.08532048 -0.63772148 0.00000000
-0.28866163 -0.47625098 0.00000000
-0.17884855 0.09574389 0.00000000
0.52589524 0.33911517 0.04439203
-0.65340304 -0.43728650 0.00000000
0.74760848 -0.06634734 0.00000000
-0.32058176 -0.31476593 0.00000000
0.45945486 0.41854227 0.05325981
-0.00774232 0.71291316 0.00000000
0.11243177 -0.15090457 0.00000000
0.47953880 -0.26847380 0.00000000
0.13171631 0.14582886 0.00000000
-0.72975558 -0.57172894 0.00000000
-0.19639705 -0.64817363 0.00000000
0.32892591 -0.40395379 0.00000000
0.18966915 0.08208748 0.00000000
0.32895383 -0.62822235 0.00000000
-0.36575666 -0.54992270 0.00000000
0.73340780 -0.39299464 0.00000000
0.76397681 0.15144964 0.07881787
0.10405206 0.25360221 0.00000000
0.26513720 -0.50294024 0.00000000
-0.11872801 -0.59642094 0.00000000
-0.04765809 -0.45366329 0.00000000
-0.04931863 -0.02820290 0.00000000
-0.56703490 0.09845271 0.00000000
0.64523554 0.15339395 0.00000000
-0.23688805 0.12773100 0.00000000
-0.56463277 0.00748686 0.00000000
0.67061555 0.30779263 0.12182395
0.78903472 -0.40883565 0.00000000
0.38640431 -0.76638615 0.00000000
0.04354199 0.01250592 0.00000000
0.58176327 0.13770974 0.00000000
0.16567791 0.36010763 0.00000000
0.03101449 0.62887543 0.00000000
-0.79036576 0.55787581 0.00000000
-0.28011027 -0.30216947 0.00000000
0.21414255 -0.32125762 0.00000000
0.55735683 0.01749288 0.00000000
-0.33184966 0.46224231 0.00000000
0.33091530 0.72683239 0.17600030
-0.76231736 0.61877495 0.00000000
0.38465616 -0.54817563 0.00000000
0.46603942 -0.26684973 0.00000000
-0.48845661 0.45416075 0.00000000
0.15516829 0.05980100 0.00000000
0.72597122 -0.50219142 0.00000000
-0.64549106 0.35457709 0.00000000
-0.72943050 0.03294211 0.00000000
-0.04059860 -0.40251151 0.00000000
0.44215044 -0.78143281 0.00000000
-0.22648063 -0.25142372 0.00000000
-0.59667611 0.09832396 0.00000000
-0.35180655 -0.13821912 0.00000000
-0.05045990 0.73758507 0.00000000
0.62349415 0.35757658 0.12364203
0.11196574 -0.79548895 0.00000000
0.64119756 -0.67449778 0.00000000
0.43257278 0.64014667 0.18622334
0.14785913 0.17131250 0.00000000
0.35628802 -0.24831615 0.00000000
-0.31716496 0.65800399 0.00000000
0.77797949 -0.14018677 0.00000000
0.55889708 -0.15368254 0.00000000
-0.12390382 -0.00168571 0.00000000
-0.50596744 -0.51426321 0.00000000
-0.20758405 -0.06318644 0.00000000
-0.04421806 0.20934340 0.00000000
0.66000015 -0.61695224 0.00000000
0.51887214 -0.63471192 0.00000000
0.02382151 -0.74208468 0.00000000
0.63633859 0.32621208 0.11099592
-0.22411466 0.47771171 0.00000000
0.67186642 -0.51530099 0.00000000
0.22909939 -0.11445177 0.00000000
-0.76389432 0.10152337 0.00000000
-0.78758395 0.56332982 0.00000000
-0.30721799 0.14510515 0.00000000
-0.21091051 0.71670336 0.00000000
0.65866160 0.32651591 0.12644628
0.33923367 0.37882122 0.00000000
0.30822700 -0.17879471 0.00000000
-0.69542873 0.33616906 0.00000000
0.00889312 0.43533650 0.00000000
0.54903346 -0.30011061 0.00000000
-0.58065844 0.03711025 0.00000000
0.61573613 -0.34892151 0.00000000
0.15389556 -0.27986491 0.00000000
0.24953777 -0.41926885 0.00000000
0.24252778 0.47997344 0.00000000
0.32849732 -0.72195905 0.00000000
0.39002120 -0.21346197 0.00000000
0.59358811 -0.30959940 0.00000000
-0.62001377 -0.28702500 0.00000000
0.24299836 -0.61010969 0.00000000
0.27747780 -0.32285503 0.00000000
-0.00139009 0.67540437 0.00000000
-0.31596264 0.74970204 0.00000000
0.36080778 0.25494504 0.00000000
0.04340164 0.09737734 0.00000000
-0.32953045 0.19474263 0.00000000
-0.32038286 0.33298478 0.00000000
-0.38731495 -0.08318575 0.00000000
0.71745604 -0.26896557 0.00000000
0.02071440 -0.71952993 0.00000000
-0.23495206 -0.09872389 0.00000000
0.62712216 0.26730749 0.06448051
-0.59110624 0.64305466 0.00000000
-0.67778486 -0.51223451 0.00000000
0.22706176 -0.01429104 0.00000000
-0.79653138 0.65328485 0.00000000
0.60932928 -0.64632684 0.00000000
0.32435471 -0.30624235 0.00000000
0.35143155 -0.53155845 0.00000000
0.35895380 -0.31221348 0.00000000
0.17295650 -0.46811262 0.00000000
0.07341382 0.08376959 0.00000000
0.61700034 0.48588100 0.20681864
-0.28080374 0.45502073 0.00000000
0.58252865 -0.14955910 0.00000000
0.40235496 -0.42095864 0.00000000
-0.10836904 -0.01378229 0.00000000
-0.69978285 -0.36885324 0.00000000
0.64791787 -0.45785901 0.00000000
-0.12794416 0.68261003 0.00000000
-0.57111269 -0.73448676 0.00000000
0.62805980 -0.55805606 0.00000000
-0.60022032 -0.40597445 0.00000000
-0.66042429 0.11273656 0.00000000
-0.17296621 -0.32979074 0.00000000
0.05550505 0.46710610 0.00000000
0.77890140 -0.14005332 0.00000000
0.30552056 0.54577100 0.03502434
0.06835119 0.67813885 0.00000000
-0.31219047 -0.14971507 0.00000000
0.27187121 -0.70989275 0.00000000
-0.62953568 -0.40071446 0.00000000
-0.71078885 -0.49536750 0.00000000
-0.34825924 0.41918692 0.00000000
-0.59655023 0.65457684 0.00000000
-0.77543688 0.27986002 0.00000000
-0.15209772 -0.34252796 0.00000000
-0.20829201 -0.60602188 0.00000000
0.52481472 0.33930838 0.04378616
-0.40295199 -0.04856489 0.00000000
-0.49173999 -0.67581350 0.00000000
-0.31767184 0.57546246 0.00000000
-0.23499620 0.68847716 0.00000000
0.09595983 -0.66070396 0.00000000
0.46824637 -0.74600810 0.00000000
0.41655257 0.73044008 0.23694012
0.28699717 -0.15021269 0.00000000
0.28949061 -0.16179672 0.00000000
-0.58173722 -0.23213302 0.00000000
-0.15493625 -0.31489849 0.00000000
-0.09485977 0.47329235 0.00000000
-0.04726364 0.25918114 0.00000000
-0.19017293 0.54981977 0.00000000
0.33714896 0.02837901 0.00000000
-0.38676503 0.24710555 0.00000000
-0.41397944 -0.23234595 0.00000000
0.64719737 -0.69618541 0.00000000
0.23035973 -0.10431988 0.00000000
0.06817864 0.36985508 0.00000000
0.28262350 0.05575263 0.00000000
0.52057284 -0.17145061 0.00000000
-0.13552932 -0.64395833 0.00000000
0.44183704 -0.37974051 0.00000000
-0.08420699 -0.08032681 0.00000000
0.07249658 -0.26170084 0.00000000
0.43604711 -0.28195181 0.00000000
-0.26012623 0.64230525 0.00000000
0.69334066 -0.30809495 0.00000000
-0.60719460 0.27326789 0.00000000
0.21769287 0.57567149 0.00000000
0.76069361 -0.14052857 0.00000000
0.58858770 -0.68602628 0.00000000
0.62857234 -0.68281174 0.00000000
-0.16419850 0.65621930 0.00000000
0.29622409 -0.18730281 0.00000000
-0.00921511 0.34740990 0.00000000
-0.12807401 0.79503936 0.00000000
-0.41768101 -0.11118154 0.00000000
0.03578211 0.67394423 0.00000000
0.51687241 -0.26435554 0.00000000
-0.44076520 -0.55982208 0.00000000
-0.00312287 0.71144873 0.00000000
0.09395003 -0.55314839 0.00000000
-0.28146610 -0.72921741 0.00000000
-0.58695543 0.79487145 0.00000000
-0.22386576 -0.72145301 0.00000000
-0.61810040 -0.53654426 0.00000000
-0.73672843 0.11554384 0.00000000
-0.42850831 0.08112516 0.00000000
0.10859939 0.16641384 0.00000000
0.54053676 -0.56578094 0.00000000
-0.42451957 0.49695492 0.00000000
-0.34175622 -0.03864096 0.00000000
0.71701592 0.14742950 0.04400623
-0.60146081 0.00505834 0.00000000
0.53408700 -0.73483747 0.00000000
-0.57746410 0.28314987 0.00000000
0.72647876 -0.78242242 0.00000000
0.45671391 0.63391745 0.19845428
-0.58801281 0.21281517 0.00000000
0.64620882 0.26765773 0.07775268
0.11591750 -0.17972785 0.00000000
0.46237859 -0.35470942 0.00000000
0.51949561 -0.23754165 0.00000000
0.53047383 0.06169635 0.00000000
0.49440840 -0.58354157 0.00000000
-0.07734625 -0.77001888 0.00000000
0.15066366 -0.36924636 0.00000000
-0.61343110 0.63078272 0.00000000
0.53813010 -0.45626238 0.00000000
-0.28258857 -0.64445257 0.00000000
-0.16236407 0.50635046 0.00000000
0.15564445 0.34813675 0.00000000
-0.69713765 -0.50558567 0.00000000
-0.52256697 0.78462458 0.00000000
0.07714096 0.68392140 0.00000000
-0.41228819 0.07187499 0.00000000
-0.35242066 0.71599054 0.00000000
0.67799252 -0.72740650 0.00000000
0.61681259 0.20554686 0.01526847
-0.57661211 0.01878553 0.00000000
0.46329206 -0.23455808 0.00000000
-0.64668244 -0.57056755 0.00000000
0.44202438 0.08478056 0.00000000
-0.38128874 -0.19696046 0.00000000
0.33743069 0.51663572 0.03691909
-0.56450766 0.71116829 0.00000000
-0.12643853 0.50203401 0.00000000
-0.44749096 -0.00933863 0.00000000
-0.56669313 -0.04392880 0.00000000
-0.53133315 0.52460915 0.00000000
0.09262497 0.72972000 0.01525860
0.01927657 -0.10668782 0.00000000
0.59827095 -0.64747107 0.00000000
-0.23463809 -0.66110885 0.00000000
0.16979586 -0.66405821 0.00000000
0.28708938 0.55506134 0.02878265
-0.75865054 -0.36743638 0.00000000
-0.38422036 -0.53496647 0.00000000
-0.37153637 0.77709424 0.00000000
0.45192623 0.31927907 0.00000000
-0.77154624 0.68824703 0.00000000
-0.68645012 -0.62633991 0.00000000
-0.71623117 0.65415019 0.00000000
0.41376686 0.05964972 0.00000000
-0.21010870 -0.42303360 0.00000000
0.40815520 0.68839365 0.20249508
-0.27078727 -0.52953875 0.00000000
0.06267352 -0.56275791 0.00000000
0.50283527 -0.57849240 0.00000000
0.00833859 0.44176719 0.00000000
-0.47495091 -0.30360341 0.00000000
0.26977521 0.34423840 0.00000000
0.31030598 -0.62031722 0.00000000
-0.52443200 -0.40235046 0.00000000
0.42848718 -0.37707764 0.00000000
-0.30989683 0.25294077 0.00000000
0.68590587 0.65972292 0.37257615
-0.66991347 0.14705467 0.00000000
-0.14931861 -0.26162350 0.00000000
-0.61757541 -0.54075933 0.00000000
-0.39627406 0.77138031 0.00000000
0.35600093 0.37284613 0.00000000
0.68556547 0.37304148 0.17658646
0.71289855 0.16388260 0.05242952
0.39789665 -0.20337196 0.00000000
-0.25140619 -0.68887866 0.00000000
-0.33230400 0.07899088 0.00000000
0.66586769 -0.05466328 0.00000000
-0.19117738 0.46528089 0.00000000
-0.69089961 0.02036826 0.00000000
0.65529126 0.34965083 0.13994223
-0.35917786 0.45182291 0.00000000
0.46556473 -0.03231594 0.00000000
0.03195747 0.50138146 0.00000000
0.46213135 -0.61915147 0.00000000
0.09943433 0.08991175 0.00000000
-0.14822204 0.46170923 0.00000000
0.44629860 0.61363566 0.17749308
-0.66258198 -0.55333745 0.00000000
-0.37882751 0.34115422 0.00000000
-0.33476004 0.16266578 0.00000000
0.60138929 0.40708721 0.14235564
-0.19795550 0.63724232 0.00000000
0.71188539 0.15506849 0.04571911
-0.25825024 -0.31212449 0.00000000
0.29363129 -0.25659388 0.00000000
0.39102992 0.11155396 0.00000000
-0.58178777 -0.24058133 0.00000000
0.56532490 -0.11329977 0.00000000
-0.79160839 0.01215680 0.00000000
0.54000074 -0.53147835 0.00000000
0.44842783 -0.46370098 0.00000000
-0.24118397 0.42331859 0.00000000
-0.60090578 0.39034414 0.00000000
-0.21882547 0.18964189 0.00000000
0.18763575 0.00559670 0.00000000
-0.58108103 -0.31416047 0.00000000
-0.15015635 -0.10918664 0.00000000
-0.51987535 0.79045063 0.00000000
0.20321128 0.71614289 0.08149999
0.34941709 -0.69407314 0.00000000
0.43242148 -0.02649147 0.00000000
-0.63825500 0.35501388 0.00000000
0.31692863 0.50718331 0.01646514
0.32333061 0.69332892 0.14794366
-0.63215250 -0.54384321 0.00000000
-0.45269632 0.21511839 0.00000000
-0.30872792 -0.22034734 0.00000000
-0.37509683 -0.70891410 0.00000000
-0.23636506 -0.55224258 0.00000000
0.43675715 -0.01926131 0.00000000
0.55257630 0.50349385 0.17485426
0.75175750 -0.43121895 0.00000000
-0.69377714 -0.48433277 0.00000000
-0.22747539 -0.42792860 0.00000000
0.11970185 0.01829180 0.00000000
-0.42208794 -0.43524089 0.00000000
0.03089241 0.56891143 0.00000000
-0.52255595 0.65389669 0.00000000
0.34932777 -0.65550250 0.00000000
0.30600986 0.03943478 0.00000000
0.50532413 -0.78733623 0.00000000
-0.69965583 0.76791096 0.00000000
0.65106803 0.21783893 0.04705274
0.28295854 0.67139220 0.10539684
-0.14852931 -0.41080523 0.00000000
0.59688485 -0.43957111 0.00000000
0.54017961 -0.72277898 0.00000000
-0.39195216 -0.71931249 0.00000000
-0.25396913 0.60467625 0.00000000
-0.17314988 0.71014225 0.00000000
0.23253661 -0.67222822 0.00000000
0.15869115 0.62521672 0.00000000
-0.03699428 -0.74293220 0.00000000
-0.41866192 -0.76495141 0.00000000
-0.40566018 -0.65781105 0.00000000
0.66113299 -0.62098455 0.00000000
-0.36857751 -0.12593348 0.00000000
-0.37751010 -0.07505169 0.00000000
-0.48907414 -0.53215587 0.00000000
-0.31920910 -0.19260021 0.00000000
0.20847031 0.64116132 0.03389086
-0.58059031 0.55560583 0.00000000
0.23940998 -0.11517567 0.00000000
-0.67570978 0.37451333 0.00000000
0.24329358 0.62144196 0.04420435
-0.43694073 0.76589704 0.00000000
-0.46261868 -0.27669919 0.00000000
-0.30987763 -0.10569258 0.00000000
0.05841571 0.61578023 0.00000000
0.26655984 -0.49311140 0.00000000
-0.65063655 0.43628863 0.00000000
-0.09802620 -0.25371960 0.00000000
0.19578864 0.52385670 0.00000000
0.30272758 -0.12778449 0.00000000
-0.47100276 -0.60526884 0.00000000
0.26936188 -0.65157115 0.00000000
0.58834648 0.37596697 0.11219960
-0.25965932 -0.28606132 0.00000000
0.69752842 -0.18400601 0.00000000
-0.31208456 0.58328176 0.00000000
0.20119303 0.57030588 0.00000000
-0.06367089 0.56859612 0.00000000
-0.49475881 0.23849657 0.00000000
-0.32897010 0.23962329 0.00000000
0.52231824 -0.02230493 0.00000000
-0.56723976 -0.45456940 0.00000000
-0.46463612 -0.26366100 0.00000000
0.56933933 -0.26582894 0.00000000
-0.33880416 0.17160378 0.00000000
-0.49757174 -0.24907881 0.00000000
-0.60427755 -0.64810437 0.00000000
-0.54174668 -0.03052709 0.00000000
-0.74088579 0.39153549 0.00000000
-0.75684971 -0.69853228 0.00000000
0.48916987 -0.62646329 0.00000000
-0.49790311 -0.69648832 0.00000000
-0.26197103 -0.60886794 0.00000000
-0.46198836 -0.29224363 0.00000000
-0.46989313 0.65493780 0.00000000
0.73684961 0.10373169 0.02771100
0.37565640 0.07354113 0.00000000
0.15615627 -0.67727810 0.00000000
-0.04684594 -0.01217164 0.00000000
-0.41001007 -0.36188298 0.00000000
-0.60137540 0.18682644 0.00000000
0.53719181 0.34380054 0.05530504
-0.75545222 -0.18337460 0.00000000
0.17249635 0.58899057 0.00000000
0.57156795 -0.39360890 0.00000000
-0.62639266 -0.59374255 0.00000000
0.44557896 0.55366915 0.13605419
0.16398846 -0.16369762 0.00000000
0.70971847 0.36092472 0.18480520
-0.09312497 -0.59917110 0.00000000
-0.14736693 -0.28481317 0.00000000
0.07066925 -0.40156546 0.00000000
-0.04082169 0.32093728 0.00000000
-0.24647059 -0.33289605 0.00000000
-0.44194824 -0.44051352 0.00000000
-0.41486299 -0.15697084 0.00000000
0.63675070 -0.67427027 0.00000000
0.39300862 0.14649253 0.00000000
0.04125786 0.59494883 0.00000000
-0.21956311 -0.44045070 0.00000000
0.10777926 -0.53145033 0.00000000
0.31219754 -0.36968139 0.00000000
0.00979799 -0.10485918 0.00000000
-0.05455117 -0.28450078 0.00000000
0.46062383 -0.22751300 0.00000000
0.07635505 -0.38198206 0.00000000
-0.46579963 -0.42829636 0.00000000
0.79879922 -0.63434881 0.00000000
-0.50541085 0.04653730 0.00000000
0.67401218 0.33783504 0.14465728
-0.43295372 -0.58733422 0.00000000
-0.65923309 -0.54450971 0.00000000
-0.53242224 -0.55580169 0.00000000
-0.15160130 0.11044634 0.00000000
0.01164938 0.60470533 0.00000000
-0.31350690 -0.21734153 0.00000000
-0.39762068 0.67541188 0.00000000
-0.68202263 -0.25496259 0.00000000
0.24377532 -0.08209892 0.00000000
0.33302328 -0.76574540 0.00000000
0.66680187 0.26114249 0.08736551
-0.53385454 0.79818594 0.00000000
-0.78054702 0.15767656 0.00000000
-0.72512031 -0.58126360 0.00000000
0.11132549 0.09111227 0.00000000
-0.59460932 -0.69641834 0.00000000
-0.30760211 -0.27630737 0.00000000
-0.35117424 0.75551152 0.00000000
-0.21576908 0.01640096 0.00000000
0.32682288 -0.54797858 0.00000000
-0.24144307 -0.53660697 0.00000000
-0.49677667 0.50130045 0.00000000
0.53270620 0.42354098 0.10669167
-0.00764395 -0.21901508 0.00000000
-0.31505972 -0.57531351 0.00000000
0.15679786 0.67645794 0.02270888
-0.28982976 -0.42232051 0.00000000
-0.47373459 0.53014994 0.00000000
0.11287530 0.39824226 0.00000000
-0.37541807 -0.05268944 0.00000000
0.44870928 -0.56459802 0.00000000
-0.26260075 0.63056612 0.00000000
0.68154877 -0.54558808 0.00000000
-0.28540987 -0.48684928 0.00000000
-0.43144080 0.43478531 0.00000000
-0.05530360 0.11812748 0.00000000
0.24515229 -0.55972546 0.00000000
0.60260856 -0.38532674 0.00000000
-0.32327586 -0.51311427 0.00000000
-0.10311668 -0.43590364 0.00000000
-0.42054948 -0.30057734 0.00000000
0.79376686 -0.10591077 0.00000000
-0.14573149 -0.16900665 0.00000000
0.72819626 -0.38206619 0.00000000
0.28793213 0.47880074 0.00000000
0.34758928 -0.03167759 0.00000000
0.06076497 -0.79596633 0.00000000
-0.27475506 -0.72195935 0.00000000
0.71367520 -0.01501410 0.00000000
0.62582588 0.23279618 0.04002986
0.11313865 -0.69851619 0.00000000
-0.68654960 -0.06370450 0.00000000
-0.51112384 0.49576557 0.00000000
-0.47201771 -0.53077477 0.00000000
0.30406764 -0.66914904 0.00000000
-0.04501694 0.00064086 0.00000000
0.10726538 0.58900315 0.00000000
0.02763306 -0.38665301 0.00000000
0.14802656 0.21870269 0.00000000
0.66444373 0.30279550 0.11419742
0.37493512 -0.59121346 0.00000000
0.33490857 -0.14943425 0.00000000
-0.34234110 -0.17140929 0.00000000
0.36404464 -0.51370817 0.00000000
-0.14376926 0.56788605 0.00000000
-0.05721034 0.01720809 0.00000000
-0.23351055 0.73271036 0.00000000
0.73006713 0.34307995 0.18651496
-0.01359059 -0.73935270 0.00000000
0.67762268 -0.64934468 0.00000000
-0.23379520 0.67214411 0.00000000
-0.03235250 0.44650730 0.00000000
-0.21778202 0.03968703 0.00000000
-0.58590931 0.76198000 0.00000000
-0.61411726 -0.46492791 0.00000000
-0.57598895 -0.32520875 0.00000000
0.55254686 0.43319464 0.12683138
-0.65222543 0.38170382 0.00000000
-0.11623375 -0.03125947 0.00000000
0.45488828 -0.53190500 0.00000000
0.56903344 -0.19027148 0.00000000
0.22994116 0.57040203 0.00023501
0.61213773 0.17659280 0.00000000
-0.52938211 0.13225728 0.00000000
-0.67914248 0.67480612 0.00000000
-0.14371121 0.44033065 0.00000000
0.30681401 -0.73922962 0.00000000
0.04059319 0.31685480 0.00000000
0.50888819 0.50390017 0.14529994
0.58977443 -0.50157809 0.00000000
0.37887779 0.60911417 0.12836815
0.67916006 -0.52627391 0.00000000
-0.01134261 0.00079178 0.00000000
0.69145095 0.32095006 0.14503543
-0.27970627 -0.71290177 0.00000000
0.42193249 -0.60259122 0.00000000
-0.19125564 -0.36624885 0.00000000
-0.64236242 -0.60449868 0.00000000
0.39442402 0.26832670 0.00000000
0.23776811 -0.79885370 0.00000000
-0.43198663 0.79637319 0.00000000
0.61168474 0.42067233 0.15866213
0.72480518 -0.52746463 0.00000000
-0.41139519 -0.74142975 0.00000000
0.39708871 -0.65683883 0.00000000
0.62993932 -0.08918697 0.00000000
0.03475258 0.19043915 0.00000000
-0.71264780 -0.08623086 0.00000000
0.47258857 -0.26097772 0.00000000
0.30551645 0.64872497 0.10532212
-0.22348925 -0.55062467 0.00000000
0.11100970 -0.23887394 0.00000000
0.02595901 -0.14434454 0.00000000
0.00022777 0.43678167 0.00000000
-0.35788161 0.48231015 0.00000000
0.31053811 0.25644132 0.00000000
0.27160588 -0.60391152 0.00000000
-0.47481379 0.64711308 0.00000000
-0.07738529 -0.47276926 0.00000000
-0.72508764 -0.52429813 0.00000000
0.60248744 -0.68056607 0.00000000
0.40157557 0.07348085 0.00000000
-0.70123613 -0.76986820 0.00000000
0.69962275 0.26192328 0.11030991
-0.44211417 -0.40769765 0.00000000
-0.06781549 -0.02786131 0.00000000
-0.75134450 -0.02168109 0.00000000
0.14346410 0.43408909 0.00000000
-0.03173577 0.53566587 0.00000000
0.66095591 -0.70775062 0.00000000
-0.25042877 0.62774056 0.00000000
0.24066284 0.11443921 0.00000000
-0.65148520 -0.79792929 0.00000000
0.23062780 -0.14933100 0.00000000
-0.35867280 -0.16520165 0.00000000
0.21697780 -0.41175506 0.00000000
0.71185142 -0.14987385 0.00000000
0.41775507 0.70775563 0.22227135
-0.12502359 -0.34748772 0.00000000
-0.41631910 0.62529165 0.00000000
-0.18406174 0.19837457 0.00000000
-0.42373550 -0.13616624 0.00000000
-0.06812434 0.24431425 0.00000000
-0.57937002 -0.56909341 0.00000000
-0.01068313 -0.37001702 0.00000000
-0.06032634 -0.04303057 0.00000000
0.61173254 -0.24134070 0.00000000
0.46902871 0.44701567 0.07923980
-0.37002394 -0.65570140 0.00000000
0.66766834 0.66209024 0.36173937
0.45150632 -0.66379458 0.00000000
-0.50236195 0.24847442 0.00000000
-0.00555995 0.06527509 0.00000000
0.44857576 0.01768952 0.00000000
-0.01710531 -0.75225747 0.00000000
-0.38152924 -0.47778639 0.00000000
-0.23915087 0.03825298 0.00000000
0.69218642 -0.62452799 0.00000000
-0.75031620 0.61985111 0.00000000
-0.78773928 0.49799606 0.00000000
-0.53890121 0.76935893 0.00000000
-0.61829001 -0.38237008 0.00000000
0.25590155 -0.07843025 0.00000000
-0.43463415 0.73034316 0.00000000
-0.12312961 -0.66888422 0.00000000
-0.57897991 -0.52067459 0.00000000
0.05728895 -0.64677954 0.00000000
-0.04513744 -0.56635666 0.00000000
0.44988924 -0.77025664 0.00000000
-0.62606394 -0.03323968 0.00000000
0.25425693 -0.26274532 0.00000000
0.57819533 -0.43991169 0.00000000
-0.28122824 -0.46473303 0.00000000
0.45866832 0.20952182 0.00000000
0.53310901 -0.48074713 0.00000000
0.23329471 -0.33980489 0.00000000
-0.20949325 0.05286210 0.00000000
0.55989039 0.14172724 0.00000000
-0.49095827 0.42351201 0.00000000
0.07660710 -0.24672364 0.00000000
0.22789311 0.07989607 0.00000000
-0.05984480 -0.66528940 0.00000000
-0.51580966 0.31728837 0.00000000
-0.58820480 -0.63824731 0.00000000
0.57964224 0.45188829 0.15809773
0.10109194 -0.11152744 0.00000000
0.17506754 0.69625932 0.04870512
0.06127815 0.27389511 0.00000000
-0.22695276 -0.27718776 0.00000000
-0.30695948 0.78277534 0.00000000
0.58325851 0.32469353 0.07371407
-0.79192287 0.01708184 0.00000000
-0.37535495 0.27656406 0.00000000
0.36663547 0.10007315 0.00000000
0.51685369 0.26373330 0.00000000
-0.43942574 -0.53703600 0.00000000
-0.24733333 0.13784660 0.00000000
0.09625248 0.68062353 0.00000000
-0.24953523 0.40033641 0.00000000
-0.73912263 0.13693021 0.00000000
0.19056697 -0.74641562 0.00000000
-0.76798433 0.30612767 0.00000000
-0.70218843 -0.61326176 0.00000000
-0.51005661 -0.03721428 0.00000000
