ply
format ascii 1.0
element vertex 1143
property float x
property float y
property float z
end_header
-0.44422349 -0.25545043 -0.01060622
-0.32583803 0.13698035 -0.07719415
-0.37121388 -0.33712441 -0.00000137
-0.23475783 0.44338110 -0.13122337
-0.58300817 -0.18315451 -0.26499298
-0.19003201 0.17282076 -0.00000302
-0.15288179 -0.54966253 -0.00000045
-0.66265476 -0.76859814 -0.01946476
-0.01964795 -0.26419577 0.00000089
-0.24835896 -0.02472787 -0.00000005
-0.71454591 -0.79357171 -0.08210189
-0.17721178 0.07025053 -0.00000534
-0.04355468 -0.02004907 0.00000120
-0.62599862 -0.30525365 -0.25355703
-0.26292881 -0.46409738 -0.00000096
-0.01853049 0.57555979 -0.00000065
-0.09466579 0.16219661 -0.00000610
-0.13513488 -0.70947886 -0.00000065
-0.33036798 0.00013762 -0.00000203
-0.21498244 -0.78468925 -0.00000127
-0.27559310 -0.06345536 -0.00000028
-0.48076442 -0.09123384 -0.16824958
-0.20335989 0.44874644 -0.08723697
-0.18771560 -0.35485786 -0.00000030
-0.54466105 -0.20771317 -0.19184224
-0.55802244 -0.11769054 -0.26820529
-0.40823251 -0.74128765 -0.00000235
-0.02989264 0.45783347 -0.00000251
-0.47901592 -0.01310313 -0.21440578
-0.62970710 -0.50969672 -0.13147420
-0.04501690 -0.23453720 0.00000079
-0.60846567 -0.49598682 -0.10801143
-0.06516379 0.40129921 -0.00000251
-0.33090067 -0.47199216 -0.00000138
-0.05990750 0.60779297 0.00000120
-0.07531407 0.20709524 -0.00000584
-0.14750740 -0.67426455 -0.00000065
-0.20086423 -0.57156378 -0.00000078
-0.09637088 0.53813463 0.00000100
-0.26495257 0.28980491 -0.08083868
-0.18923290 0.12106160 -0.00000402
-0.24481997 0.08735483 -0.00000297
-0.06651152 0.44198796 -0.00000171
-0.21070559 -0.23646006 -0.00000022
-0.22653481 -0.69453216 -0.00000117
-0.47982478 -0.24936675 -0.06807960
-0.51322740 -0.21740606 -0.13839827
-0.60686910 -0.67462426 -0.00000343
-0.25964993 0.16120796 -0.00000114
-0.37160024 0.03884456 -0.08490202
-0.36056560 0.24610227 -0.19769722
-0.16628157 -0.30767718 -0.00000008
-0.64654839 -0.37796640 -0.23912983
-0.07907003 -0.08921287 0.00000086
-0.13548440 -0.09184934 0.00000051
-0.27780530 0.21970910 -0.05644152
-0.35748053 -0.22419900 -0.00000108
-0.22944932 -0.03572206 0.00000005
-0.21636476 -0.37943682 -0.00000052
-0.61758208 -0.66054869 -0.01898761
-0.55360448 -0.05566811 -0.30027732
-0.26105824 0.33146405 -0.10098335
-0.04699439 0.02053364 -0.00001020
-0.60024899 -0.14763720 -0.31316644
-0.64771825 -0.70186955 -0.03861760
-0.00321025 -0.43460619 0.00000071
-0.01849938 -0.41311917 0.00000061
-0.63811636 -0.79209894 -0.00000384
-0.68059522 -0.76226598 -0.05046686
-0.45153078 0.01610692 -0.19120947
-0.45740387 0.02414436 -0.20508334
-0.47762436 -0.27970621 -0.04581528
-0.45201227 -0.24711221 -0.02755612
-0.56556672 -0.02390037 -0.33815101
-0.47024226 0.09684688 -0.26984149
-0.34374973 0.07088972 -0.06292532
-0.09006698 -0.36593413 0.00000027
-0.32834327 -0.63161796 -0.00000167
-0.12906991 -0.72180122 -0.00000063
-0.21588461 -0.40284666 -0.00000056
-0.22847977 0.10166693 -0.00000320
-0.00286865 0.68127751 0.00000086
-0.56589836 -0.37292907 -0.12068398
-0.45819452 -0.79289532 -0.00000275
-0.62711245 -0.48157904 -0.14512177
-0.08252523 -0.59674603 -0.00000012
-0.50238532 -0.63308907 -0.00000272
-0.03215880 0.00786848 -0.00001088
-0.36075738 0.25936702 -0.20627013
-0.19864228 -0.07316905 0.00000016
-0.08997600 0.05871026 -0.00000818
-0.05994778 0.70909548 -0.03360908
-0.09512015 0.11675849 -0.00000694
-0.09219365 -0.60001051 -0.00000018
-0.25886911 -0.25307381 -0.00000054
-0.52061749 -0.48518845 -0.00000255
-0.48681366 -0.29955241 -0.04727565
-0.10067636 0.45636728 -0.00000040
-0.35551760 0.10147077 -0.09976487
-0.29132897 -0.35310695 -0.00000092
-0.63316268 -0.57612771 -0.09519813
-0.22357132 0.30419961 -0.02743980
-0.05921889 -0.40056431 0.00000039
-0.20429063 -0.01488314 0.00000024
-0.20469609 0.49629405 -0.11894480
-0.01938259 -0.49540427 0.00000045
-0.16860868 0.48395184 -0.05683007
-0.37584442 -0.70324433 -0.00000209
-0.34125969 0.27423626 -0.18616031
-0.56798863 -0.54984367 -0.01335300
-0.48146799 -0.24633138 -0.07245259
-0.66509223 -0.67459232 -0.08184578
-0.18310203 -0.58847284 -0.00000071
-0.55125117 -0.32560492 -0.12815493
-0.67423803 -0.76476610 -0.03932117
-0.00611740 -0.45490357 0.00000061
-0.70538962 -0.69714731 -0.12851410
-0.53121883 -0.34960362 -0.08296615
-0.40908152 0.05940443 -0.15425009
-0.04810751 0.46209687 -0.00000188
-0.18622556 -0.11686221 0.00000016
-0.13271821 -0.52471793 -0.00000028
-0.65222830 -0.50738525 -0.16687165
-0.53557169 -0.18119448 -0.19469957
-0.31002045 -0.64300466 -0.00000158
-0.41179246 -0.60567284 -0.00000212
-0.71006066 -0.64784443 -0.16634572
-0.11756409 -0.66158843 -0.00000045
-0.25272498 0.18383460 -0.00000093
-0.38204581 -0.09623146 -0.01629582
-0.31575391 -0.14634734 -0.00000068
-0.25480250 -0.65064579 -0.00000126
-0.24497737 -0.18733202 -0.00000033
-0.40174758 0.00012017 -0.10617033
-0.56499290 -0.51217878 -0.03235803
-0.33608109 -0.42012465 -0.00000132
-0.15530917 0.50150228 -0.04773929
-0.09663162 0.51519203 0.00000058
-0.22932515 -0.52924901 -0.00000088
-0.35274303 -0.03670608 -0.00929090
-0.14626266 0.42803541 0.00000044
-0.63105601 -0.60823303 -0.07197238
-0.63928956 -0.62784815 -0.07213615
-0.51645434 -0.30044052 -0.09140872
-0.16097659 -0.70730859 -0.00000080
-0.54505551 -0.02251675 -0.30809140
-0.11101023 -0.08600423 0.00000067
-0.27314183 0.38540718 -0.15288840
-0.08039644 -0.02928562 0.00000096
-0.18803047 0.34651917 -0.00028513
-0.45255888 0.02660796 -0.19931731
-0.51737994 -0.41547605 -0.02096496
-0.03020162 0.32503101 -0.00000499
-0.58811247 -0.74310744 -0.00000344
-0.11477857 0.12994671 -0.00000610
-0.18713227 -0.03925989 0.00000030
-0.41106540 -0.22752550 -0.00000141
-0.60182256 -0.12274045 -0.33108672
-0.17349452 -0.08246292 0.00000030
-0.27587390 0.27645269 -0.08896576
-0.47868681 -0.18044524 -0.10940517
-0.05793892 -0.53563190 0.00000015
-0.22429232 -0.06899780 0.00000002
-0.27251163 0.29726759 -0.09689548
-0.14004709 -0.21441261 0.00000025
-0.02369837 0.53341848 -0.00000128
-0.69458437 -0.78231680 -0.05903580
-0.27896103 0.19950666 -0.04556762
-0.51952392 -0.30207950 -0.09501301
-0.00978877 0.31258872 -0.00000584
-0.48070565 -0.58325738 -0.00000249
-0.44544277 -0.66204226 -0.00000243
-0.33253250 0.21566232 -0.13642360
-0.48858389 -0.22667301 -0.09545740
-0.60834491 -0.27771413 -0.24413975
-0.08439618 -0.44076952 0.00000016
-0.16485675 0.52733231 -0.07826440
-0.66441005 -0.65339720 -0.09405352
-0.63133866 -0.56415498 -0.09992504
-0.21397500 -0.42366105 -0.00000059
-0.10386137 -0.51271248 -0.00000009
-0.07926454 0.64352763 -0.02178508
-0.38490880 -0.71557617 -0.00000216
-0.50817740 -0.28927377 -0.08590357
-0.01233390 0.20898771 -0.00000771
-0.35671341 -0.44072124 -0.00000148
-0.23554422 -0.09285398 -0.00000010
-0.21626258 -0.64762235 -0.00000102
-0.14852315 -0.29227132 0.00000006
-0.40663680 0.17420217 -0.22225502
-0.02694277 -0.08108391 0.00000119
-0.41170257 0.02589406 -0.13727461
-0.37277570 -0.56715268 -0.00000181
-0.02118013 0.27053377 -0.00000629
-0.12565295 0.42293370 -0.00000028
-0.15363057 0.43019974 -0.00068041
-0.25724778 0.28289390 -0.06490668
-0.12046503 0.34269175 -0.00000194
-0.14319304 0.33322105 -0.00000143
-0.30396786 -0.12583502 -0.00000057
-0.38544124 -0.44337872 -0.00000166
-0.06997127 0.67517602 -0.02753839
-0.35415038 -0.51222712 -0.00000160
-0.31330717 0.20311521 -0.09960298
-0.44759709 -0.37725496 -0.00000191
-0.42096350 0.10940580 -0.20338956
-0.42823330 -0.06189388 -0.10737390
-0.42873293 -0.67706436 -0.00000236
-0.58109993 -0.57918292 -0.01479794
-0.00611338 -0.52971035 0.00000047
-0.07355160 -0.17113964 0.00000074
-0.43944490 -0.60665447 -0.00000229
-0.55280441 -0.10260467 -0.26975939
-0.10503260 0.14170229 -0.00000617
-0.10584750 0.02425256 -0.00000835
-0.20788696 0.33082154 -0.02041861
-0.29196236 -0.57513624 -0.00000134
-0.24093448 -0.34575230 -0.00000060
-0.09871951 0.59576762 -0.02129037
-0.00931892 0.57909912 -0.00000086
-0.04517675 -0.66761416 -0.00000002
-0.56385630 -0.49673456 -0.04028928
-0.09980112 -0.68240160 -0.00000038
-0.02393949 -0.37744340 0.00000065
-0.56117910 -0.34157935 -0.13314679
-0.07088465 -0.00350639 0.00000107
-0.21400453 0.04066174 -0.00000478
-0.08370435 -0.39676765 0.00000025
-0.51287192 -0.63546395 -0.00000279
-0.14082955 -0.36546808 -0.00000004
-0.43535537 -0.24279438 -0.00513986
-0.34430212 -0.47862929 -0.00000148
-0.37972918 0.02063442 -0.08578541
-0.51298529 -0.19255690 -0.15355147
-0.53420091 -0.42459676 -0.04062917
-0.55688941 -0.22657666 -0.19849819
-0.18335094 -0.76090008 -0.00000103
-0.39985350 -0.00625540 -0.09933320
-0.22405310 -0.15689217 -0.00000015
-0.41125113 -0.09219273 -0.06284929
-0.16010875 -0.64229804 -0.00000067
-0.25463042 0.37453282 -0.11818872
-0.01169300 0.15351953 -0.00000877
-0.58483040 -0.27877572 -0.20802520
-0.70133513 -0.75610340 -0.08558359
-0.02114027 -0.37427816 0.00000067
-0.35317957 0.01045379 -0.03940020
-0.14366718 0.21195056 -0.00000369
-0.02412379 -0.15329912 0.00000107
-0.19455573 0.37747428 -0.02945426
-0.47752705 -0.26642308 -0.05396381
-0.02034915 0.31885275 -0.00000541
-0.03642967 -0.31101114 0.00000070
-0.22920853 -0.25303504 -0.00000036
-0.16306645 0.28481212 -0.00000174
-0.04708822 -0.58372200 0.00000012
-0.13174099 -0.18372142 0.00000036
-0.03333074 -0.37035722 0.00000060
-0.59503436 -0.32077128 -0.19718307
-0.38458818 -0.38438028 -0.00000154
-0.67199457 -0.62687129 -0.12205350
-0.09919681 0.06930192 -0.00000771
-0.52589554 -0.74704218 -0.00000307
-0.19935136 -0.40923005 -0.00000047
-0.05362663 0.28536406 -0.00000503
-0.45502746 -0.24247807 -0.03499597
-0.42951149 -0.21671361 -0.01261668
-0.55755657 -0.38481209 -0.10068667
-0.58676755 -0.68952656 -0.00000333
-0.55471516 -0.57270890 -0.00000292
-0.22165111 -0.25480413 -0.00000032
-0.30523658 0.07686870 -0.00859494
-0.30199653 0.33280277 -0.16353986
-0.13463604 0.14105000 -0.00000529
-0.26306790 -0.73080432 -0.00000146
-0.64998639 -0.35852340 -0.25645509
-0.33265767 0.26786992 -0.16921572
-0.58961946 -0.06503823 -0.34872356
-0.06194322 -0.51152736 0.00000017
-0.66522682 -0.64209396 -0.10234375
-0.10944697 0.45309025 -0.00000020
-0.55514914 -0.26451504 -0.17218207
-0.48809227 -0.24944264 -0.08049668
-0.44222081 -0.75865656 -0.00000259
-0.55052882 -0.24240847 -0.17902175
-0.51576579 -0.77219611 -0.00000306
-0.08318784 -0.24545743 0.00000054
-0.03838504 0.14294393 -0.00000816
-0.19913574 -0.42143187 -0.00000049
-0.20544989 0.37081981 -0.04172312
-0.18073554 -0.73322403 -0.00000097
-0.52230453 -0.06632718 -0.24643148
-0.12962802 -0.05465012 0.00000062
-0.03852605 -0.32807976 0.00000065
-0.00530018 0.06531244 -0.00001062
-0.01282577 -0.66393995 0.00000018
-0.20857313 0.43403295 -0.08590820
-0.19613007 0.31539294 -0.00000017
-0.28170121 -0.48798236 -0.00000112
-0.56983268 -0.05699608 -0.32391441
-0.14012600 -0.23368049 0.00000022
-0.26331818 0.34451374 -0.11254000
-0.10298079 -0.33412540 0.00000025
-0.54766941 -0.49397883 -0.01760615
-0.61182410 -0.13099286 -0.34101197
-0.58433306 -0.42938632 -0.11321968
-0.03621041 -0.38467363 0.00000056
-0.40415809 -0.28009722 -0.00000146
-0.06826909 0.37849259 -0.00000284
-0.26203188 0.17810261 -0.00667767
-0.02319374 0.35615841 -0.00000462
-0.28900528 -0.77977198 -0.00000171
-0.30226612 -0.47245774 -0.00000121
-0.16176778 0.05048226 -0.00000617
-0.26347706 -0.69718760 -0.00000140
-0.02727799 -0.10419732 0.00000114
-0.56101751 -0.27028844 -0.17742401
-0.70105815 -0.71349370 -0.11177555
-0.35888159 -0.52391756 -0.00000165
-0.06418548 -0.65843284 -0.00000012
-0.41943136 0.18768696 -0.24996588
-0.08588691 0.55527776 0.00000100
-0.00009726 -0.66922581 0.00000025
-0.34817415 0.25594386 -0.18516134
-0.48666894 -0.09167840 -0.17687392
-0.58156550 -0.12997971 -0.29602540
-0.47803721 -0.67215669 -0.00000265
-0.40042922 -0.41066921 -0.00000169
-0.58849496 -0.09284217 -0.32966477
-0.03710279 -0.29228464 0.00000073
-0.30284095 0.35807624 -0.18059611
-0.45443463 0.04817884 -0.21561623
-0.30117935 -0.02354799 -0.00000036
-0.67769152 -0.49156970 -0.21513765
-0.65330529 -0.58989364 -0.11696922
-0.17768978 -0.29628015 -0.00000013
-0.42570379 0.14092146 -0.23021764
-0.01687349 -0.54094422 0.00000038
-0.45497295 0.05911562 -0.22325778
-0.24802566 0.04067981 -0.00000375
-0.30510634 0.21231575 -0.09298473
-0.16494526 0.15685976 -0.00000408
-0.09226931 0.01405791 -0.00000895
-0.56664199 -0.05193296 -0.32226583
-0.48751256 -0.06546829 -0.19451389
-0.64876246 -0.53874820 -0.14206032
-0.38802984 -0.54728901 -0.00000187
-0.49632001 -0.53521860 -0.00000250
-0.27153769 -0.34963951 -0.00000079
-0.09064242 0.10016880 -0.00000739
-0.06429802 -0.62686050 -0.00000006
-0.56353897 -0.61197627 -0.00000305
-0.02601647 -0.00925672 0.00000133
-0.20400906 0.48009071 -0.10779007
-0.43481734 -0.40061846 -0.00000188
-0.55017662 -0.26385152 -0.16509967
-0.70671535 -0.75608850 -0.09370440
-0.26628742 -0.68596309 -0.00000139
-0.13351092 -0.61364889 -0.00000046
-0.48569074 -0.03238687 -0.21242642
-0.29357135 -0.07234128 -0.00000041
-0.56096351 -0.32240865 -0.14479382
-0.61027157 -0.54913801 -0.07754136
-0.32788286 0.15690745 -0.09272139
-0.35247660 0.09759922 -0.09276232
-0.17389983 0.19290046 -0.00000314
-0.17576709 -0.79359764 -0.00000105
-0.09586723 0.47274709 -0.00000024
-0.20679422 -0.57300407 -0.00000082
-0.44897398 0.05546169 -0.21193156
-0.32702652 -0.53363180 -0.00000147
-0.23157105 0.15874904 -0.00000204
-0.06274625 0.08315347 -0.00000855
-0.22370680 -0.11263044 -0.00000006
-0.49447477 -0.08580435 -0.19231066
-0.01407944 -0.13804987 0.00000116
-0.45893759 -0.69256628 -0.00000257
-0.59307522 -0.69910157 -0.00000339
-0.30436611 -0.33791971 -0.00000097
-0.00809662 -0.43075743 0.00000064
-0.35966310 -0.47559735 -0.00000156
-0.58533019 -0.55139005 -0.03853224
-0.60258335 -0.07839727 -0.35992584
-0.59282404 -0.40035599 -0.14415038
-0.05880553 0.61912769 0.00000138
-0.00647983 -0.63175809 0.00000028
-0.15401886 -0.33812067 -0.00000006
-0.59392214 -0.48770815 -0.09125488
-0.56871808 -0.10371366 -0.29305899
-0.35802069 -0.28081560 -0.00000119
-0.00697051 -0.76289934 0.00000003
-0.43089882 -0.02406300 -0.13501780
-0.03620471 -0.46833140 0.00000040
-0.47411573 -0.25437939 -0.05634200
-0.42128938 -0.53700918 -0.00000205
-0.43751445 -0.17396393 -0.05137930
-0.41880628 -0.71090668 -0.00000236
-0.68229580 -0.63931274 -0.12981439
-0.53829926 -0.37362054 -0.07864248
-0.01494974 -0.45711932 0.00000055
-0.42564660 -0.34743455 -0.00000172
-0.12141408 -0.06021147 0.00000065
-0.27190396 0.31333062 -0.10601063
-0.43324953 -0.43656716 -0.00000193
-0.48733643 -0.04321237 -0.20814708
-0.37427941 0.02448877 -0.07997608
-0.07525245 -0.38520533 0.00000032
-0.08602004 -0.24167806 0.00000053
-0.38120386 -0.50809485 -0.00000175
-0.08894158 -0.10725460 0.00000076
-0.30853498 -0.46837088 -0.00000124
-0.20476285 -0.68805492 -0.00000103
-0.26936647 -0.51002747 -0.00000108
-0.19973394 0.31944984 -0.00102518
-0.30311692 -0.66933370 -0.00000158
-0.63319182 -0.54277223 -0.11607246
-0.67764819 -0.67877895 -0.09816107
-0.36493620 0.19823039 -0.17439075
-0.48435208 -0.67473096 -0.00000269
-0.31270126 0.05180163 -0.00419476
-0.08587321 0.46599039 -0.00000067
-0.37056881 0.20071670 -0.18443546
-0.71797132 -0.76775777 -0.10338692
-0.62145787 -0.16995580 -0.33120403
-0.03796658 -0.10955056 0.00000107
-0.25560421 -0.08779037 -0.00000021
-0.16400819 0.04163519 -0.00000627
-0.67675811 -0.66298413 -0.10668292
-0.52270979 0.00656179 -0.29256135
-0.18624996 0.14736177 -0.00000362
-0.31489316 -0.46189547 -0.00000127
-0.01043214 -0.46019918 0.00000057
-0.39793149 -0.10843325 -0.03262585
-0.00274951 -0.07367128 0.00000138
-0.48020920 0.07742314 -0.27273807
-0.39538932 -0.33734813 -0.00000152
-0.05993768 -0.19715229 0.00000077
-0.26910114 -0.59907997 -0.00000125
-0.07296757 0.23281442 -0.00000543
-0.33855549 0.03957378 -0.03553756
-0.36302391 -0.12564574 -0.00000093
-0.02969946 -0.70947987 -0.00000001
-0.26418900 0.34910387 -0.11671941
-0.04543412 0.20422366 -0.00000680
-0.00384703 -0.60586941 0.00000034
-0.15858828 0.40410560 0.00000036
-0.52565879 -0.52412570 -0.00000266
-0.15254585 0.15355490 -0.00000452
-0.62328845 -0.33187449 -0.23284636
-0.54063702 -0.28316882 -0.13865374
-0.42005786 -0.21031716 -0.00235850
-0.25151956 0.00411639 -0.00000433
-0.46189049 -0.00922761 -0.19100691
-0.19048662 -0.10686429 0.00000015
-0.48003867 -0.59856898 -0.00000252
-0.13238113 -0.09789697 0.00000052
-0.51288950 -0.12877716 -0.19323719
-0.24591006 0.36223814 -0.09736354
-0.09606871 -0.41060501 0.00000015
-0.45512548 -0.13233720 -0.10392624
-0.08615328 -0.01891012 0.00000094
-0.58564061 -0.43153703 -0.11384788
-0.07358153 -0.35623240 0.00000039
-0.11347538 0.52910715 -0.00190784
-0.14264219 -0.59957570 -0.00000049
-0.22624347 -0.42226952 -0.00000066
-0.45382878 0.14458597 -0.27490863
-0.64184833 -0.48915017 -0.16261005
-0.44429976 -0.75205779 -0.00000259
-0.13219295 -0.42607996 -0.00000010
-0.09201004 0.15251832 -0.00000636
-0.41898677 -0.56341100 -0.00000209
-0.10128178 -0.16793315 0.00000057
-0.62096190 -0.33086991 -0.22996616
-0.54620820 -0.34204820 -0.11028314
-0.02446488 -0.69961518 0.00000004
-0.20533384 -0.02076957 0.00000022
-0.52887940 -0.15251523 -0.20252004
-0.34380913 -0.18997978 -0.00000093
-0.63413650 -0.67902082 -0.03241000
-0.21539760 -0.19762164 -0.00000017
-0.10391753 0.31451169 -0.00000297
-0.35369217 -0.22633375 -0.00000106
-0.24072208 0.12698098 -0.00000235
-0.38792431 0.14199044 -0.17392708
-0.18751968 -0.31989884 -0.00000023
-0.40234470 -0.14555822 -0.01609502
-0.64943486 -0.74208319 -0.01609234
-0.41613913 -0.41829637 -0.00000180
-0.19286308 -0.03707306 0.00000027
-0.67013431 -0.60422724 -0.13339002
-0.51218879 -0.59518892 -0.00000271
-0.30035794 -0.74848622 -0.00000172
-0.64823711 -0.36598113 -0.24916051
-0.50989908 -0.71817136 -0.00000292
-0.49807444 -0.01220641 -0.24369925
-0.40611947 0.15702757 -0.21074960
-0.18268728 0.13675848 -0.00000392
-0.31359547 0.32054076 -0.17336938
-0.49263173 -0.49040315 -0.00000239
-0.12323139 0.45335272 0.00000022
-0.08872811 0.08201420 -0.00000778
-0.32732689 0.08898532 -0.04946612
-0.37946880 0.11824894 -0.14635271
-0.08174402 -0.43085819 0.00000020
-0.52434844 -0.76470321 -0.00000310
-0.44463396 -0.04857329 -0.14041895
-0.15436086 0.22688979 -0.00000309
-0.12302785 -0.01550133 0.00000073
-0.26490405 -0.62635535 -0.00000127
-0.56836331 -0.37243170 -0.12471085
-0.23954214 -0.34304830 -0.00000059
-0.06487712 -0.19645379 0.00000074
-0.64445883 -0.37379020 -0.23858751
-0.15076070 0.17123824 -0.00000424
-0.52364045 -0.59054303 -0.00000277
-0.58061576 -0.23126546 -0.23134099
-0.53212374 -0.03877747 -0.27844009
-0.14933830 -0.75047803 -0.00000081
-0.00246244 -0.19056083 0.00000116
-0.16006400 -0.74918532 -0.00000087
-0.32775933 -0.19495358 -0.00000084
-0.11266637 0.27385062 -0.00000347
-0.04816251 -0.71545011 -0.00000013
-0.16975799 0.39743349 -0.00453247
-0.40019590 -0.44894597 -0.00000176
-0.11322307 0.58286858 -0.03510124
-0.00637413 0.78317922 0.00000288
-0.11853738 0.48530400 0.00000068
-0.11079956 0.47237644 0.00000020
-0.63088959 -0.68575466 -0.02330959
-0.42377549 0.01373668 -0.14788406
-0.06279013 -0.00473902 0.00000111
-0.38272786 -0.32674664 -0.00000142
-0.41744211 0.11042284 -0.19871569
-0.08708849 -0.02461047 0.00000093
-0.13684376 0.07775057 -0.00000641
-0.68555057 -0.54253244 -0.19516031
-0.56750363 -0.02398756 -0.34101662
-0.38823050 -0.05620499 -0.05061651
-0.21990284 -0.22401048 -0.00000025
-0.09931942 -0.22069950 0.00000049
-0.33177224 0.11126821 -0.07008372
-0.31560048 0.10502280 -0.04180218
-0.66222543 -0.58612853 -0.13276884
-0.33192831 -0.27831787 -0.00000103
-0.54167348 -0.43529555 -0.04521385
-0.13542786 0.50356752 -0.01905501
-0.12564512 -0.62380803 -0.00000043
-0.37299910 0.06654390 -0.10430910
-0.31418005 0.24074870 -0.12442093
-0.34048775 0.27917418 -0.18808019
-0.48358026 -0.03148871 -0.20980546
-0.03104817 -0.64340246 0.00000011
-0.03088014 -0.58450848 0.00000022
-0.42276165 0.17372108 -0.24626516
-0.32492998 0.26078653 -0.15314157
-0.27662438 -0.02393537 -0.00000021
-0.39633206 -0.57762307 -0.00000198
-0.41536424 -0.02886661 -0.10859729
-0.37434369 -0.07909911 -0.01538284
-0.13128933 -0.05875213 0.00000060
-0.41842830 -0.15487421 -0.03452560
-0.05323369 0.11894407 -0.00000816
-0.05695744 0.18827707 -0.00000675
-0.57740289 -0.50598925 -0.05493327
-0.10414805 0.64683962 -0.06136894
-0.39374423 -0.33147115 -0.00000150
-0.25631747 0.29036167 -0.06816768
-0.21918590 -0.68353951 -0.00000110
-0.36964825 -0.66864723 -0.00000198
-0.42330909 0.01519988 -0.14809465
-0.21722336 -0.68191469 -0.00000109
-0.16321376 -0.22036985 0.00000010
-0.20901529 0.03547413 -0.00000503
-0.57006109 -0.07121707 -0.31537783
-0.25224990 -0.24405938 -0.00000048
-0.58681083 -0.04735428 -0.35553268
-0.05685128 0.29035771 -0.00000484
-0.48110929 -0.48543787 -0.00000231
-0.62338287 -0.49078858 -0.13374756
-0.13232189 -0.07882902 0.00000055
-0.31009364 0.16608419 -0.07163239
-0.24293885 0.18206146 -0.00000126
-0.61695093 -0.55058461 -0.08670812
-0.05126326 -0.22213989 0.00000077
-0.41401854 -0.61534053 -0.00000215
-0.14070822 -0.03022882 0.00000059
-0.11298019 -0.50206608 -0.00000012
-0.30770412 0.06278349 -0.00351897
-0.08206232 0.63062537 -0.01794573
-0.29893318 0.18841934 -0.06875454
-0.42835286 0.02130927 -0.15951419
-0.35969934 -0.03169414 -0.02290850
-0.28657627 0.31394708 -0.12851623
-0.01881312 0.72055221 0.00000208
-0.29672778 0.15259093 -0.04305492
-0.59538937 -0.57470131 -0.03914008
-0.26519206 0.30668962 -0.09174415
-0.00544240 -0.57783675 0.00000038
-0.17926177 -0.37153170 -0.00000028
-0.06390991 0.48089907 -0.00000105
-0.61922210 -0.36495116 -0.20605958
-0.01729929 0.21066391 -0.00000753
-0.53504395 -0.12095973 -0.23152025
-0.19146724 -0.18355018 0.00000000
-0.03508637 -0.30641800 0.00000071
-0.55093682 -0.48575422 -0.02766842
-0.63428020 -0.36274230 -0.23014127
-0.21359430 -0.55188233 -0.00000082
-0.39032739 -0.56187969 -0.00000191
-0.34173021 0.16018951 -0.11564794
-0.37578306 -0.79082912 -0.00000225
-0.33804506 -0.38912132 -0.00000127
-0.52312374 -0.57801086 -0.00000274
-0.05324786 -0.11934753 0.00000095
-0.52132535 0.04067013 -0.31177467
-0.39510545 -0.11994833 -0.02117406
-0.34507382 -0.50357991 -0.00000153
-0.07024153 0.67085099 -0.02524489
-0.20698483 0.08025321 -0.00000425
-0.21410845 -0.78988290 -0.00000127
-0.23885280 -0.45618486 -0.00000080
-0.44331026 -0.62561572 -0.00000235
-0.38005835 0.02011975 -0.08596026
-0.17634033 0.03130314 -0.00000609
-0.57593995 -0.34103078 -0.15574358
-0.47873744 -0.08842239 -0.16694938
-0.35570693 0.04133966 -0.06249869
-0.06111757 0.54754066 0.00000011
-0.17960495 -0.33503690 -0.00000021
-0.09607331 0.12676732 -0.00000672
-0.44523767 0.11693111 -0.24468593
-0.03541414 0.66993386 0.00000163
-0.35926583 -0.42948651 -0.00000147
-0.36548725 0.18374529 -0.16617568
-0.34395754 0.20901877 -0.14949965
-0.59723651 -0.11507078 -0.32896224
-0.47019789 -0.17203163 -0.10186111
-0.16996951 0.54371864 -0.09620583
-0.41559717 -0.69598997 -0.00000231
-0.39506659 -0.48621753 -0.00000180
-0.38409278 0.08410450 -0.13200095
-0.44223607 -0.21910232 -0.03030913
-0.44216773 0.10041340 -0.22974233
-0.43197620 -0.02026114 -0.13901635
-0.62545687 -0.25848866 -0.28194475
-0.46732646 -0.73152781 -0.00000269
-0.22148776 -0.53852832 -0.00000085
-0.39989468 -0.24519867 -0.00000137
-0.16250490 0.33931398 -0.00000073
-0.52484190 -0.01495302 -0.28233990
-0.03078030 -0.68409079 0.00000003
-0.36046782 0.10002099 -0.10632268
-0.54834425 -0.38978484 -0.08369228
-0.19357754 0.23678486 -0.00000172
-0.15379190 0.54946095 -0.07540177
-0.41691804 0.13591333 -0.21384425
-0.00606423 -0.28488040 0.00000101
-0.46994013 -0.12970303 -0.12790655
-0.32239220 -0.20959985 -0.00000084
-0.44763252 -0.46776634 -0.00000208
-0.57597286 -0.21795782 -0.23265171
-0.65499014 -0.43172172 -0.21828695
-0.20791183 0.34809336 -0.03124228
-0.56705964 -0.69082940 -0.00000322
-0.23135100 -0.72365111 -0.00000125
-0.48690957 -0.35635737 -0.01194576
-0.21280454 -0.29115498 -0.00000033
-0.04404020 0.66490203 0.00000180
-0.06223809 0.39164910 -0.00000278
-0.16630302 0.12506230 -0.00000464
-0.56634796 -0.44409418 -0.07691953
-0.07325430 0.35095066 -0.00000321
-0.43730557 -0.47404644 -0.00000203
-0.60067689 -0.07270706 -0.36060515
-0.48878106 -0.37123168 -0.00547839
-0.40609786 0.04608124 -0.14143147
-0.26807287 0.24318796 -0.05643090
-0.36865741 0.19048885 -0.17516644
-0.59077793 -0.21011218 -0.25987211
-0.16822834 0.44672698 -0.03300988
-0.39577737 0.09571605 -0.15686858
-0.57286036 -0.57700032 -0.00373864
-0.52693874 -0.13933475 -0.20782536
-0.64084435 -0.68340868 -0.03978284
-0.01816584 0.02111500 -0.00001106
-0.15257002 0.33800474 -0.00000106
-0.41363859 -0.02245103 -0.11000213
-0.57802808 -0.71619242 -0.00000333
-0.35958287 -0.16914049 -0.00000099
-0.50681937 -0.67562813 -0.00000283
-0.37142077 -0.48208976 -0.00000165
-0.65649348 -0.46474734 -0.19992915
-0.47374603 -0.11154252 -0.14498565
-0.67989641 -0.74686313 -0.05903234
-0.59884977 -0.22962631 -0.25985503
-0.26921475 -0.62498629 -0.00000130
-0.51075923 -0.03276113 -0.24998714
-0.20504469 -0.46006599 -0.00000060
-0.39253965 -0.70052260 -0.00000218
-0.61194551 -0.19897752 -0.29873881
-0.59213400 -0.52597034 -0.06466443
-0.36058116 0.24775226 -0.19875108
-0.22149919 -0.65984583 -0.00000107
-0.24396820 0.07170130 -0.00000329
-0.62581891 -0.67870533 -0.02006707
-0.42318726 0.08237803 -0.18986346
-0.59208649 -0.74543768 -0.00000347
-0.43942982 0.11102262 -0.23223992
-0.30237994 -0.58656085 -0.00000142
-0.02098213 -0.61873704 0.00000021
-0.03693018 0.74635458 -0.02217484
-0.34777594 0.06813757 -0.06727672
-0.15200628 0.32960451 -0.00000123
-0.34018448 -0.72340798 -0.00000191
-0.53576642 -0.00035214 -0.30792838
-0.63065410 -0.43727770 -0.17812730
-0.38210461 -0.45953643 -0.00000167
-0.30610791 0.10571417 -0.02792250
-0.44710055 -0.53915942 -0.00000221
-0.01489420 0.19290736 -0.00000793
-0.16250844 0.39642543 0.00000034
-0.18987925 0.08500992 -0.00000468
-0.21244942 0.17742141 -0.00000226
-0.57595390 -0.53393650 -0.03529573
-0.00374876 -0.66929418 0.00000027
-0.10309834 -0.00057016 0.00000088
-0.27529454 -0.37896150 -0.00000087
-0.34151825 0.19256414 -0.13554621
-0.42344344 -0.07267405 -0.09342034
-0.16387299 -0.26664016 0.00000001
-0.16183278 0.47077411 -0.03838496
-0.01121337 -0.40302053 0.00000068
-0.37049735 0.12734191 -0.13850544
-0.54806191 -0.36069566 -0.10143267
-0.51713067 -0.32659638 -0.07609413
-0.19492629 0.18585409 -0.00000263
-0.32570624 -0.36232698 -0.00000115
-0.45678210 0.12806799 -0.26904583
-0.38678670 -0.12150563 -0.00765979
-0.51117939 -0.39792064 -0.02258004
-0.60562205 -0.73455983 -0.00000353
-0.00186276 -0.11613220 0.00000127
-0.72624373 -0.78891164 -0.10264812
-0.33646715 -0.08413938 -0.00000069
-0.36775199 0.09538710 -0.11441078
-0.24354362 0.15625481 -0.00000172
-0.58924103 -0.47306100 -0.09334451
-0.17615041 0.02287344 -0.00000626
-0.10567676 -0.71371686 -0.00000048
-0.02361114 -0.36544511 0.00000067
-0.11648915 0.20936500 -0.00000456
-0.01873673 -0.75704086 -0.00000003
-0.03609371 -0.03433029 0.00000122
-0.30430543 0.13456692 -0.04322341
-0.64669430 -0.45086163 -0.19382706
-0.30633381 -0.44244936 -0.00000118
-0.58927387 -0.56754535 -0.03438894
-0.25001699 0.29727182 -0.06298413
-0.35738954 0.21803986 -0.17538400
-0.41901183 -0.54112571 -0.00000204
-0.37561432 -0.62128150 -0.00000193
-0.46152574 -0.00400267 -0.19371997
-0.06217079 0.41219807 -0.00000240
-0.07121829 -0.25931346 0.00000058
-0.25709063 -0.22049014 -0.00000047
-0.50238895 -0.70674235 -0.00000286
-0.53749853 -0.48699418 -0.00663388
-0.53166199 -0.37708047 -0.06647516
-0.59610540 -0.15645297 -0.30141392
-0.14576590 0.38236821 -0.00000043
-0.31476104 -0.59386313 -0.00000151
-0.29921478 -0.14079647 -0.00000057
-0.46510425 -0.01788494 -0.19044565
-0.21844243 0.25473115 -0.00000063
-0.21899234 -0.33996516 -0.00000046
-0.38314956 -0.65150732 -0.00000203
-0.04056675 -0.18919034 0.00000090
-0.05558664 -0.31212145 0.00000058
-0.64470512 -0.59780598 -0.09906208
-0.57073134 -0.53169537 -0.02882157
-0.05962191 -0.58699590 0.00000004
-0.03970685 -0.23254228 0.00000082
-0.20234872 -0.64379984 -0.00000093
-0.53225940 -0.68368185 -0.00000299
-0.27999482 0.01230523 -0.00000332
-0.21491869 -0.76843333 -0.00000124
-0.29337928 -0.67361546 -0.00000153
-0.33675182 -0.73468840 -0.00000191
-0.17338011 0.43701783 -0.03471359
-0.18835375 0.52347809 -0.11128263
-0.22567655 0.04338911 -0.00000438
-0.29287139 0.37334967 -0.17510375
-0.28515905 -0.77613425 -0.00000168
-0.40662625 -0.08520135 -0.06024270
-0.35096371 0.03697953 -0.05262469
-0.49719155 -0.66541737 -0.00000275
-0.16632847 -0.38226050 -0.00000022
-0.12753946 0.13465698 -0.00000563
-0.04403876 0.17967483 -0.00000730
-0.07072055 0.01547486 -0.00000958
-0.03430199 -0.59481061 0.00000018
-0.05783327 -0.38842750 0.00000042
-0.17553239 -0.02625582 0.00000039
-0.43209928 -0.43032238 -0.00000191
-0.11757980 -0.29571652 0.00000024
-0.01900068 0.34750178 -0.00000491
-0.25847369 0.37165615 -0.12218657
-0.39018372 0.10436284 -0.15383518
-0.02904336 0.12561342 -0.00000877
-0.23173973 0.02538232 -0.00000453
-0.66541302 -0.56310987 -0.15194961
-0.03112545 0.71800387 0.00000240
-0.17309704 0.41973197 -0.02349188
-0.45668706 0.12465201 -0.26676926
-0.43127850 -0.71991241 -0.00000245
-0.42800453 -0.35551393 -0.00000175
-0.42129871 0.07322671 -0.18130125
-0.16135748 -0.33344781 -0.00000010
-0.09447943 0.60505921 -0.02070039
-0.63225776 -0.68655640 -0.02487155
-0.31696394 -0.37068126 -0.00000111
-0.59483731 -0.47795624 -0.09872463
-0.29530135 -0.59553230 -0.00000140
-0.16935708 -0.13833418 0.00000022
-0.00282827 -0.12418714 0.00000129
-0.03492345 0.20329586 -0.00000713
-0.42826396 -0.73992872 -0.00000247
-0.06885181 -0.44645834 0.00000025
-0.24513240 -0.29491898 -0.00000053
-0.44766533 -0.11462142 -0.10374241
-0.42821422 -0.58736783 -0.00000219
-0.16497432 -0.73370248 -0.00000087
-0.46232280 0.02453021 -0.21274030
-0.61755228 -0.75878626 -0.00000365
-0.01478685 -0.21765749 0.00000100
-0.03287922 0.13008128 -0.00000857
-0.48264861 0.01097429 -0.23491883
-0.57150292 -0.32380974 -0.15980856
-0.44091019 0.05932161 -0.20218475
-0.30205506 -0.66762698 -0.00000157
-0.16713607 0.07315669 -0.00000558
-0.04377280 -0.66732496 -0.00000002
-0.25944716 0.12565635 -0.00000181
-0.58498961 -0.64930815 -0.00000325
-0.58596992 -0.19863363 -0.25979158
-0.70914000 -0.70150119 -0.13144939
-0.22442183 -0.09059885 -0.00000002
-0.01501007 0.05311475 -0.00001055
-0.64199460 -0.26092756 -0.30535454
-0.44299826 0.01288371 -0.17633255
-0.16680641 0.42638895 -0.01816511
-0.23961040 0.30768755 -0.05379925
-0.52450192 -0.43534067 -0.01929699
-0.06759546 0.04038277 -0.00000920
-0.62037843 -0.23792669 -0.28712913
-0.06753520 -0.75011784 -0.00000031
-0.29018202 -0.02557286 -0.00000030
-0.01974925 0.45914224 -0.00000280
-0.30480984 -0.50892186 -0.00000129
-0.40389487 -0.62014556 -0.00000210
-0.35607672 -0.55047864 -0.00000168
-0.10020502 -0.28643742 0.00000036
-0.18453445 0.48616013 -0.08221955
-0.27229714 -0.20438975 -0.00000053
-0.47161576 0.09460264 -0.27051073
-0.55478030 -0.41526282 -0.07748470
-0.39513004 -0.35158452 -0.00000154
-0.12758426 0.25795770 -0.00000331
-0.25265220 -0.20165175 -0.00000040
-0.28187063 -0.71993744 -0.00000155
-0.46076754 -0.63010049 -0.00000246
-0.10691603 -0.61408365 -0.00000030
-0.22947888 0.43019426 -0.11502945
-0.12224657 -0.60627425 -0.00000037
-0.32675406 0.17073198 -0.09965293
-0.14002682 -0.48408473 -0.00000025
-0.14797649 0.41948149 0.00000033
-0.35626289 -0.52057481 -0.00000163
-0.15433381 0.34422067 -0.00000089
-0.13908251 -0.03636162 0.00000059
-0.28160241 -0.65097010 -0.00000142
-0.12949637 0.42879152 -0.00000005
-0.30547708 0.04976969 -0.00000185
-0.55780184 -0.46240455 -0.05260022
-0.36967772 0.15938707 -0.15728179
-0.07009270 -0.65993387 -0.00000016
-0.16732483 -0.34632295 -0.00000016
-0.15902720 -0.41951239 -0.00000025
-0.16643175 0.14250690 -0.00000431
-0.01494809 -0.32229853 0.00000081
-0.13111404 0.50270331 -0.01201161
-0.10265622 -0.55501801 -0.00000016
-0.34348398 -0.29326692 -0.00000112
-0.09081580 -0.28934985 0.00000041
-0.50714314 -0.04948393 -0.23409206
-0.23444234 0.33090773 -0.06050856
-0.15395305 -0.38626039 -0.00000015
-0.07796097 0.65606242 -0.02764767
-0.00452638 -0.21064471 0.00000114
-0.71031821 -0.73400915 -0.11292464
-0.46836612 0.09264516 -0.26438901
-0.52990717 -0.06660162 -0.25772217
-0.24914415 0.35344428 -0.09674768
-0.67091131 -0.75071406 -0.04308119
-0.48194066 -0.14941159 -0.13369118
-0.05570084 0.42973244 -0.00000226
-0.30738953 0.00094989 -0.00000271
-0.58225167 -0.76578474 -0.00000345
-0.37772039 -0.04798438 -0.03990469
-0.22611672 -0.68036515 -0.00000114
-0.14492495 0.36876482 -0.00000071
-0.44285613 0.01121426 -0.17507571
-0.16715249 -0.12625778 0.00000025
-0.14822847 -0.36903724 -0.00000009
-0.41415522 0.01198387 -0.13228546
-0.23403031 0.37827000 -0.08946490
-0.48926699 0.01323874 -0.24631114
-0.69296885 -0.57921070 -0.18343896
-0.30051237 0.14119130 -0.04164171
-0.53922153 -0.66679275 -0.00000300
-0.14402550 0.23200464 -0.00000330
-0.10635896 -0.44998816 0.00000001
-0.00802703 0.75478202 0.00000239
-0.59176326 -0.16121916 -0.29189110
-0.34704030 -0.40722370 -0.00000136
-0.40266770 -0.13297412 -0.02444071
-0.59548175 -0.59606493 -0.02593787
-0.33109188 0.19123071 -0.11899421
-0.03747376 0.20158234 -0.00000709
-0.04473511 -0.56392676 0.00000017
-0.04601253 0.01892031 -0.00001026
-0.37804735 -0.78426957 -0.00000225
-0.04494326 0.49535853 -0.00000136
-0.06972462 0.51828802 -0.00000018
-0.04370855 -0.64946473 0.00000002
-0.42175034 -0.63890302 -0.00000224
-0.66306734 -0.58323115 -0.13584754
-0.23667330 -0.41697454 -0.00000071
-0.48740384 -0.68000489 -0.00000272
-0.16181333 0.17958522 -0.00000375
-0.26931226 0.38482508 -0.14675124
-0.00896151 -0.16876632 0.00000113
-0.44069728 -0.27334908 -0.00000167
-0.19617841 -0.60786241 -0.00000082
-0.11764706 0.57177269 -0.03484170
-0.47704685 -0.33682600 -0.00927352
-0.16595545 0.07907821 -0.00000551
-0.50627720 -0.17251103 -0.15595663
-0.56917328 -0.46103844 -0.07059745
-0.10074867 -0.56606275 -0.00000017
-0.67883468 -0.73970103 -0.06190436
-0.36360875 0.26099285 -0.21158434
-0.47310814 -0.36792061 -0.00000205
-0.37920278 0.18467794 -0.18743628
-0.60299063 -0.45205846 -0.12719005
-0.65891218 -0.41346851 -0.23559906
-0.08959072 -0.44676888 0.00000012
-0.09112865 -0.54932714 -0.00000008
-0.10883168 -0.42423391 0.00000005
-0.03027896 0.38814050 -0.00000381
-0.50184810 0.02859911 -0.27487150
-0.21136871 0.20201731 -0.00000183
-0.19755004 0.48662373 -0.10213199
-0.14501424 -0.40356064 -0.00000013
-0.45180783 -0.66548026 -0.00000247
-0.53479069 -0.06601775 -0.26544946
-0.50521326 0.01311243 -0.27027363
-0.31651440 0.28392133 -0.15490142
-0.03932535 -0.18839945 0.00000091
-0.46634668 -0.20322300 -0.07657597
-0.50025439 -0.73123765 -0.00000289
-0.54062742 -0.58243722 -0.00000286
-0.29325396 0.21922578 -0.07943081
-0.50126541 -0.41940075 -0.00000231
-0.06423634 -0.74427897 -0.00000028
-0.55284876 -0.37443212 -0.10007116
-0.15145507 -0.63035005 -0.00000060
-0.05116078 -0.50999951 0.00000023
-0.55774188 -0.23320712 -0.19564267
-0.43310246 -0.20852846 -0.02314219
-0.11447338 0.25087357 -0.00000384
-0.60479301 -0.61048573 -0.03097021
-0.05097791 -0.38240260 0.00000048
-0.45845282 -0.39960533 -0.00000202
-0.47042426 -0.02051295 -0.19682518
-0.07938242 0.36270279 -0.00000280
-0.72121561 -0.75773871 -0.11453493
-0.40060675 -0.72141266 -0.00000227
-0.32892609 0.25911713 -0.15812375
-0.25334403 0.37611869 -0.11723970
-0.51708317 -0.05424607 -0.24610417
-0.04873535 -0.41780552 0.00000042
-0.29623312 0.00003949 -0.00000306
-0.16660579 0.50397974 -0.06631773
-0.01445812 -0.45623332 0.00000056
-0.14382488 -0.72543323 -0.00000073
-0.58039695 -0.10634267 -0.30902484
-0.23086762 -0.46785343 -0.00000077
-0.08938330 0.62703449 -0.02674071
-0.02045247 -0.29863060 0.00000082
-0.53535914 -0.44793132 -0.02780304
-0.15533768 0.35312837 -0.00000069
-0.65595275 -0.51365745 -0.16856979
-0.55992150 -0.21102044 -0.21278426
-0.27864081 -0.10028646 -0.00000037
-0.41920722 -0.12481091 -0.05447435
-0.39843163 -0.04429280 -0.07343534
-0.67507404 -0.76554930 -0.04009251
-0.37218311 0.14327656 -0.15099812
-0.26170763 -0.59593952 -0.00000120
-0.39394352 -0.67456508 -0.00000214
-0.02664601 0.53944415 -0.00000108
-0.55373740 -0.66459519 -0.00000309
-0.18029992 0.37681547 -0.00755012
-0.61031157 -0.29334664 -0.23734234
-0.32870623 -0.03182164 -0.00000054
-0.10521605 -0.55448264 -0.00000017
-0.59337986 -0.59852344 -0.02123368
-0.06958762 -0.73824233 -0.00000030
-0.46684074 -0.05718900 -0.16851848
-0.21133779 -0.38838539 -0.00000050
-0.53562260 -0.16280343 -0.20626143
-0.49997130 -0.04659820 -0.22508153
-0.16100180 0.07540766 -0.00000573
-0.44652602 -0.70751476 -0.00000252
-0.10418975 -0.63116330 -0.00000031
-0.03656229 0.48388931 -0.00000182
-0.42640856 -0.06044403 -0.10552825
-0.40838271 -0.00346254 -0.11393635
-0.12890273 0.31530964 -0.00000220
-0.23060229 0.00259325 -0.00000499
-0.39173260 -0.45189711 -0.00000171
-0.53862387 -0.51416385 -0.00000271
-0.18984428 -0.70313025 -0.00000096
-0.19911303 -0.52761495 -0.00000069
-0.53148293 -0.39692479 -0.05381246
-0.56893653 -0.02445926 -0.34288239
-0.57965195 -0.70799720 -0.00000333
-0.38201103 -0.25474945 -0.00000128
-0.38056266 -0.35848653 -0.00000147
-0.03993222 -0.29846141 0.00000070
-0.55786806 -0.70165312 -0.00000318
-0.06677801 -0.64026076 -0.00000010
-0.18504412 0.30908355 -0.00000062
-0.38115147 -0.24171580 -0.00000125
-0.06404213 -0.22283088 0.00000070
-0.08167211 0.15938804 -0.00000655
-0.62271202 -0.41721910 -0.17867997
-0.67839956 -0.51170331 -0.20363183
-0.02148031 0.39504382 -0.00000394
-0.24662301 0.09738894 -0.00000273
-0.08762166 -0.27873576 0.00000045
-0.34517646 -0.33070901 -0.00000120
-0.08064045 -0.01967022 0.00000098
-0.17940699 -0.32141581 -0.00000019
-0.02734282 0.47331485 -0.00000230
-0.19826037 -0.71484959 -0.00000104
-0.35590196 0.23972975 -0.18668650
-0.10575326 0.22463711 -0.00000460
-0.66672409 -0.65949160 -0.09373634
-0.02466964 0.70156664 0.00000190
-0.31185165 -0.32765388 -0.00000100
-0.22241791 -0.63313264 -0.00000103
-0.11360310 -0.51061249 -0.00000014
-0.29755533 -0.41584164 -0.00000108
-0.52231824 -0.07543486 -0.24076447
-0.20626730 0.34446609 -0.02649770
-0.08934265 0.43877524 -0.00000108
-0.21603912 -0.33604446 -0.00000043
-0.10998324 0.57146788 -0.02309700
-0.56567794 -0.17882705 -0.24156757
-0.54056942 -0.66602635 -0.00000301
-0.22461978 0.25645804 -0.00000041
-0.04452529 -0.66344261 -0.00000001
-0.31860185 -0.10815186 -0.00000063
-0.23066895 -0.38571632 -0.00000062
-0.01316906 0.27950466 -0.00000636
-0.17227896 -0.65352762 -0.00000077
-0.24189575 -0.54085737 -0.00000097
-0.13285682 -0.12372982 0.00000047
-0.07249839 0.07050957 -0.00000849
-0.71497285 -0.75683296 -0.10568877
-0.04995591 -0.10085323 0.00000101
-0.55418020 -0.14858277 -0.24312045
-0.02287926 0.67067480 0.00000127
-0.52535707 -0.30969539 -0.09905121
-0.05112080 -0.22380403 0.00000077
-0.57795292 -0.34262055 -0.15778555
-0.60074848 -0.35235116 -0.18607649
-0.62683666 -0.75024962 -0.00000369
-0.24057955 0.15797909 -0.00000178
-0.17448467 -0.76969624 -0.00000100
-0.05260227 0.14261658 -0.00000774
-0.68862098 -0.52589482 -0.21017942
-0.43399712 0.00223656 -0.15611289
-0.16289619 0.45024282 -0.02716649
-0.19443443 -0.50888389 -0.00000063
-0.03920415 -0.28245828 0.00000073
-0.35693985 0.05120288 -0.07051701
-0.40991625 -0.20694286 -0.00000136
-0.46543318 0.09367733 -0.26061177
-0.23070866 0.36818823 -0.07816100
-0.12648717 0.19369988 -0.00000455
-0.52218527 -0.04692547 -0.25836802
-0.53115875 -0.01816152 -0.28985983
-0.66817313 -0.46016583 -0.22039898
-0.03506570 -0.11526039 0.00000107
-0.16535342 -0.41779673 -0.00000028
-0.57289493 -0.33831194 -0.15285063
-0.04668794 0.36136183 -0.00000382
-0.15297294 -0.62588561 -0.00000060
-0.27745613 0.03562071 -0.00000296
-0.49434364 -0.10928452 -0.17744970
-0.59376407 -0.20896059 -0.26509324
-0.26214445 0.35535482 -0.11754064
-0.15782554 -0.38444799 -0.00000017
-0.32531875 -0.26782548 -0.00000097
-0.57552028 -0.63090461 -0.00000316
-0.59799421 -0.13142794 -0.31988963
-0.00820884 -0.27221560 0.00000094
-0.02808148 -0.78643215 -0.00000014
-0.03973946 0.10700820 -0.00000879
-0.64795446 -0.62486452 -0.08706294
-0.51354057 -0.32399312 -0.07230722
-0.58125943 -0.36979562 -0.14579988
-0.23453981 0.24245144 -0.00541493
-0.05716483 -0.40128770 0.00000040
-0.23010582 -0.50893974 -0.00000084
-0.21931639 0.09378428 -0.00000362
-0.51452339 0.01778537 -0.28722823
-0.18996149 0.50238919 -0.10053661
-0.53293014 -0.11255645 -0.23358114
-0.46591452 -0.05811420 -0.16654427
-0.00656018 -0.78927028 -0.00000002
-0.56812829 -0.76381558 -0.00000336
-0.36601540 -0.61155593 -0.00000186
-0.34316501 -0.59700280 -0.00000169
-0.67526513 -0.50408936 -0.20366102
-0.42770419 -0.01765736 -0.13420171
-0.26851603 0.27176836 -0.07494738
-0.13782673 0.58901507 -0.07603331
