ply
format ascii 1.0
element vertex 1239
property float x
property float y
property float z
end_header
-0.70114577 -0.05481800 -0.00000148
-0.31757727 -0.70427471 0.00000000
-0.21169004 -0.66428912 0.00000000
-0.09726088 0.11370957 0.00000000
-0.32438150 0.13501200 -0.00000021
-0.17702234 -0.62873548 0.00000000
-0.54702610 -0.08564019 -0.00000077
-0.65142339 -0.58451486 -0.00000033
-0.67743671 -0.69032091 -0.00000026
-0.11038420 0.20174995 0.00000000
-0.02001462 -0.74143445 0.38196939
-0.03202100 -0.70128429 0.61110538
-0.11939540 -0.26287782 0.00000000
-0.27278611 0.46868739 -0.00000058
-0.20040399 0.31841424 -0.00000000
-0.11797823 0.40980116 0.00000000
-0.43000126 -0.35958895 0.00000000
-0.13083041 0.03321878 0.00000000
-0.73597574 -0.14389578 -0.00000147
-0.55935794 -0.54469866 -0.00000001
-0.39198563 -0.66961497 0.00000000
-0.18290602 -0.56979334 0.00000000
-0.70951694 -0.62653762 -0.00000043
-0.20673044 0.54182321 -0.00000043
-0.79010981 -0.65458202 -0.00000036
-0.26605865 -0.40447333 0.00000000
-0.03280087 -0.71091908 0.62598890
-0.35024366 -0.31891301 0.00000000
-0.04856157 -0.78607774 0.00000000
-0.79818922 -0.09536750 -0.00000176
-0.49782696 -0.04094821 -0.00000064
-0.29943496 -0.33873260 0.00000000
-0.47585696 -0.30210823 -0.00000008
-0.24889167 -0.50868344 0.00000000
-0.52063262 -0.72771043 0.00000000
-0.54677111 -0.05962238 -0.00000081
-0.46805727 -0.09444872 -0.00000042
-0.20550923 0.21026693 0.00000000
-0.76639640 -0.67885035 -0.00000030
-0.79386860 -0.44291544 -0.00000089
-0.18011093 0.15639909 0.00000000
-0.12797251 -0.09233824 0.00000000
-0.20883457 -0.33971134 0.00000000
-0.61004341 -0.21875504 -0.00000080
-0.79072821 -0.11439744 -0.00000171
-0.06476737 0.13028879 0.00000000
-0.47103322 -0.36976299 0.00000000
-0.32500190 -0.60041910 0.00000000
-0.40485215 0.07379705 -0.00000044
-0.13190286 -0.34549576 0.00000000
-0.03963658 -0.67241514 0.75645524
-0.07594588 0.17962146 0.00000000
-0.76077759 -0.14819022 -0.00000157
-0.01092057 0.74998653 0.00000000
-0.03215151 -0.76845926 0.00000000
-0.46085793 -0.32128108 0.00000000
-0.24869969 -0.46612552 0.00000000
-0.00715566 0.40424627 0.00000000
-0.78052104 -0.40311113 -0.00000099
-0.25925297 -0.11948762 0.00000000
-0.78499925 -0.49077302 -0.00000077
-0.39099792 -0.52312082 0.00000000
-0.56059778 -0.05310433 -0.00000088
-0.20592724 -0.31446773 0.00000000
-0.01435407 -0.76884109 0.27394053
-0.53071958 -0.20671101 -0.00000049
-0.66718853 -0.67355484 -0.00000024
-0.60116905 0.02725792 -0.00000120
-0.03317282 -0.31541333 0.00000000
-0.02105224 -0.49713531 0.00000000
-0.73375005 -0.56243753 -0.00000059
-0.03563443 0.34315419 0.00000000
-0.03163523 -0.77145994 0.60374308
-0.14837097 -0.21200298 0.00000000
-0.38608393 -0.29530016 0.00000000
-0.09242070 0.38767207 0.00000000
-0.36445746 -0.44509768 0.00000000
-0.33144894 -0.48205787 0.00000000
-0.19855931 -0.35274896 0.00000000
-0.18813384 0.38396317 -0.00000007
-0.77369493 -0.71125090 -0.00000022
-0.10117233 -0.65278167 0.00000000
-0.00200277 -0.79598653 0.03822184
-0.66074985 -0.64469171 -0.00000027
-0.77643144 -0.69234341 -0.00000027
-0.49350917 -0.47413701 0.00000000
-0.02803092 -0.74889082 0.53495651
-0.76224202 -0.24152304 -0.00000140
-0.19515003 -0.06495714 0.00000000
-0.52303368 -0.19025829 -0.00000048
-0.66017014 0.07944914 -0.00000154
-0.10987447 0.12429882 0.00000000
-0.06543839 0.40770748 0.00000000
-0.27125916 0.06272731 0.00000000
-0.72270781 -0.61045676 -0.00000047
-0.42761943 -0.15934384 -0.00000013
-0.69185698 -0.68480253 -0.00000029
-0.31038040 -0.04267966 0.00000000
-0.16162585 0.23791081 0.00000000
-0.47037682 -0.14771675 -0.00000033
-0.50890028 -0.19409412 -0.00000041
-0.70210087 -0.71704578 -0.00000021
-0.65546179 -0.55940825 -0.00000039
-0.13773905 -0.55035239 0.00000000
-0.65970230 -0.78367782 -0.00000002
-0.59783942 -0.08539245 -0.00000099
-0.11637508 -0.15329351 0.00000000
-0.16739714 0.48835456 -0.00000016
-0.21916454 0.49437165 -0.00000040
-0.41744560 0.29882535 -0.00000090
-0.73711693 -0.17704166 -0.00000142
-0.31705263 -0.50574189 0.00000000
-0.28217849 -0.34527251 0.00000000
-0.38588589 -0.31354031 0.00000000
-0.01112770 -0.77912879 0.21236670
-0.62935036 -0.10007528 -0.00000109
-0.53052580 -0.36276376 -0.00000021
-0.32334599 0.09874508 -0.00000014
-0.37717271 0.06758643 -0.00000031
-0.15021227 -0.79745412 0.00000000
-0.58433330 -0.21538220 -0.00000070
-0.25210676 -0.39090440 0.00000000
-0.41652450 -0.63404340 0.00000000
-0.27886361 0.30958071 -0.00000032
-0.33993784 0.33971402 -0.00000064
-0.62521815 -0.75079536 0.00000000
-0.30615932 0.47712475 -0.00000074
-0.41579625 0.34685293 -0.00000097
-0.23443982 0.50508034 -0.00000048
-0.03263048 0.19794898 0.00000000
-0.00952869 -0.75756013 0.00000000
-0.10576953 0.58975524 -0.00000008
-0.46345094 0.02601178 -0.00000061
-0.74529237 -0.58210808 -0.00000054
-0.63616085 -0.39567900 -0.00000060
-0.20357510 -0.28549227 0.00000000
-0.02781400 0.37353301 0.00000000
-0.53928769 -0.72183841 0.00000000
-0.57096612 -0.26650873 -0.00000055
-0.44051546 -0.12787119 -0.00000024
-0.33726203 0.07895637 -0.00000016
-0.08393774 0.21101832 0.00000000
-0.10994193 0.38834956 0.00000000
-0.46688980 -0.43601868 0.00000000
-0.30558032 -0.08503934 0.00000000
-0.12625550 0.07749588 0.00000000
-0.02564810 -0.22784360 0.00000000
-0.23526619 0.17124958 0.00000000
-0.18939087 -0.58767533 0.00000000
-0.64534211 -0.19023298 -0.00000100
-0.49286562 0.14100166 -0.00000094
-0.65044254 0.10159724 -0.00000154
-0.63573337 -0.36448860 -0.00000065
-0.46435764 -0.12807879 -0.00000034
-0.37025073 0.18043667 -0.00000048
-0.43096286 -0.30410391 0.00000000
-0.34011295 -0.73799229 0.00000000
-0.43592432 -0.61943489 0.00000000
-0.30600175 -0.02941933 0.00000000
-0.53527582 -0.69608718 0.00000000
-0.41782525 -0.31739286 0.00000000
-0.69911170 -0.27510086 -0.00000108
-0.50425935 -0.77564025 0.00000000
-0.69566631 -0.11877284 -0.00000134
-0.69668132 -0.75126678 -0.00000012
-0.02543874 -0.71411532 0.48548618
-0.38829932 -0.42988855 0.00000000
-0.03073711 -0.73486650 0.58660299
-0.70538682 -0.60866082 -0.00000048
-0.64734942 -0.47269812 -0.00000051
-0.65604085 -0.68182439 -0.00000018
-0.10243547 -0.46988955 0.00000000
-0.57048380 -0.34121251 -0.00000042
-0.76918411 -0.48780105 -0.00000078
-0.57009429 -0.58254486 0.00000000
-0.23642179 -0.36158621 0.00000000
-0.32623303 -0.39788622 0.00000000
-0.55882400 -0.28132954 -0.00000047
-0.68095380 -0.01075531 -0.00000147
-0.65937012 -0.40759504 -0.00000068
-0.05238244 0.11820200 0.00000000
-0.49671987 -0.55456036 0.00000000
-0.04745648 -0.00045938 0.00000000
-0.16166230 -0.76116133 0.00000000
-0.00341860 0.13247325 0.00000000
-0.08544623 -0.55585885 0.00000000
-0.58280176 -0.78898609 0.00000000
-0.50317866 -0.03476883 -0.00000067
-0.24336566 0.29022747 -0.00000014
-0.10946803 0.20721973 0.00000000
-0.40867698 -0.23813534 0.00000000
-0.35280773 -0.23943703 0.00000000
-0.34726125 -0.20760496 0.00000000
-0.14662689 -0.11845136 0.00000000
-0.38739869 -0.21929875 0.00000000
-0.09525205 -0.09124561 0.00000000
-0.00378958 -0.12759729 0.00000000
-0.05955283 -0.75089198 0.00000000
-0.32400694 -0.21504879 0.00000000
-0.03094533 -0.72532910 0.59057677
-0.79075557 -0.00362032 -0.00000195
-0.13394970 -0.74041378 0.00000000
-0.18651187 -0.72733551 0.00000000
-0.59255731 -0.73504096 0.00000000
-0.02030952 0.36485323 0.00000000
-0.04016761 -0.73162168 0.76658732
-0.68437046 -0.28455037 -0.00000100
-0.34479213 -0.34597269 0.00000000
-0.56015038 -0.28823555 -0.00000047
-0.20598958 -0.29866216 0.00000000
-0.24383111 0.11531530 0.00000000
-0.24729253 -0.44595820 0.00000000
-0.66330713 -0.23284386 -0.00000101
-0.21563277 0.17510188 0.00000000
-0.10809084 -0.48499146 0.00000000
-0.18174513 0.47198349 -0.00000020
-0.00326126 0.13673894 0.00000000
-0.53188670 -0.13099250 -0.00000062
-0.76922578 -0.10076261 -0.00000169
-0.70420343 -0.22459781 -0.00000119
-0.39415288 -0.34921461 0.00000000
-0.54798478 -0.71591461 0.00000000
-0.71610028 -0.60402453 -0.00000049
-0.31022713 -0.32116160 0.00000000
-0.37799057 0.32366285 -0.00000077
-0.60978764 -0.17875440 -0.00000087
-0.15424886 -0.37302443 0.00000000
-0.02645091 -0.72222936 0.00000000
-0.74960095 -0.55468851 -0.00000061
-0.78825086 -0.43194002 -0.00000092
-0.11193475 0.04275482 0.00000000
-0.03135192 -0.70395470 0.59833634
-0.20853589 -0.21947853 0.00000000
-0.02922291 -0.57130772 0.00000000
-0.19516456 -0.70884228 0.00000000
-0.23868792 -0.69799137 0.00000000
-0.64062965 -0.35429737 -0.00000069
-0.54701900 -0.44940975 -0.00000013
-0.18858296 -0.79652971 0.00000000
-0.22573565 0.15743567 0.00000000
-0.08802466 -0.44643641 0.00000000
-0.69505030 -0.14843278 -0.00000129
-0.30920580 0.23047666 -0.00000031
-0.49237829 0.14722759 -0.00000095
-0.53345972 -0.12370156 -0.00000064
-0.54534501 -0.68342179 0.00000000
-0.53410119 -0.21729548 -0.00000048
-0.13709612 0.09462238 0.00000000
-0.37823474 -0.62266916 0.00000000
-0.55034900 0.08300953 -0.00000108
-0.50968856 -0.78838980 0.00000000
-0.03717789 -0.18738155 0.00000000
-0.16744015 -0.67822373 0.00000000
-0.74874055 -0.24568366 -0.00000135
-0.03230052 -0.78578120 0.61643988
-0.02577907 -0.23766334 0.00000000
-0.02437002 -0.76784605 0.46509010
-0.00338139 0.52922785 0.00000000
-0.05404217 -0.10903373 0.00000000
-0.00180640 0.02610115 0.00000000
-0.19777209 0.55597794 -0.00000041
-0.13982143 -0.61672449 0.00000000
-0.20552045 0.43925086 -0.00000024
-0.53814858 0.24504745 -0.00000132
-0.24934150 -0.00905448 0.00000000
-0.02492959 -0.29985896 0.00000000
-0.60988754 -0.31123745 -0.00000064
-0.36047399 0.36686456 -0.00000077
-0.27946094 -0.40113801 0.00000000
-0.14784576 -0.34576479 0.00000000
-0.04050939 -0.76374215 0.77310872
-0.53297734 0.04221639 -0.00000094
-0.49169511 -0.66763258 0.00000000
-0.00161320 -0.76013792 0.00000000
-0.02249120 -0.74255645 0.42923376
-0.44766614 -0.68076414 0.00000000
-0.70258105 -0.52684879 -0.00000065
-0.46521866 -0.22497964 -0.00000017
-0.43410453 0.09036538 -0.00000060
-0.35916826 -0.78630757 0.00000000
-0.30262616 -0.71110570 0.00000000
-0.55325687 0.24112582 -0.00000137
-0.17113756 0.54492629 -0.00000028
-0.67002892 -0.45562202 -0.00000064
-0.44799367 -0.65325415 0.00000000
-0.36700380 -0.72469419 0.00000000
-0.52781361 -0.53220671 0.00000000
-0.47144568 0.03218275 -0.00000065
-0.03016774 -0.77653146 0.57573676
-0.13439003 0.41870269 0.00000000
-0.16941223 -0.03177094 0.00000000
-0.04033658 0.26788938 0.00000000
-0.00025399 -0.30414230 0.00000000
-0.12250852 -0.65370309 0.00000000
-0.38259548 0.12941404 -0.00000045
-0.33555236 -0.02738034 0.00000000
-0.31860122 -0.33094725 0.00000000
-0.26740497 0.14217792 0.00000000
-0.70254308 -0.59086359 -0.00000052
-0.45427060 0.19485325 -0.00000087
-0.26170278 0.36206642 -0.00000034
-0.34512091 0.31113094 -0.00000061
-0.59871304 -0.59794688 -0.00000008
-0.43655896 -0.79262239 0.00000000
-0.50966126 -0.20629716 -0.00000040
-0.48672405 -0.25641549 -0.00000021
-0.40277204 -0.68507135 0.00000000
-0.01866119 0.22307540 0.00000000
-0.34126559 -0.56150621 0.00000000
-0.64728725 -0.27843925 -0.00000086
-0.59401870 -0.03885692 -0.00000105
-0.41050860 -0.63329875 0.00000000
-0.03269169 -0.12316318 0.00000000
-0.78240359 -0.24160001 -0.00000140
-0.37021291 -0.13251188 0.00000000
-0.17352141 0.14497685 0.00000000
-0.29107288 -0.28322181 0.00000000
-0.63510293 0.11825816 -0.00000151
-0.34043220 -0.44832772 0.00000000
-0.47129309 -0.25832641 -0.00000014
-0.27881551 0.18505597 -0.00000010
-0.52709359 -0.72215885 0.00000000
-0.17097557 -0.24344286 0.00000000
-0.51541597 -0.54380214 0.00000000
-0.14724936 -0.14105321 0.00000000
-0.03366510 -0.27846572 0.00000000
-0.40066776 -0.01382333 -0.00000027
-0.17195913 0.50004476 -0.00000020
-0.57691067 -0.51811087 -0.00000013
-0.21712393 -0.04742762 0.00000000
-0.70231128 -0.04804272 -0.00000150
-0.02389247 -0.72688037 0.00000000
-0.11394881 0.43348521 0.00000000
-0.06750845 0.43710378 0.00000000
-0.66607445 -0.15086281 -0.00000116
-0.03733887 -0.70809317 0.71260095
-0.16064677 0.25115553 0.00000000
-0.51960117 0.23376484 -0.00000122
-0.66913134 -0.21586587 -0.00000106
-0.02735313 -0.75350505 0.52202123
-0.73043126 -0.25175622 -0.00000126
-0.78220725 -0.55152780 -0.00000062
-0.29675147 0.39558852 -0.00000055
-0.06240631 -0.27688435 0.00000000
-0.33016968 -0.03608702 0.00000000
-0.59235412 -0.54395121 -0.00000015
-0.22767749 0.37366650 -0.00000022
-0.14556065 0.12641270 0.00000000
-0.27036384 0.30509821 -0.00000028
-0.25302082 -0.63105756 0.00000000
-0.04081173 -0.66277301 0.77888376
-0.10947072 -0.69031757 0.00000000
-0.52708381 -0.42111871 -0.00000009
-0.15541089 0.52857238 -0.00000018
-0.52298319 0.08719957 -0.00000097
-0.48672724 0.15516695 -0.00000094
-0.79125148 -0.31967565 -0.00000120
-0.23382609 0.27418578 -0.00000007
-0.39412117 -0.56625825 0.00000000
-0.24412595 0.31922281 -0.00000019
-0.42352507 -0.57625109 0.00000000
-0.52385479 -0.61541730 0.00000000
-0.03814946 -0.01688107 0.00000000
-0.09344021 0.20549020 0.00000000
-0.35743874 -0.54939526 0.00000000
-0.22800788 0.35464865 -0.00000019
-0.35091144 -0.68532193 0.00000000
-0.25594783 0.39569038 -0.00000038
-0.09271820 0.69031346 -0.00000020
-0.08354975 0.35484955 0.00000000
-0.29979634 0.49908796 -0.00000073
-0.04989235 -0.41596645 0.00000000
-0.73770076 -0.60005617 -0.00000050
-0.45216620 -0.44878191 0.00000000
-0.43794042 0.24677525 -0.00000089
-0.56658262 -0.70841885 0.00000000
-0.03374570 -0.72841656 0.64402163
-0.22868527 -0.16695777 0.00000000
-0.45274699 0.05277641 -0.00000061
-0.50668919 -0.04555655 -0.00000067
-0.03223037 -0.45651117 0.00000000
-0.35910478 -0.41037881 0.00000000
-0.42612416 -0.52711749 0.00000000
-0.41211709 0.15545078 -0.00000062
-0.38319299 -0.72563624 0.00000000
-0.02302075 -0.76084346 0.43934000
-0.01329092 -0.28946263 0.00000000
-0.28848150 0.32224163 -0.00000039
-0.04935996 0.70203221 -0.00000004
-0.05909012 0.73724532 -0.00000009
-0.18425475 0.12159869 0.00000000
-0.24053752 0.14589857 0.00000000
-0.53049672 -0.38614917 -0.00000017
-0.65977609 -0.50643837 -0.00000051
-0.34772530 0.08614189 -0.00000022
-0.16978879 -0.58087075 0.00000000
-0.71908474 -0.13282831 -0.00000142
-0.16052650 -0.72077167 0.00000000
-0.15532248 -0.61310512 0.00000000
-0.30148742 0.08725234 -0.00000003
-0.22225925 0.12654191 0.00000000
-0.03766987 -0.74478149 0.71891642
-0.52316183 -0.03468350 -0.00000076
-0.32708564 -0.03566121 0.00000000
-0.46599457 -0.37723342 0.00000000
-0.52193147 -0.36253980 -0.00000017
-0.46772569 -0.40980634 0.00000000
-0.62734729 -0.36884439 -0.00000061
-0.02870209 0.49953693 0.00000000
-0.51139212 -0.04603672 -0.00000069
-0.04588320 -0.42487749 0.00000000
-0.70701069 0.01141708 -0.00000162
-0.02304327 0.12965587 0.00000000
-0.00925273 -0.78166384 0.17658380
-0.13323174 -0.64438361 0.00000000
-0.31091690 -0.26189533 0.00000000
-0.20753527 -0.06519095 0.00000000
-0.52309304 -0.07235858 -0.00000069
-0.50617701 -0.66821235 0.00000000
-0.14683244 -0.32703343 0.00000000
-0.22577687 0.12310732 0.00000000
-0.06625260 -0.07737944 0.00000000
-0.05417704 0.16158885 0.00000000
-0.05436599 0.69535679 -0.00000005
-0.66441673 -0.76382238 -0.00000007
-0.26059878 -0.08735416 0.00000000
-0.66589236 -0.59542781 -0.00000038
-0.28862029 -0.45248780 0.00000000
-0.46444348 -0.64967686 0.00000000
-0.33451396 -0.18902661 0.00000000
-0.46673730 -0.34009850 0.00000000
-0.34618294 0.34949639 -0.00000068
-0.76148212 -0.15509926 -0.00000156
-0.20130788 0.42617419 -0.00000020
-0.47205675 -0.03504873 -0.00000054
-0.42908001 -0.26817301 0.00000000
-0.40526912 0.31923169 -0.00000088
-0.37616599 -0.28292140 0.00000000
-0.38483086 -0.52840936 0.00000000
-0.36171302 0.37960455 -0.00000080
-0.64430982 -0.27878571 -0.00000084
-0.67311364 -0.35839033 -0.00000082
-0.15997858 -0.23465146 0.00000000
-0.72131693 -0.23949048 -0.00000124
-0.01811644 -0.05724360 0.00000000
-0.06389692 0.29217818 0.00000000
-0.14525209 0.33851543 0.00000000
-0.03243701 -0.61639333 0.00000000
-0.56957656 0.22560997 -0.00000134
-0.47287503 -0.62806213 0.00000000
-0.00608855 -0.78928351 0.11619713
-0.24599259 0.21683207 -0.00000002
-0.03309906 -0.67137963 0.00000000
-0.03380897 0.08010683 0.00000000
-0.20016608 0.19037594 0.00000000
-0.07600696 0.47566172 0.00000000
-0.79541892 -0.73733956 -0.00000016
-0.03047838 -0.69639701 0.58166516
-0.61243486 -0.53688598 -0.00000025
-0.08462447 0.45574817 0.00000000
-0.35845265 -0.22456694 0.00000000
-0.33183029 0.16797005 -0.00000030
-0.77978778 -0.33928737 -0.00000115
-0.38932291 0.15886450 -0.00000053
-0.49476093 0.00959856 -0.00000071
-0.12495761 -0.25153145 0.00000000
-0.04530466 0.12575100 0.00000000
-0.23053411 -0.67346609 0.00000000
-0.36203143 -0.58943862 0.00000000
-0.02485897 -0.31588906 0.00000000
-0.12719230 0.04729434 0.00000000
-0.01997003 -0.75891984 0.38111842
-0.63498259 -0.56072462 -0.00000030
-0.62286913 -0.35110113 -0.00000062
-0.62559891 -0.77527875 0.00000000
-0.41410920 0.28658500 -0.00000086
-0.00680760 -0.15920328 0.00000000
-0.34058800 -0.08501266 0.00000000
-0.61156470 -0.19678873 -0.00000085
-0.64383662 0.14890973 -0.00000160
-0.74254996 -0.36511713 -0.00000109
-0.78840667 -0.15478566 -0.00000161
-0.11612796 0.23195632 0.00000000
-0.14187320 0.33925271 0.00000000
-0.19757359 0.29481888 0.00000000
-0.21430083 -0.25103956 0.00000000
-0.03331062 -0.72454613 0.63571763
-0.44409606 -0.49980798 0.00000000
-0.01967270 -0.77202719 0.37544402
-0.37334505 -0.46501064 0.00000000
-0.03873065 -0.67426878 0.73916519
-0.41321635 0.24739984 -0.00000079
-0.27470788 -0.28679922 0.00000000
-0.77823448 -0.71789050 -0.00000021
-0.14982864 0.03166446 0.00000000
-0.76239836 -0.76961398 -0.00000008
-0.19694470 0.11767063 0.00000000
-0.14292473 0.02651773 0.00000000
-0.56311375 -0.05869815 -0.00000089
-0.48828608 0.25805548 -0.00000113
-0.10801200 0.43089199 0.00000000
-0.01066258 0.10398796 0.00000000
-0.55599982 -0.26426274 -0.00000049
-0.04120231 -0.66001856 0.78633839
-0.66086894 0.11548258 -0.00000161
-0.27811268 -0.27780858 0.00000000
-0.30414414 -0.39412138 0.00000000
-0.00417296 0.34184542 0.00000000
-0.70245171 -0.31383589 -0.00000103
-0.18032272 -0.40525827 0.00000000
-0.35694268 -0.41813609 0.00000000
-0.56266940 0.06071829 -0.00000109
-0.53160030 0.26509196 -0.00000127
-0.74356812 -0.05006377 -0.00000167
-0.30027258 0.23711532 -0.00000029
-0.16549698 0.50558752 -0.00000019
-0.57008827 -0.17309685 -0.00000071
-0.76602036 -0.12303541 -0.00000164
-0.34713233 0.13484710 -0.00000031
-0.24349892 -0.68183458 0.00000000
-0.56839925 0.10797652 -0.00000120
-0.25855044 -0.68909985 0.00000000
-0.16692732 -0.50798851 0.00000000
-0.04649572 0.09271280 0.00000000
-0.31925464 0.18346670 -0.00000027
-0.40300003 -0.52968770 0.00000000
-0.28960019 -0.04915530 0.00000000
-0.31575271 0.28210849 -0.00000043
-0.16900940 -0.24074788 0.00000000
-0.61072779 -0.64144278 -0.00000006
-0.65786910 -0.48588175 -0.00000053
-0.14885709 0.21931745 0.00000000
-0.54952389 -0.61745197 0.00000000
-0.16359475 0.19203308 0.00000000
-0.33482179 -0.52019995 0.00000000
-0.44861737 -0.66185248 0.00000000
-0.76116914 -0.60809743 -0.00000048
-0.49343243 -0.76654065 0.00000000
-0.24295792 0.09032156 0.00000000
-0.04452219 0.69851428 -0.00000001
-0.25767544 -0.69928783 0.00000000
-0.02865815 -0.70060682 0.54692703
-0.38906348 -0.67167062 0.00000000
-0.02682216 -0.03659517 0.00000000
-0.39238763 -0.12608293 -0.00000004
-0.50511253 0.07944363 -0.00000088
-0.14956379 0.47648835 -0.00000007
-0.43044525 -0.49399009 0.00000000
-0.02199014 -0.74041617 0.41967121
-0.44119287 -0.38664553 0.00000000
-0.02617887 -0.79801446 0.00000000
-0.25202462 0.16019905 0.00000000
-0.59120339 -0.37413120 -0.00000045
-0.35031727 -0.39510524 0.00000000
-0.17241593 -0.48762190 0.00000000
-0.14609082 0.24149242 0.00000000
-0.75937283 -0.54634225 -0.00000063
-0.48674792 -0.29460365 -0.00000014
-0.74430233 -0.34766665 -0.00000113
-0.17472573 -0.72485900 0.00000000
-0.53993678 -0.11126909 -0.00000069
-0.52569866 -0.15441754 -0.00000056
-0.19980626 0.56762975 -0.00000044
-0.19429383 0.34748983 -0.00000003
-0.25242767 0.42538625 -0.00000042
-0.11765255 0.56870937 -0.00000009
-0.42238826 -0.02461564 -0.00000034
-0.43592882 0.36178023 -0.00000105
-0.03124008 -0.72923833 0.59620196
-0.53365207 0.09986489 -0.00000104
-0.09997509 -0.56431133 0.00000000
-0.05930803 0.68611193 -0.00000005
-0.03981020 -0.75821918 0.75976461
-0.08171016 -0.11818519 0.00000000
-0.03237626 -0.18513899 0.00000000
-0.13241474 0.66517234 -0.00000029
-0.30520999 -0.76049131 0.00000000
-0.40923977 0.21539989 -0.00000071
-0.75409192 -0.47949925 -0.00000080
-0.10640949 -0.35353878 0.00000000
-0.08452636 0.63015503 -0.00000006
-0.54506606 0.02930847 -0.00000096
-0.04871294 -0.56604528 0.00000000
-0.02023091 -0.51915020 0.00000000
-0.50743258 0.24349006 -0.00000118
-0.05867907 0.05165045 0.00000000
-0.47396207 -0.72024119 0.00000000
-0.60276395 -0.69826442 0.00000000
-0.41943550 -0.38776073 0.00000000
-0.10108348 0.47929308 0.00000000
-0.41721231 0.31152731 -0.00000092
-0.79317051 -0.33692101 -0.00000116
-0.17252734 -0.61544907 0.00000000
-0.48552409 0.01505437 -0.00000068
-0.03700878 -0.47593573 0.00000000
-0.52577883 -0.38788241 -0.00000014
-0.05816974 -0.21073581 0.00000000
-0.53601772 -0.69791764 0.00000000
-0.78188831 -0.56142575 -0.00000060
-0.60462475 -0.17823346 -0.00000085
-0.25390813 0.33983812 -0.00000027
-0.26278344 0.33666354 -0.00000030
-0.04716282 -0.30337441 0.00000000
-0.75368440 -0.46453676 -0.00000084
-0.46993777 0.30650470 -0.00000113
-0.08837736 -0.06153796 0.00000000
-0.21563973 -0.65346539 0.00000000
-0.03443245 -0.75696230 0.65712798
-0.01286255 -0.77260202 0.24547555
-0.06997774 -0.67402923 0.00000000
-0.00094294 0.26536149 0.00000000
-0.17037132 -0.71588421 0.00000000
-0.01612845 -0.77834016 0.30780363
-0.55469501 -0.13461155 -0.00000072
-0.03777614 0.73357308 -0.00000004
-0.42895770 -0.31647515 0.00000000
-0.33206418 -0.76278740 0.00000000
-0.43822646 0.05030847 -0.00000054
-0.32187429 -0.17038591 0.00000000
-0.38279682 -0.71832424 0.00000000
-0.17371882 0.14467604 0.00000000
-0.47902286 0.27151102 -0.00000111
-0.26725149 -0.26016635 0.00000000
-0.03924126 -0.77680993 0.74890548
-0.35277185 -0.20217448 0.00000000
-0.45150694 -0.07848530 -0.00000037
-0.25027633 -0.46223935 0.00000000
-0.15507872 -0.57265961 0.00000000
-0.15076832 0.29791838 0.00000000
-0.45332992 -0.17139322 -0.00000022
-0.08562761 -0.68601424 0.00000000
-0.04832224 0.70020604 -0.00000003
-0.49831772 -0.08123616 -0.00000057
-0.46485060 -0.77116376 0.00000000
-0.09219589 0.43704399 0.00000000
-0.30592352 -0.72541457 0.00000000
-0.48935032 -0.42062578 0.00000000
-0.50590611 -0.47123441 0.00000000
-0.77654105 -0.63540214 -0.00000041
-0.28251219 -0.05585730 0.00000000
-0.44833294 -0.21844774 -0.00000011
-0.06193484 0.72191405 -0.00000013
-0.36166036 -0.76135802 0.00000000
-0.44743088 -0.43187609 0.00000000
-0.38113612 0.17977345 -0.00000053
-0.41529781 0.28312206 -0.00000086
-0.66340405 -0.38081652 -0.00000074
-0.03819775 0.37013447 0.00000000
-0.12989800 -0.77502763 0.00000000
-0.21491945 -0.49541059 0.00000000
-0.64729822 -0.25900751 -0.00000089
-0.12313522 0.48443428 0.00000000
-0.59157503 -0.76314396 0.00000000
-0.60279357 -0.79006648 0.00000000
-0.28196195 0.15546139 -0.00000006
-0.16686448 0.27566209 0.00000000
-0.65292376 -0.37488779 -0.00000071
-0.06361831 0.21572030 0.00000000
-0.70057595 -0.65439254 -0.00000036
-0.22433440 -0.63421130 0.00000000
-0.01373402 -0.75864601 0.26210722
-0.32260078 -0.52991247 0.00000000
-0.61201918 -0.34800556 -0.00000058
-0.59035563 0.00374180 -0.00000111
-0.55440646 -0.34107563 -0.00000035
-0.40620109 -0.36056167 0.00000000
-0.02597014 -0.74883974 0.49562758
-0.70425570 -0.55528903 -0.00000061
-0.03257348 -0.79263699 0.62164927
-0.33971003 0.30332226 -0.00000057
-0.39717922 -0.07798088 -0.00000014
-0.41687447 0.02545732 -0.00000041
-0.37971938 0.23573793 -0.00000062
-0.66002351 -0.32547253 -0.00000083
-0.01525510 -0.10565533 0.00000000
-0.03937521 -0.73206043 0.75146413
-0.37787780 -0.03797315 -0.00000013
-0.36419877 -0.14954449 0.00000000
-0.66402537 -0.45036459 -0.00000062
-0.07434715 -0.04116311 0.00000000
-0.26276875 0.03749018 0.00000000
-0.12087349 -0.59173274 0.00000000
-0.14995351 -0.22914352 0.00000000
-0.03958956 0.62519526 0.00000000
-0.07037357 0.68541360 -0.00000010
-0.24249358 0.47223866 -0.00000046
-0.36208433 -0.00616227 -0.00000012
-0.14233208 0.10345837 0.00000000
-0.11120291 -0.32812220 0.00000000
-0.27310455 -0.48897699 0.00000000
-0.07047102 -0.70604134 0.00000000
-0.39981610 -0.09295106 -0.00000013
-0.21076640 0.42753780 -0.00000024
-0.64505565 -0.47834352 -0.00000049
-0.44210231 0.12268246 -0.00000069
-0.77685368 -0.24020590 -0.00000140
-0.75016564 -0.00278969 -0.00000178
-0.32911873 0.05678318 -0.00000009
-0.29478678 0.13739341 -0.00000009
-0.68534666 -0.43846306 -0.00000074
-0.52446818 -0.45157859 -0.00000003
-0.34205312 -0.73835534 0.00000000
-0.03690329 0.71344131 -0.00000000
-0.38375220 0.22239310 -0.00000062
-0.01866868 0.34373412 0.00000000
-0.63845801 -0.38892499 -0.00000062
-0.02833609 -0.34736013 0.00000000
-0.00588797 0.08202598 0.00000000
-0.66318625 -0.71569413 -0.00000015
-0.18294987 0.46922129 -0.00000020
-0.28400955 -0.41687256 0.00000000
-0.23793766 -0.37131876 0.00000000
-0.27911866 0.15590630 -0.00000005
-0.42647114 0.10566315 -0.00000059
-0.46134332 -0.55166841 0.00000000
-0.46404174 0.04539669 -0.00000065
-0.72461241 -0.56233644 -0.00000059
-0.47655556 -0.45714593 0.00000000
-0.28644958 -0.49769622 0.00000000
-0.18246886 0.26834902 0.00000000
-0.22371426 -0.65913445 0.00000000
-0.68540758 -0.14846127 -0.00000125
-0.25622973 -0.45690733 0.00000000
-0.10647352 0.20520279 0.00000000
-0.62823337 -0.25782961 -0.00000081
-0.77654284 -0.17897874 -0.00000155
-0.58039117 -0.02871394 -0.00000101
-0.02351790 -0.78643125 0.44882774
-0.23994076 0.18365435 0.00000000
-0.17220160 -0.28861007 0.00000000
-0.69667268 -0.32707670 -0.00000098
-0.16742583 0.26964611 0.00000000
-0.53440171 -0.48016068 -0.00000002
-0.37723324 0.37746269 -0.00000086
-0.79079366 -0.26998025 -0.00000133
-0.07329742 -0.07585017 0.00000000
-0.66535425 -0.77048475 -0.00000006
-0.59084296 -0.29641932 -0.00000058
-0.11482568 0.07268380 0.00000000
-0.20703830 -0.47535810 0.00000000
-0.76142955 -0.36962834 -0.00000108
-0.40888146 -0.57437897 0.00000000
-0.00841209 -0.55756658 0.00000000
-0.02619043 -0.64747947 0.00000000
-0.75794208 -0.05945052 -0.00000172
-0.27816287 0.12603876 0.00000000
-0.33239207 -0.68178296 0.00000000
-0.44991872 0.19122210 -0.00000084
-0.68504405 -0.24200042 -0.00000108
-0.08226396 0.56681877 0.00000000
-0.36492658 0.35774437 -0.00000078
-0.08056033 -0.31007123 0.00000000
-0.39454967 -0.37904954 0.00000000
-0.56678385 -0.41137737 -0.00000028
-0.38892025 -0.02698657 -0.00000020
-0.33691961 0.02442894 -0.00000007
-0.04152863 0.33778998 0.00000000
-0.16240025 -0.41161117 0.00000000
-0.30814892 -0.71064699 0.00000000
-0.44323778 -0.39446986 0.00000000
-0.38680604 -0.76563692 0.00000000
-0.62066185 -0.05447937 -0.00000114
-0.42261133 -0.69997948 0.00000000
-0.16049127 -0.31623369 0.00000000
-0.35423675 -0.08684708 0.00000000
-0.46363184 -0.03700972 -0.00000050
-0.52084351 -0.50259954 0.00000000
-0.60982186 -0.57115924 -0.00000018
-0.15091862 -0.44728687 0.00000000
-0.01208133 -0.14754392 0.00000000
-0.04842757 0.38052675 0.00000000
-0.54997003 0.14562713 -0.00000119
-0.55924624 -0.79774445 0.00000000
-0.10441241 -0.65888429 0.00000000
-0.60348976 -0.73904961 0.00000000
-0.36262649 -0.62214774 0.00000000
-0.55803764 -0.17290697 -0.00000066
-0.60579020 -0.12663826 -0.00000095
-0.55954564 -0.42291194 -0.00000023
-0.22875756 -0.63560796 0.00000000
-0.03208976 -0.68501443 0.61241764
-0.28296790 -0.69091660 0.00000000
-0.15768966 -0.31367552 0.00000000
-0.34999031 -0.66865665 0.00000000
-0.57298297 0.00231579 -0.00000104
-0.41715768 0.30897075 -0.00000091
-0.56717628 -0.35889322 -0.00000037
-0.39231470 -0.48941565 0.00000000
-0.45127773 -0.49438229 0.00000000
-0.74921721 -0.34142795 -0.00000115
-0.42242298 0.16261879 -0.00000068
-0.09554769 0.66454285 -0.00000017
-0.32759961 0.06576402 -0.00000010
-0.70014745 -0.24732482 -0.00000114
-0.05034782 -0.09137138 0.00000000
-0.52359849 0.06050042 -0.00000093
-0.03830743 0.16271740 0.00000000
-0.47006789 0.27655905 -0.00000108
-0.38676649 -0.71363503 0.00000000
-0.03526717 0.14646678 0.00000000
-0.20721582 -0.65328467 0.00000000
-0.18873517 0.03504070 0.00000000
-0.03042151 0.59924221 0.00000000
-0.73489553 -0.37075573 -0.00000107
-0.47822797 0.15356544 -0.00000090
-0.11791897 -0.40345708 0.00000000
-0.21694608 -0.19084436 0.00000000
-0.17814030 0.34723836 0.00000000
-0.02766361 -0.01479525 0.00000000
-0.06585148 0.51586980 0.00000000
-0.57085162 -0.32562584 -0.00000045
-0.37488288 -0.60287678 0.00000000
-0.45022452 -0.37934548 0.00000000
-0.26276207 -0.38702843 0.00000000
-0.28637478 -0.24134453 0.00000000
-0.18621524 -0.51835400 0.00000000
-0.70507127 -0.78607023 -0.00000003
-0.28998375 -0.48788524 0.00000000
-0.64254808 -0.77734494 0.00000000
-0.16564953 -0.50141275 0.00000000
-0.51975137 -0.21811357 -0.00000042
-0.52661300 -0.02293390 -0.00000079
-0.45857298 -0.68325388 0.00000000
-0.63433874 -0.33842114 -0.00000069
-0.54563743 -0.23499969 -0.00000050
-0.00592233 -0.26927331 0.00000000
-0.09764461 -0.43502897 0.00000000
-0.06859776 0.28277859 0.00000000
-0.24457666 0.51949465 -0.00000055
-0.61377734 0.16629982 -0.00000150
-0.02051020 -0.50112075 0.00000000
-0.26254612 0.24381728 -0.00000014
-0.54468942 -0.19271564 -0.00000057
-0.64424098 -0.31572732 -0.00000078
-0.63520485 -0.01609826 -0.00000127
-0.03399555 0.13623400 0.00000000
-0.40372697 0.01533742 -0.00000034
-0.26911625 -0.03467474 0.00000000
-0.05936102 -0.29688638 0.00000000
-0.65258342 -0.68359840 -0.00000016
-0.20532751 0.52561986 -0.00000039
-0.52617246 -0.02329268 -0.00000079
-0.09002824 0.60202914 -0.00000003
-0.01852043 -0.74490547 0.35345343
-0.66800904 -0.19624881 -0.00000109
-0.01152770 -0.76575232 0.22000052
-0.52127385 -0.45236403 -0.00000001
-0.33588046 -0.15581030 0.00000000
-0.55301362 -0.36926055 -0.00000029
-0.08868720 0.11048591 0.00000000
-0.44938549 -0.12250491 -0.00000029
-0.08005621 0.26263347 0.00000000
-0.70465708 -0.79514056 -0.00000001
-0.46001193 -0.25401717 -0.00000010
-0.02875997 -0.78509408 0.54887015
-0.51139939 -0.67499751 0.00000000
-0.06789115 -0.05306310 0.00000000
-0.22929902 -0.40860426 0.00000000
-0.01068933 -0.78502411 0.20400079
-0.06365798 0.23234332 0.00000000
-0.71069062 -0.21373656 -0.00000124
-0.42121691 -0.53070790 0.00000000
-0.01944909 -0.43635222 0.00000000
-0.28570956 0.40973371 -0.00000053
-0.72023487 -0.76595795 -0.00000009
-0.06153489 0.52817649 0.00000000
-0.10121620 -0.49290365 0.00000000
-0.00425483 -0.13280100 0.00000000
-0.02932297 -0.76575983 0.55961478
-0.41989359 -0.00426783 -0.00000037
-0.39523140 0.27922651 -0.00000077
-0.58150035 -0.29467440 -0.00000055
-0.18529665 0.22029461 0.00000000
-0.13325095 0.33396125 0.00000000
-0.07527583 -0.32572579 0.00000000
-0.30368382 0.18593048 -0.00000021
-0.51803350 -0.12606496 -0.00000057
-0.01081649 0.45141885 0.00000000
-0.53808099 0.05588726 -0.00000098
-0.15162458 -0.33368334 0.00000000
-0.79978997 -0.61915106 -0.00000045
-0.08613704 0.09147366 0.00000000
-0.58169365 -0.06120826 -0.00000096
-0.33685970 0.17600846 -0.00000033
-0.78792691 -0.51195627 -0.00000072
-0.74816060 -0.43553025 -0.00000091
-0.04126877 -0.65389448 0.00000000
-0.09923665 -0.53498554 0.00000000
-0.23299725 0.56477755 -0.00000058
-0.50404614 -0.16586117 -0.00000044
-0.77288944 -0.41652909 -0.00000096
-0.18000433 -0.74276018 0.00000000
-0.41339484 -0.06730490 -0.00000023
-0.67655456 -0.64432192 -0.00000033
-0.15188864 -0.02203137 0.00000000
-0.19386780 -0.26956132 0.00000000
-0.27446923 0.29961297 -0.00000029
-0.18628085 -0.43135172 0.00000000
-0.03188090 -0.71887630 0.60843152
-0.33597115 -0.28084135 0.00000000
-0.47605205 0.19053200 -0.00000095
-0.39779073 -0.54604453 0.00000000
-0.11871648 -0.49972096 0.00000000
-0.06524448 0.48240986 0.00000000
-0.68663412 -0.46890792 -0.00000069
-0.37566856 -0.61143112 0.00000000
-0.64551866 0.02876834 -0.00000139
-0.01241387 0.35868320 0.00000000
-0.01268021 -0.79124445 0.24199572
-0.56385314 -0.00834714 -0.00000098
-0.02105565 0.53743368 0.00000000
-0.13283555 -0.22580311 0.00000000
-0.09542436 0.15710421 0.00000000
-0.33540952 0.15622677 -0.00000029
-0.02217804 0.35478985 0.00000000
-0.02028430 0.04731008 0.00000000
-0.08119034 -0.17214392 0.00000000
-0.03038813 -0.18365657 0.00000000
-0.47777686 -0.14481290 -0.00000037
-0.48223954 -0.73912096 0.00000000
-0.40482524 0.39228851 -0.00000096
-0.38249314 -0.52959400 0.00000000
-0.13485926 -0.07945069 0.00000000
-0.74702793 -0.48786274 -0.00000078
-0.35873225 -0.21710487 0.00000000
-0.22795537 0.48083603 -0.00000041
-0.16531596 0.15423889 0.00000000
-0.04690333 -0.17246728 0.00000000
-0.23771690 -0.55630732 0.00000000
-0.24454948 0.36858022 -0.00000028
-0.37815675 -0.05637838 -0.00000010
-0.66501057 -0.22438844 -0.00000103
-0.36229658 0.11209492 -0.00000033
-0.60194904 -0.33750927 -0.00000056
-0.30979222 -0.51950896 0.00000000
-0.32739791 -0.03130313 0.00000000
-0.04828146 -0.76136923 0.00000000
-0.41400585 -0.66811591 0.00000000
-0.36358529 -0.04480837 -0.00000006
-0.55620098 -0.66056043 0.00000000
-0.17516506 -0.68144280 0.00000000
-0.02462452 -0.36333126 0.00000000
-0.03428395 0.57877415 0.00000000
-0.49265105 -0.74562657 0.00000000
-0.02474286 -0.50236833 0.00000000
-0.03332277 -0.76241291 0.63594908
-0.05045686 0.40242460 0.00000000
-0.38427150 -0.11610436 -0.00000002
-0.56536692 -0.67963552 0.00000000
-0.53645849 0.16110417 -0.00000116
-0.29241854 0.13760746 -0.00000008
-0.37827086 -0.08031981 -0.00000006
-0.22732978 0.30602333 -0.00000010
-0.62403870 -0.33164012 -0.00000066
-0.04019533 0.15273562 0.00000000
-0.01121088 -0.77834696 0.21395417
-0.37157825 0.14608841 -0.00000043
-0.33615333 -0.08246935 0.00000000
-0.18609165 -0.66598183 0.00000000
-0.38774678 -0.21186075 0.00000000
-0.04009182 0.35398588 0.00000000
-0.60111660 -0.67400128 0.00000000
-0.79037142 -0.50028545 -0.00000075
-0.68706721 -0.40960398 -0.00000079
-0.08497754 -0.77984464 0.00000000
-0.09339891 -0.25681543 0.00000000
-0.29345933 -0.76577395 0.00000000
-0.15129983 -0.54623532 0.00000000
-0.09239277 0.24612781 0.00000000
-0.23073982 -0.68021488 0.00000000
-0.53242540 0.06597322 -0.00000097
-0.70561171 -0.49552312 -0.00000072
-0.49463871 0.10519237 -0.00000088
-0.29822513 -0.14641973 0.00000000
-0.58169585 -0.05135442 -0.00000098
-0.75293976 -0.23922458 -0.00000138
-0.70006359 -0.52506948 -0.00000065
-0.25696990 -0.62251455 0.00000000
-0.42311379 -0.49968961 0.00000000
-0.52286077 0.17413171 -0.00000113
-0.79539698 -0.19056869 -0.00000152
-0.35575089 0.19293498 -0.00000045
-0.66169727 -0.31300157 -0.00000086
-0.46953657 -0.67180455 0.00000000
-0.17419754 -0.00885058 0.00000000
-0.25024721 -0.66055202 0.00000000
-0.31036109 -0.75596964 0.00000000
-0.58435237 -0.14205232 -0.00000083
-0.27177310 0.47743106 -0.00000059
-0.40105918 -0.75696051 0.00000000
-0.26562381 -0.31680745 0.00000000
-0.06823468 -0.29598892 0.00000000
-0.38481379 -0.15937036 0.00000000
-0.48715377 0.27611610 -0.00000115
-0.56034434 -0.36588594 -0.00000033
-0.15166453 -0.11738189 0.00000000
-0.13405468 -0.50853026 0.00000000
-0.59159756 -0.05666604 -0.00000101
-0.34289625 0.23868719 -0.00000047
-0.01111186 -0.55864769 0.00000000
-0.38028032 0.04255469 -0.00000028
-0.64519107 -0.39493319 -0.00000064
-0.29712221 0.06248377 0.00000000
-0.68259478 -0.42592487 -0.00000075
-0.03718619 -0.72326905 0.70968634
-0.48629329 -0.38724676 0.00000000
-0.11619089 0.15834185 0.00000000
-0.07795063 0.38951188 0.00000000
-0.07628588 0.02290975 0.00000000
-0.70655996 -0.24309367 -0.00000117
-0.02493512 -0.78354031 0.47587478
-0.50084817 -0.42394590 0.00000000
-0.38336226 -0.01879256 -0.00000019
-0.70736814 -0.38076919 -0.00000093
-0.39810711 -0.58081263 0.00000000
-0.37416822 0.16814852 -0.00000048
-0.47362009 -0.23156667 -0.00000020
-0.46860847 -0.02532288 -0.00000054
-0.27317864 -0.39911094 0.00000000
-0.60890669 -0.11426063 -0.00000098
-0.76550889 -0.15428863 -0.00000158
-0.28184754 0.24441059 -0.00000022
-0.32813859 -0.10649515 0.00000000
-0.19131520 -0.51410443 0.00000000
-0.30015287 -0.42813489 0.00000000
-0.11177559 0.37108564 0.00000000
-0.21775718 0.29458204 -0.00000004
-0.08287553 -0.09256796 0.00000000
-0.07533928 0.10634026 0.00000000
-0.40698674 -0.29388306 0.00000000
-0.15899365 0.42305532 -0.00000001
-0.49570668 -0.49338561 0.00000000
-0.60790920 -0.68526906 0.00000000
-0.64033753 -0.06955878 -0.00000120
-0.44880590 -0.06177234 -0.00000039
-0.30129221 -0.69448680 0.00000000
-0.39407778 0.38248080 -0.00000094
-0.32768461 -0.50301266 0.00000000
-0.01389073 -0.18231727 0.00000000
-0.12176852 0.51655364 -0.00000002
-0.61985761 -0.71118975 0.00000000
-0.63708025 -0.48857793 -0.00000044
-0.22063401 0.54580736 -0.00000049
-0.19677188 0.33824468 -0.00000002
-0.50903332 -0.28766698 -0.00000025
-0.69208324 -0.79515183 -0.00000001
-0.29853964 0.39187220 -0.00000055
-0.13120702 0.54712743 -0.00000011
-0.02638441 -0.75094068 0.50353372
-0.68962342 -0.17662682 -0.00000122
-0.04248829 0.17412187 0.00000000
-0.11759762 -0.06184192 0.00000000
-0.68490624 -0.31066915 -0.00000096
-0.18180279 -0.34791622 0.00000000
-0.48644772 -0.78622007 0.00000000
-0.45377141 -0.32226923 0.00000000
-0.08211825 -0.73972905 0.00000000
-0.00291229 -0.17730728 0.00000000
-0.30988130 -0.09677109 0.00000000
-0.25716159 0.09549867 0.00000000
-0.35855162 -0.66696668 0.00000000
-0.33449766 -0.06686741 0.00000000
-0.00967346 -0.33657607 0.00000000
-0.02578046 0.23506995 0.00000000
-0.62220722 0.06315286 -0.00000135
-0.48246330 -0.74931198 0.00000000
-0.03926899 -0.76410061 0.74943537
-0.58550715 -0.72797155 0.00000000
-0.25475749 0.36183029 -0.00000031
-0.04209497 -0.29134372 0.00000000
-0.15959556 0.62300926 -0.00000037
-0.15522777 -0.55099100 0.00000000
-0.37254980 -0.78618830 0.00000000
-0.40259781 0.06299489 -0.00000042
-0.53222007 -0.66932464 0.00000000
-0.10543453 -0.07151119 0.00000000
-0.15577865 -0.72503191 0.00000000
-0.77570271 -0.32063335 -0.00000120
-0.21967474 0.17923380 0.00000000
-0.41444290 0.26070973 -0.00000082
-0.40078458 0.17856902 -0.00000061
-0.02117107 -0.15965112 0.00000000
-0.11782988 0.48269209 0.00000000
-0.22947867 -0.47734392 0.00000000
-0.72921717 -0.76788878 -0.00000008
-0.51418400 0.12096168 -0.00000099
-0.08066678 0.23090702 0.00000000
-0.03546294 0.69831294 0.00000000
-0.14812294 0.34918022 0.00000000
-0.66377497 -0.05451785 -0.00000132
-0.03650319 -0.79939163 0.69664741
-0.51097739 0.27077675 -0.00000125
-0.14461306 -0.59613246 0.00000000
-0.54264480 -0.01885904 -0.00000087
-0.48846224 -0.52661914 0.00000000
-0.00207208 -0.33797994 0.00000000
-0.25103530 0.13025011 0.00000000
-0.64070940 -0.74985045 0.00000000
-0.28824788 -0.64137113 0.00000000
-0.72018158 -0.14336698 -0.00000141
-0.57259595 -0.15775187 -0.00000075
-0.03128116 -0.79047781 0.00000000
-0.48824880 -0.51755816 0.00000000
-0.27243689 0.06411381 0.00000000
-0.04389577 -0.36414340 0.00000000
-0.28396770 -0.42216438 0.00000000
-0.21202047 -0.02141827 0.00000000
-0.05966299 0.49776140 0.00000000
-0.68927860 -0.10280092 -0.00000135
-0.20629674 0.37523156 -0.00000013
-0.02476007 0.50950336 0.00000000
-0.10104349 -0.69518691 0.00000000
-0.43484324 0.12458785 -0.00000066
-0.39625770 -0.66764134 0.00000000
-0.04038194 -0.71977729 0.77067852
-0.58426774 -0.05801426 -0.00000098
-0.64000320 -0.13728258 -0.00000107
-0.01092720 0.74606425 0.00000000
-0.50553417 -0.29150900 -0.00000023
-0.66725129 -0.34563321 -0.00000082
-0.24203639 0.23037209 -0.00000003
-0.13964839 0.08323213 0.00000000
-0.73559457 -0.70880139 -0.00000023
-0.14552327 -0.28106835 0.00000000
-0.72823691 -0.68944865 -0.00000028
-0.25133660 -0.57401580 0.00000000
-0.55346018 -0.05799423 -0.00000085
-0.04624617 0.63484871 0.00000000
-0.67827511 0.00570217 -0.00000149
-0.58928895 -0.02086232 -0.00000106
-0.38447151 -0.79738563 0.00000000
-0.61989975 -0.37261173 -0.00000057
-0.79918218 -0.15199271 -0.00000162
-0.56055927 -0.72870028 0.00000000
-0.51495999 -0.60029191 0.00000000
-0.02870157 -0.78293091 0.00000000
-0.52971923 -0.46450672 -0.00000003
-0.06647250 -0.51135051 0.00000000
-0.73646235 -0.55167788 -0.00000062
-0.36004433 0.19117166 -0.00000046
-0.13724920 -0.48934284 0.00000000
-0.38867936 -0.03471861 -0.00000018
-0.64019358 -0.41562757 -0.00000058
-0.05820762 0.54329973 0.00000000
-0.12928084 0.66553599 -0.00000024
-0.31429929 -0.58608842 0.00000000
-0.08408094 0.66949844 -0.00000013
-0.04303600 -0.17017242 0.00000000
-0.22759689 -0.70072228 0.00000000
-0.22737132 -0.11538588 0.00000000
-0.76645958 -0.01050668 -0.00000184
-0.77306497 0.00173758 -0.00000189
-0.09297247 -0.45757070 0.00000000
-0.62939328 -0.47882563 -0.00000043
-0.49037552 -0.11039440 -0.00000048
-0.52059716 -0.74539763 0.00000000
-0.44192877 -0.17060231 -0.00000017
-0.12086976 0.57553440 -0.00000012
-0.11722043 -0.25962907 0.00000000
-0.46297163 -0.59857613 0.00000000
-0.23673773 -0.09831939 0.00000000
-0.48480624 0.28152767 -0.00000115
-0.43891382 -0.12550867 -0.00000024
-0.34794605 0.17646000 -0.00000038
-0.15168647 -0.10699131 0.00000000
-0.39638883 -0.35275087 0.00000000
-0.29805565 0.10367423 -0.00000004
-0.24176256 -0.38182417 0.00000000
-0.65543503 -0.38053301 -0.00000071
-0.40300450 -0.26500612 0.00000000
-0.10805101 -0.17955235 0.00000000
-0.07084138 -0.20327935 0.00000000
-0.44106489 0.20335332 -0.00000083
-0.11070573 -0.03369261 0.00000000
-0.15698625 -0.64864224 0.00000000
-0.79613155 -0.29839128 -0.00000125
-0.05404974 0.18556710 0.00000000
-0.21634498 0.45868418 -0.00000032
-0.41261634 -0.67656392 0.00000000
-0.48462728 -0.60662442 0.00000000
-0.42311770 -0.09579766 -0.00000022
-0.63421220 -0.39317748 -0.00000060
-0.49522790 -0.31796509 -0.00000014
-0.10634953 -0.45512506 0.00000000
-0.11848371 0.42010123 0.00000000
-0.02077509 -0.74219853 0.39648256
-0.12605694 -0.07396306 0.00000000
-0.59617347 -0.77694434 0.00000000
-0.02835040 -0.79514205 0.54105359
-0.67393833 -0.65875775 -0.00000030
-0.47464880 -0.64209592 0.00000000
-0.53544641 -0.32334295 -0.00000030
-0.13228315 -0.32715079 0.00000000
-0.06594279 0.24842249 0.00000000
-0.01118977 -0.79070741 0.21355128
-0.69447321 -0.58867246 -0.00000051
-0.68117136 -0.15390043 -0.00000122
-0.45828533 0.10449302 -0.00000073
-0.02266105 -0.70958102 0.00000000
-0.53639299 -0.25298169 -0.00000043
-0.12377909 -0.70961589 0.00000000
-0.44851381 -0.41536313 0.00000000
-0.06480748 -0.59040356 0.00000000
-0.32977745 -0.52510047 0.00000000
-0.35346809 -0.01265075 -0.00000007
-0.14420694 0.38296828 0.00000000
-0.07374900 -0.75599760 0.00000000
-0.02184000 -0.60922474 0.00000000
-0.23855589 -0.49745861 0.00000000
-0.52724576 -0.35005859 -0.00000022
-0.21906334 0.07457937 0.00000000
-0.58516544 -0.10779361 -0.00000089
-0.35216260 0.28628957 -0.00000059
-0.27422071 -0.07063542 0.00000000
-0.54347128 -0.44909433 -0.00000011
-0.66511822 -0.60088599 -0.00000036
-0.06027010 0.53509241 0.00000000
-0.19044952 0.46319747 -0.00000022
-0.03594156 0.32282805 0.00000000
-0.33441618 -0.62471086 0.00000000
-0.08720420 -0.32729226 0.00000000
-0.18888450 0.14866666 0.00000000
-0.54141271 0.25662324 -0.00000132
-0.32333544 -0.62020278 0.00000000
-0.26771209 -0.50906336 0.00000000
-0.03737774 -0.75258583 0.71334070
-0.68632495 0.08460513 -0.00000166
-0.39585406 -0.15739204 0.00000000
-0.27574852 -0.21667305 0.00000000
-0.21520251 -0.68394333 0.00000000
-0.73048663 -0.65322888 -0.00000037
-0.31140959 0.26861507 -0.00000039
-0.76273304 -0.24452662 -0.00000139
-0.18891668 -0.17421862 0.00000000
-0.36165223 -0.21420643 0.00000000
-0.54360288 -0.27286169 -0.00000042
-0.64162862 -0.42844281 -0.00000057
-0.35980579 -0.57268214 0.00000000
-0.44499817 -0.28595272 0.00000000
