ply
format ascii 1.0
element vertex 1143
property float x
property float y
property float z
end_header
-0.26032653 -0.59364766 -0.00000106
-0.38671488 -0.40396240 -0.00000134
-0.06127201 -0.78914744 -0.00000034
-0.27307990 0.06863632 -0.00000239
-0.39288503 0.12194890 -0.11905758
-0.21109398 -0.19551148 0.00000024
-0.66072810 -0.41070536 -0.16923098
-0.50272787 -0.17575204 -0.10474145
-0.56684124 -0.40224412 -0.07317218
-0.70406944 -0.58124191 -0.14021859
-0.48396313 -0.09594823 -0.11993045
-0.05633644 -0.24164760 0.00000106
-0.18875203 0.31459588 -0.00000001
-0.23499233 -0.52767837 -0.00000074
-0.42112505 -0.40377697 -0.00000155
-0.24673913 0.32950193 -0.05510433
-0.56986201 -0.19685601 -0.16680150
-0.70186627 -0.43009460 -0.20441724
-0.47909385 -0.62653553 -0.00000246
-0.08833596 0.54097366 0.00000149
-0.03795137 0.74679947 -0.01691136
-0.11898569 0.21999981 -0.00000401
-0.12813090 -0.30494639 0.00000046
-0.42661482 -0.49689844 -0.00000182
-0.05768476 -0.77265340 -0.00000028
-0.14021593 -0.43839493 0.00000006
-0.37156263 -0.27024955 -0.00000092
-0.13824365 -0.75392741 -0.00000072
-0.62230039 -0.03292309 -0.29470226
-0.49332115 -0.25913832 -0.05803444
-0.45932651 0.03025131 -0.14930375
-0.03058912 0.32701465 -0.00000454
-0.12554382 0.60876989 -0.04924013
-0.40468457 -0.23278417 -0.00000102
-0.48628598 -0.54228944 -0.00000229
-0.67143494 -0.33436707 -0.21421701
-0.68371195 -0.64449733 -0.09073530
-0.17920558 -0.47678146 -0.00000027
-0.37367997 -0.74157906 -0.00000211
-0.34613937 -0.35810998 -0.00000098
-0.00801314 0.48359174 -0.00000209
-0.54686445 -0.40900758 -0.04896319
-0.52905893 -0.45827699 -0.00834930
-0.25973147 -0.08071964 0.00000023
-0.17697923 0.14026184 -0.00000385
-0.47083080 -0.13839521 -0.08728672
-0.65391219 -0.72959238 -0.02160215
-0.29350081 -0.14856270 -0.00000014
-0.00694017 -0.18192135 0.00000150
-0.43121246 -0.20104559 -0.01759916
-0.54848289 -0.26237249 -0.11523704
-0.36979654 -0.72781676 -0.00000205
-0.34241700 0.29908517 -0.14340109
-0.23832214 -0.12915649 0.00000024
-0.06614946 0.18926123 -0.00000622
-0.45105892 0.16108251 -0.19811320
-0.35376412 0.16704357 -0.09733173
-0.02978303 0.50927669 -0.00000092
-0.57298392 -0.54151100 -0.01839069
-0.56351745 -0.06635077 -0.21751127
-0.42571744 -0.21879333 -0.00394587
-0.05315876 0.01320418 -0.00001013
-0.39173400 0.29121751 -0.19235197
-0.11927292 -0.41945809 0.00000023
-0.23634028 -0.42430314 -0.00000049
-0.05868858 -0.56570733 0.00000023
-0.34398794 -0.25441596 -0.00000071
-0.65269524 -0.06044281 -0.31489104
-0.32600224 0.37500781 -0.15937901
-0.63187051 -0.70560235 -0.00873729
-0.09525986 0.65703666 -0.03830276
-0.66647416 -0.61698246 -0.08452782
-0.55735129 -0.31562284 -0.10121982
-0.35780779 -0.16386937 -0.00000057
-0.18972199 0.36672768 -0.01089406
-0.02432482 -0.09981344 0.00000160
-0.20018585 -0.27184945 0.00000011
-0.63661999 -0.09327096 -0.28335407
-0.47286549 -0.11249163 -0.10085282
-0.60628223 -0.64160216 -0.00971694
-0.25435525 -0.44813433 -0.00000066
-0.59635043 -0.29132923 -0.15336329
-0.06485417 0.35627690 -0.00000292
-0.66113406 -0.43035036 -0.16101409
-0.11875450 0.52375358 -0.00459733
-0.01807664 -0.18307711 0.00000143
-0.01161249 0.48890394 -0.00000187
-0.09449326 0.16092528 -0.00000593
-0.05821999 0.32009554 -0.00000384
-0.27406052 0.24245660 -0.04582145
-0.25882420 0.08628603 -0.00000246
-0.17585836 0.32233140 -0.00000025
-0.23303431 -0.42167440 -0.00000046
-0.50560176 -0.55186486 -0.00000243
-0.16305538 -0.57912266 -0.00000043
-0.29538721 -0.07696860 0.00000002
-0.10087096 -0.65130097 -0.00000024
-0.68796670 -0.26117131 -0.26401040
-0.11259453 0.22906151 -0.00000402
-0.57199377 -0.09367703 -0.21449003
-0.19440120 -0.06270371 0.00000067
-0.57395864 -0.13845126 -0.19686715
-0.46598700 -0.46965703 -0.00000199
-0.45685878 0.15360960 -0.20098752
-0.45046681 -0.26831105 -0.00845034
-0.30997676 0.39665204 -0.15187553
-0.57629812 -0.41954270 -0.07560762
-0.00211022 0.49995351 -0.00000194
-0.46655616 -0.36159900 -0.00000172
-0.07816665 -0.59084696 0.00000005
-0.04276909 -0.63469857 0.00000016
-0.60113537 -0.19853339 -0.19930065
-0.12849849 -0.34019142 0.00000037
-0.20552792 -0.66620380 -0.00000091
-0.42694598 0.02090380 -0.11077437
-0.37948731 -0.43584117 -0.00000138
-0.46931851 -0.07478797 -0.11368150
-0.01447547 0.69835842 0.00000240
-0.45577431 -0.07903761 -0.09741575
-0.24730332 -0.72072440 -0.00000129
-0.59457684 -0.72713947 -0.00000341
-0.33830249 0.32641831 -0.15106113
-0.51564842 -0.27119955 -0.07645431
-0.32674888 0.09181757 -0.03550268
-0.43684399 0.09310273 -0.15307847
-0.53157693 -0.02160339 -0.20326391
-0.46139011 0.18855602 -0.22118804
-0.09590272 -0.18015169 0.00000097
-0.10627966 -0.27535772 0.00000067
-0.57041150 -0.50880635 -0.03005443
-0.22006311 -0.45315474 -0.00000046
-0.35366482 -0.42923191 -0.00000121
-0.20720062 -0.62600338 -0.00000082
-0.56454027 -0.54155761 -0.00939621
-0.36613283 -0.56639540 -0.00000163
-0.50034606 -0.17294873 -0.10344412
-0.44390517 -0.71645480 -0.00000247
-0.05819874 0.05573884 -0.00000913
-0.18169443 -0.16660763 0.00000049
-0.49710354 -0.12187102 -0.12248409
-0.02826625 0.04881774 -0.00001017
-0.17627430 -0.34050265 0.00000008
-0.03989138 -0.32713419 0.00000094
-0.57349414 -0.66420144 -0.00000312
-0.21784221 -0.41891232 -0.00000036
-0.29605952 -0.13611642 -0.00000013
-0.36961171 -0.14115076 -0.00000058
-0.10883430 0.00806732 -0.00000855
-0.54944509 -0.04974385 -0.20986597
-0.33730716 -0.01096624 -0.00147518
-0.04775945 0.40991890 -0.00000236
-0.70856035 -0.68012869 -0.10145827
-0.14254326 -0.30406308 0.00000038
-0.09235343 -0.14463528 0.00000108
-0.17608161 -0.46590644 -0.00000023
-0.03959451 -0.17821698 0.00000132
-0.23225100 -0.09171189 0.00000037
-0.47680122 -0.78053546 -0.00000283
-0.26234105 -0.17633402 -0.00000002
-0.15150756 0.44265565 -0.00370550
-0.43502322 -0.75841254 -0.00000252
-0.42434952 -0.52839774 -0.00000188
-0.13036396 -0.47979805 0.00000001
-0.56778216 -0.61678308 -0.00000297
-0.31975242 0.20447960 -0.07766442
-0.33531442 0.29222929 -0.13283423
-0.54745829 -0.53255045 -0.00000264
-0.00871113 0.09961956 -0.00000974
-0.30489057 -0.57587862 -0.00000128
-0.18412036 0.26733816 -0.00000110
-0.40325463 -0.06439385 -0.04804407
-0.16939896 0.57057124 -0.07903341
-0.47832000 -0.42831716 -0.00000196
-0.40033543 -0.28532282 -0.00000113
-0.11496368 -0.42478555 0.00000024
-0.04048269 0.11399811 -0.00000850
-0.17130598 0.19980283 -0.00000283
-0.26372698 0.38755798 -0.09871740
-0.15305378 -0.25879812 0.00000043
-0.10485967 0.42928419 -0.00000025
-0.70343196 -0.72307622 -0.07710078
-0.72946388 -0.77456117 -0.08210230
-0.51549208 -0.53588498 -0.00000245
-0.67871791 -0.68771541 -0.06640157
-0.08558258 0.17227542 -0.00000597
-0.24446687 -0.12125289 0.00000022
-0.20762989 0.46293306 -0.07227959
-0.22926009 0.37519684 -0.05664390
-0.40818071 -0.76955676 -0.00000239
-0.02116531 -0.11783653 0.00000158
-0.13942632 0.23094952 -0.00000317
-0.11410045 0.33858719 -0.00000178
-0.27654633 -0.16191551 -0.00000007
-0.01282987 0.62596881 0.00000091
-0.02855107 -0.39959502 0.00000083
-0.28089952 0.04483489 -0.00000263
-0.37595433 0.03859346 -0.06436757
-0.61900729 -0.21306705 -0.21189688
-0.28286600 -0.66898388 -0.00000138
-0.17609721 -0.17916448 0.00000049
-0.08653826 0.05414720 -0.00000831
-0.63095373 -0.09894610 -0.27483353
-0.44420940 0.12565716 -0.17523803
-0.48096490 -0.31620041 -0.01978145
-0.63425261 -0.64029306 -0.04002037
-0.12985466 -0.24652439 0.00000060
-0.47305521 -0.79886711 -0.00000285
-0.08679684 0.45948115 -0.00000019
-0.43708810 0.22970621 -0.21347532
-0.71105903 -0.78880847 -0.05626939
-0.20237160 0.42350721 -0.04933444
-0.55603755 -0.34365213 -0.08748408
-0.25715351 -0.52402139 -0.00000086
-0.32865453 -0.50664479 -0.00000125
-0.39177242 0.01340613 -0.07009088
-0.01755666 -0.33842060 0.00000105
-0.57388586 -0.28136835 -0.13387290
-0.23598363 -0.01797556 0.00000053
-0.04352079 -0.29933026 0.00000099
-0.22650765 -0.76952201 -0.00000129
-0.06831889 -0.76682931 -0.00000033
-0.12867285 -0.71608186 -0.00000057
-0.56424433 -0.30521405 -0.11312808
-0.17553140 -0.36803240 0.00000002
-0.19070277 -0.27950838 0.00000015
-0.65886295 -0.16149677 -0.27695876
-0.09928615 0.39046210 -0.00000119
-0.40765733 0.11175069 -0.13026810
-0.30196178 0.30578753 -0.10335554
-0.67410308 -0.76103890 -0.02921741
-0.47727120 0.04479044 -0.17477612
-0.52635264 -0.72503227 -0.00000299
-0.54731041 0.00068415 -0.22979733
-0.69995099 -0.40735161 -0.21239391
-0.55013162 -0.36171037 -0.07325739
-0.11882643 -0.42646381 0.00000022
-0.46334362 -0.08697612 -0.10196569
-0.15230030 0.26163307 -0.00000217
-0.63670260 -0.78441030 -0.00000380
-0.29288790 -0.52616054 -0.00000108
-0.01859087 0.65841365 0.00000173
-0.51387984 -0.12401005 -0.13937245
-0.23419771 -0.58542466 -0.00000088
-0.64229691 -0.24339569 -0.22329761
-0.28980410 0.11688273 -0.00727197
-0.19519874 -0.10646307 0.00000056
-0.06467826 -0.26685059 0.00000094
-0.07084159 -0.55965042 0.00000017
-0.21903330 -0.33036837 -0.00000015
-0.16780391 0.25296915 -0.00000188
-0.34761748 0.00020583 -0.01735140
-0.04615338 0.28542867 -0.00000490
-0.17064948 0.29375991 -0.00000098
-0.32818833 0.29739681 -0.12753548
-0.56454545 -0.19591370 -0.16156583
-0.17387593 -0.44164073 -0.00000015
-0.62749308 -0.66952121 -0.01996907
-0.41780275 0.12995344 -0.14906418
-0.39927593 -0.09464577 -0.03049757
-0.39485791 -0.39302230 -0.00000137
-0.19951659 -0.31834203 -0.00000000
-0.00322520 -0.25621065 0.00000134
-0.43770009 -0.21385565 -0.01885488
-0.28381598 0.04574828 -0.00000252
-0.15080357 0.16533208 -0.00000414
-0.33877507 -0.35870060 -0.00000094
-0.40760195 -0.60747635 -0.00000198
-0.04922566 -0.73091745 -0.00000012
-0.01371348 0.50483888 -0.00000149
-0.48487237 -0.09636382 -0.12071385
-0.10077383 0.00262231 -0.00000891
-0.62682408 -0.59675395 -0.05129264
-0.68404329 -0.57806593 -0.12033278
-0.03234570 -0.13659444 0.00000146
-0.39314398 0.29126081 -0.19386961
-0.43827546 -0.16410951 -0.04136631
-0.01688507 0.39550465 -0.00000358
-0.22830340 -0.42737499 -0.00000045
-0.16929172 0.57327580 -0.08011007
-0.04382947 -0.78451353 -0.00000023
-0.65296727 -0.47559807 -0.13241476
-0.23070577 0.26913995 -0.01149056
-0.06709148 0.24136452 -0.00000515
-0.09009643 0.42979565 -0.00000069
-0.59553224 -0.06227290 -0.25333208
-0.01700978 0.15850347 -0.00000832
-0.24268693 -0.65529805 -0.00000110
-0.08488222 0.25644088 -0.00000431
-0.18222314 0.50990272 -0.06595470
-0.37617469 -0.62010193 -0.00000182
-0.15891105 -0.18141654 0.00000059
-0.49794862 -0.50414830 -0.00000227
-0.68926311 -0.47611353 -0.17076334
-0.65120679 -0.58640200 -0.08176409
-0.57128364 -0.17082502 -0.17977214
-0.38065746 -0.39209878 -0.00000128
-0.43117186 -0.08138299 -0.07023556
-0.65283918 -0.45988423 -0.13919646
-0.04146126 0.73330253 -0.01469994
-0.27098346 0.32516307 -0.07896130
-0.39720738 -0.10783090 -0.02249454
-0.07235006 -0.64706814 -0.00000005
-0.30664393 -0.67222863 -0.00000153
-0.20885871 0.47078553 -0.07704253
-0.26302835 0.03527670 -0.00000336
-0.39064226 -0.17636219 -0.00000080
-0.41668016 -0.21731608 -0.00000106
-0.63924813 -0.67801958 -0.02872114
-0.24885301 0.32609615 -0.05585165
-0.00042723 0.12095059 -0.00000957
-0.31670028 -0.48475456 -0.00000112
-0.20864862 -0.44984895 -0.00000038
-0.33816433 0.00332610 -0.00867816
-0.06919547 0.21157674 -0.00000568
-0.48674360 -0.78822172 -0.00000291
-0.59855080 -0.16061135 -0.21324831
-0.70100385 -0.49209067 -0.17620786
-0.26555037 0.26211417 -0.04543072
-0.60433328 -0.26313445 -0.17425986
-0.10902521 -0.78830898 -0.00000063
-0.33262333 -0.12448078 -0.00000032
-0.08876057 -0.70072716 -0.00000029
-0.04960969 -0.63127732 0.00000012
-0.25445873 0.45503381 -0.11857218
-0.33425707 0.08411229 -0.04009032
-0.68346494 -0.70473349 -0.06395477
-0.31559360 -0.72502410 -0.00000172
-0.69680190 -0.55544722 -0.14385033
-0.11947932 0.39688843 -0.00000046
-0.28277224 -0.76030570 -0.00000161
-0.11325992 0.08232493 -0.00000694
-0.43747357 -0.49443868 -0.00000188
-0.15107228 -0.71349144 -0.00000070
-0.59210509 -0.13217500 -0.21891642
-0.32232967 0.19525293 -0.07634163
-0.27091527 -0.73208630 -0.00000147
-0.59449548 -0.13818900 -0.21880937
-0.06229070 0.37391394 -0.00000264
-0.04762247 0.33220035 -0.00000392
-0.34682071 0.34987512 -0.17044084
-0.01502358 -0.32624820 0.00000109
-0.30719191 0.35138038 -0.12898567
-0.00380991 -0.02172505 0.00000197
-0.04960795 0.67399335 0.00000298
-0.10165233 -0.30468291 0.00000062
-0.63785732 -0.75072014 -0.00000373
-0.17457375 0.46503010 -0.03807043
-0.30112919 -0.36942905 -0.00000074
-0.08849382 0.62644672 -0.01764502
-0.57342178 -0.55225646 -0.01412555
-0.53648674 0.08595976 -0.25583503
-0.23717786 0.12246276 -0.00000239
-0.67937624 -0.51080257 -0.14498426
-0.58275545 -0.00010051 -0.26712319
-0.08846753 -0.06934241 0.00000129
-0.04210005 0.31229615 -0.00000448
-0.12047737 0.39207003 -0.00000052
-0.60261452 -0.03213435 -0.27412719
-0.02194397 -0.46505377 0.00000070
-0.25560904 -0.39658687 -0.00000053
-0.16624846 -0.57295960 -0.00000044
-0.56238908 -0.32661170 -0.10173632
-0.17086554 -0.70005774 -0.00000078
-0.07233366 -0.58129364 0.00000011
-0.28945184 -0.09846260 0.00000001
-0.11602798 -0.24458677 0.00000069
-0.25538057 0.38673642 -0.08948509
-0.26333755 -0.71757531 -0.00000138
-0.41594836 -0.12986670 -0.03271171
-0.42286834 -0.10515349 -0.05094591
-0.20219077 0.00504804 -0.00000580
-0.12480103 -0.65159255 -0.00000038
-0.46313450 -0.13262588 -0.08164686
-0.50786471 0.02824013 -0.20000517
-0.66279650 -0.13625599 -0.29225123
-0.24622074 0.28074285 -0.03308799
-0.33314312 -0.06996464 -0.00000019
-0.66665399 -0.38471580 -0.18697058
-0.12652144 -0.25548637 0.00000060
-0.15557908 0.51801181 -0.04120708
-0.49140108 -0.01374501 -0.16402420
-0.10251431 -0.08651322 0.00000116
-0.56644684 -0.78657061 -0.00000339
-0.56152457 -0.41742754 -0.06083735
-0.41156456 0.25330085 -0.19673590
-0.43565738 -0.60553586 -0.00000214
-0.65158749 -0.72095430 -0.02293420
-0.05507860 -0.06994093 0.00000149
-0.30511814 -0.68068844 -0.00000154
-0.38348681 0.04035847 -0.07315020
-0.00595628 -0.56279707 0.00000064
-0.48078224 0.04473034 -0.17848124
-0.58116531 -0.60185015 -0.00052263
-0.25597206 -0.37833446 -0.00000049
-0.66607547 -0.49720359 -0.13683482
-0.05293868 -0.07993769 0.00000148
-0.28249758 0.39889973 -0.12365997
-0.23828818 0.48785603 -0.11583543
-0.30146015 0.36542076 -0.12907499
-0.08620852 0.22894213 -0.00000482
-0.31653255 -0.03641366 -0.00000000
-0.11569988 0.04269024 -0.00000765
-0.03132048 -0.76925278 -0.00000011
-0.26046202 -0.36331615 -0.00000048
-0.25037873 0.09128246 -0.00000262
-0.29059550 -0.34003109 -0.00000060
-0.75259477 -0.80871135 -0.09165199
-0.36112648 -0.31965879 -0.00000098
-0.65326762 -0.12302013 -0.28795072
-0.62601930 -0.35291779 -0.15778226
-0.18315206 0.39752367 -0.01746893
-0.01425680 0.51810932 -0.00000121
-0.19700108 -0.07956952 0.00000061
-0.00863969 -0.59068966 0.00000047
-0.09857504 0.48191783 0.00000061
-0.48513475 -0.03053373 -0.14997332
-0.47825858 -0.44489264 -0.00000200
-0.40687969 0.17391761 -0.15680960
-0.00953608 0.77639878 0.00000388
-0.36765379 0.27159005 -0.15811870
-0.30198157 0.36328954 -0.12869088
-0.57049340 -0.68530482 -0.00000316
-0.50816566 0.03961918 -0.20533448
-0.32884040 0.00579127 -0.00000196
-0.23423836 0.39570951 -0.07096522
-0.18855956 -0.79302216 -0.00000112
-0.50473517 -0.48785955 -0.00000227
-0.64849740 -0.08382019 -0.30013803
-0.44053894 -0.76437646 -0.00000257
-0.21571665 0.37469155 -0.04202735
-0.26048860 0.35875487 -0.08259552
-0.10144864 -0.58112586 -0.00000007
-0.49299729 -0.62623656 -0.00000254
-0.19569626 0.00241155 -0.00000605
-0.00636226 -0.42811280 0.00000098
-0.46435946 0.12376527 -0.19582081
-0.07806262 0.60494316 0.00000245
-0.57251740 -0.14030650 -0.19451864
-0.14249474 0.59673363 -0.06195694
-0.18315412 -0.10760981 0.00000063
-0.28404355 -0.66206264 -0.00000137
-0.27476084 0.41662407 -0.12324014
-0.22812293 0.41961253 -0.07498861
-0.41574249 -0.24050589 -0.00000111
-0.13288853 0.25975978 -0.00000279
-0.52518243 -0.76399547 -0.00000308
-0.53776246 -0.07609281 -0.18584988
-0.09338814 0.39912966 -0.00000120
-0.31839374 -0.02098927 0.00000003
-0.39382368 0.00460266 -0.06839538
-0.12427201 0.57598376 -0.03345488
-0.36881244 -0.50449598 -0.00000149
-0.50448322 -0.16291872 -0.11225668
-0.20700566 -0.31103930 -0.00000003
-0.62606937 -0.18169548 -0.23321332
-0.37629014 -0.30724087 -0.00000104
-0.58738774 -0.61585897 -0.00096873
-0.47947195 0.10448374 -0.20339411
-0.49202847 -0.18658461 -0.08860116
-0.00909060 -0.40589315 0.00000093
-0.64439052 -0.10821723 -0.28503281
-0.64414150 -0.46909568 -0.12589723
-0.09199249 0.58221793 -0.00189243
-0.15546691 -0.56806546 -0.00000036
-0.52032852 -0.55231541 -0.00000252
-0.22785634 -0.00298587 0.00000062
-0.05832344 -0.16954991 0.00000122
-0.12865587 0.07144013 -0.00000669
-0.16826627 0.47009021 -0.03359441
-0.29940110 0.30525339 -0.10039891
-0.36306718 -0.22125614 -0.00000074
-0.07798764 0.44544101 -0.00000074
-0.27857786 -0.08243518 0.00000011
-0.72396463 -0.55895096 -0.17117661
-0.00206071 -0.70384443 0.00000023
-0.23101220 -0.38492426 -0.00000036
-0.67271137 -0.73563719 -0.03892098
-0.02958487 0.12196706 -0.00000867
-0.20714317 -0.11180373 0.00000047
-0.52510858 0.03549423 -0.22152562
-0.55435097 -0.40688291 -0.05785528
-0.03400931 -0.16254881 0.00000139
-0.58731282 -0.28313529 -0.14736527
-0.26157212 -0.50600564 -0.00000084
-0.42073169 -0.11344235 -0.04502604
-0.34670022 0.09678504 -0.05889397
-0.62264675 -0.21617430 -0.21439701
-0.51099199 -0.37204722 -0.02710882
-0.09681190 -0.24254113 0.00000081
-0.06867408 0.00506921 -0.00000983
-0.00032863 -0.03765644 0.00000191
-0.00466537 -0.33839780 0.00000113
-0.23417284 -0.11639436 0.00000030
-0.11276249 0.47042024 0.00000081
-0.05519352 -0.58595920 0.00000020
-0.33102739 0.06514606 -0.02830822
-0.10237733 -0.18694215 0.00000091
-0.52984065 -0.09907338 -0.16731369
-0.42757863 0.06423808 -0.13052396
-0.29813850 0.05181756 -0.00000197
-0.37116536 -0.01418247 -0.03604408
-0.07327988 -0.20393245 0.00000105
-0.18485747 -0.23124033 0.00000031
-0.47346061 -0.33229685 -0.00471963
-0.34740791 -0.63717812 -0.00000169
-0.32213289 0.19810174 -0.07738664
-0.49920380 -0.21157818 -0.08522416
-0.50722367 -0.16657333 -0.11356037
-0.08865069 0.07556179 -0.00000781
-0.04644123 0.55128539 0.00000043
-0.34964305 -0.29342896 -0.00000084
-0.42420831 -0.17090300 -0.02342491
-0.48557630 -0.77185458 -0.00000286
-0.25367746 -0.34960592 -0.00000041
-0.45803702 -0.03153708 -0.12073193
-0.16728698 -0.63019753 -0.00000059
-0.45455077 0.19656663 -0.21744570
-0.24204539 0.21308416 -0.00000043
-0.68241018 -0.35021749 -0.21890374
-0.26559296 0.06998960 -0.00000259
-0.31979969 -0.27079466 -0.00000061
-0.69218367 -0.53456545 -0.14813487
-0.38135561 0.16915759 -0.12758687
-0.43634143 -0.02643951 -0.09991780
-0.23370656 -0.04644357 0.00000047
-0.53500420 -0.49281266 -0.00000246
-0.42492759 0.10519894 -0.14573877
-0.17545429 -0.68982393 -0.00000078
-0.33287099 -0.22956795 -0.00000058
-0.03622409 0.48005369 -0.00000131
-0.65346593 -0.17147519 -0.26682991
-0.63224334 -0.69701111 -0.01291568
-0.44257471 -0.29094487 -0.00000140
-0.65149343 -0.62919647 -0.06322913
-0.18108197 0.40258864 -0.01749857
-0.18311764 -0.58937132 -0.00000058
-0.55153960 -0.11174792 -0.18479575
-0.33367452 -0.61222386 -0.00000154
-0.46958479 -0.03261187 -0.13253187
-0.62834722 -0.53052306 -0.08206857
-0.12933481 0.38310933 -0.00000043
-0.08826045 0.56655061 0.00000199
-0.41599193 -0.46489295 -0.00000167
-0.22226132 -0.27097937 -0.00000002
-0.12345969 -0.59536737 -0.00000023
-0.09980258 -0.66513741 -0.00000027
-0.50795579 0.03267626 -0.20205487
-0.30459619 0.20700543 -0.06266820
-0.20025127 0.36880851 -0.02300072
-0.34019360 -0.07364236 -0.00000024
-0.15155108 -0.77843183 -0.00000086
-0.66724497 -0.68207574 -0.05669080
-0.10987748 0.43490678 0.00000001
-0.09854406 -0.53372777 0.00000007
-0.37977186 -0.03620291 -0.03549699
-0.34959418 -0.35772303 -0.00000100
-0.45998561 -0.72773439 -0.00000260
-0.10359688 -0.55646122 -0.00000002
-0.02886777 -0.31021222 0.00000105
-0.40169415 0.24850105 -0.18413252
-0.49834672 -0.29312199 -0.04841491
-0.61073416 -0.48708314 -0.08247295
-0.30390182 -0.31700000 -0.00000063
-0.29084381 -0.00579841 0.00000023
-0.69122499 -0.51519966 -0.15564144
-0.61663717 -0.40969196 -0.12281695
-0.23918010 0.24116631 -0.00818220
-0.64341938 -0.72696930 -0.01160511
-0.56478512 -0.05756700 -0.22272548
-0.35560933 -0.42132142 -0.00000120
-0.05626917 0.06224354 -0.00000906
-0.12879598 -0.39785016 0.00000023
-0.03300903 -0.24082491 0.00000120
-0.18397942 -0.74313450 -0.00000097
-0.45459661 -0.25293526 -0.01960846
-0.40606996 -0.12633865 -0.02376604
-0.43040875 -0.02729798 -0.09323456
-0.58202010 -0.64948297 -0.00000314
-0.73855191 -0.68190575 -0.13255125
-0.28227276 -0.26734179 -0.00000037
-0.02490664 0.07618245 -0.00000972
-0.32666752 -0.36256501 -0.00000088
-0.26248950 -0.46577692 -0.00000075
-0.42375708 0.23933671 -0.20354673
-0.53919709 -0.66178221 -0.00000291
-0.41722071 -0.27330011 -0.00000120
-0.00620918 -0.16994829 0.00000162
-0.45565426 -0.65860689 -0.00000240
-0.02880432 0.58146775 0.00000050
-0.10754703 0.06296031 -0.00000750
-0.12842847 0.36104661 -0.00000090
-0.59733164 -0.31205651 -0.14528129
-0.07883472 -0.57110155 0.00000010
-0.08902433 0.17589140 -0.00000580
-0.05567363 -0.52490652 0.00000035
-0.06817507 0.67932969 -0.01933095
-0.02508866 0.01453358 -0.00001095
-0.30719382 0.26898244 -0.09271336
-0.11109620 0.56317782 -0.01381392
-0.26199317 0.10581216 -0.00000198
-0.60768449 0.01178643 -0.29885101
-0.03489064 -0.26158273 0.00000114
-0.33821186 -0.21941245 -0.00000059
-0.19067897 0.32106754 0.00000018
-0.60870755 -0.25198719 -0.18381622
-0.39816812 -0.08232416 -0.03474457
-0.23005787 0.33807147 -0.04114794
-0.36895546 -0.57848048 -0.00000167
-0.29992867 0.20017849 -0.05470208
-0.44595221 -0.20631269 -0.03094595
-0.36761355 -0.25807774 -0.00000086
-0.12199949 -0.36013186 0.00000036
-0.26556018 -0.62117827 -0.00000116
-0.10859494 -0.31558922 0.00000056
-0.64380020 -0.06655481 -0.30274662
-0.04293435 -0.35475814 0.00000085
-0.34830049 -0.17956775 -0.00000055
-0.05928058 -0.44066605 0.00000054
-0.63918906 -0.03200593 -0.31305549
-0.55174994 0.08359890 -0.27101758
-0.34306127 -0.53977084 -0.00000142
-0.58577114 -0.54955512 -0.02843979
-0.63288867 -0.44444048 -0.12479173
-0.44638926 -0.27031258 -0.00323554
-0.19304597 0.16425049 -0.00000289
-0.52837890 0.03427895 -0.22446631
-0.24473715 0.10854219 -0.00000244
-0.48526162 -0.09368266 -0.12230787
-0.28103572 -0.20515172 -0.00000021
-0.16538493 -0.16919500 0.00000058
-0.20777808 -0.01631688 0.00000071
-0.56203282 -0.54564005 -0.00493399
-0.27919194 -0.63877696 -0.00000128
-0.24620761 0.17113318 -0.00000115
-0.75110644 -0.77045572 -0.10691159
-0.36965784 0.12123672 -0.09405800
-0.07320162 0.13203473 -0.00000715
-0.62171626 -0.56252629 -0.06093217
-0.50188458 -0.25596672 -0.06853193
-0.43147349 -0.07805381 -0.07202176
-0.06314458 0.28288645 -0.00000444
-0.50875473 -0.04400161 -0.16914780
-0.43437591 0.12114457 -0.16280033
-0.44655454 -0.23450890 -0.01917321
-0.69111675 -0.72274625 -0.06415737
-0.38090557 -0.55847210 -0.00000170
-0.08365515 -0.40729734 0.00000048
-0.37014198 -0.27178052 -0.00000091
-0.52830374 -0.22290315 -0.11116615
-0.55389518 -0.72360384 -0.00000315
-0.34865755 0.08316455 -0.05497803
-0.59431207 -0.05977258 -0.25313601
-0.19032218 -0.56341183 -0.00000056
-0.17346783 0.14425366 -0.00000388
-0.05472611 0.58339125 0.00000132
-0.51060176 -0.63939697 -0.00000268
-0.59048301 -0.71128857 -0.00000334
-0.66689187 -0.72090954 -0.03921954
-0.59337407 -0.53784996 -0.04167326
-0.30722213 -0.52692312 -0.00000117
-0.67135251 -0.79844469 -0.00982677
-0.34548542 -0.43700597 -0.00000118
-0.46506172 -0.12158730 -0.08855469
-0.11806590 -0.02596559 0.00000122
-0.01766703 0.75266403 0.00000359
-0.05201532 0.67489684 -0.00020474
-0.09832928 -0.26693907 0.00000074
-0.54684860 -0.10868319 -0.18115930
-0.53559977 -0.10930937 -0.16892830
-0.34546947 0.00597169 -0.01760681
-0.50533199 -0.46285334 -0.00000221
-0.26122245 -0.25686961 -0.00000022
-0.08925394 0.61370426 -0.01284323
-0.05011064 0.04414003 -0.00000960
-0.28369117 0.42564818 -0.13670412
-0.48296604 -0.25291014 -0.04977081
-0.03253593 0.37357506 -0.00000355
-0.05204037 -0.43669087 0.00000059
-0.47827306 0.17018768 -0.23104502
-0.13134602 0.06810086 -0.00000667
-0.52194256 -0.23659723 -0.09837688
-0.42673194 -0.04739752 -0.08047831
-0.04648878 0.60175735 0.00000144
-0.18608016 -0.60162824 -0.00000063
-0.13873649 -0.46743512 -0.00000001
-0.64611346 -0.16421372 -0.26221243
-0.26372010 -0.50956655 -0.00000087
-0.07437608 -0.26600277 0.00000089
-0.30379227 0.05221441 -0.00000179
-0.00327984 -0.19449346 0.00000154
-0.48228070 -0.38878644 -0.00000188
-0.59063852 -0.57972586 -0.02033064
-0.35012552 -0.70859164 -0.00000188
-0.18811288 -0.02266891 0.00000081
-0.14684629 0.13095216 -0.00000495
-0.07067227 -0.63051862 -0.00000000
-0.37890226 0.16269189 -0.12213299
-0.48512840 0.00520139 -0.16569839
-0.27001613 -0.76210010 -0.00000153
-0.57300651 -0.11743747 -0.20510624
-0.07738559 0.44131312 -0.00000084
-0.42891023 0.07113430 -0.13497514
-0.29902551 -0.47906721 -0.00000100
-0.13436827 -0.19836704 0.00000069
-0.43890056 -0.18272059 -0.03383746
-0.32454100 0.17937760 -0.07170302
-0.03551202 -0.09088481 0.00000156
-0.19612297 0.33441842 -0.00347345
-0.62943637 -0.47594443 -0.10725347
-0.50732619 -0.19365789 -0.10174582
-0.55071652 -0.35166839 -0.07829984
-0.01076281 -0.59407735 0.00000045
-0.14924598 -0.58433157 -0.00000036
-0.50194544 -0.11324313 -0.13142838
-0.63846827 -0.74778479 -0.00000372
-0.29491428 -0.40960869 -0.00000080
-0.69434261 -0.31098375 -0.24885762
-0.45568597 -0.63653940 -0.00000234
-0.39347947 -0.66851085 -0.00000205
-0.62311369 -0.53127462 -0.07617544
-0.13712741 -0.74127144 -0.00000068
-0.70970541 -0.61295348 -0.13224803
-0.09664146 -0.18250810 0.00000096
-0.24073732 0.25197601 -0.01459602
-0.40044239 0.13800974 -0.13416010
-0.44413143 -0.66457486 -0.00000234
-0.34209231 -0.17486319 -0.00000050
-0.03977855 0.48786548 -0.00000104
-0.16914825 -0.11316103 0.00000070
-0.66893911 -0.16855273 -0.28456151
-0.16615053 -0.18621582 0.00000053
-0.03812725 -0.60078198 0.00000027
-0.65430069 -0.36595300 -0.18210141
-0.20137264 -0.06687941 0.00000062
-0.32211697 -0.01155405 0.00000003
-0.69204813 -0.64634907 -0.09877986
-0.14781941 0.54431325 -0.04453883
-0.04016970 0.34138104 -0.00000396
-0.29118112 -0.23295680 -0.00000034
-0.29690257 0.25228569 -0.07442525
-0.14216211 -0.23588349 0.00000055
-0.17081453 0.40713549 -0.00858794
-0.37614489 -0.65608758 -0.00000191
-0.27766228 0.33283550 -0.08943725
-0.26411429 0.12605271 -0.00000151
-0.13430209 0.04899417 -0.00000697
-0.40760154 -0.77992141 -0.00000241
-0.60999078 -0.52189672 -0.06635676
-0.45387056 -0.10033719 -0.08601563
-0.32452583 -0.76166791 -0.00000186
-0.59269506 -0.53913629 -0.04038532
-0.39061454 0.29383081 -0.19231270
-0.07246724 0.70137686 -0.03359854
-0.42638916 -0.72431862 -0.00000238
-0.42430589 -0.38303670 -0.00000152
-0.36822733 0.14830755 -0.10445512
-0.67430204 -0.78105140 -0.02061868
-0.31241766 0.10074882 -0.02420317
-0.09329656 0.39215985 -0.00000134
-0.63497466 -0.47293973 -0.11446237
-0.36409408 -0.33751020 -0.00000104
-0.40605325 -0.63901329 -0.00000205
-0.26200765 -0.13469698 0.00000008
-0.27422738 -0.40984789 -0.00000068
-0.23569600 -0.00914644 0.00000055
-0.42495686 -0.40727979 -0.00000158
-0.01784065 0.38257989 -0.00000381
-0.63332349 -0.22533754 -0.22171034
-0.03676170 0.39020330 -0.00000309
-0.51383746 -0.32732141 -0.04982285
-0.11888559 0.11974093 -0.00000602
-0.14256231 0.50543594 -0.02183642
-0.22792929 -0.61794001 -0.00000092
-0.32246816 -0.57633203 -0.00000139
-0.41985148 -0.44560781 -0.00000165
-0.16104475 -0.49614486 -0.00000021
-0.70737308 -0.41826198 -0.21547905
-0.68174040 -0.40737531 -0.19302908
-0.45880181 -0.05880663 -0.10953978
-0.44891629 -0.10663145 -0.07797926
-0.06862368 -0.49472013 0.00000035
-0.07254287 0.53487074 0.00000089
-0.46689445 0.02996409 -0.15722056
-0.20647252 -0.78475529 -0.00000121
-0.09591760 0.03909825 -0.00000832
-0.09033644 0.09011006 -0.00000747
-0.25433892 -0.40909350 -0.00000056
-0.20373607 0.32796454 -0.00872349
-0.26358402 -0.32047999 -0.00000039
-0.05780366 0.61681634 0.00000208
-0.67318904 -0.29840037 -0.23191507
-0.59546238 -0.40900457 -0.10061480
-0.25915125 -0.39941001 -0.00000056
-0.66828501 -0.49083567 -0.14198650
-0.53916478 -0.35989431 -0.06240126
-0.00598888 -0.06418637 0.00000180
-0.32076961 -0.10713166 -0.00000020
-0.25567761 0.39329350 -0.09268743
-0.62425452 -0.13438523 -0.25211206
-0.64208567 -0.60084105 -0.06571353
-0.66942567 -0.19365045 -0.27402976
-0.20814981 -0.67473394 -0.00000094
-0.52364874 -0.14797384 -0.13920522
-0.28271806 0.24238262 -0.05499018
-0.60923707 -0.54525971 -0.05527052
-0.05569257 -0.47769266 0.00000047
-0.46855506 -0.29575786 -0.01559167
-0.10793966 -0.24464510 0.00000074
-0.26180843 0.28518474 -0.05161018
-0.25168961 -0.01139516 0.00000045
-0.28735781 -0.15844408 -0.00000013
-0.24579246 -0.79259813 -0.00000146
-0.09721107 -0.36856902 0.00000049
-0.32884458 0.08820937 -0.03614155
-0.23108454 -0.12555116 0.00000029
-0.35772938 -0.65808117 -0.00000180
-0.26739249 -0.33132806 -0.00000044
-0.53636009 -0.60193503 -0.00000274
-0.62986046 -0.68823332 -0.01424746
-0.67681450 -0.61859512 -0.09480767
-0.13697478 -0.01939266 0.00000112
-0.40008384 -0.26545206 -0.00000108
-0.17436329 -0.60860264 -0.00000057
-0.08078269 -0.27292022 0.00000083
-0.20982076 -0.15675755 0.00000034
-0.16266967 0.02420535 -0.00000661
-0.02786499 -0.52091610 0.00000053
-0.49523008 -0.72518390 -0.00000280
-0.21303616 0.01740245 -0.00000522
-0.05005055 0.04975597 -0.00000949
-0.40026999 -0.66223121 -0.00000207
-0.22760230 0.47976893 -0.10091817
-0.63724393 -0.12706102 -0.26914167
-0.17324132 0.29456189 -0.00000088
-0.09092259 -0.28483728 0.00000074
-0.04228756 -0.39459303 0.00000076
-0.28017017 -0.36872542 -0.00000061
-0.11176824 -0.73481566 -0.00000051
-0.69123471 -0.72496003 -0.06330819
-0.64752054 -0.44459689 -0.14027371
-0.59069937 -0.68642890 -0.00000328
-0.10590544 -0.28719693 0.00000064
-0.47640148 -0.30286384 -0.02080261
-0.31003892 -0.73930824 -0.00000172
-0.31584057 0.27407050 -0.10414313
-0.39206383 -0.45490679 -0.00000150
-0.49585438 -0.00144361 -0.17417271
-0.32784635 -0.43348160 -0.00000106
-0.63363993 -0.76864785 -0.00000375
-0.07754532 0.15286680 -0.00000660
-0.64476264 -0.52098733 -0.10371290
-0.08594799 0.02299488 -0.00000895
-0.50871807 -0.29789913 -0.05733463
-0.00293121 0.39796901 -0.00000395
-0.67241138 -0.33725566 -0.21398319
-0.23899698 0.34567574 -0.05399617
-0.16864571 0.09680312 -0.00000497
-0.13240866 -0.74379253 -0.00000066
-0.58807230 -0.58009136 -0.01744236
-0.60846949 -0.40943739 -0.11424832
-0.54294902 -0.53348237 -0.00000261
-0.24928626 -0.21455421 -0.00000004
-0.16707221 -0.18072994 0.00000054
-0.44986644 -0.17939885 -0.04695443
-0.47694716 -0.77873003 -0.00000283
-0.04778364 0.36902815 -0.00000318
-0.22054906 -0.47506684 -0.00000052
-0.33216009 -0.68879116 -0.00000173
-0.66422611 -0.38791755 -0.18298069
-0.47824758 -0.24518751 -0.04815573
-0.05491007 -0.11437997 0.00000138
-0.21559601 0.49035946 -0.09282007
-0.56754756 -0.36347181 -0.09099174
-0.21318121 -0.40856174 -0.00000031
-0.49951938 0.04030335 -0.19644631
-0.52621466 -0.32786587 -0.06273776
-0.41832393 0.24139985 -0.19868059
-0.64327919 -0.56836414 -0.08127943
-0.60080218 -0.02434389 -0.27563068
-0.23351842 -0.56827438 -0.00000083
-0.69132000 -0.30664912 -0.24755345
-0.31083590 0.03362837 -0.00000195
-0.04954547 -0.29754904 0.00000096
-0.30859873 -0.41330406 -0.00000090
-0.69866818 -0.71132302 -0.07721198
-0.30284134 -0.43879557 -0.00000092
-0.46785724 -0.26649708 -0.02773158
-0.59752154 -0.54540241 -0.04275635
-0.37882000 -0.64374185 -0.00000190
-0.55629396 -0.03621777 -0.22309968
-0.25410047 -0.09432879 0.00000023
-0.23735256 -0.37489071 -0.00000037
-0.20901804 0.51971734 -0.09875327
-0.04053075 -0.28640294 0.00000104
-0.57605970 -0.30074209 -0.12765428
-0.41280693 -0.78200942 -0.00000245
-0.11122402 0.49359062 0.00000123
-0.22260790 -0.43663880 -0.00000044
-0.38478175 0.17066187 -0.13189043
-0.35074797 0.15126221 -0.08717864
-0.55979449 -0.53235662 -0.00840294
-0.40375206 0.05955211 -0.10313796
-0.14597826 -0.14246134 0.00000076
-0.15270637 0.59009677 -0.06988818
-0.52030694 -0.13547923 -0.14115407
-0.31151980 -0.71973550 -0.00000168
-0.60340685 -0.50458068 -0.06698243
-0.30201191 -0.06636858 0.00000001
-0.30629358 0.28729030 -0.09981630
-0.54013866 -0.52189833 -0.00000256
-0.57977831 -0.54346728 -0.02475061
-0.44495904 -0.40566364 -0.00000170
-0.23259544 0.17593755 -0.00000146
-0.45666626 -0.59316641 -0.00000224
-0.36749136 -0.02393950 -0.02784396
-0.34245420 0.07254988 -0.04371212
-0.54580146 -0.32657090 -0.08412484
-0.10404063 -0.79294121 -0.00000061
-0.22943267 -0.76842695 -0.00000131
-0.28541777 0.15189257 -0.01802268
-0.03313119 0.21809608 -0.00000664
-0.17942536 0.30784348 -0.00000043
-0.66905636 -0.25862357 -0.24503392
-0.37721077 -0.62396252 -0.00000184
-0.43592888 -0.59899068 -0.00000213
-0.52770054 -0.07306250 -0.17649001
-0.04941339 -0.27029493 0.00000103
-0.15805370 -0.53066295 -0.00000028
-0.29964155 -0.79672980 -0.00000180
-0.65699655 -0.60609835 -0.07924652
-0.33555123 0.07099813 -0.03569246
-0.20949411 0.11541442 -0.00000337
-0.15806541 0.02221765 -0.00000679
-0.14703377 0.34977677 -0.00000057
-0.21257696 0.41718733 -0.05739857
-0.36083305 0.08285906 -0.06778378
-0.46274555 -0.23929188 -0.03427551
-0.57674599 -0.02185924 -0.25115734
-0.36953384 -0.48039514 -0.00000143
-0.20267813 -0.58314115 -0.00000068
-0.32525980 0.10128950 -0.03808992
-0.51330960 -0.34898961 -0.03972274
-0.65188730 -0.64016950 -0.05881710
-0.42776868 0.24330908 -0.20955901
-0.29257274 0.05045171 -0.00000216
-0.07423827 0.09855572 -0.00000779
-0.19759326 -0.63188118 -0.00000077
-0.34952733 0.34540990 -0.17135167
-0.17251450 -0.36230671 0.00000005
-0.28550312 -0.69188040 -0.00000145
-0.34611759 0.03493273 -0.03104528
-0.49292561 0.14961912 -0.23756289
-0.61615884 -0.67277122 -0.00649221
-0.15259272 -0.68302184 -0.00000063
-0.14692843 -0.27357975 0.00000043
-0.08902723 0.18173774 -0.00000568
-0.46240076 -0.68054438 -0.00000249
-0.69813114 -0.43013069 -0.20043162
-0.03595100 -0.43342608 0.00000070
-0.03712856 -0.75053847 -0.00000010
-0.42381674 0.22270291 -0.19628738
-0.54653120 -0.08931454 -0.18934868
-0.20520683 0.00755451 -0.00000566
-0.30143178 -0.32705879 -0.00000064
-0.55294102 -0.73985970 -0.00000319
-0.05039312 -0.67822224 0.00000000
-0.16034849 0.50761616 -0.04169954
-0.04467510 -0.58363599 0.00000027
-0.30883440 -0.11744381 -0.00000016
-0.33015296 -0.53765702 -0.00000134
-0.56832981 -0.76294214 -0.00000334
-0.67005938 -0.35191995 -0.20502774
-0.66377741 -0.74459910 -0.02548053
-0.15837342 -0.51690382 -0.00000025
-0.26259765 0.27265534 -0.04693309
-0.37216395 0.18076032 -0.12292580
-0.31924215 -0.27779570 -0.00000062
-0.43759191 0.05391046 -0.13661958
-0.62083441 -0.07532279 -0.27447841
-0.00788598 0.53875816 -0.00000099
-0.12524843 0.45026353 0.00000078
-0.05123202 0.31784356 -0.00000410
-0.04270819 0.52433956 -0.00000022
-0.22927292 0.14270589 -0.00000223
-0.03929704 0.25607091 -0.00000569
-0.13369697 0.14383566 -0.00000509
-0.24341524 -0.78644538 -0.00000144
-0.20060918 -0.32902890 -0.00000003
-0.03461896 -0.11889621 0.00000149
-0.08298751 -0.03470106 0.00000141
-0.70228857 -0.68719989 -0.09167957
-0.18667734 -0.65588355 -0.00000077
-0.39173710 0.07725333 -0.09816102
-0.19973275 -0.04709357 0.00000068
-0.15908398 0.18383574 -0.00000352
-0.32407662 -0.76039100 -0.00000186
-0.22801693 0.36046624 -0.04883775
-0.57959300 -0.00670555 -0.26085433
-0.21040119 -0.06087044 0.00000058
-0.47580865 -0.06519586 -0.12480205
-0.61986017 -0.16090187 -0.23576818
-0.11915939 0.60532779 -0.04093939
-0.20078097 -0.05339299 0.00000065
-0.40071920 -0.69512922 -0.00000216
-0.47837749 -0.49670076 -0.00000213
-0.34064496 -0.05304321 -0.00000019
-0.05853088 -0.68076551 -0.00000006
-0.01893718 0.58175546 0.00000021
-0.58034414 -0.03066749 -0.25110379
-0.31217128 0.36143559 -0.13870446
-0.13139424 0.54090244 -0.02558044
-0.69321156 -0.38370737 -0.21564011
-0.38350222 0.25603396 -0.16811422
-0.26101148 0.41328394 -0.10715677
-0.04974451 0.33822775 -0.00000373
-0.23300064 0.03491176 -0.00000427
-0.17509358 -0.52368885 -0.00000037
-0.37315169 -0.64489532 -0.00000186
-0.18441013 -0.79371876 -0.00000110
-0.24191204 0.06552647 -0.00000339
-0.31901187 0.36658120 -0.14823997
-0.21288414 -0.59064448 -0.00000076
-0.29959407 0.12553515 -0.02148592
-0.17537805 -0.02844130 0.00000087
-0.10666422 -0.40113044 0.00000035
-0.15335365 0.49890199 -0.03042908
-0.18927915 0.03215767 -0.00000564
-0.11714921 0.44673088 0.00000047
-0.38537708 -0.54505932 -0.00000169
-0.66150588 -0.24690954 -0.24216609
-0.65574819 -0.67502803 -0.04757457
-0.41566092 0.05476529 -0.11368748
-0.50145566 -0.46387577 -0.00000219
-0.22249311 0.36009115 -0.04280186
-0.68823040 -0.60889798 -0.11120956
-0.35241780 -0.44581312 -0.00000124
-0.43552953 -0.38729596 -0.00000160
-0.00110513 -0.74112207 0.00000014
-0.37912732 -0.26361880 -0.00000095
-0.47633997 -0.07020778 -0.12316031
-0.08143234 0.34419036 -0.00000266
-0.13746716 0.32179680 -0.00000142
-0.16742867 0.12104262 -0.00000453
-0.37635535 0.19731867 -0.13467000
-0.69471467 -0.50036657 -0.16588037
-0.45478928 -0.14393365 -0.06779941
-0.27784035 -0.03580310 0.00000023
-0.29962480 -0.27452710 -0.00000049
-0.45257717 -0.11952029 -0.07619596
-0.07185374 -0.42202479 0.00000051
-0.67366272 -0.75376505 -0.03195153
-0.68149620 -0.47429609 -0.16330877
-0.70560014 -0.78247124 -0.05325750
-0.61866373 -0.51118934 -0.08028822
-0.18252090 -0.20776422 0.00000038
-0.62799114 -0.03916965 -0.29800051
-0.53716207 -0.46712038 -0.01306819
-0.35575762 0.12780096 -0.08217451
-0.23067386 0.07594387 -0.00000352
-0.09960672 0.24013206 -0.00000419
-0.00477713 -0.48566523 0.00000082
-0.65853196 -0.32954299 -0.20262741
-0.36936262 0.03781426 -0.05701882
-0.48899874 -0.56393421 -0.00000236
-0.47426516 -0.03608239 -0.13597833
-0.45931453 -0.32115856 -0.00000158
-0.20868990 -0.41466853 -0.00000030
-0.39769676 -0.14730199 -0.00563817
-0.02699755 0.61884332 0.00000119
-0.41938570 -0.12875900 -0.03685261
-0.01256815 0.21242028 -0.00000737
-0.25883293 0.25676760 -0.03593761
-0.26710254 -0.11595713 0.00000010
-0.48511192 0.01502923 -0.17000744
-0.32579121 -0.78744268 -0.00000193
-0.63230771 -0.67242622 -0.02380717
-0.57245559 -0.37404883 -0.09155168
-0.26276788 0.01714320 -0.00000373
-0.40542841 0.05467630 -0.10277311
-0.00861406 0.18869841 -0.00000797
-0.62563294 -0.26789016 -0.19480370
-0.52036512 -0.62920606 -0.00000271
-0.16181579 -0.42853856 -0.00000005
-0.25147358 -0.35866046 -0.00000041
-0.07310837 0.07882270 -0.00000822
-0.50273567 0.05649466 -0.20699263
-0.60762912 -0.54154009 -0.05519914
-0.06785439 0.59394199 0.00000193
-0.08992385 -0.66049051 -0.00000019
-0.35112086 0.11605080 -0.07207372
-0.28816086 0.05476143 -0.00000221
-0.65434802 -0.59953332 -0.07932174
-0.30882183 0.19305378 -0.06101727
-0.61790884 -0.12368471 -0.25007853
-0.12470043 -0.48363543 0.00000004
-0.08097254 0.05827038 -0.00000839
-0.03627072 0.64109868 0.00000192
-0.69491994 -0.54804182 -0.14511025
-0.55023557 -0.23602906 -0.12869704
-0.61723250 -0.34678999 -0.15114121
-0.61150849 -0.70374763 -0.00000345
-0.43453071 0.11747871 -0.16135100
-0.30505794 -0.66023195 -0.00000149
-0.48446840 -0.73220009 -0.00000275
-0.00283490 -0.06008607 0.00000183
-0.11737419 -0.78703481 -0.00000068
-0.13584928 -0.08353538 0.00000097
-0.28553614 0.19845517 -0.03864691
-0.09852775 0.47638214 0.00000050
-0.37633458 -0.77840316 -0.00000222
-0.40661436 -0.77330661 -0.00000239
-0.54759401 -0.39714536 -0.05496069
-0.16420774 -0.54659468 -0.00000036
-0.50843543 -0.18456689 -0.10692690
-0.53452069 -0.46135530 -0.01279887
-0.14443693 -0.33009315 0.00000030
-0.00239084 -0.12089128 0.00000168
-0.04107579 0.42322463 -0.00000230
-0.17658465 0.39366484 -0.00879024
-0.02361953 0.46615079 -0.00000196
-0.69864088 -0.61900258 -0.11782554
-0.29202452 -0.57053858 -0.00000119
-0.48348618 -0.11439297 -0.11130353
-0.00964427 -0.09058203 0.00000172
-0.07400260 0.43423784 -0.00000108
-0.20793517 -0.25070512 0.00000012
-0.49000755 -0.00133365 -0.16800705
-0.29824823 -0.09330048 -0.00000003
-0.52753699 -0.23080803 -0.10687127
-0.65432131 -0.14524776 -0.27928522
-0.69045329 -0.46363735 -0.17752074
-0.14120822 0.57470280 -0.05089089
-0.56113648 0.06851302 -0.27435228
-0.24268246 0.24845122 -0.01511160
-0.52895606 -0.01948699 -0.20141013
-0.37870926 -0.34027377 -0.00000114
-0.23543058 0.05225498 -0.00000385
-0.38559881 -0.12865536 -0.00098924
-0.35041001 -0.43137151 -0.00000119
-0.72113609 -0.56557655 -0.16525359
-0.30094033 0.40047729 -0.14395559
-0.39453012 -0.17114741 -0.00000081
-0.09876791 -0.25901765 0.00000076
