ply
format ascii 1.0
element vertex 1370
property float x
property float y
property float z
end_header
-0.21901494 0.24860582 -0.00000066
0.53430605 -0.70875013 -0.00000006
0.16292670 0.33624661 0.00000408
0.60174686 0.18714054 -0.00000155
0.46308032 -0.36303931 -0.00000027
0.03285651 -0.23314822 -0.00000035
0.58528745 -0.15184671 -0.00000102
-0.71235025 -0.51437587 0.00000000
-0.39073244 0.05303960 -0.00000045
0.12102831 0.25433031 0.00000604
0.09169493 -0.22171792 -0.00000036
0.41651705 -0.42943677 -0.00000023
0.25750956 0.08362535 0.00000676
-0.01680567 -0.57421643 -0.00000014
-0.00643876 -0.04823096 -0.00000047
-0.17429136 -0.34139556 -0.00000029
-0.30060285 -0.01573860 -0.00000049
-0.01899048 0.70535702 -0.00000094
0.28953731 -0.75171107 -0.00000003
-0.60358191 0.30527878 0.30872089
-0.02453182 -0.33288145 -0.00000029
0.04179629 0.20258269 0.00000808
-0.43388662 0.12922008 -0.00000041
-0.25251612 0.20696862 -0.00000062
-0.32869583 0.57380474 0.29068369
0.51369470 -0.63906813 -0.00000010
-0.00631432 0.52454549 -0.00000083
0.40685576 -0.47942892 -0.00000020
0.66040653 -0.17973433 -0.00000120
-0.46733138 0.44546697 0.31988785
-0.08533239 -0.17461216 -0.00000039
0.10837919 0.14556970 0.00000800
-0.10222128 0.59029895 -0.00000085
0.19662946 0.21966924 0.00000546
0.63722354 -0.60354304 -0.00000030
0.56263393 -0.12542260 -0.00000100
-0.36995551 -0.31392956 -0.00000030
0.53233546 -0.42032287 -0.00000032
-0.43748847 -0.33273506 -0.00000029
0.13425788 0.19527835 0.00000680
-0.45935422 -0.71202582 -0.00000005
0.69092488 -0.23090535 -0.00000120
0.09203478 0.50183642 0.00000246
-0.58718282 0.31659523 0.29430684
-0.57140845 -0.26173988 -0.00000020
-0.32051557 0.08067516 -0.00000053
-0.39467153 0.01458779 -0.00000044
0.04001106 0.65006632 0.00000083
-0.41764525 0.52942014 0.41706771
0.15027620 0.58075511 0.00000005
-0.79426664 -0.64418858 0.00000000
-0.72486025 0.03629489 -0.00000009
-0.43378317 -0.79206997 -0.00000000
-0.05072959 -0.60337871 -0.00000012
0.14266226 -0.38069957 -0.00000026
0.00662535 -0.51809698 -0.00000018
-0.05070528 0.10898902 -0.00000057
-0.66268629 -0.13944849 -0.00000012
0.19776027 -0.33438829 -0.00000029
0.01284475 0.17191447 0.00000901
0.11195186 -0.44970727 -0.00000022
0.07178480 -0.25569609 -0.00000034
0.08069469 -0.42457920 -0.00000023
0.38622117 -0.31751046 -0.00000030
0.14002326 -0.22431815 -0.00000036
0.41563815 -0.11700253 -0.00000054
0.44593632 -0.16369724 -0.00000055
-0.65420496 -0.66018379 -0.00000003
-0.03123296 0.14186697 -0.00000059
0.01641751 0.31364888 0.00000666
0.31410527 0.26455215 0.00000258
-0.00902791 -0.42886549 -0.00000023
0.37946832 -0.34338948 -0.00000029
-0.38844877 -0.77631241 -0.00000001
0.28439558 -0.60747665 -0.00000012
0.28733471 -0.73456341 -0.00000004
0.44103402 -0.03597891 -0.00000078
-0.42774352 0.48633894 0.32352951
-0.27272609 0.16566584 -0.00000059
0.48251811 -0.54814744 -0.00000016
0.06718782 0.11284026 0.00000915
-0.08737093 0.65577179 -0.00000088
-0.13500917 0.25608516 -0.00000066
0.01361346 0.36103228 0.00000593
-0.24200141 0.44600138 -0.00000068
0.08779944 -0.30941054 -0.00000031
0.48040089 -0.01899227 -0.00000094
0.26582778 0.26427314 0.00000351
-0.33970755 0.48419857 0.06779474
-0.46020752 0.42555007 0.24320138
-0.52996784 -0.43194807 -0.00000021
-0.51105255 -0.54157633 -0.00000016
0.24980673 -0.30176550 -0.00000031
-0.34228894 -0.12466597 -0.00000042
0.02416407 0.01620026 0.00001137
0.37329963 0.39192346 -0.00000084
0.76655501 -0.06776237 -0.00000176
-0.56131446 0.15818945 -0.00000028
-0.01091626 0.20603997 -0.00000063
0.37180790 0.41695866 -0.00000126
0.52086729 0.20302786 -0.00000028
0.21760595 -0.03141809 -0.00000048
0.74464118 -0.18924543 -0.00000145
-0.00994361 -0.73079693 -0.00000004
-0.50311613 -0.31554142 -0.00000026
0.23484933 -0.37067950 -0.00000027
0.48764101 -0.18395837 -0.00000064
0.13680062 -0.48883149 -0.00000019
0.18143699 0.10610892 0.00000754
0.34406620 0.15557978 0.00000396
0.62423795 -0.76291853 -0.00000002
-0.49300715 0.11449654 -0.00000035
-0.41253263 0.04772517 -0.00000042
-0.10025924 0.48186213 -0.00000080
-0.47896859 -0.26983911 -0.00000029
-0.54247624 -0.02658537 -0.00000027
-0.55879909 -0.17848414 -0.00000022
0.31094950 0.06935695 0.00000615
-0.26904470 -0.49602744 -0.00000019
-0.01643976 -0.24914230 -0.00000034
-0.33200139 -0.27430293 -0.00000033
-0.05002816 -0.50177372 -0.00000019
-0.04024153 0.09960030 -0.00000056
-0.74336600 -0.74230248 0.00000000
0.24667355 -0.06927000 -0.00000046
-0.71195054 -0.79326522 0.00000000
0.02996037 -0.08622143 -0.00000045
-0.11306127 -0.53459221 -0.00000017
0.53054500 -0.61164278 -0.00000012
-0.18755902 0.03279070 -0.00000052
0.02521210 0.75319064 -0.00000064
0.19594361 0.17558865 0.00000619
-0.36632630 -0.05322531 -0.00000045
-0.22526872 -0.35886085 -0.00000028
0.52567255 -0.09286621 -0.00000094
-0.40259778 0.16122431 -0.00000045
0.01805542 0.26936352 0.00000735
0.25924644 -0.32814142 -0.00000029
0.27377763 -0.09114777 -0.00000044
-0.09993146 -0.10713255 -0.00000043
-0.56824815 0.35595527 0.35223222
0.39711243 -0.13233215 -0.00000045
-0.77318519 -0.79554361 0.00000000
0.38687798 -0.37641537 -0.00000026
0.26835316 -0.57679695 -0.00000014
-0.47615367 0.05073681 -0.00000035
0.71436340 -0.35960343 -0.00000102
0.20583625 0.42947268 0.00000170
-0.38843283 -0.30624530 -0.00000031
-0.25724295 0.20295784 -0.00000062
0.79940003 -0.30039778 -0.00000125
0.37401465 -0.67243105 -0.00000008
0.21539456 -0.05185377 -0.00000047
-0.00891435 -0.57738727 -0.00000014
-0.67819482 0.12250615 0.00198967
-0.28897047 -0.79595959 -0.00000000
0.18280634 0.46797821 0.00000145
0.52615803 0.04145186 0.00000251
-0.00704890 0.62867063 -0.00000089
-0.61591583 -0.76136088 -0.00000002
-0.01515882 0.76627094 -0.00000098
0.75617260 -0.73260415 -0.00000017
0.75293428 -0.53049648 -0.00000067
0.11661236 -0.64763814 -0.00000010
-0.09726784 -0.26809147 -0.00000033
0.11500034 0.62828881 -0.00000013
-0.19187830 -0.63556683 -0.00000010
0.71161848 -0.22630134 -0.00000128
0.61197799 0.00011201 0.00000161
0.48130319 0.22380243 0.00000010
-0.21443281 -0.71493208 -0.00000005
0.40588754 -0.61701608 -0.00000011
0.09987543 -0.55161393 -0.00000016
-0.67426586 0.18431333 0.16612738
-0.23902375 0.65064871 0.25430363
0.58944935 -0.33279684 -0.00000068
0.47533742 -0.74799639 -0.00000003
0.30379289 -0.35307467 -0.00000028
-0.21905465 0.27703699 -0.00000067
-0.48564997 -0.38518986 -0.00000026
-0.38573146 -0.71678561 -0.00000005
-0.73922068 -0.07145266 -0.00000005
-0.00644238 -0.69976860 -0.00000006
-0.10186682 -0.12570608 -0.00000042
0.28571269 -0.43563426 -0.00000023
0.41552612 -0.73119426 -0.00000004
0.36145857 -0.60556698 -0.00000012
-0.14703643 -0.25737378 -0.00000034
0.19072697 0.22819144 0.00000541
0.23772879 -0.53401130 -0.00000017
0.21747206 0.30775434 0.00000366
0.13509446 -0.45014817 -0.00000022
0.17000785 -0.09522034 -0.00000044
0.64972943 -0.49075639 -0.00000056
0.07306102 -0.66417074 -0.00000008
-0.65295696 -0.49503583 -0.00000007
0.60583907 0.11334971 -0.00000031
-0.60225457 -0.39067188 -0.00000014
-0.34614804 -0.78823280 -0.00000001
0.16726993 0.05981076 0.00000850
-0.69197917 -0.70264167 0.00000000
0.47474837 -0.04156548 -0.00000088
0.10613366 0.22069862 0.00000681
0.12679249 0.35481578 0.00000432
-0.19567592 0.19698523 -0.00000062
0.33082223 0.46016142 -0.00000125
0.78072405 -0.72420794 -0.00000019
0.08046716 -0.59150958 -0.00000013
0.64962000 0.03355693 0.00000029
-0.17509940 -0.17751470 -0.00000039
0.21323982 -0.71731365 -0.00000005
0.40188101 0.28590786 0.00000051
0.58074504 -0.38261354 -0.00000055
-0.38956752 -0.27434650 -0.00000033
-0.25028023 0.64220387 0.26227733
0.56807399 -0.18603432 -0.00000089
-0.52355456 -0.72544634 -0.00000005
-0.09857542 -0.42442867 -0.00000023
0.10812115 -0.13432096 -0.00000042
0.20873098 -0.61685902 -0.00000011
-0.00518955 0.04748051 -0.00000053
-0.23928171 0.00871324 -0.00000051
-0.46282312 -0.50392365 -0.00000019
0.37713248 -0.01971016 -0.00000061
0.10583369 -0.75330216 -0.00000003
-0.01388886 -0.43797898 -0.00000023
-0.75234503 -0.01681093 -0.00000005
-0.41738877 -0.69325584 -0.00000007
-0.25208318 0.41093442 -0.00000066
-0.11142061 -0.57031065 -0.00000014
0.58338636 -0.74809611 -0.00000003
-0.77653587 -0.34889483 0.00000000
0.23614857 0.33281195 0.00000285
0.15450861 0.41815317 0.00000287
-0.34759095 -0.43334702 -0.00000023
0.08357608 0.59485215 0.00000107
0.10469226 0.22941506 0.00000669
0.32846227 -0.77855116 -0.00000001
-0.48863649 0.08971609 -0.00000035
0.79678696 -0.64091945 -0.00000040
0.05969294 0.44539806 0.00000386
-0.30118334 -0.29705605 -0.00000031
-0.34947479 -0.39345571 -0.00000025
-0.44503224 -0.07100366 -0.00000037
-0.20355159 -0.79838723 -0.00000000
-0.71978199 -0.14499111 -0.00000006
-0.38687202 -0.13767985 -0.00000041
-0.42974266 -0.29876280 -0.00000031
-0.69400346 -0.23953967 -0.00000007
-0.26289561 -0.60755235 -0.00000012
-0.46122918 0.47843781 0.39608616
-0.41266948 0.38538778 -0.00000048
0.22759864 0.12547152 0.00000653
0.41158706 0.11926571 0.00000332
-0.71379018 0.13943642 0.15094826
-0.71498376 -0.02895995 -0.00000009
0.27253801 -0.50691271 -0.00000018
0.10654327 -0.79874009 -0.00000000
-0.72858822 0.02954184 -0.00000008
0.45597821 -0.21498016 -0.00000048
-0.53880507 -0.56644446 -0.00000015
-0.26235935 0.18642689 -0.00000061
0.37623027 0.27485207 0.00000120
0.34926662 0.03599459 0.00000601
-0.34201989 -0.67657828 -0.00000008
0.43568131 0.35269171 -0.00000134
-0.79110146 -0.43015036 0.00000000
-0.19366477 -0.39364767 -0.00000025
-0.48858759 0.26654512 -0.00000038
-0.41655996 0.05852437 -0.00000042
-0.47050801 -0.57923490 -0.00000014
0.51138711 0.13032138 0.00000120
-0.60553581 0.20138387 0.01962482
-0.58476436 -0.75082785 -0.00000003
0.03978020 0.55535823 0.00000238
0.76734060 -0.41013661 -0.00000097
-0.02163226 -0.63074833 -0.00000011
0.33061337 -0.54966539 -0.00000016
-0.29550263 0.57472032 0.19914567
-0.42376980 -0.51786488 -0.00000018
0.27811137 0.07486740 0.00000659
0.11558008 0.38007700 0.00000408
0.24549332 -0.42040545 -0.00000024
-0.23671992 0.64119565 0.22096162
-0.21016295 -0.22074772 -0.00000036
-0.18841469 -0.43676707 -0.00000023
-0.53796202 -0.27005425 -0.00000023
0.79418701 -0.36564803 -0.00000109
-0.26355562 -0.72330242 -0.00000005
0.68975157 -0.57439393 -0.00000053
-0.08731481 0.73979950 0.07689123
0.03682237 -0.12374868 -0.00000042
-0.69997817 -0.54111755 -0.00000001
-0.27366695 -0.79646909 -0.00000000
-0.15932891 -0.49774030 -0.00000019
0.66904372 -0.25961372 -0.00000107
-0.75876892 -0.32171339 0.00000000
-0.51369876 -0.43169460 -0.00000023
0.56430238 -0.34255004 -0.00000058
0.13202089 0.35163331 0.00000429
0.03526017 -0.14115198 -0.00000041
0.22246812 -0.37935174 -0.00000026
0.08758704 0.36625054 0.00000473
0.28149533 0.30646330 0.00000246
0.34962389 -0.74605727 -0.00000003
0.79762959 -0.69073945 -0.00000027
0.33778769 -0.35027340 -0.00000028
-0.72383225 -0.46881908 0.00000000
0.40947250 -0.58465546 -0.00000013
0.28455240 -0.51980752 -0.00000018
-0.52293491 -0.59452713 -0.00000013
0.47169390 0.13324380 0.00000191
-0.16270877 0.19816113 -0.00000062
0.33375448 -0.15309176 -0.00000040
-0.20935476 -0.25449187 -0.00000034
-0.58351743 0.09888619 -0.00000025
0.18067098 -0.57490587 -0.00000014
0.36916322 -0.40642616 -0.00000025
0.08153185 0.19429302 0.00000761
0.12828444 -0.09937486 -0.00000044
0.10183339 0.63158292 0.00000007
0.17151871 -0.11146318 -0.00000043
-0.51568085 -0.27098185 -0.00000025
-0.58243364 -0.57281107 -0.00000013
-0.76748151 -0.71082115 0.00000000
-0.24098480 -0.14111146 -0.00000041
0.10880616 0.01660358 0.00001009
-0.68754923 -0.50653011 -0.00000003
0.69171262 -0.79124177 -0.00000002
-0.44154450 0.18490352 -0.00000042
0.43508044 -0.43866512 -0.00000023
-0.25929987 -0.56241572 -0.00000015
-0.19351220 -0.10909079 -0.00000043
0.07717383 0.35630324 0.00000505
0.30496654 -0.70463699 -0.00000006
-0.30723304 0.42901352 -0.00000060
0.42001373 -0.48448896 -0.00000020
-0.28063655 -0.19673409 -0.00000038
0.02073577 0.46332338 0.00000416
-0.45691267 0.35656962 0.03823456
0.36327532 0.32425594 0.00000057
0.22382781 0.29534984 0.00000376
0.38429248 -0.16988705 -0.00000039
0.24654625 -0.55561161 -0.00000015
0.01655237 0.20425203 0.00000843
-0.46821126 -0.20725313 -0.00000032
-0.19365168 0.21184644 -0.00000063
-0.27249870 -0.35145321 -0.00000028
-0.07879597 -0.02016225 -0.00000049
-0.06097840 0.38728613 -0.00000074
0.13805075 -0.37737003 -0.00000026
-0.44090462 0.36721683 0.02303153
0.62546647 0.13104226 -0.00000100
-0.02577950 0.10102465 -0.00000056
-0.00634551 -0.76664227 -0.00000002
-0.23421036 0.11165038 -0.00000057
-0.67188835 -0.22724529 -0.00000010
-0.37880602 -0.64181799 -0.00000010
0.04031618 -0.22003947 -0.00000036
0.47936627 -0.25254101 -0.00000048
-0.38945013 0.20013790 -0.00000047
-0.01015300 0.68994039 -0.00000093
-0.38123542 -0.48454663 -0.00000020
-0.25712585 0.03664968 -0.00000052
-0.58124584 -0.01323778 -0.00000023
0.73558408 -0.47062862 -0.00000082
0.63501209 0.15394068 -0.00000160
0.57779467 0.03971923 0.00000155
-0.41821709 -0.77447546 -0.00000002
0.20540676 -0.27928042 -0.00000033
-0.56806582 -0.40476933 -0.00000017
-0.27820975 0.10654081 -0.00000057
-0.23103788 -0.44245365 -0.00000022
0.03361855 0.66938829 0.00000062
0.58690065 -0.48843178 -0.00000037
0.20709029 0.35592285 0.00000300
-0.36808643 0.30201179 -0.00000052
0.62385947 -0.44406042 -0.00000057
0.69981092 -0.62267071 -0.00000044
0.05173718 -0.17194684 -0.00000039
-0.65642655 -0.07740839 -0.00000014
-0.38291103 -0.21015881 -0.00000037
-0.21876279 -0.55390662 -0.00000015
-0.00399160 0.68303907 -0.00000093
0.07169038 0.70363629 -0.00000065
0.23094659 -0.09414461 -0.00000044
-0.47374940 0.36065176 0.09755886
0.26131666 -0.33044416 -0.00000029
0.54251850 0.03980039 0.00000223
0.58504981 0.02499091 0.00000168
-0.76393700 -0.52796465 0.00000000
0.76578486 -0.49665317 -0.00000076
-0.32365516 0.14640284 -0.00000054
-0.13059039 0.41216111 -0.00000076
-0.11953827 -0.10011115 -0.00000044
-0.66018033 -0.18245538 -0.00000012
0.71871608 -0.79435033 -0.00000001
0.02349784 0.76320839 -0.00000079
-0.11469710 0.01891369 -0.00000051
-0.38435951 -0.33149347 -0.00000029
-0.56407499 -0.72809076 -0.00000004
0.30304167 -0.24966586 -0.00000034
-0.49035686 -0.66024470 -0.00000009
0.27309746 -0.59360039 -0.00000013
-0.14463039 0.66751343 0.03443618
-0.67015356 -0.35320839 -0.00000007
-0.77541482 -0.33686975 0.00000000
-0.47161528 -0.23698041 -0.00000031
-0.74779153 -0.34740478 0.00000000
-0.40431154 -0.12954929 -0.00000040
-0.74262625 -0.55774432 0.00000000
-0.48491737 0.12604523 -0.00000036
0.65049195 -0.77718788 -0.00000001
-0.38043225 -0.51933807 -0.00000018
0.26762331 -0.48444456 -0.00000020
0.02790720 -0.20880689 -0.00000037
0.33927691 0.28268847 0.00000177
0.42939785 0.19629277 0.00000159
0.11645145 -0.58671582 -0.00000013
-0.01190685 0.00908660 -0.00000051
0.74056101 -0.49907583 -0.00000075
0.15614974 -0.48343304 -0.00000020
-0.11895155 -0.04312544 -0.00000047
-0.44924212 -0.74734807 -0.00000003
-0.39709377 -0.06341669 -0.00000042
-0.35436836 -0.70717514 -0.00000006
-0.16552016 0.44752985 -0.00000076
-0.16230872 0.38045087 -0.00000074
0.08942499 -0.63540763 -0.00000010
0.13315959 -0.47961649 -0.00000020
0.24569280 0.43778375 0.00000079
0.05570377 0.24849321 0.00000712
0.16811092 -0.69686198 -0.00000006
0.22631340 -0.00250937 -0.00000050
-0.67257333 -0.75094676 0.00000000
-0.02929701 0.65762496 -0.00000091
0.63977504 -0.01038549 -0.00000147
0.36791497 0.34980118 0.00000002
0.56425107 -0.37039027 -0.00000052
-0.57429653 0.09946209 -0.00000026
0.28135425 -0.68154657 -0.00000007
0.06248509 -0.42531157 -0.00000023
-0.26060113 0.43513286 -0.00000066
-0.30084422 0.37697527 -0.00000060
-0.25414366 0.27282962 -0.00000063
-0.08680690 -0.61062020 -0.00000012
-0.79099202 -0.71228158 0.00000000
-0.45657870 0.46514618 0.34520313
0.33434442 -0.27642632 -0.00000033
0.01535848 -0.03410111 -0.00000048
-0.74990422 -0.68322223 0.00000000
0.13957286 -0.64385384 -0.00000010
-0.48693222 -0.05501823 -0.00000032
-0.31264025 -0.28593636 -0.00000032
-0.25067410 -0.30254123 -0.00000031
0.12137817 0.19533031 0.00000699
0.41064119 -0.22032087 -0.00000036
-0.51356673 -0.77068138 -0.00000002
0.26618415 0.51676840 -0.00000103
-0.32410389 -0.07495843 -0.00000045
-0.42443898 -0.31173673 -0.00000031
0.18886226 -0.20791018 -0.00000037
-0.06999181 -0.29281977 -0.00000032
-0.63877684 -0.14323272 -0.00000015
0.38145787 -0.11477982 -0.00000044
-0.22047411 0.04642457 -0.00000053
-0.77706146 -0.77747029 0.00000000
0.30494350 -0.43472061 -0.00000023
0.38830450 -0.64490491 -0.00000010
-0.22116783 -0.74967510 -0.00000003
0.11188613 -0.79290837 -0.00000000
-0.41711974 -0.78526103 -0.00000001
-0.47322196 0.22536302 -0.00000039
-0.47322017 0.25729662 -0.00000040
-0.20162787 0.41216147 -0.00000071
-0.38582680 -0.71690118 -0.00000005
0.53380483 -0.43303958 -0.00000030
0.59364480 -0.12267449 -0.00000110
0.47669509 -0.37610042 -0.00000026
0.07363070 -0.65211630 -0.00000009
-0.65588784 -0.66508901 -0.00000003
0.08570711 -0.04698976 -0.00000047
0.49391586 -0.07276952 -0.00000088
0.20020682 -0.28337601 -0.00000032
0.32757518 -0.24364105 -0.00000035
-0.68797851 -0.70966983 0.00000000
-0.41766238 -0.42470372 -0.00000023
0.73632491 -0.56380200 -0.00000059
0.48261479 0.10224753 0.00000226
-0.09038385 -0.10972679 -0.00000043
-0.00719858 0.00449526 -0.00000050
0.03269139 0.13844171 0.00000926
-0.52188122 0.18048562 -0.00000033
-0.53411931 -0.14285088 -0.00000026
-0.50221431 -0.06354227 -0.00000031
0.20349260 -0.75821376 -0.00000003
0.38876569 -0.63928634 -0.00000010
0.44781414 -0.71389222 -0.00000005
-0.19935876 -0.32681710 -0.00000030
-0.36706212 0.11199841 -0.00000048
0.29117474 -0.77658302 -0.00000001
-0.17900264 -0.58308721 -0.00000014
0.28036597 -0.51297718 -0.00000018
-0.55191308 -0.78307819 -0.00000001
0.46284652 0.33349174 -0.00000157
0.00300737 0.58503437 0.00000245
-0.27675122 0.44573241 -0.00000064
-0.59006435 0.19097881 -0.00000026
-0.59577686 -0.64761257 -0.00000010
0.11758788 -0.37667996 -0.00000026
0.65966821 -0.10204288 -0.00000135
-0.43132940 -0.52299851 -0.00000017
-0.24376096 -0.52796745 -0.00000017
0.16994441 0.26150855 0.00000519
-0.28266242 -0.00575324 -0.00000050
0.33515733 -0.11337870 -0.00000043
-0.07677254 -0.47756806 -0.00000020
0.52708846 -0.44193268 -0.00000026
-0.12930362 0.15961418 -0.00000060
0.57278264 -0.68192685 -0.00000007
0.38886955 0.26771861 0.00000109
-0.74094951 -0.40072483 0.00000000
-0.59124064 -0.41725397 -0.00000015
0.71697861 -0.65795106 -0.00000036
0.19297637 0.18797295 0.00000603
0.22137895 -0.14233769 -0.00000041
0.68557125 -0.55637527 -0.00000055
-0.48578566 -0.54642028 -0.00000016
0.56690037 -0.49508315 -0.00000029
0.46294826 -0.27275655 -0.00000039
0.42889550 -0.49713203 -0.00000019
0.14894497 -0.73417997 -0.00000004
0.77884579 -0.52089739 -0.00000070
0.67373729 -0.60873628 -0.00000041
-0.10907723 -0.37998292 -0.00000026
-0.60346133 -0.69846416 -0.00000006
0.10247675 -0.29026487 -0.00000032
-0.32254782 -0.09495226 -0.00000044
0.51084405 -0.27137691 -0.00000055
0.17784512 0.34012327 0.00000379
-0.17951605 0.07345955 -0.00000055
-0.25280160 0.63557839 0.25063825
0.17615438 -0.68658513 -0.00000007
-0.07394355 0.60467458 -0.00000088
0.35708812 -0.26578692 -0.00000033
0.61306274 -0.70699859 -0.00000006
0.49979484 -0.33147761 -0.00000039
0.15443315 0.26239306 0.00000541
-0.33455482 0.05675295 -0.00000051
0.64935708 -0.06273423 -0.00000140
0.70857686 -0.75335079 -0.00000012
0.26461425 -0.48253706 -0.00000020
0.15146860 -0.64238816 -0.00000010
-0.61258113 -0.20429792 -0.00000016
0.11065866 0.57882506 0.00000085
0.07639144 0.03353522 0.00001030
-0.63276249 -0.59096324 -0.00000007
-0.28724867 -0.72180480 -0.00000005
-0.13823634 0.48543149 -0.00000079
0.22594562 -0.53013200 -0.00000017
-0.51345915 -0.08166587 -0.00000029
-0.44241711 0.18597788 -0.00000042
-0.21055683 -0.55607456 -0.00000015
0.29186076 -0.65667522 -0.00000009
0.09208864 -0.37912700 -0.00000026
0.57214284 -0.47762507 -0.00000034
0.01272313 -0.05345350 -0.00000047
-0.04691208 0.08179244 -0.00000055
0.38731492 -0.76215321 -0.00000002
-0.25335440 0.37010229 -0.00000065
-0.24095014 0.27042145 -0.00000065
0.71220124 -0.27964401 -0.00000117
0.05309655 -0.07846230 -0.00000045
0.08442880 -0.41075781 -0.00000024
0.37919846 -0.13700897 -0.00000041
0.58558434 -0.14076182 -0.00000104
0.10378112 0.13968024 0.00000816
-0.35069171 0.05490654 -0.00000049
0.15504700 -0.24147505 -0.00000035
-0.30736950 -0.32643971 -0.00000030
0.47229004 -0.09856546 -0.00000076
0.75396973 -0.14486688 -0.00000157
-0.65253848 0.07296515 -0.00000017
-0.34106958 -0.12931119 -0.00000042
-0.48679149 -0.46564621 -0.00000021
0.43000227 -0.49037635 -0.00000019
0.22541359 0.23075455 0.00000485
-0.73055893 -0.75316161 0.00000000
-0.41623786 -0.05347305 -0.00000040
0.20602436 -0.54235744 -0.00000016
0.36136276 0.07806661 0.00000502
-0.35355130 -0.04584427 -0.00000047
-0.31359774 -0.53565001 -0.00000017
-0.35111552 -0.65273702 -0.00000009
-0.69941694 -0.54949868 -0.00000001
-0.28593186 0.51249141 -0.00000064
-0.37180021 0.48701018 0.16678055
-0.31056863 -0.28180018 -0.00000032
-0.38266781 0.39525852 -0.00000052
0.36097679 -0.09678256 -0.00000044
0.45498359 -0.46103558 -0.00000021
0.24748710 -0.31302574 -0.00000030
0.15694253 -0.05552527 -0.00000047
-0.46585989 -0.08150933 -0.00000034
-0.73989153 -0.17921293 -0.00000003
-0.66133928 -0.26588032 -0.00000010
0.36263973 -0.32130456 -0.00000030
-0.56457019 -0.03965019 -0.00000024
0.02607506 0.47101161 0.00000395
-0.64247012 -0.06793783 -0.00000016
0.64084619 -0.21020854 -0.00000108
-0.15966947 0.43660519 -0.00000076
0.71861631 -0.52324283 -0.00000069
-0.68441129 -0.52776921 -0.00000003
0.13152437 -0.04324808 -0.00000047
-0.17941369 0.64002317 0.05511892
0.34614199 0.35999894 0.00000025
0.10390271 0.50160581 0.00000228
0.48479986 -0.75736922 -0.00000003
-0.10812670 -0.22795992 -0.00000036
0.04394485 -0.62785417 -0.00000011
-0.66256201 -0.50789845 -0.00000005
-0.39600587 -0.03880493 -0.00000042
-0.44954082 -0.11653867 -0.00000035
-0.07985529 -0.69904262 -0.00000006
-0.57409400 0.26965916 0.12408119
0.49677798 -0.67207325 -0.00000008
-0.54210305 -0.55282795 -0.00000015
-0.03516652 0.39864132 -0.00000075
-0.73321480 -0.50589418 0.00000000
0.12766439 -0.72858667 -0.00000004
0.40005422 0.00870681 0.00000552
-0.35172215 -0.16393748 -0.00000040
0.04085772 0.17150760 0.00000860
0.52445966 -0.17027728 -0.00000079
-0.08723978 -0.32606995 -0.00000030
-0.08357450 0.42833224 -0.00000077
-0.03639043 -0.09161411 -0.00000044
-0.41132015 -0.61062580 -0.00000012
0.66458607 -0.35827994 -0.00000087
0.16403978 0.06640572 0.00000845
-0.22847243 0.57493943 0.00967379
-0.44021112 0.14868528 -0.00000041
0.56427747 -0.66990721 -0.00000008
-0.08023453 0.47963113 -0.00000080
-0.43527481 -0.56001037 -0.00000015
-0.25657129 0.26593953 -0.00000063
-0.25389788 0.43361485 -0.00000066
0.19165008 -0.33703852 -0.00000029
-0.62180668 0.28614482 0.30614269
-0.23595819 -0.73921698 -0.00000004
0.50243545 -0.14048548 -0.00000077
-0.02637355 0.08283893 -0.00000055
-0.34791946 -0.40681630 -0.00000025
0.15643488 -0.37184629 -0.00000027
-0.18181759 -0.12191947 -0.00000042
-0.32104439 -0.58388782 -0.00000014
0.22781844 -0.59864545 -0.00000013
-0.51060998 -0.02693262 -0.00000030
-0.46769884 0.47496501 0.40458518
-0.23162083 0.14487474 -0.00000059
-0.43158007 -0.40949067 -0.00000024
-0.31060490 0.22126037 -0.00000056
0.36708239 -0.01820191 -0.00000058
0.15296026 0.19798200 0.00000647
-0.64164323 0.10181000 -0.00000019
0.09508638 -0.74074620 -0.00000004
-0.41784608 -0.55488986 -0.00000015
-0.04150785 0.12279505 -0.00000058
-0.00811090 0.47297341 -0.00000080
-0.30255470 0.16159700 -0.00000056
-0.07633583 0.46028903 -0.00000079
0.44256341 -0.09668420 -0.00000067
0.44085854 -0.59050798 -0.00000013
-0.04336116 0.07271316 -0.00000055
-0.71565664 0.05652324 -0.00000010
-0.57661152 0.31876728 0.27048719
-0.73658204 -0.54285306 0.00000000
0.60516351 0.14843743 -0.00000092
-0.43473336 0.40034914 0.09949078
0.08977934 0.45103756 0.00000332
-0.23908700 0.64225560 0.23068053
0.33030164 -0.53498805 -0.00000017
-0.52792239 -0.05140648 -0.00000028
0.23141050 -0.03432681 -0.00000048
0.07726614 0.39221099 0.00000446
0.05062189 0.52970296 0.00000263
0.17220381 -0.51041353 -0.00000018
0.05892675 0.23951696 0.00000722
-0.16909593 -0.04723204 -0.00000047
-0.62628078 0.27835020 0.29672602
-0.23099023 -0.36577886 -0.00000027
0.42913952 -0.51801872 -0.00000018
0.26949069 0.39581048 0.00000108
0.73739517 -0.39026645 -0.00000102
0.08518054 0.28887451 0.00000602
-0.21924318 0.06972597 -0.00000054
-0.74373180 -0.60786331 0.00000000
0.75280732 -0.15022676 -0.00000156
-0.25809675 0.61120528 0.19653396
-0.23580474 0.27630398 -0.00000065
0.78069395 -0.38514337 -0.00000104
0.64382744 -0.64983064 -0.00000023
0.64275068 -0.02618524 -0.00000145
-0.21822625 -0.19355723 -0.00000038
-0.44623724 -0.06199260 -0.00000037
-0.15936437 0.44555187 -0.00000077
-0.50223529 -0.76449114 -0.00000002
-0.70475006 -0.33699378 -0.00000004
-0.36181459 -0.02173302 -0.00000046
0.05940807 -0.66494066 -0.00000008
0.41023281 -0.00155717 -0.00000075
-0.60622978 -0.07323467 -0.00000019
0.12603374 0.28498253 0.00000547
0.49936423 0.18651086 0.00000042
-0.16115002 0.69598693 0.16203424
0.27486467 0.12877369 0.00000576
0.17798802 0.06814198 0.00000821
0.74269718 -0.42235994 -0.00000094
-0.56863832 -0.15629201 -0.00000022
0.07670433 0.71527225 -0.00000095
0.30766937 -0.32343444 -0.00000030
0.27633336 0.16512360 0.00000509
0.25507167 -0.49511349 -0.00000019
-0.67114741 -0.13870960 -0.00000011
0.02303562 -0.54943222 -0.00000016
0.53555143 -0.52585435 -0.00000017
-0.50445670 -0.54920506 -0.00000016
0.00590219 0.04709235 0.00001115
0.47288191 -0.55925328 -0.00000015
-0.15779044 -0.31327647 -0.00000030
-0.25718296 -0.60416812 -0.00000012
-0.16279829 0.13980426 -0.00000059
0.58079618 0.04620684 0.00000138
0.22132824 -0.09439739 -0.00000044
0.23817022 -0.74565768 -0.00000003
-0.65846545 -0.60293061 -0.00000004
0.49878997 -0.01347156 -0.00000101
-0.56256670 -0.59670717 -0.00000013
0.79700661 -0.42773411 -0.00000093
0.03212565 -0.78826892 -0.00000001
0.09441096 0.64688009 -0.00000006
-0.21260998 0.13086279 -0.00000058
-0.43599224 -0.23876569 -0.00000034
-0.68941247 0.01809592 -0.00000012
-0.73143202 -0.45809272 0.00000000
-0.16688950 0.42987543 -0.00000075
0.52395493 0.11170140 0.00000130
0.46644175 -0.09198048 -0.00000075
0.32252887 0.42812544 -0.00000052
0.11532452 -0.45869300 -0.00000021
0.38610172 -0.01150238 -0.00000065
-0.76142710 -0.36120245 0.00000000
-0.57639778 0.03922740 -0.00000025
0.02636346 -0.48904625 -0.00000019
0.45255369 0.10791837 0.00000273
-0.15224120 -0.53838640 -0.00000016
0.32447189 0.22661191 0.00000306
-0.19038220 -0.17490219 -0.00000039
-0.51238841 -0.10666493 -0.00000029
-0.51721817 -0.20601164 -0.00000026
-0.28303459 -0.62259448 -0.00000011
0.63296139 -0.74081123 -0.00000004
0.43146664 -0.41314754 -0.00000024
-0.03566830 -0.16831709 -0.00000039
-0.50335729 -0.30777770 -0.00000026
0.15840127 0.56099528 0.00000025
-0.24290721 0.08882043 -0.00000056
-0.12064175 0.43069217 -0.00000077
0.20481826 -0.75717878 -0.00000003
0.30045334 -0.56572574 -0.00000015
-0.22866581 -0.66087574 -0.00000009
-0.25342864 -0.03067852 -0.00000048
0.43912092 -0.39042771 -0.00000026
-0.76077294 -0.49001709 0.00000000
0.33344346 0.15691824 0.00000414
0.03242049 -0.67455935 -0.00000008
-0.17836718 -0.67016649 -0.00000008
-0.03534397 -0.68239427 -0.00000007
-0.16413295 0.66374415 0.07905461
0.01888119 -0.31648186 -0.00000030
0.63623935 -0.51262558 -0.00000048
0.75058097 -0.58716792 -0.00000053
-0.09838631 0.08112618 -0.00000055
-0.35778034 0.56579971 0.35046422
-0.46999225 0.01941321 -0.00000036
-0.71231091 -0.42622927 -0.00000002
-0.53556806 0.33124930 0.18948901
-0.58441484 -0.04338133 -0.00000022
0.25754604 0.35785976 0.00000199
-0.64611483 -0.34382120 -0.00000010
-0.02187494 -0.69624865 -0.00000006
-0.50212628 0.47164321 0.49279949
-0.52081424 -0.40761942 -0.00000022
0.41775537 0.09783683 0.00000358
0.20314714 -0.70217890 -0.00000006
0.22124736 -0.49118915 -0.00000019
0.11146988 -0.19691820 -0.00000038
-0.21749376 0.59811467 0.04426215
-0.28929737 0.05821487 -0.00000054
-0.14400664 -0.13605680 -0.00000041
-0.16598183 0.05539565 -0.00000053
-0.26884905 0.36238018 -0.00000063
-0.23865388 -0.05887940 -0.00000046
0.50294799 -0.19827493 -0.00000066
-0.35313335 0.18385305 -0.00000051
-0.35915461 -0.26522413 -0.00000033
-0.23846661 0.33029181 -0.00000066
-0.26152468 -0.54393083 -0.00000016
-0.44051698 0.45392850 0.26783985
0.53753674 0.23797354 -0.00000123
-0.27355394 -0.72748250 -0.00000005
-0.77671480 -0.72193426 0.00000000
-0.54286075 -0.32774016 -0.00000021
0.35240743 0.25306284 0.00000205
-0.56148410 -0.14150569 -0.00000023
0.09273722 0.22794870 0.00000690
0.12576699 -0.47139195 -0.00000021
-0.21460874 0.58197737 -0.00000073
0.01561454 -0.20852204 -0.00000037
0.41590005 -0.24831112 -0.00000034
0.50180084 0.04043190 0.00000300
0.53387207 0.16544893 0.00000014
0.18842930 -0.74751312 -0.00000003
0.68814725 -0.48244819 -0.00000070
0.79731244 -0.58426589 -0.00000054
0.38338235 -0.09239510 -0.00000049
-0.10048958 0.51678127 -0.00000082
-0.53302038 0.19586930 -0.00000032
-0.39139652 0.35299206 -0.00000050
-0.28321543 0.24214745 -0.00000060
0.00551546 0.67995667 0.00000087
-0.50891721 -0.62034810 -0.00000011
-0.00785787 0.53863919 -0.00000084
-0.76515818 -0.38159534 0.00000000
0.16806757 -0.74392122 -0.00000004
-0.77757984 -0.41907084 0.00000000
-0.69826829 -0.11121147 -0.00000009
-0.61564940 0.19450454 0.02879701
0.05352012 0.74268395 -0.00000100
-0.49371040 -0.66666925 -0.00000008
0.23237740 0.50254959 -0.00000012
0.06674095 -0.25731513 -0.00000034
0.06167802 0.63685030 0.00000072
0.40036201 -0.78145295 -0.00000001
-0.31216964 -0.23066045 -0.00000036
-0.45152733 -0.15699044 -0.00000034
-0.42303324 -0.19723421 -0.00000037
-0.27252996 -0.02693929 -0.00000048
0.07430413 -0.59501517 -0.00000013
0.73331946 -0.30533561 -0.00000119
-0.68363315 -0.52067238 -0.00000003
-0.25261328 0.26056454 -0.00000063
-0.00097422 -0.32460839 -0.00000030
-0.19310698 -0.16096550 -0.00000040
0.02390192 0.26843145 0.00000728
-0.71157861 -0.70564139 0.00000000
-0.47524723 -0.16156065 -0.00000032
-0.79594153 -0.57361776 0.00000000
-0.13990581 -0.75458205 -0.00000003
-0.68928337 -0.10074630 -0.00000010
-0.55595672 0.38328096 0.39486876
-0.65104485 0.04545863 -0.00000017
0.31521761 -0.05323962 -0.00000047
-0.61579740 -0.62941587 -0.00000008
-0.35259384 -0.52424151 -0.00000017
-0.73114341 -0.25483042 -0.00000003
0.27320224 -0.78951836 -0.00000001
-0.10277375 -0.57227623 -0.00000014
-0.55474061 0.03462767 -0.00000027
-0.30890197 -0.73128200 -0.00000004
-0.30796486 -0.11765808 -0.00000043
0.55307543 -0.00774579 -0.00000119
-0.49854618 0.41282225 0.31583264
-0.54472095 -0.51814127 -0.00000018
-0.66535032 -0.57634979 -0.00000004
-0.36197093 0.17219761 -0.00000050
-0.56581646 -0.77074450 -0.00000002
0.66207993 -0.57865351 -0.00000043
-0.65758008 -0.35897011 -0.00000009
0.71894544 -0.14339696 -0.00000146
0.11141805 -0.52637815 -0.00000017
0.06294921 0.05263092 0.00001019
-0.47350276 -0.06653139 -0.00000034
0.13817264 -0.57992053 -0.00000014
0.64036524 -0.49836737 -0.00000052
-0.70742702 -0.31717852 -0.00000004
0.38204262 -0.07251758 -0.00000052
0.01882862 0.47724557 0.00000396
0.31290638 0.19455861 0.00000386
-0.16662440 -0.45288906 -0.00000022
0.67673272 -0.68147773 -0.00000028
-0.31804410 0.06445349 -0.00000053
0.08671088 0.19113167 0.00000759
-0.75949842 -0.53636014 0.00000000
0.48079264 -0.13489021 -0.00000072
0.71805656 -0.12554422 -0.00000149
-0.35268795 -0.10463478 -0.00000043
0.68489188 -0.11332566 -0.00000141
0.02096318 0.66551626 0.00000087
-0.64848256 -0.35012138 -0.00000010
0.61266094 -0.54002261 -0.00000035
0.62535053 -0.14137229 -0.00000117
-0.58524573 -0.43211955 -0.00000015
0.13213819 0.11875872 0.00000808
0.37952760 0.08733402 0.00000451
0.21611591 0.46588114 0.00000085
0.19058695 -0.30499208 -0.00000031
0.09668769 0.27150750 0.00000613
0.36636323 0.10585624 0.00000443
0.77896446 -0.01323789 -0.00000191
0.49397746 -0.16872717 -0.00000069
-0.04448945 0.55657178 -0.00000085
-0.18347181 0.33661124 -0.00000071
0.38549906 -0.13500576 -0.00000042
0.24020737 -0.74467117 -0.00000003
-0.49048883 0.38820761 0.22317669
0.54538518 -0.60640711 -0.00000012
0.45144588 -0.16457909 -0.00000056
-0.16450933 0.55009556 -0.00000078
-0.47570303 -0.58854431 -0.00000013
0.67846149 -0.48564079 -0.00000066
0.21244627 0.16461553 0.00000612
-0.30850548 0.52761096 0.10242189
0.05744349 0.63567048 0.00000080
0.00440298 -0.46818903 -0.00000021
-0.25118425 0.01383413 -0.00000051
-0.63189930 -0.70647681 -0.00000005
-0.75737011 -0.46672454 0.00000000
0.41956684 -0.78208411 -0.00000001
-0.56225836 -0.76206774 -0.00000002
0.31980714 -0.69095552 -0.00000007
0.56912935 -0.56942773 -0.00000015
0.73192900 -0.34445354 -0.00000111
0.22695863 -0.44857395 -0.00000022
-0.23459619 0.57610404 0.03034304
-0.68925071 -0.50394928 -0.00000003
0.27448788 -0.76104879 -0.00000002
-0.48367009 0.36406079 0.13536090
0.25088480 -0.27047211 -0.00000033
-0.02396467 0.25089180 -0.00000066
-0.61450201 -0.67324984 -0.00000007
-0.01616856 0.49323416 -0.00000081
-0.67452276 -0.70913899 -0.00000000
0.01799189 -0.36079192 -0.00000027
0.21082596 -0.23770560 -0.00000035
-0.48618317 -0.46773690 -0.00000021
0.75348198 0.00748371 -0.00000124
0.60514092 -0.57301861 -0.00000026
-0.06902438 0.29219651 -0.00000068
0.08977062 0.15676519 0.00000810
0.02742885 0.37413770 0.00000551
0.09086753 -0.27530053 -0.00000033
-0.36738741 -0.34425211 -0.00000028
0.06479811 0.69197571 -0.00000030
-0.11403770 0.45722795 -0.00000079
0.37924278 0.36375311 -0.00000045
0.48720583 0.15630502 0.00000120
0.45156753 -0.06035493 -0.00000077
-0.71393508 0.06016451 -0.00000010
-0.25341588 -0.02743413 -0.00000048
-0.06535055 -0.64042479 -0.00000010
-0.29351744 -0.33603454 -0.00000029
0.20868529 -0.47216007 -0.00000020
0.06720720 0.49794576 0.00000289
0.25698021 -0.14329603 -0.00000041
-0.05113043 -0.25874528 -0.00000034
0.27029058 -0.78733110 -0.00000001
-0.49171019 0.36990410 0.17473318
0.01378544 -0.16058315 -0.00000040
-0.13170050 -0.42286292 -0.00000024
-0.24409948 0.40955850 -0.00000067
0.29294679 0.19935369 0.00000416
-0.74213958 -0.41542074 0.00000000
0.10564376 0.28197411 0.00000582
0.74357247 0.04850115 -0.00000179
-0.28987476 -0.67875534 -0.00000008
0.59540433 -0.43491906 -0.00000050
0.47240394 -0.64809215 -0.00000009
0.05034097 0.28682390 0.00000658
-0.05123708 -0.63195300 -0.00000011
-0.00855570 -0.37010735 -0.00000027
0.05653689 0.54357582 0.00000231
-0.11572778 0.63093454 -0.00000085
-0.78225428 -0.01385165 -0.00000002
0.04821113 -0.34524712 -0.00000028
0.56009728 0.03668578 0.00000195
0.40613711 -0.79900700 -0.00000000
-0.41013968 0.12757812 -0.00000044
-0.26446143 -0.33177590 -0.00000029
-0.27009153 0.52518231 -0.00000066
0.28591928 -0.49442133 -0.00000019
-0.25147307 0.36975324 -0.00000065
-0.08992213 -0.22481403 -0.00000036
-0.26848754 -0.51853889 -0.00000018
-0.30820543 -0.45652789 -0.00000021
-0.64091074 -0.01061617 -0.00000017
0.44797817 -0.17067713 -0.00000054
0.66353965 -0.09341656 -0.00000138
0.13151905 -0.68279737 -0.00000007
-0.13833410 -0.54093999 -0.00000016
0.46061400 0.21909691 0.00000058
-0.42915586 0.18167713 -0.00000043
-0.15291554 -0.74126869 -0.00000004
-0.04506648 0.47857192 -0.00000080
-0.44615525 -0.77573568 -0.00000002
0.75455892 -0.56504685 -0.00000059
-0.71426409 -0.48697889 -0.00000000
0.14082885 0.27340144 0.00000543
-0.34598732 -0.75370330 -0.00000003
-0.31204197 0.27745309 -0.00000057
-0.26590878 -0.23752853 -0.00000035
-0.61064082 -0.45483041 -0.00000012
-0.06823182 -0.39797840 -0.00000025
0.18645597 -0.73857927 -0.00000004
-0.32598639 -0.35142004 -0.00000028
0.07337280 -0.56045067 -0.00000015
0.33821464 -0.73853528 -0.00000004
-0.53719497 -0.27849385 -0.00000023
-0.48277494 -0.19061352 -0.00000030
0.48401296 0.04587233 0.00000324
0.41413894 -0.20001148 -0.00000037
0.23349325 -0.30386689 -0.00000031
0.44507989 0.34516054 -0.00000138
-0.46924168 0.09075727 -0.00000037
0.70153928 -0.11406669 -0.00000146
-0.22067262 -0.37669465 -0.00000026
0.04115643 -0.70617861 -0.00000006
-0.50272965 -0.11790620 -0.00000030
0.45250100 -0.28179589 -0.00000034
0.66362935 -0.78896689 -0.00000002
0.20776227 0.25930679 0.00000465
0.78784251 -0.48007622 -0.00000080
-0.10452823 0.70894492 0.03820574
0.74178952 -0.37620047 -0.00000106
0.52330971 -0.06852988 -0.00000098
0.08606092 0.27973014 0.00000616
0.29143319 0.49413392 -0.00000111
-0.49345952 -0.30071023 -0.00000027
-0.36878684 0.01350307 -0.00000046
-0.39849064 -0.57024288 -0.00000014
-0.66445696 -0.01931809 -0.00000014
0.49588683 0.14913075 0.00000116
-0.09000044 0.37592748 -0.00000073
0.33293077 -0.40679067 -0.00000025
-0.53251690 0.27256286 0.01440633
0.29700601 0.37581709 0.00000091
-0.06990935 -0.43445152 -0.00000023
0.68833095 -0.15813921 -0.00000133
-0.68769735 -0.50211096 -0.00000003
-0.42935953 -0.05869804 -0.00000038
0.18055294 0.37852407 0.00000310
0.21013232 0.41471854 0.00000188
0.54892039 -0.77940059 -0.00000001
0.58346283 0.13735625 -0.00000031
-0.24815410 0.47471783 -0.00000068
-0.30674881 -0.08415742 -0.00000045
0.47854736 0.12219793 0.00000198
0.00987298 -0.14396288 -0.00000041
0.07640512 0.40784004 0.00000422
0.07736586 -0.14387345 -0.00000041
-0.00650141 0.37112501 -0.00000073
-0.19462341 0.04200361 -0.00000053
-0.23900945 0.47484052 -0.00000069
0.27145463 -0.71889073 -0.00000005
-0.15675978 0.26542678 -0.00000067
-0.70177227 -0.39660051 -0.00000003
-0.54550368 0.29003578 0.10078758
0.69068527 -0.75951529 -0.00000010
0.63629842 -0.30758116 -0.00000088
0.16319688 -0.49820653 -0.00000019
0.33878139 -0.58844227 -0.00000013
0.38486382 0.01738358 0.00000566
-0.47473314 -0.46301812 -0.00000021
-0.04176312 0.55205035 -0.00000085
-0.56373459 -0.69571769 -0.00000007
-0.06192420 0.11544351 -0.00000057
0.43652767 -0.12711351 -0.00000059
-0.23465429 0.21801151 -0.00000064
0.55087918 -0.67382181 -0.00000008
-0.34143984 -0.01132700 -0.00000049
0.29422575 0.49111316 -0.00000110
0.02835896 -0.38702449 -0.00000026
-0.39142004 -0.11976160 -0.00000041
0.42512736 0.01900951 0.00000486
-0.54609954 -0.51234740 -0.00000018
-0.34410334 0.00464361 -0.00000049
-0.01433289 0.36166319 -0.00000073
-0.18303286 -0.47668976 -0.00000020
0.38856107 0.19921228 0.00000232
0.06084382 0.68845427 -0.00000017
-0.16853149 0.32153445 -0.00000070
-0.28040931 -0.74834448 -0.00000003
-0.45445225 -0.35525963 -0.00000028
-0.28438345 -0.19165632 -0.00000038
-0.05337117 -0.62464768 -0.00000011
-0.54686433 -0.22607271 -0.00000023
0.75545967 -0.05330763 -0.00000175
-0.01507366 0.56202781 -0.00000085
-0.44697756 0.12652241 -0.00000040
0.17302953 -0.57328856 -0.00000014
-0.38431898 -0.22923629 -0.00000036
-0.32898429 0.35293260 -0.00000057
0.64776093 -0.79455429 -0.00000000
0.16431452 -0.05320382 -0.00000047
0.45033845 -0.66832072 -0.00000008
0.61067265 -0.15229613 -0.00000110
0.23282281 -0.18792817 -0.00000038
-0.51048309 0.35775056 0.19350526
0.26813778 -0.48529965 -0.00000020
-0.48125219 -0.57748330 -0.00000014
0.11764291 -0.66777116 -0.00000008
0.28906864 -0.72004622 -0.00000005
0.03233982 -0.63167542 -0.00000011
-0.58126467 0.01060222 -0.00000024
-0.06480804 -0.76428419 -0.00000002
-0.42262483 -0.27563888 -0.00000033
-0.16507971 0.55923247 -0.00000078
0.65039212 -0.43048656 -0.00000068
-0.20034435 0.14702109 -0.00000059
0.22166224 0.28000408 0.00000408
0.42083701 -0.72024238 -0.00000005
0.23516883 0.19123530 0.00000534
-0.61008084 -0.08420472 -0.00000019
0.70280194 -0.79785156 -0.00000001
-0.02842907 0.53452361 -0.00000083
-0.54708099 -0.28014237 -0.00000022
-0.02899958 -0.56243718 -0.00000015
-0.29586813 -0.09309095 -0.00000044
0.41563809 -0.06054763 -0.00000065
0.05804831 -0.44844961 -0.00000022
-0.73913324 -0.06828465 -0.00000005
-0.29885313 -0.27969527 -0.00000033
0.58126706 -0.33672261 -0.00000064
0.13771340 -0.58782208 -0.00000013
-0.00914943 0.02320864 -0.00000051
-0.52862221 -0.66662395 -0.00000008
-0.17310153 -0.01123552 -0.00000049
0.00349483 0.42756236 0.00000500
-0.55301231 0.13291009 -0.00000029
-0.65217894 -0.05142920 -0.00000015
0.67433828 0.11315151 -0.00000162
-0.37965122 -0.50731146 -0.00000018
-0.62292171 -0.47544053 -0.00000010
-0.61632520 -0.43282607 -0.00000012
0.09821599 -0.74657100 -0.00000003
-0.69603932 -0.42243120 -0.00000003
-0.09132667 -0.11991120 -0.00000043
-0.68218535 -0.32804173 -0.00000007
0.39186949 -0.56977946 -0.00000014
0.21538405 -0.60494810 -0.00000012
0.22940160 0.04571036 0.00000780
-0.01505562 0.41128594 -0.00000076
-0.29383314 -0.53255749 -0.00000017
0.00640779 0.13056584 0.00000978
-0.33776599 0.47678828 0.04127364
0.04398709 0.55000508 0.00000240
-0.72170770 -0.12336981 -0.00000006
-0.48729295 -0.53966022 -0.00000016
0.03148846 -0.68904030 -0.00000007
0.26190075 0.49851501 -0.00000062
-0.59111959 -0.51417989 -0.00000013
-0.27230683 -0.39101267 -0.00000026
0.75212181 -0.06913454 -0.00000171
-0.07436791 0.44397429 -0.00000078
-0.50922561 0.04924986 -0.00000032
-0.39418939 -0.36335573 -0.00000027
-0.17684053 0.02696329 -0.00000052
-0.01228280 -0.55049777 -0.00000016
0.74682027 -0.15294100 -0.00000153
0.17264107 -0.13674183 -0.00000041
0.44588846 0.23456967 0.00000059
-0.40199921 -0.56473511 -0.00000015
-0.78681344 -0.44461453 0.00000000
0.29743052 -0.69314080 -0.00000007
-0.51304966 -0.37569755 -0.00000024
0.15823284 0.34280264 0.00000404
0.33904439 -0.20468508 -0.00000037
-0.37566665 -0.20529637 -0.00000037
0.24853539 0.45402268 0.00000044
0.39562997 0.33532673 -0.00000025
-0.46920589 -0.72951025 -0.00000004
-0.78037626 -0.21233930 0.00000000
0.56350428 -0.30723214 -0.00000064
0.60695648 -0.63946784 -0.00000013
0.30463880 0.23941734 0.00000321
0.13145117 0.19253238 0.00000689
-0.06147109 -0.43002549 -0.00000023
0.17553754 0.06108542 0.00000836
-0.58517820 -0.31318635 -0.00000017
0.34841055 -0.59064037 -0.00000013
0.52680022 0.09628964 0.00000152
0.30107427 0.06712362 0.00000637
0.26961455 -0.57997072 -0.00000014
0.67966986 -0.16432104 -0.00000129
-0.27400532 0.00540997 -0.00000050
0.24114892 0.11408014 0.00000651
-0.02116194 0.57097197 -0.00000086
-0.38770977 -0.37553212 -0.00000027
-0.33966088 0.02474932 -0.00000050
-0.10370681 0.67772561 -0.00000087
-0.62087190 -0.26315674 -0.00000014
0.04549773 0.24179143 0.00000738
-0.59903359 0.18299790 -0.00000025
0.65061778 -0.69075584 -0.00000017
0.03755401 0.28872886 0.00000674
0.59982353 -0.48554003 -0.00000041
0.17973751 0.17151861 0.00000650
-0.33552966 -0.45564428 -0.00000022
-0.09167769 0.00011657 -0.00000050
0.76662487 -0.65664911 -0.00000036
0.39966488 0.24704039 0.00000125
0.37109727 -0.15654939 -0.00000040
-0.34922889 -0.46092677 -0.00000021
-0.35923818 -0.04124406 -0.00000046
-0.17985623 0.66153312 0.11737469
-0.06195923 0.09310020 -0.00000056
-0.28482947 -0.59375149 -0.00000013
-0.09192305 -0.38424459 -0.00000026
-0.35048863 0.48243788 0.09337589
-0.13819756 -0.50264782 -0.00000019
0.17775932 0.21872480 0.00000576
-0.72876942 -0.51874906 0.00000000
0.12109288 0.25392908 0.00000605
0.53130174 -0.74542934 -0.00000003
0.48664892 0.12239551 0.00000182
-0.37549025 -0.10836261 -0.00000043
-0.24835750 0.29072767 -0.00000064
0.52907616 0.09739244 0.00000145
-0.31078351 0.03864949 -0.00000052
0.00824289 0.71004581 0.00000034
0.15228108 -0.79146516 -0.00000001
-0.79751402 -0.21973965 0.00000000
-0.11103784 -0.54486662 -0.00000016
0.34804600 -0.60718352 -0.00000012
0.01188330 -0.40162069 -0.00000025
0.49206212 0.24086833 -0.00000041
-0.22840916 0.34854835 -0.00000067
-0.05608447 0.62674338 -0.00000089
-0.33580777 -0.23799828 -0.00000035
-0.53952527 0.29028291 0.08453411
0.11162627 -0.52749753 -0.00000017
-0.18264753 -0.61090875 -0.00000012
-0.05776455 -0.76454377 -0.00000002
-0.42512408 -0.58932006 -0.00000013
-0.23197293 -0.71080315 -0.00000006
0.51212007 -0.53727311 -0.00000016
-0.65765077 -0.07844967 -0.00000014
-0.32867593 -0.52831197 -0.00000017
0.71896899 -0.41845527 -0.00000092
0.11468217 -0.71414006 -0.00000005
-0.65470976 0.06897891 -0.00000017
0.39515597 -0.02236384 -0.00000066
-0.56199890 -0.69163960 -0.00000007
-0.04810921 -0.07911206 -0.00000045
0.26450005 -0.38355774 -0.00000026
0.19514000 0.36033919 0.00000315
-0.10521269 0.09877149 -0.00000056
-0.26193085 -0.33644956 -0.00000029
-0.25969139 -0.00691239 -0.00000050
0.11442028 -0.55095029 -0.00000016
-0.69415271 -0.48017639 -0.00000003
-0.32357132 0.57922792 0.29153073
0.10376128 -0.02138919 -0.00000049
-0.43190354 -0.75506699 -0.00000003
-0.14216645 -0.47270972 -0.00000020
-0.74734092 -0.47219217 0.00000000
0.31748989 -0.47527218 -0.00000020
0.58101594 -0.48295578 -0.00000036
-0.51926845 -0.08953791 -0.00000028
-0.69761878 -0.11556511 -0.00000009
-0.25090310 -0.48399663 -0.00000020
-0.15798247 -0.58517027 -0.00000013
0.09077085 0.17486109 0.00000779
-0.76768005 -0.66032279 0.00000000
0.52440137 -0.30171174 -0.00000053
-0.55397773 -0.52320272 -0.00000017
-0.17848718 0.37299266 -0.00000073
0.21386895 -0.14023508 -0.00000041
0.37517565 -0.51745540 -0.00000018
0.44687423 -0.69262516 -0.00000007
0.60850227 -0.62641501 -0.00000017
0.19077954 -0.30635342 -0.00000031
-0.02805968 0.01986086 -0.00000051
0.00634247 0.32742709 0.00000658
-0.40814003 -0.60644114 -0.00000012
0.19877018 0.13583449 0.00000679
-0.03390263 -0.31985673 -0.00000030
0.10414222 0.16931419 0.00000768
0.18884341 -0.26595718 -0.00000033
-0.00138906 0.71986318 -0.00000095
0.17642242 -0.11788919 -0.00000043
0.13544464 0.53572708 0.00000114
0.14305966 0.00688081 0.00000973
-0.55664754 0.11365274 -0.00000028
-0.14648214 -0.26891536 -0.00000033
0.79436398 -0.35417709 -0.00000111
0.00063748 0.22000954 0.00000842
-0.76270419 -0.79643738 0.00000000
-0.32288289 -0.30205253 -0.00000031
-0.02190050 -0.10275603 -0.00000044
0.06716780 0.33007604 0.00000562
0.77818608 -0.74317420 -0.00000014
-0.45487747 -0.27530238 -0.00000032
-0.79391706 -0.47984484 0.00000000
0.64939278 -0.42527249 -0.00000069
-0.11830652 0.55668241 -0.00000083
-0.61083400 0.26066557 0.20276798
-0.16744763 0.65089691 0.05202107
-0.74265194 -0.36456785 0.00000000
0.60284901 -0.33599439 -0.00000071
0.61159062 -0.35723233 -0.00000070
-0.32728779 0.02417918 -0.00000051
-0.22583386 0.55302256 -0.00000071
-0.28286633 -0.40398586 -0.00000025
0.05964622 -0.69151515 -0.00000007
0.67378497 -0.76337737 -0.00000009
0.51235175 0.24090426 -0.00000080
-0.31140178 -0.17714630 -0.00000039
0.43156323 -0.21959329 -0.00000039
0.78937840 -0.76978123 -0.00000008
-0.39419413 -0.76387447 -0.00000002
0.43260977 -0.37924561 -0.00000026
-0.00215183 -0.53913230 -0.00000016
0.48102495 -0.25107130 -0.00000049
-0.56955129 0.31574893 0.24190512
-0.61843348 -0.49380717 -0.00000010
0.60517359 -0.31003574 -0.00000077
-0.26058137 -0.60067213 -0.00000012
0.40675601 -0.27299035 -0.00000033
0.34385774 -0.00557040 -0.00000053
0.69495702 -0.22015020 -0.00000123
-0.39122075 0.43222684 0.06649477
-0.21941094 0.46576959 -0.00000070
0.21110421 -0.25254643 -0.00000034
-0.75006545 -0.65482163 0.00000000
-0.21161161 0.28143451 -0.00000068
0.49714673 -0.09961697 -0.00000084
0.14549373 -0.69375479 -0.00000007
0.65075111 -0.46758673 -0.00000061
-0.06497638 0.46343905 -0.00000079
-0.18683156 0.48274592 -0.00000074
-0.14439584 0.09644902 -0.00000056
-0.55636901 -0.27081251 -0.00000021
-0.46186495 -0.45663673 -0.00000021
-0.78930181 -0.10014053 0.00000000
-0.33888352 -0.68522102 -0.00000007
-0.50807488 -0.29776898 -0.00000026
-0.11106136 -0.14219594 -0.00000041
-0.05237618 -0.38883772 -0.00000026
0.27181172 -0.05926972 -0.00000046
-0.59741491 0.24865839 0.13066113
0.14763395 -0.13951105 -0.00000041
0.42579743 -0.69764495 -0.00000006
0.13279989 0.07077228 0.00000885
-0.26906523 0.44909853 -0.00000065
-0.10112331 0.51265514 -0.00000082
0.49500376 -0.06233434 -0.00000090
-0.56047243 -0.68673730 -0.00000007
0.29759660 -0.10509087 -0.00000043
-0.45949963 -0.09821166 -0.00000035
0.78543675 -0.48758513 -0.00000078
-0.42011052 0.37739739 -0.00000047
-0.38117814 -0.62715638 -0.00000011
0.23566204 -0.40000907 -0.00000025
0.20344213 -0.28336427 -0.00000032
-0.31199837 -0.63750494 -0.00000010
0.10768736 0.67275506 -0.00000078
-0.53960311 -0.71851945 -0.00000005
-0.74105871 0.08376534 0.07040121
