ply
format ascii 1.0
element vertex 1389
property float x
property float y
property float z
end_header
0.63185680 -0.04048346 -0.00000121
-0.20177872 -0.21780713 0.00000000
0.44363108 0.27875498 0.00000019
0.38053522 0.29466680 0.00000113
0.60071260 0.14366496 -0.00000057
-0.59498525 0.16631486 0.09543675
-0.26541382 -0.60662866 0.00000000
0.72430098 -0.47447294 -0.00000081
-0.64710951 0.00270462 -0.00000068
-0.46105140 -0.49011773 0.00000000
0.69735229 -0.15621951 -0.00000129
-0.18370797 -0.17768253 0.00000000
-0.63807827 -0.43222174 -0.00000027
0.52540344 -0.06391138 -0.00000072
0.08720919 0.07043764 0.00000963
-0.25595611 -0.22271660 0.00000000
-0.32836241 0.46400812 0.01881520
-0.43114230 0.23030044 0.34169734
-0.68344623 -0.38975108 -0.00000041
0.25780931 -0.39792103 0.00000000
0.00486456 -0.01838960 0.00000000
0.34244916 0.30239442 0.00000174
0.78240347 -0.13062105 -0.00000167
-0.32477739 -0.44425020 0.00000000
0.55043781 -0.75093585 0.00000000
-0.41110325 0.17037399 -0.00000032
-0.19808599 0.45607117 0.35966325
-0.06496941 0.29057899 0.00000000
-0.09495980 0.67149037 0.08273933
-0.12819047 -0.58112925 0.00000000
-0.64529634 -0.37096006 -0.00000034
-0.36328983 0.35796770 0.19418845
-0.20958170 -0.35115698 0.00000000
-0.35005909 0.38879770 0.15078650
-0.40924364 0.28182364 0.26864079
0.47535837 -0.65906549 0.00000000
0.47083142 -0.14982475 -0.00000033
0.01736498 -0.16986226 0.00000000
0.28878334 0.28133106 0.00000312
0.68646562 -0.24751198 -0.00000108
-0.77668589 -0.46294698 -0.00000042
-0.56298524 0.15580729 0.20026596
0.54322499 -0.78536987 0.00000000
0.09155880 0.50146431 0.00000310
-0.28026706 -0.15818682 0.00000000
-0.10779422 -0.03554347 0.00000000
0.46417809 -0.07485086 -0.00000043
0.38109508 -0.62862813 0.00000000
0.40592051 0.18545668 0.00000247
-0.22335228 -0.08117515 0.00000000
-0.35166901 -0.59036952 0.00000000
0.01854080 0.70317435 0.00000117
-0.61335862 -0.11204065 -0.00000050
-0.45093688 -0.40235281 0.00000000
-0.11446246 -0.58935040 0.00000000
0.36789444 -0.72964400 0.00000000
0.08372374 0.07152178 0.00000966
0.67556274 -0.68044704 -0.00000027
-0.16159128 0.01290883 0.00000000
-0.55843025 -0.45891029 -0.00000008
-0.44079113 -0.51384014 0.00000000
-0.29367763 0.47215435 0.08426282
0.65863228 -0.27143288 -0.00000092
-0.36508691 0.38258398 0.12904978
-0.47110730 -0.57917166 0.00000000
0.68251389 -0.07470327 -0.00000137
-0.70312786 -0.21598786 -0.00000060
0.49055928 0.00233213 0.00000390
-0.66608948 -0.21405530 -0.00000053
0.58240306 -0.76784986 0.00000000
-0.75928485 -0.36581373 -0.00000054
0.56135309 -0.27045047 -0.00000050
0.76734465 -0.54935944 -0.00000063
0.33071947 -0.71932119 0.00000000
0.24807772 -0.30433115 0.00000000
-0.33147657 -0.36139786 0.00000000
-0.34042767 -0.28905523 0.00000000
-0.39723539 -0.21021207 0.00000000
-0.30643216 0.18203649 -0.00000011
-0.77644205 -0.42118618 -0.00000047
0.18916076 0.32730293 0.00000424
-0.69962090 -0.78270668 -0.00000002
-0.58964550 -0.05574191 -0.00000050
0.63988334 0.10614737 -0.00000070
-0.52917516 -0.65657216 0.00000000
-0.13261963 0.64136738 0.06415270
0.16177845 -0.06677372 0.00000000
0.03095019 0.58360612 0.00000278
0.02397684 0.01059033 0.00001148
0.29289860 -0.40313563 0.00000000
-0.13282230 0.65586698 0.02789503
-0.45490208 -0.21252336 -0.00000008
-0.79028136 -0.71549314 -0.00000011
0.16810004 -0.06480928 0.00000000
0.10516074 0.46940258 0.00000337
-0.45465750 0.21738818 0.31554973
0.70111895 -0.67126399 -0.00000032
0.27363947 0.12444837 0.00000600
0.70665175 -0.65241235 -0.00000037
-0.45673573 0.21314801 0.32088122
0.12376052 -0.33292788 0.00000000
0.05114808 -0.62186587 0.00000000
-0.18642838 -0.35478678 0.00000000
-0.65658712 -0.50322711 -0.00000025
0.38935089 0.12308979 0.00000383
-0.60842502 -0.29051176 -0.00000033
0.25412899 -0.44189662 0.00000000
-0.18332727 0.54859906 0.16787824
-0.57106620 0.13546562 0.23050226
-0.12752856 -0.37482256 0.00000000
-0.23691382 -0.19131167 0.00000000
-0.44396117 -0.66439867 0.00000000
0.38873163 -0.58717757 0.00000000
-0.22809073 0.06921392 0.00000000
0.38973349 -0.06554007 -0.00000013
0.07179783 0.22259571 0.00000758
-0.44858569 -0.31190890 0.00000000
0.29170874 -0.32120845 0.00000000
0.56072032 -0.09690242 -0.00000081
-0.40013039 0.05723623 -0.00000020
-0.00734986 0.11824219 0.00000000
-0.63260853 0.16669701 0.00171036
-0.38066226 -0.48629928 0.00000000
0.39650717 -0.09269559 -0.00000011
-0.22064175 0.07363623 0.00000000
-0.70571923 -0.68807632 -0.00000014
-0.02640500 -0.77695984 0.00000000
-0.59298742 -0.17227815 -0.00000041
0.00008597 0.04259007 0.00001136
-0.01950487 -0.00816331 0.00000000
0.21680625 0.01089612 0.00000857
0.54069579 0.15642911 0.00000037
-0.06186447 -0.76325977 0.00000000
-0.29168281 0.03221348 0.00000000
-0.60689259 -0.64872420 -0.00000001
-0.37756190 0.28244632 0.34523475
-0.18530196 -0.48186901 0.00000000
-0.53866541 0.21007076 0.12642144
0.58487558 -0.20207857 -0.00000072
0.74169838 -0.35952145 -0.00000110
0.09632324 -0.77805340 0.00000000
0.00145263 -0.53087401 0.00000000
0.77790993 -0.28075781 -0.00000130
-0.09590288 -0.64424330 0.00000000
-0.21903519 0.49929374 0.20141064
-0.48979312 0.25855520 0.12737820
-0.36293960 0.35612878 0.19958715
-0.74436575 -0.56053984 -0.00000030
-0.53193200 0.18369640 0.20806924
-0.44048932 -0.36211014 0.00000000
0.70648301 -0.29997411 -0.00000107
-0.25084329 -0.62493265 0.00000000
0.33148363 0.18330158 0.00000394
-0.64436227 -0.05412110 -0.00000062
-0.45217279 -0.15998162 -0.00000012
0.60527420 -0.10414421 -0.00000098
0.74174589 -0.70729202 -0.00000023
-0.01645592 -0.51731628 0.00000000
-0.72016132 -0.65522170 -0.00000018
0.53141588 0.01409212 0.00000292
-0.67185313 -0.00717211 -0.00000072
-0.14357655 -0.65127212 0.00000000
0.07354864 0.58517200 0.00000211
-0.33045387 -0.02259170 0.00000000
0.23369829 0.31523654 0.00000361
-0.41644147 0.14587364 -0.00000031
0.56410152 -0.06281613 -0.00000088
0.26408821 0.40246502 0.00000157
-0.49295169 -0.74282163 0.00000000
0.11175957 -0.14242232 0.00000000
-0.33458802 -0.68677860 0.00000000
0.41581997 -0.40968028 0.00000000
0.11831022 0.08626317 0.00000892
0.01795811 -0.50939292 0.00000000
-0.56603521 0.22238497 0.02855558
0.34558934 0.43751588 -0.00000058
0.62363476 -0.61584496 -0.00000016
-0.13481371 -0.26711285 0.00000000
0.72519791 -0.74803007 -0.00000013
0.76867199 -0.15222906 -0.00000160
0.30190152 -0.45726570 0.00000000
-0.25855881 -0.40676662 0.00000000
0.00302935 -0.42476737 0.00000000
0.14787552 -0.78281426 0.00000000
0.34157178 -0.27157423 0.00000000
0.07453844 -0.18938437 0.00000000
-0.74417645 0.04323304 0.03104679
-0.12371359 -0.14603241 0.00000000
-0.62597317 0.03993628 -0.00000066
-0.17736565 0.16575491 0.00000000
-0.68236399 -0.08988636 -0.00000067
0.51803523 0.05731684 0.00000246
-0.40718135 0.37377602 0.04696093
-0.35425916 -0.55611491 0.00000000
-0.20519114 0.04747159 0.00000000
0.37170479 -0.70517844 0.00000000
-0.19751056 -0.09564107 0.00000000
0.51392907 -0.40343496 -0.00000007
0.64573598 -0.07541146 -0.00000121
0.19250441 -0.79413569 0.00000000
0.30825543 0.25767764 0.00000314
0.40139773 -0.51085770 0.00000000
0.68362767 -0.03949163 -0.00000143
0.06903329 0.03980755 0.00001036
-0.29109269 0.39700362 0.27596697
-0.18505837 0.21862023 0.00000000
-0.39953089 0.23253898 0.41413298
0.70066500 -0.69844592 -0.00000025
-0.74608189 -0.39025030 -0.00000051
0.66459155 -0.27848899 -0.00000093
0.33906934 -0.47397521 0.00000000
0.38679469 0.07751309 0.00000464
-0.50042343 0.26024097 0.09700515
0.25727278 -0.78999990 0.00000000
-0.18218488 0.57295358 0.11063524
-0.20902012 -0.25876853 0.00000000
-0.42962170 -0.18799967 -0.00000004
-0.51117307 0.28555587 0.00806548
0.53980702 0.02949873 0.00000250
0.57180542 -0.05271938 -0.00000093
-0.70578659 -0.04532448 -0.00000076
0.59391248 -0.51556230 -0.00000021
-0.34854615 -0.69293481 0.00000000
0.05650404 -0.00316426 0.00000000
-0.23642191 -0.77213711 0.00000000
-0.07061764 -0.67445499 0.00000000
-0.18310729 0.23748618 0.00000000
0.02947125 -0.62741244 0.00000000
-0.50138736 0.18660602 0.27622092
0.40867445 -0.21877532 0.00000000
0.12036854 0.26572061 0.00000620
-0.69340003 -0.52860391 -0.00000031
-0.12806077 -0.49925801 0.00000000
0.43725085 -0.37210709 0.00000000
0.13758601 -0.01062162 0.00000000
-0.04276662 0.72805917 0.07194852
0.72268009 -0.69433343 -0.00000026
-0.23147897 -0.29921886 0.00000000
-0.26615292 -0.24122407 0.00000000
0.51955318 -0.72448307 0.00000000
-0.77902472 -0.73385674 -0.00000008
-0.52271026 0.16898307 0.26709616
-0.03071209 -0.51657379 0.00000000
-0.03760727 -0.42826325 0.00000000
0.14324529 -0.22526257 0.00000000
-0.13750894 -0.23837757 0.00000000
0.68476230 -0.47403917 -0.00000067
-0.74158102 -0.22269350 -0.00000068
-0.25979009 0.35720044 0.45131928
0.64231175 -0.60966402 -0.00000025
-0.26167399 0.38945863 0.36712226
0.51006854 0.13046744 0.00000139
-0.00448790 -0.02092181 0.00000000
0.17597850 -0.67996013 0.00000000
0.10173203 -0.64180708 0.00000000
0.07167834 -0.35959619 0.00000000
0.57294339 -0.45492294 -0.00000023
-0.29871109 -0.62535882 0.00000000
-0.00135716 -0.54436350 0.00000000
0.61621332 -0.78778887 0.00000000
-0.78280300 -0.43768850 -0.00000045
0.12730411 -0.21638018 0.00000000
0.69533706 -0.70354784 -0.00000024
0.25999650 -0.69087315 0.00000000
0.17687885 0.27504790 0.00000521
-0.64130223 0.14104405 0.04353399
-0.11828791 0.59897262 0.20404506
-0.21105120 0.46757928 0.29931015
0.02358661 0.36059073 0.00000624
-0.14620371 -0.01572236 0.00000000
0.11542077 0.44999307 0.00000351
0.66686535 0.05364828 -0.00000034
-0.08513298 -0.12826124 0.00000000
-0.08720485 0.66859335 0.10900803
0.24995051 -0.71583283 0.00000000
-0.22097872 0.45529586 0.30512002
-0.20918706 -0.22451091 0.00000000
-0.53672534 -0.21852468 -0.00000025
0.42187521 0.03947546 0.00000460
-0.53007305 -0.47872046 -0.00000000
-0.02972778 0.07450519 0.00000000
0.18525808 -0.56430781 0.00000000
-0.74500489 -0.27046996 -0.00000064
0.02294560 0.72852248 0.00000073
0.52339560 -0.68546611 0.00000000
-0.07622631 0.69384015 0.07382124
0.39184612 -0.78814143 0.00000000
0.48535112 -0.73629707 0.00000000
0.15711658 0.29532418 0.00000520
-0.54310238 0.21840668 0.09492180
-0.04698464 -0.51468450 0.00000000
-0.64448971 -0.54597425 -0.00000019
-0.14436129 0.63586581 0.04876392
-0.43623054 -0.61115158 0.00000000
0.33767968 -0.07777424 0.00000000
-0.00046856 0.34408787 0.00000000
0.68642324 -0.12066043 -0.00000130
0.40348017 -0.56822717 0.00000000
-0.50053251 -0.10432374 -0.00000027
0.43105096 -0.19019137 -0.00000009
-0.76028144 -0.76411164 -0.00000004
-0.77491701 -0.45042583 -0.00000044
-0.23055543 0.56106091 0.02067598
0.49196526 0.06235575 0.00000287
-0.02805674 -0.56455481 0.00000000
0.54091215 -0.54703820 0.00000000
-0.43221959 0.27664050 0.22476149
-0.42726380 -0.70636553 0.00000000
-0.20807038 -0.02419658 0.00000000
0.20910481 0.56642783 -0.00000011
-0.40119654 0.29355961 0.25954372
-0.33835727 0.13277552 -0.00000013
-0.31852072 -0.10037574 0.00000000
-0.53098130 0.07616906 -0.00000049
-0.03972017 0.04588903 0.00000000
-0.27440232 0.49638873 0.07203334
-0.06828693 -0.03400871 0.00000000
-0.16641434 -0.42951617 0.00000000
-0.39100307 0.17068204 -0.00000028
-0.46252289 0.25228190 0.21010090
-0.02586462 -0.11223953 0.00000000
0.00791522 0.69094884 0.00000152
0.47478247 0.25149104 0.00000004
-0.04931346 -0.61789501 0.00000000
0.20041554 -0.79169881 0.00000000
0.76407319 -0.75810206 -0.00000010
-0.48544633 -0.36672512 -0.00000000
0.66358322 0.07663653 -0.00000066
-0.53383148 -0.59939802 0.00000000
-0.71337909 -0.15713783 -0.00000068
0.37459898 -0.61067581 0.00000000
-0.36682761 0.03555490 -0.00000011
-0.51116705 -0.40890360 -0.00000002
-0.32213968 -0.49664295 0.00000000
0.06270329 -0.11158067 0.00000000
0.57940674 -0.00816064 -0.00000104
-0.44381776 -0.14122637 -0.00000012
-0.43909243 -0.30329359 0.00000000
-0.48312038 -0.05212136 -0.00000028
-0.40197444 -0.31664199 0.00000000
0.58325148 -0.70346457 0.00000000
0.03707183 -0.28871596 0.00000000
-0.06210533 0.10585633 0.00000000
0.39770010 -0.19335531 0.00000000
0.21481720 -0.49319169 0.00000000
0.65652061 -0.14535424 -0.00000113
-0.27538371 -0.61187327 0.00000000
-0.29024002 0.41133097 0.24273735
0.40349856 -0.53585392 0.00000000
-0.41460085 0.09362368 -0.00000026
0.61038101 -0.37063584 -0.00000054
0.12703323 -0.54805273 0.00000000
0.72860742 -0.75993752 -0.00000010
-0.50931126 -0.73794025 0.00000000
-0.54413259 0.00452411 -0.00000046
-0.73789889 0.04084988 0.05240526
0.58399779 0.21010208 -0.00000136
-0.37228400 0.37018105 0.14188793
0.58884513 -0.25815910 -0.00000064
0.23674239 -0.65052551 0.00000000
-0.19569016 0.21914068 0.00000000
-0.58797842 -0.57809114 -0.00000004
-0.05165951 0.17621084 0.00000000
-0.63363194 0.15943965 0.01708405
0.34935245 0.29630625 0.00000170
-0.21900780 -0.25288221 0.00000000
-0.52668613 0.24463496 0.07072428
-0.40266770 -0.75555903 0.00000000
-0.09219063 -0.26732948 0.00000000
0.60394675 -0.36182421 -0.00000052
-0.04224212 -0.75416857 0.00000000
0.02812272 -0.75156248 0.00000000
0.40944135 0.27275404 0.00000094
-0.18040785 -0.24669747 0.00000000
-0.43360355 0.28684664 0.19617885
0.20157395 -0.52155387 0.00000000
0.15980659 0.24309742 0.00000594
-0.19082710 0.60249001 0.01648192
-0.10687220 -0.31373945 0.00000000
0.02829652 0.34640747 0.00000638
-0.66597807 -0.03371202 -0.00000068
-0.77764636 -0.73392040 -0.00000008
-0.33377677 0.12981781 -0.00000012
0.02514654 -0.40820536 0.00000000
0.33764300 0.01944998 0.00000655
-0.48941261 0.29074398 0.04893513
-0.08283573 -0.21337920 0.00000000
-0.11643995 -0.37756306 0.00000000
-0.22046244 -0.78719378 0.00000000
-0.59996027 -0.05512396 -0.00000052
0.29239628 -0.76249307 0.00000000
-0.19060025 -0.23691981 0.00000000
0.74263108 -0.72313887 -0.00000019
-0.40168354 -0.23632035 0.00000000
0.18805461 0.38036120 0.00000340
-0.73394555 -0.33448061 -0.00000056
-0.10317640 -0.76470113 0.00000000
0.60034013 0.16041973 -0.00000085
-0.42924511 -0.71178001 0.00000000
-0.16316706 -0.32675079 0.00000000
-0.20826311 0.13730757 0.00000000
-0.54354239 0.01067262 -0.00000046
0.26208779 0.51430202 -0.00000026
-0.28846806 -0.28099039 0.00000000
-0.44579211 -0.79948485 0.00000000
0.49089605 0.24433558 -0.00000015
-0.64436150 0.02379418 -0.00000069
-0.75901258 -0.28053948 -0.00000065
-0.17199264 0.62185001 0.01518593
-0.41581404 0.25118640 0.32799155
-0.69647896 -0.39564314 -0.00000043
-0.59522420 0.19780090 0.01719901
0.31620073 0.26191178 0.00000292
-0.05295957 -0.48334906 0.00000000
-0.40257907 -0.65759689 0.00000000
-0.24562845 0.41050521 0.35478926
-0.55782050 -0.38259855 -0.00000015
0.49008062 -0.39965793 0.00000000
0.17350562 -0.04837244 0.00000000
-0.25651118 -0.09220295 0.00000000
-0.06517768 0.01196445 0.00000000
-0.52887321 -0.28383562 -0.00000017
0.03332798 -0.68546832 0.00000000
-0.38301489 -0.18060225 0.00000000
-0.37195802 -0.18647052 0.00000000
0.20950335 0.17281359 0.00000625
-0.30033091 -0.04450288 0.00000000
0.24906436 -0.52556741 0.00000000
0.04313249 0.56225568 0.00000292
0.17932767 -0.56131679 0.00000000
-0.65285653 -0.67092115 -0.00000009
-0.76155227 -0.14281592 -0.00000079
-0.50622040 -0.75327790 0.00000000
0.36026987 -0.13309245 0.00000000
0.22817934 0.49441698 0.00000072
0.44259116 -0.22237267 -0.00000008
-0.32209250 0.45081240 0.06681995
-0.45840788 0.33405161 0.01859496
0.28585184 0.33336952 0.00000231
-0.77630633 -0.70088720 -0.00000012
-0.67534816 -0.65601522 -0.00000015
0.28478017 0.05172484 0.00000693
0.46668059 -0.42225054 0.00000000
0.53911537 -0.06691764 -0.00000077
0.29478517 -0.24869284 0.00000000
0.35323691 -0.12787379 0.00000000
0.49433613 -0.03578744 -0.00000063
-0.72747368 -0.32121781 -0.00000056
-0.31399345 -0.11190422 0.00000000
0.28773782 -0.34734014 0.00000000
-0.72078395 -0.35413113 -0.00000052
-0.08467743 0.69501990 0.05007071
0.49915040 -0.19391927 -0.00000037
-0.60746711 -0.62839985 -0.00000003
0.78261805 -0.64681101 -0.00000038
-0.23596530 0.38805020 0.43399513
-0.50953358 -0.49949208 0.00000000
-0.57002175 -0.01125863 -0.00000050
0.00583696 -0.73090255 0.00000000
0.05896590 -0.07039786 0.00000000
-0.57727915 -0.35818341 -0.00000021
0.34632099 -0.55484802 0.00000000
0.71717381 -0.70076984 -0.00000025
0.13336262 -0.03836386 0.00000000
-0.21404681 -0.22708556 0.00000000
-0.14097035 -0.68551409 0.00000000
0.61845833 -0.64233565 -0.00000009
-0.11675703 -0.72057712 0.00000000
-0.17443392 -0.72769856 0.00000000
0.21137427 -0.02400513 0.00000000
-0.33846799 -0.54337752 0.00000000
-0.79059374 -0.01689720 -0.00000096
-0.30191380 0.36869743 0.31908661
0.46383002 0.09976599 0.00000279
-0.25897759 -0.57939172 0.00000000
-0.35527322 0.44408086 0.00159273
0.77024740 -0.64209640 -0.00000039
-0.12401531 0.07498015 0.00000000
-0.62501383 -0.39416307 -0.00000028
-0.56116778 -0.47273505 -0.00000007
-0.40621492 -0.09199304 -0.00000008
0.26340282 -0.25496817 0.00000000
0.68637013 0.05374770 -0.00000072
-0.54572564 -0.59342027 0.00000000
-0.73296243 -0.31318700 -0.00000058
-0.36204958 -0.67266762 0.00000000
-0.44407013 -0.70343751 0.00000000
0.28984329 0.21026312 0.00000429
-0.10673879 0.27432412 0.00000000
0.42607167 0.13069725 0.00000300
0.45860475 -0.74501383 0.00000000
-0.38179120 -0.41338313 0.00000000
-0.22888194 -0.24033093 0.00000000
-0.22586581 0.53074741 0.10699794
0.66985571 -0.67499620 -0.00000025
0.22429478 -0.39745364 0.00000000
-0.77994919 0.01142432 0.02127072
-0.14964885 -0.32060930 0.00000000
-0.53721327 -0.63544643 0.00000000
-0.12733723 0.61597031 0.13981104
0.26097867 -0.43682018 0.00000000
-0.25657588 0.47162268 0.17707148
-0.20593725 0.58485669 0.02270421
-0.01651269 0.26283783 0.00000000
0.45834869 -0.75151229 0.00000000
0.03792596 -0.46793756 0.00000000
0.23993845 0.02478010 0.00000801
-0.22350796 0.08535187 0.00000000
0.08303277 -0.16308150 0.00000000
0.05364422 0.31731439 0.00000643
-0.37800026 0.36723691 0.13505156
-0.37161687 0.37208277 0.13884339
-0.55702788 -0.16018450 -0.00000034
0.54500139 -0.63029742 0.00000000
-0.26390737 0.35700744 0.44164175
-0.74481761 -0.22265394 -0.00000069
0.06235376 0.07905923 0.00000987
-0.30361846 -0.32404932 0.00000000
0.15001789 0.13393758 0.00000773
0.70462608 -0.22894490 -0.00000119
-0.35199413 0.12690940 -0.00000016
-0.13747808 -0.60482824 0.00000000
-0.20500055 0.53640980 0.14449005
-0.68577927 -0.67778426 -0.00000015
-0.19118533 -0.03564169 0.00000000
-0.24763110 0.12804002 0.00000000
-0.57332271 -0.49274626 -0.00000008
-0.49229962 0.23439811 0.18077125
-0.18263976 -0.11398666 0.00000000
-0.42027330 -0.14277674 -0.00000006
-0.12182495 0.63159049 0.11488417
0.03194130 -0.25876704 0.00000000
0.35989711 -0.42040950 0.00000000
0.14754336 -0.00809759 0.00000000
0.33003169 0.34988734 0.00000118
0.30311868 -0.03794242 0.00000000
0.12768847 -0.59879267 0.00000000
-0.60641026 -0.27476382 -0.00000034
-0.04585629 -0.73680216 0.00000000
-0.14677195 0.63827980 0.03686568
-0.18697649 0.49376744 0.29409808
0.15713643 0.25442564 0.00000581
0.34770107 0.21776608 0.00000305
-0.43820155 -0.36586818 0.00000000
0.15361831 0.11053829 0.00000802
-0.17389403 0.50249672 0.30483332
0.23962399 -0.40042180 0.00000000
-0.02300295 0.32797059 0.00000000
-0.12410858 -0.48303935 0.00000000
-0.40522078 -0.30413723 0.00000000
0.75140864 -0.60160553 -0.00000050
-0.69796002 -0.24752969 -0.00000056
0.20211959 0.22473204 0.00000558
-0.21427484 0.46314245 0.30230197
-0.25264198 0.45832127 0.21957514
0.11030923 -0.45146126 0.00000000
-0.63056242 -0.43928066 -0.00000025
0.68814003 -0.33934715 -0.00000092
-0.01959904 -0.46509859 0.00000000
0.76376909 -0.40987760 -0.00000098
-0.26703110 0.49137229 0.10258285
-0.64434874 0.11947711 0.08920763
-0.54337853 -0.03121922 -0.00000042
-0.06431879 -0.35786179 0.00000000
0.13101275 -0.44479704 0.00000000
0.27771595 0.13423523 0.00000579
0.13882729 -0.61568290 0.00000000
-0.15746973 0.06218741 0.00000000
0.20960101 -0.65740180 0.00000000
0.61636972 -0.12189298 -0.00000100
-0.79306358 -0.77533364 -0.00000003
0.19136599 0.52499574 0.00000092
0.41369608 0.03979147 0.00000475
0.08827470 -0.03553173 0.00000000
0.05052828 -0.52012652 0.00000000
-0.53429639 0.16642848 0.24482314
-0.38239872 -0.50978762 0.00000000
-0.62188035 0.16077831 0.04276378
-0.48608419 0.20626983 0.26546711
-0.44119498 -0.10560428 -0.00000014
-0.05928662 -0.64407307 0.00000000
-0.72485065 -0.50561881 -0.00000037
-0.09058671 -0.39170030 0.00000000
0.50882530 -0.05889205 -0.00000065
-0.32164443 -0.03863724 0.00000000
0.41904342 -0.68659490 0.00000000
0.20813647 -0.46077192 0.00000000
0.20214979 0.08661824 0.00000765
0.48070547 -0.03387882 -0.00000058
0.11620001 -0.03976257 0.00000000
-0.56500030 -0.26938504 -0.00000026
0.60633951 -0.00599398 -0.00000116
-0.59310681 -0.09828267 -0.00000047
-0.25299621 0.13833193 0.00000000
-0.50751662 -0.49950817 0.00000000
0.47620693 0.10094158 0.00000253
-0.38450676 0.33898062 0.18868916
0.52581561 0.08575839 0.00000183
-0.34462053 0.38178447 0.18149428
0.47954005 0.19180605 0.00000095
0.70479381 -0.24527641 -0.00000116
-0.05377278 0.71655339 0.07318076
0.39650929 0.31175169 0.00000054
0.01249211 -0.26076874 0.00000000
0.62436062 -0.69624323 -0.00000002
-0.43339702 -0.37857002 0.00000000
0.59283870 -0.08540900 -0.00000096
-0.62273282 -0.55902320 -0.00000013
0.49286145 0.05687175 0.00000295
0.67822099 -0.06032230 -0.00000137
0.57178050 -0.62653530 0.00000000
0.44629180 -0.45017099 0.00000000
-0.07933133 -0.08943736 0.00000000
-0.41245654 0.38394442 0.00887510
0.68057591 -0.31202906 -0.00000094
-0.64807886 -0.27730361 -0.00000043
-0.26418415 -0.08403796 0.00000000
-0.06421351 -0.67150134 0.00000000
-0.65342605 0.09204261 0.13447864
-0.40378430 -0.45221716 0.00000000
-0.54465413 0.22142518 0.08365106
-0.24357274 0.50829947 0.11868970
-0.38075599 0.39194396 0.06732492
-0.74020159 -0.21454555 -0.00000068
-0.16761123 0.60913926 0.05733742
0.73808104 -0.70281237 -0.00000024
0.15273157 -0.10335185 0.00000000
-0.43643662 0.21336003 0.37041751
0.17454863 -0.69668740 0.00000000
-0.45841944 -0.21918583 -0.00000008
0.52829522 -0.43078145 -0.00000008
0.10768906 0.38967764 0.00000453
0.58906543 -0.54631692 -0.00000013
0.45325968 -0.48547778 0.00000000
-0.35103914 -0.68363982 0.00000000
-0.50097698 0.20588964 0.22967713
0.44994220 0.09948071 0.00000306
-0.67438507 -0.65456820 -0.00000015
0.67383105 0.01370292 0.00000019
-0.05058092 -0.29186833 0.00000000
-0.79820299 -0.77261406 -0.00000003
0.37896770 -0.01209151 -0.00000018
0.78268832 -0.61858374 -0.00000045
0.44346017 -0.32595471 0.00000000
0.50464135 -0.66493136 0.00000000
-0.34999076 -0.29409340 0.00000000
0.43626520 0.31054574 -0.00000020
-0.23260805 0.42944345 0.34019527
0.07252856 -0.27359045 0.00000000
-0.05487982 0.29699683 0.00000000
-0.77815199 -0.00197106 -0.00000095
-0.15031290 0.64382309 0.01446283
-0.19906905 0.46296170 0.34024632
-0.17628664 0.54267597 0.19984783
0.26110500 -0.00366329 0.00000000
-0.25113440 0.42257604 0.31144354
-0.29344282 -0.09000555 0.00000000
-0.31997624 -0.34751174 0.00000000
-0.70076919 -0.63257772 -0.00000021
-0.75259125 -0.79208767 -0.00000001
-0.54368961 0.06518984 -0.00000051
-0.70867807 -0.41745093 -0.00000044
0.19052637 -0.08422112 0.00000000
-0.30905804 -0.78481066 0.00000000
-0.12334646 0.20719519 0.00000000
0.15830959 0.63717544 -0.00000032
0.25538966 -0.25625649 0.00000000
-0.48401013 0.00342642 -0.00000033
-0.10204450 -0.66825426 0.00000000
-0.00233954 -0.14915290 0.00000000
0.47952831 -0.36178008 0.00000000
-0.56522471 -0.16836631 -0.00000035
-0.30063024 -0.35731748 0.00000000
-0.36265796 0.24922767 0.46390879
0.48972976 -0.21310578 -0.00000030
-0.18474863 0.55896449 0.13881113
-0.16338494 -0.69742548 0.00000000
0.70353740 -0.16394261 -0.00000130
-0.07936863 0.30440176 0.00000000
-0.37343293 -0.40040436 0.00000000
0.52727461 -0.78932530 0.00000000
0.00565991 0.19237666 0.00000903
0.20127651 -0.61132896 0.00000000
-0.54171807 -0.51819581 0.00000000
-0.09192539 0.64858103 0.14671876
-0.59767300 -0.35977033 -0.00000025
0.47651279 -0.52510339 0.00000000
0.70936775 0.01404393 -0.00000049
-0.35734621 0.43826485 0.01082356
-0.09599590 0.64999145 0.13320230
0.62366748 -0.68826020 -0.00000003
0.10978842 -0.15566038 0.00000000
0.16891962 -0.20738070 0.00000000
0.79130638 -0.29948890 -0.00000125
-0.58128643 0.16443935 0.13384514
-0.22123152 -0.14992344 0.00000000
-0.28647488 -0.35466689 0.00000000
0.36222899 -0.75938225 0.00000000
0.02519224 0.64927286 0.00000188
0.08678548 0.61678249 0.00000139
-0.40077510 -0.18542151 0.00000000
-0.26691291 0.43122447 0.25120476
0.72167695 -0.23070562 -0.00000126
-0.08780580 0.65657860 0.13715526
0.10902109 -0.66002321 0.00000000
-0.32518801 0.41546324 0.14636141
-0.69197500 -0.19817898 -0.00000059
0.56324464 -0.16273853 -0.00000070
-0.16296473 0.52022988 0.28805450
-0.10841098 0.01242171 0.00000000
0.30364412 0.46555215 -0.00000024
0.22167408 -0.78539050 0.00000000
-0.11996131 -0.55917734 0.00000000
0.38050792 -0.49087197 0.00000000
0.71971351 -0.50769454 -0.00000073
-0.51976973 -0.29399124 -0.00000014
-0.48562837 -0.43270949 0.00000000
-0.42489311 0.31441596 0.14967062
0.01965810 -0.47635275 0.00000000
-0.41709328 -0.73751730 0.00000000
0.70271558 -0.04396018 -0.00000151
-0.18744934 0.55535573 0.14105043
-0.15925466 -0.61868155 0.00000000
0.22030710 0.41933864 0.00000213
0.05733525 -0.49975005 0.00000000
-0.46654552 -0.08676753 -0.00000021
-0.32012853 0.40116477 0.19410053
-0.74372363 -0.01624430 -0.00000087
0.52358633 0.12406015 0.00000124
0.74927574 -0.10919181 -0.00000159
-0.66099340 -0.03513537 -0.00000067
-0.47020355 -0.61069828 0.00000000
-0.66965783 -0.40799427 -0.00000036
-0.76272136 -0.22696047 -0.00000072
0.41643795 -0.06476862 -0.00000025
0.27176648 -0.12042844 0.00000000
0.69395900 -0.65356106 -0.00000037
0.34111109 -0.37564543 0.00000000
-0.55506653 0.15608653 0.21910585
0.72230667 -0.12093207 -0.00000145
-0.47372305 0.10150203 -0.00000039
0.19727311 0.04258213 0.00000838
-0.17763099 -0.77529454 0.00000000
0.51605773 -0.47680330 0.00000000
-0.07898994 0.11275661 0.00000000
0.15728550 -0.54750216 0.00000000
0.13568510 0.39461908 0.00000403
-0.01804133 0.34320444 0.00000000
-0.45868245 0.14877266 -0.00000040
-0.07785703 0.28590831 0.00000000
0.32944414 0.37623101 0.00000075
0.21493711 -0.76111418 0.00000000
0.24988185 0.18300308 0.00000548
-0.71533841 -0.64876837 -0.00000019
0.21260291 -0.57470691 0.00000000
-0.75097382 -0.79877067 -0.00000000
0.70697683 -0.13902137 -0.00000136
0.47548181 -0.59643584 0.00000000
0.32065523 -0.28913873 0.00000000
0.51651549 -0.04745393 -0.00000071
0.67856169 -0.28117257 -0.00000098
-0.27217561 0.32096696 0.51013035
-0.11992834 0.61436671 0.16203652
-0.60402483 -0.08114308 -0.00000051
-0.33586058 -0.01748383 0.00000000
-0.44470364 -0.05657368 -0.00000019
-0.02612517 -0.28430617 0.00000000
0.10180126 -0.55374569 0.00000000
0.28484246 0.21016043 0.00000438
-0.44967094 0.33840299 0.02941026
-0.25686610 0.46302822 0.19755042
0.21145271 0.28776637 0.00000449
0.33618483 0.00181956 0.00000688
0.45497754 -0.61849368 0.00000000
0.17300144 0.44879037 0.00000254
-0.59707922 0.16985399 0.08154491
0.47776970 -0.57623219 0.00000000
-0.78506637 -0.56099194 -0.00000030
0.12872270 0.65229446 -0.00000000
-0.55859578 0.09460506 -0.00000057
-0.37807593 -0.76992905 0.00000000
0.01982264 0.71223134 0.00000102
0.52950078 -0.60798067 0.00000000
-0.24564785 0.45321095 0.24942563
-0.23503427 0.00813004 0.00000000
0.17604420 -0.03119682 0.00000000
0.52733761 -0.44287613 -0.00000005
-0.37630117 -0.49534211 0.00000000
-0.39946172 -0.72709608 0.00000000
-0.08432655 -0.29619044 0.00000000
-0.40817872 -0.66966623 0.00000000
-0.71687025 -0.31773442 -0.00000054
0.10225901 0.69392252 -0.00000019
0.06454660 -0.21081835 0.00000000
-0.37541208 0.34397784 0.19879404
0.57907122 0.12044192 0.00000023
0.63749534 -0.03238240 -0.00000125
0.72975022 -0.69829571 -0.00000025
-0.54633945 -0.49404353 -0.00000002
-0.39207950 -0.36814970 0.00000000
0.13654773 -0.40665758 0.00000000
-0.72571456 -0.11336033 -0.00000074
0.32889241 -0.72158414 0.00000000
-0.57325518 -0.52881062 -0.00000005
-0.10683005 -0.32119781 0.00000000
0.56728888 -0.72010761 0.00000000
0.61132348 0.16434771 -0.00000112
0.25567973 0.10865256 0.00000651
-0.47351968 0.04694964 -0.00000034
0.04433413 -0.60999012 0.00000000
0.38110018 0.07412510 0.00000481
0.50466204 -0.72591543 0.00000000
0.72692209 0.05102439 -0.00000145
-0.65109468 0.12397789 0.06147175
-0.46873072 0.30695865 0.05995204
-0.06724515 -0.11300558 0.00000000
-0.38690564 -0.37922850 0.00000000
0.78739530 -0.17023459 -0.00000157
0.37375474 -0.34142688 0.00000000
-0.52460086 -0.62114906 0.00000000
-0.00419795 0.10790984 0.00000000
0.21884708 0.39157113 0.00000262
0.07395609 -0.69815117 0.00000000
-0.44874889 0.26086161 0.22291076
0.11021198 -0.41507459 0.00000000
0.39861846 0.07016478 0.00000454
-0.64801061 0.14591730 0.01497222
0.17895214 -0.21484181 0.00000000
-0.35370961 0.41714564 0.07187439
0.57046950 -0.78839451 0.00000000
-0.78321201 -0.65815008 -0.00000018
-0.36977452 -0.67715150 0.00000000
-0.35807765 0.39806375 0.10816051
-0.45100480 0.33335277 0.03857524
-0.33373305 0.31509575 0.37280393
0.32328588 0.02169987 0.00000679
-0.30658069 0.03963331 0.00000000
0.44212505 0.17961650 0.00000187
-0.15558711 0.05592970 0.00000000
-0.02488348 -0.37654650 0.00000000
-0.69030392 0.08984977 0.04894074
0.41345161 0.07959963 0.00000409
0.35911632 0.18400519 0.00000339
-0.34094408 0.32227707 0.33731127
0.78728539 -0.00483766 -0.00000194
-0.25914210 0.47919068 0.15207951
-0.45079938 -0.71276802 0.00000000
0.52211916 -0.42486191 -0.00000006
-0.15229478 -0.57461220 0.00000000
0.60978568 -0.54823291 -0.00000022
-0.49049073 -0.47063556 0.00000000
0.26383150 -0.43361166 0.00000000
-0.31049529 -0.62682331 0.00000000
0.16284439 -0.68167669 0.00000000
0.19692495 0.29699066 0.00000457
0.05027964 0.64347380 0.00000159
-0.54681277 -0.64391017 0.00000000
0.12467667 0.33863759 0.00000504
0.19621813 -0.00577724 0.00000000
0.51610214 -0.05919528 -0.00000068
-0.39302668 -0.72135293 0.00000000
-0.60985869 -0.11942680 -0.00000049
-0.55108523 0.20030183 0.11988387
-0.15408424 -0.49153468 0.00000000
-0.32257581 0.35379589 0.30488089
-0.18953684 -0.13127744 0.00000000
-0.01137025 -0.45481220 0.00000000
0.23662601 -0.63067853 0.00000000
0.24348803 0.46017694 0.00000100
0.43092361 -0.45600390 0.00000000
-0.37124372 0.02970978 -0.00000011
-0.33374122 0.38472131 0.20108148
-0.30104515 -0.13562734 0.00000000
-0.52153772 -0.23911820 -0.00000019
-0.25805685 0.05966805 0.00000000
-0.29977205 -0.30162278 0.00000000
-0.20547445 -0.58304971 0.00000000
0.02081386 -0.34780037 0.00000000
-0.03479403 -0.18324052 0.00000000
-0.41559085 0.31275469 0.17670812
0.73491687 -0.71247143 -0.00000022
-0.37709329 0.34290767 0.19728713
0.76079082 -0.61929339 -0.00000045
-0.23226115 0.48673433 0.19976693
0.51108658 -0.55978423 0.00000000
-0.26335394 -0.24200115 0.00000000
0.38725889 0.24113242 0.00000190
0.25260550 0.09770615 0.00000672
-0.77363795 -0.30795017 -0.00000062
-0.51105893 0.27339530 0.03833654
0.72899598 -0.36837217 -0.00000105
0.63634211 -0.28546914 -0.00000080
-0.29605684 0.28796598 0.53262049
-0.39944163 -0.23017249 0.00000000
-0.15794516 -0.40206164 0.00000000
-0.27387294 0.14278316 -0.00000000
-0.27614495 0.34642327 0.43756434
0.29813692 -0.17137998 0.00000000
-0.68276560 0.10796502 0.02285682
-0.12993222 -0.42574644 0.00000000
0.61713278 0.17484790 -0.00000141
-0.26691422 -0.20989016 0.00000000
-0.34440818 -0.75807279 0.00000000
0.55799127 -0.25982440 -0.00000051
0.57887340 0.01049745 0.00000207
-0.21485636 0.46402711 0.29868630
0.79025233 -0.65704155 -0.00000036
-0.75248486 -0.51711696 -0.00000035
0.19701125 0.34803930 0.00000377
-0.52596796 -0.65032226 0.00000000
-0.29632136 -0.46600708 0.00000000
0.79255742 -0.61333108 -0.00000047
-0.08638811 0.25050080 0.00000000
0.23325999 -0.44349897 0.00000000
0.09398640 -0.57873988 0.00000000
-0.46324512 0.33247170 0.01056190
0.56199491 -0.62483883 0.00000000
-0.44413877 0.08801863 -0.00000032
0.75564873 -0.76763898 -0.00000008
0.76299965 -0.51556408 -0.00000071
0.05894781 -0.73824239 0.00000000
-0.65769595 -0.58776397 -0.00000018
-0.23854417 -0.22925057 0.00000000
0.58344430 -0.57023668 -0.00000007
0.37195995 0.26267788 0.00000183
-0.44671267 0.26595098 0.21538137
-0.20440213 0.09362420 0.00000000
-0.21279792 0.08426073 0.00000000
0.72496957 -0.26458076 -0.00000121
-0.40504032 0.33922660 0.13744415
0.14965560 0.49426654 0.00000223
-0.55948567 -0.75929469 0.00000000
0.15359978 -0.27888966 0.00000000
0.60301656 -0.04052879 -0.00000109
0.19051705 -0.16010123 0.00000000
-0.77292037 -0.30174875 -0.00000062
-0.46857587 0.08260228 -0.00000037
-0.63893127 -0.63186121 -0.00000010
0.52454406 0.08147832 0.00000193
-0.06809310 0.68108284 0.12533888
0.02830399 0.09096846 0.00001021
-0.02089289 -0.67308468 0.00000000
-0.13833861 -0.10666399 0.00000000
-0.49009347 -0.66248375 0.00000000
0.67694020 0.01516465 0.00000011
0.58973306 0.07754071 0.00000074
-0.32532844 0.41151077 0.15576233
0.18037811 0.06678894 0.00000828
0.70746452 -0.56561768 -0.00000059
0.59425354 -0.45443606 -0.00000032
-0.78188378 -0.34585911 -0.00000057
0.52949846 -0.18840332 -0.00000051
-0.19033502 0.49196029 0.29027230
-0.27767244 -0.74653131 0.00000000
0.21546222 0.43641630 0.00000194
0.57537186 -0.35913801 -0.00000041
0.41751826 0.17347425 0.00000245
-0.70217913 -0.08539470 -0.00000072
-0.44356719 0.23279858 0.30489603
0.69494742 -0.73968619 -0.00000015
-0.37492552 -0.33007920 0.00000000
-0.04106885 -0.12708005 0.00000000
0.20761307 0.35561541 0.00000344
-0.13132153 -0.79761213 0.00000000
0.39716265 -0.45593029 0.00000000
0.11105399 -0.74307728 0.00000000
0.23125806 0.06542852 0.00000753
0.27677584 0.44415158 0.00000063
0.05424720 0.03994753 0.00001058
0.18911751 -0.58540022 0.00000000
-0.53908557 -0.12986609 -0.00000033
0.23629089 0.23138972 0.00000496
0.75112110 -0.02313548 -0.00000175
0.15379605 -0.01576019 0.00000000
-0.15800264 0.52984917 0.27656943
0.56447083 -0.66828591 0.00000000
0.60000306 -0.37053913 -0.00000049
-0.57912940 -0.78632247 0.00000000
-0.30398551 0.43823722 0.14248613
0.75309962 -0.30996776 -0.00000123
0.29310560 0.43440738 0.00000048
0.23545691 -0.28917363 0.00000000
-0.61324465 -0.46348283 -0.00000019
-0.46156079 0.32204714 0.04042393
-0.79562366 -0.42009419 -0.00000047
0.35706338 -0.00338907 -0.00000010
-0.25534487 -0.64594346 0.00000000
-0.46138331 -0.68155235 0.00000000
-0.72776985 -0.52140665 -0.00000035
-0.30007142 -0.41848734 0.00000000
-0.63112271 0.11143413 0.14165965
-0.00464494 -0.58225435 0.00000000
0.45273221 0.14850320 0.00000219
0.43190178 0.20880982 0.00000158
0.63559365 -0.29139376 -0.00000078
-0.76812261 -0.68906760 -0.00000014
-0.08337846 0.28062370 0.00000000
0.74683589 -0.71585852 -0.00000021
0.46061984 -0.19574727 -0.00000021
0.04424665 0.16368601 0.00000888
-0.36122757 -0.49651539 0.00000000
0.61292660 -0.22714330 -0.00000080
0.78906685 -0.06389586 -0.00000184
0.16055581 -0.56131703 0.00000000
-0.66379255 -0.29746318 -0.00000045
0.26164213 -0.02253134 0.00000000
0.53153694 0.03111676 0.00000264
-0.74694687 -0.59436589 -0.00000026
0.37930569 -0.20600589 0.00000000
-0.63380992 -0.29762515 -0.00000038
0.02723239 -0.07034271 0.00000000
0.21696118 0.34199575 0.00000348
-0.32822242 0.11560286 -0.00000010
0.67775816 -0.33189029 -0.00000089
0.30712420 -0.64161164 0.00000000
-0.29342183 0.44030842 0.16342971
-0.31131029 -0.21027459 0.00000000
-0.38296989 0.02011942 -0.00000013
0.41015026 -0.51204282 0.00000000
0.22554117 -0.43683669 0.00000000
-0.25965822 -0.24554326 0.00000000
0.55444551 -0.46791449 -0.00000012
0.60550499 -0.02692683 -0.00000112
-0.42291811 -0.11096453 -0.00000010
-0.51461625 -0.64657015 0.00000000
-0.03717303 -0.04552114 0.00000000
-0.58984226 0.19932000 0.02672532
0.53919870 -0.34606749 -0.00000028
-0.08487131 0.02028860 0.00000000
-0.00564805 -0.21612933 0.00000000
-0.72361094 -0.32894021 -0.00000055
0.53998923 0.08229823 0.00000162
-0.25310576 0.08552914 0.00000000
0.45232296 -0.78572685 0.00000000
0.26749110 -0.33709276 0.00000000
0.12979029 -0.69149488 0.00000000
-0.23857579 -0.67569113 0.00000000
-0.26466930 0.35652918 0.44094223
0.42618957 0.25114298 0.00000098
-0.46444041 -0.35426214 0.00000000
-0.75086379 -0.38918746 -0.00000051
-0.42313907 0.00901866 -0.00000020
0.79137391 -0.32061020 -0.00000120
-0.49895477 0.09956204 -0.00000045
-0.75369632 -0.18133356 -0.00000074
0.23511168 -0.65946221 0.00000000
-0.44764963 -0.07078978 -0.00000019
-0.42113462 -0.08420000 -0.00000012
0.54473442 -0.09856758 -0.00000074
0.23034568 0.15025057 0.00000627
0.12068010 0.66139525 -0.00000000
-0.55001813 -0.07375217 -0.00000040
0.79058480 -0.10712576 -0.00000173
-0.22765927 0.43776217 0.33188474
0.09955930 0.52303571 0.00000265
0.46052778 0.14066885 0.00000217
0.04539165 -0.68356049 0.00000000
0.47124138 -0.33853182 0.00000000
0.26448399 -0.07447599 0.00000000
-0.02397084 0.76592463 0.02492119
0.14636286 -0.64009815 0.00000000
0.16557974 -0.70217013 0.00000000
-0.09870311 -0.38996387 0.00000000
0.29572019 -0.37919456 0.00000000
-0.10858321 -0.66673559 0.00000000
0.00812484 0.72455043 0.00000101
0.79234660 -0.35527650 -0.00000111
-0.02441500 -0.72941452 0.00000000
0.66459489 -0.05155229 -0.00000133
0.15519997 -0.31749389 0.00000000
0.48813906 -0.08344765 -0.00000052
0.49032992 -0.32645279 -0.00000010
-0.71215546 -0.57768399 -0.00000028
-0.17764248 -0.32675940 0.00000000
-0.27643305 0.34970370 0.42876410
0.04987317 -0.63344681 0.00000000
0.07055972 0.32486320 0.00000606
0.65445882 -0.18842009 -0.00000105
-0.73193622 -0.05751495 -0.00000080
-0.77754414 -0.19262016 -0.00000076
0.30524310 -0.67394793 0.00000000
-0.48993161 0.13220730 -0.00000046
-0.06203912 0.72051787 0.04301860
-0.56855965 -0.20278533 -0.00000033
-0.31388435 0.30995038 0.43444121
0.38246617 -0.64724475 0.00000000
-0.51940745 0.23817790 0.10459831
0.64462203 -0.79305351 0.00000000
0.14608620 -0.60187149 0.00000000
0.04136920 -0.08675887 0.00000000
0.12364883 -0.39894992 0.00000000
-0.57536387 0.03855364 -0.00000055
-0.39992839 -0.14774786 -0.00000002
-0.35040513 -0.01491489 -0.00000003
-0.46773171 0.32582548 0.01588778
-0.63900429 0.10885912 0.12857305
-0.05714683 -0.76373750 0.00000000
0.30496687 0.10212026 0.00000580
0.48537847 -0.66753894 0.00000000
-0.02857841 0.28878811 0.00000000
0.71528333 -0.26193404 -0.00000118
0.39773780 -0.00333842 -0.00000028
0.15322238 0.01357904 0.00000948
-0.04913403 -0.35901755 0.00000000
0.11534366 0.67376041 -0.00000011
-0.24754632 0.55126935 0.00292136
-0.51949126 0.24930593 0.07694856
0.35672221 0.30403233 0.00000143
0.24638467 -0.26291335 0.00000000
-0.58630151 -0.51845956 -0.00000009
-0.46779892 0.26272297 0.17134061
0.04015515 -0.32102054 0.00000000
-0.76863027 -0.55703849 -0.00000030
-0.71204054 -0.28032339 -0.00000056
-0.14903824 0.54602820 0.25877759
-0.41831607 -0.35043198 0.00000000
0.14676429 0.24967206 0.00000604
0.62398243 -0.59072429 -0.00000020
-0.12470120 0.61721033 0.14325374
0.21436913 -0.48204935 0.00000000
0.11779410 0.41092166 0.00000406
0.18602774 -0.42560026 0.00000000
-0.64613724 -0.19252259 -0.00000050
0.12912831 0.48997521 0.00000270
-0.68339723 0.11116978 0.01339583
0.51601744 -0.73100609 0.00000000
-0.56098849 0.02952305 -0.00000052
0.09595656 -0.38582262 0.00000000
-0.13181771 -0.70684689 0.00000000
-0.06715178 -0.37654451 0.00000000
0.66159427 -0.23447768 -0.00000099
-0.48721015 -0.44241956 0.00000000
0.24636602 -0.30845258 0.00000000
-0.62714899 -0.53210711 -0.00000016
0.36900020 0.00503999 0.00000619
0.09870884 -0.60792065 0.00000000
-0.21139272 0.52060097 0.16771224
-0.78296381 -0.24377020 -0.00000070
-0.50125539 0.20617799 0.22827940
0.37124556 -0.10710624 0.00000000
0.26973549 -0.37355772 0.00000000
0.66030270 -0.28723851 -0.00000090
0.38677359 -0.30685511 0.00000000
0.38927883 -0.75658417 0.00000000
0.18423685 -0.64285266 0.00000000
-0.41305515 -0.17867076 -0.00000002
0.77531993 -0.69242775 -0.00000027
0.38578495 -0.30670249 0.00000000
0.05450823 0.34330997 0.00000603
0.20765962 -0.36712974 0.00000000
0.18164313 -0.43437290 0.00000000
-0.27413818 -0.16415061 0.00000000
-0.64140528 -0.26868808 -0.00000042
-0.39734030 -0.43418360 0.00000000
0.28942350 -0.59574264 0.00000000
0.25228697 -0.66043770 0.00000000
-0.72125578 -0.42121363 -0.00000046
0.53089869 -0.60284323 0.00000000
-0.77438486 -0.03766512 -0.00000091
0.51834410 -0.16269825 -0.00000051
0.63985151 -0.14345628 -0.00000106
0.11678191 -0.23267424 0.00000000
-0.05999429 0.12215024 0.00000000
0.11763323 0.21109515 0.00000706
0.57454890 -0.68525797 0.00000000
-0.29267588 0.49574882 0.02854649
0.71264249 -0.42887858 -0.00000087
0.52187771 -0.18722591 -0.00000048
-0.70832878 -0.72994912 -0.00000009
-0.41640645 -0.22899105 0.00000000
-0.18644555 -0.42906976 0.00000000
0.31838787 -0.06364387 0.00000000
-0.46712536 -0.07470386 -0.00000022
0.33831295 -0.42710459 0.00000000
0.70235467 -0.22052880 -0.00000119
0.15047248 0.23807181 0.00000616
-0.21878664 0.46560478 0.28510326
-0.33670905 -0.20300749 0.00000000
0.69467801 -0.14522997 -0.00000129
0.47781333 0.23358016 0.00000029
0.45234069 -0.78391272 0.00000000
0.74936414 -0.67310029 -0.00000032
0.03388247 0.04669575 0.00001079
0.33255991 0.31184471 0.00000177
0.46382385 -0.33740765 0.00000000
-0.32357854 0.39655626 0.19695751
-0.19055794 -0.08228482 0.00000000
0.45079210 -0.14173041 -0.00000026
-0.56801677 -0.36219546 -0.00000018
-0.22672635 0.20813039 0.00000000
0.45145896 -0.56381673 0.00000000
-0.69500738 -0.76030940 -0.00000005
-0.03828833 0.28490964 0.00000000
0.30820298 -0.33507243 0.00000000
0.15303919 0.44935164 0.00000292
-0.73947805 -0.26971459 -0.00000063
0.56702322 0.22361290 -0.00000126
0.43351567 0.36383587 -0.00000104
0.51122415 0.04046067 0.00000287
0.79461759 -0.31241104 -0.00000122
0.50300312 -0.09787031 -0.00000056
-0.42635858 0.05496362 -0.00000025
0.76050240 -0.11710478 -0.00000162
-0.36629376 -0.00753430 -0.00000007
-0.70357043 -0.31569543 -0.00000052
0.73859566 -0.60761201 -0.00000048
0.47020966 0.13362239 0.00000210
0.04683384 0.27287376 0.00000720
0.74700046 -0.78499717 -0.00000004
-0.27948314 0.44872013 0.17705999
0.19705980 -0.75983256 0.00000000
0.44691440 -0.37738436 0.00000000
-0.52101922 0.08478861 -0.00000048
0.24618781 -0.49603587 0.00000000
0.46235931 -0.62857056 0.00000000
-0.61423415 0.13211727 0.13230196
0.73300517 -0.62127995 -0.00000045
0.28595895 -0.74546921 0.00000000
0.24399577 0.49260271 0.00000045
0.39022425 0.01452898 0.00000563
-0.18168192 -0.70532525 0.00000000
-0.34063286 0.40254682 0.14012586
-0.30931666 -0.38786638 0.00000000
-0.18288305 0.12097376 0.00000000
0.60226136 -0.77355218 0.00000000
-0.41422155 -0.44090480 0.00000000
0.20054062 -0.63244706 0.00000000
-0.30909860 -0.66193408 0.00000000
-0.27823985 0.41904950 0.25329617
0.24484017 0.17831171 0.00000563
0.37573349 0.21093816 0.00000262
-0.09307495 0.21303788 0.00000000
-0.38729092 -0.40505263 0.00000000
-0.46751520 0.25424308 0.19295275
0.37749556 0.09484768 0.00000453
-0.09153674 0.67191583 0.09013173
0.13453428 0.00884227 0.00000984
0.50874245 -0.64535373 0.00000000
-0.07206132 -0.79244637 0.00000000
-0.08539991 -0.72569418 0.00000000
0.35051060 0.25585356 0.00000236
-0.15247393 -0.54740512 0.00000000
-0.36453682 -0.10676020 0.00000000
0.32676977 0.38159806 0.00000071
-0.24879348 0.36194757 0.46673101
0.65385771 -0.77575892 -0.00000000
0.07931496 -0.39360371 0.00000000
-0.36105558 0.43222275 0.01657627
0.54141968 -0.10362904 -0.00000071
0.42384934 -0.38937268 0.00000000
-0.28717139 -0.19225268 0.00000000
-0.42619482 0.30032054 0.18122150
-0.17457610 -0.38593096 0.00000000
-0.58902085 -0.31405395 -0.00000027
0.29429218 -0.75057864 0.00000000
0.13685197 0.58342826 0.00000099
-0.43145865 -0.75059456 0.00000000
0.79288888 -0.77689207 -0.00000006
-0.24734987 0.07475927 0.00000000
-0.16280109 0.18451039 0.00000000
0.48802304 -0.50834364 0.00000000
-0.69310880 0.01325625 -0.00000078
-0.25505543 -0.43604499 0.00000000
-0.46568581 -0.24222569 -0.00000007
0.12747839 -0.62692994 0.00000000
-0.15537228 0.00480047 0.00000000
-0.11432487 0.18361364 0.00000000
0.10766611 -0.21750681 0.00000000
0.48573548 -0.79328007 0.00000000
-0.02354402 -0.79832441 0.00000000
0.34719673 -0.67697579 0.00000000
-0.41615179 0.28110960 0.25336546
-0.21950792 -0.34609720 0.00000000
-0.39796957 -0.69841450 0.00000000
0.32266068 -0.63840008 0.00000000
-0.21192905 0.47523028 0.27827734
0.34921402 -0.63009626 0.00000000
0.09920955 -0.43485522 0.00000000
-0.70371920 -0.37261575 -0.00000047
0.19486322 -0.19175719 0.00000000
0.11898860 0.49688458 0.00000275
-0.76002657 -0.72540814 -0.00000009
-0.69585443 0.10116280 0.00735328
0.62493581 -0.68308496 -0.00000005
0.60806286 -0.59805709 -0.00000012
0.12183920 0.65483809 0.00000008
-0.44896209 0.34565234 0.01328068
0.57556117 -0.04736343 -0.00000096
0.69684792 -0.33062083 -0.00000098
-0.42103282 0.36057523 0.04535618
-0.21419726 -0.13180777 0.00000000
-0.48668784 -0.38816330 0.00000000
0.10125877 -0.43972167 0.00000000
0.36400524 0.02627398 0.00000593
-0.58114702 0.19485132 0.05918921
-0.63362426 -0.44678631 -0.00000025
-0.09118626 0.70435113 0.01100719
0.53647000 0.08036268 0.00000172
0.14144157 -0.02489778 0.00000000
-0.19026773 0.00201240 0.00000000
0.31801429 -0.55747598 0.00000000
-0.16977267 -0.68612796 0.00000000
0.04453120 -0.38113299 0.00000000
0.77014786 -0.74780446 -0.00000013
-0.49684820 0.25508073 0.11854800
-0.48165041 -0.49861467 0.00000000
-0.47142366 0.28876832 0.09817040
-0.53517669 -0.45756161 -0.00000003
0.19693875 0.16536488 0.00000655
-0.63407159 -0.64931625 -0.00000007
-0.12255477 0.65163255 0.06365887
-0.17119718 -0.10100973 0.00000000
-0.30570075 0.38496152 0.26963919
0.02551394 -0.49407887 0.00000000
0.69893956 0.05370636 -0.00000096
-0.58695525 -0.02583901 -0.00000052
0.72864795 -0.48799843 -0.00000078
0.72792810 -0.21609825 -0.00000131
-0.03870320 0.32407367 0.00000000
-0.10581636 -0.60505348 0.00000000
-0.40730020 0.30988607 0.20422830
-0.23077446 -0.16946825 0.00000000
0.17105176 0.62151831 -0.00000030
-0.26481688 -0.64140552 0.00000000
0.33612227 -0.05137217 0.00000000
-0.08940350 -0.37416732 0.00000000
-0.71529830 0.06187756 0.05628428
-0.14844666 -0.05802680 0.00000000
-0.71544683 -0.55613667 -0.00000030
0.02390867 -0.05701403 0.00000000
0.40947694 -0.08825035 -0.00000018
-0.79909670 -0.73979759 -0.00000008
-0.30542940 0.42551509 0.17029957
-0.26671040 -0.33516011 0.00000000
-0.28947613 0.48047671 0.07410030
-0.18559137 -0.02714318 0.00000000
-0.53043431 -0.66413522 0.00000000
0.08992769 0.24629775 0.00000695
0.26969814 0.02932815 0.00000749
0.61230338 -0.50763267 -0.00000030
-0.34168413 -0.70882738 0.00000000
-0.59121543 -0.71125418 0.00000000
-0.08739210 -0.21137603 0.00000000
0.63209701 -0.05307681 -0.00000119
-0.15069245 0.13630079 0.00000000
-0.42412698 0.22590150 0.36984578
-0.40213171 0.23331566 0.40580386
-0.23751721 -0.32587713 0.00000000
-0.71578169 -0.35267544 -0.00000051
-0.31001812 -0.73060441 0.00000000
-0.69955522 -0.33687362 -0.00000049
0.46014890 -0.71337789 0.00000000
-0.49915025 0.11498359 -0.00000046
-0.58875996 -0.11714611 -0.00000045
-0.17558819 -0.44396922 0.00000000
0.11480948 -0.06728267 0.00000000
0.25741476 0.02171740 0.00000779
0.13500731 0.65271753 -0.00000013
0.46269941 -0.59660512 0.00000000
-0.59340036 0.00799343 -0.00000057
-0.07902401 0.14854193 0.00000000
0.78708267 -0.29110962 -0.00000127
-0.65509248 -0.34688458 -0.00000038
-0.32026404 -0.46944299 0.00000000
0.51685464 -0.39198351 -0.00000010
0.51815224 0.03692060 0.00000280
-0.34336933 -0.57957292 0.00000000
-0.27421650 -0.16065130 0.00000000
0.14319859 -0.45007935 0.00000000
-0.21915546 -0.50449842 0.00000000
0.20282152 0.08378548 0.00000768
-0.14385574 -0.67503762 0.00000000
-0.47514006 0.23094548 0.23160350
-0.38594776 -0.20737401 0.00000000
0.57727373 0.00547670 0.00000219
0.35628098 -0.38941494 0.00000000
0.26659009 0.49267712 0.00000001
-0.43802559 -0.18708581 -0.00000006
0.75974780 -0.72012889 -0.00000020
0.66149259 -0.62440109 -0.00000031
0.65101117 -0.55601388 -0.00000038
0.03250156 0.75850701 0.00000007
0.65478110 0.09927758 -0.00000087
-0.05022574 -0.20433708 0.00000000
-0.00150652 0.18292178 0.00000000
-0.29144716 -0.28703460 0.00000000
0.56765860 -0.28208214 -0.00000051
-0.77864939 -0.74094695 -0.00000007
0.51808286 -0.26242980 -0.00000033
