ply
format ascii 1.0
element vertex 200
property float x
property float y
property float z
end_header
-0.59829801 -0.64407706 -0.00228299
-0.62820202 -0.71662414 0.04910493
-0.25379425 0.21294867 -0.18731324
-0.31250614 0.08736033 -0.30527425
-0.30338928 0.07488634 -0.05342237
-0.33868647 -0.01767096 0.22443284
-0.11257686 0.53548980 -0.05307853
-0.17878169 0.37138966 -0.02188145
-0.54591376 -0.51796806 0.26322034
-0.35932246 -0.06749303 0.26086169
-0.06948965 0.63223326 0.07069934
-0.29238832 0.09411611 0.03966444
-0.30245027 0.07397455 -0.03020664
-0.28707781 0.10692085 0.24012528
-0.48048773 -0.35514477 -0.03528451
-0.12472429 0.51483446 -0.11640355
-0.34280926 -0.00292944 -0.18013984
-0.13467099 0.47487572 0.03836355
-0.25943151 0.20245098 -0.21003836
-0.39965573 -0.14161940 -0.16953991
-0.07170917 0.62687844 0.02594422
-0.07645607 0.61541682 0.04763825
-0.46206236 -0.31553793 0.34200460
-0.47213280 -0.33984017 0.10492974
-0.34270772 -0.02736793 0.08358973
-0.55847460 -0.54829186 0.25301501
-0.25554988 0.18303861 0.19772846
-0.12243200 0.50442040 0.07071602
-0.53264517 -0.45308605 -0.23958918
-0.21027496 0.31739512 -0.18281575
-0.32387853 0.01809053 0.06827374
-0.42987141 -0.18176261 -0.40909579
-0.45739383 -0.30425715 0.10965382
-0.14142632 0.47339818 -0.10826004
-0.19006373 0.35991725 -0.13701588
-0.44864845 -0.28314856 0.21499130
-0.16158596 0.41568640 -0.04221163
-0.34075168 -0.02266766 0.36243922
-0.13081270 0.48419192 0.01835872
-0.24708477 0.20347887 0.14853732
-0.33141881 -0.00011107 0.04190497
-0.24756554 0.21901590 -0.12180158
-0.39564466 -0.15518174 0.13279901
-0.21980900 0.29864547 -0.21397968
-0.28801048 0.10707184 -0.01733349
-0.54057807 -0.49359530 -0.08361146
-0.43770903 -0.22001971 -0.26788655
-0.22283719 0.26787093 -0.04260923
-0.39006537 -0.14171506 0.20020171
-0.48356867 -0.36745116 0.15443002
-0.25841591 0.17611304 0.27938744
-0.37943730 -0.07314062 -0.31317049
-0.38147315 -0.09711581 -0.17397907
-0.41772264 -0.17618161 -0.23566328
-0.11593216 0.52011651 0.01663232
-0.56639582 -0.55296046 -0.10525125
-0.43180272 -0.24248642 0.37827685
-0.24615654 0.23733518 -0.23075403
-0.17502108 0.37745464 0.14372426
-0.34965503 -0.04415137 0.22710371
-0.21629791 0.29211837 -0.10440168
-0.43729800 -0.25575283 0.36849377
-0.33949542 -0.01961891 0.16081101
-0.32757452 0.03745227 -0.20645238
-0.25666732 0.18033716 0.24513735
-0.16719753 0.40229610 -0.04335751
-0.52796566 -0.47463298 0.09628487
-0.16157055 0.40992552 0.15959875
-0.39862174 -0.14091434 -0.15645906
-0.27240643 0.14235809 0.01538108
-0.35761845 -0.05254418 -0.07891203
-0.45391130 -0.29584944 0.10696390
-0.44482413 -0.26562148 -0.06030076
-0.38115370 -0.06967997 -0.36870903
-0.35676116 -0.06131279 0.30185956
-0.58983743 -0.62323517 -0.00532576
-0.38252726 -0.12095968 -0.01843208
-0.56923378 -0.57425946 0.00508567
-0.58882815 -0.59605068 -0.18606696
-0.50451946 -0.39977428 -0.13304988
-0.17657956 0.37370268 0.01042570
-0.65318751 -0.77694333 0.11691313
-0.29106331 0.12041680 -0.16862617
-0.48683989 -0.34775490 -0.20124520
-0.64521831 -0.75770444 0.06823049
-0.38198283 -0.08273364 -0.28799006
-0.46115032 -0.31332937 0.18091229
-0.59179127 -0.62573594 -0.02151012
-0.36343572 -0.03226532 -0.32956719
-0.33422509 0.02633815 -0.24254191
-0.10744551 0.55065161 -0.07333820
-0.38924026 -0.13971914 0.11221191
-0.44088846 -0.26441967 0.33826217
-0.33749893 0.01220025 -0.19700919
-0.23029631 0.26842776 -0.17819446
-0.20373608 0.30813113 0.14441480
-0.28384781 0.13140289 -0.12164078
-0.24389811 0.24327594 -0.23432223
-0.27209613 0.15580811 -0.09268099
-0.49159336 -0.37213665 -0.10699208
-0.47416732 -0.34475017 0.06479086
-0.46447200 -0.28326949 -0.27782166
-0.44126812 -0.26533002 0.19858406
-0.19492251 0.34291261 -0.09849109
-0.22034201 0.26804066 0.15225749
-0.45341811 -0.26090828 -0.24623841
-0.60868996 -0.66951925 0.08583745
-0.22329517 0.26577190 -0.03535373
-0.33347812 -0.00509930 0.25318828
-0.56156230 -0.55232584 -0.02466778
-0.16309623 0.40625077 0.05130232
-0.33931252 -0.01918584 0.26819554
-0.27880788 0.12689784 0.09070349
-0.61702210 -0.68963444 0.08940347
-0.48549011 -0.36215565 -0.07227916
-0.34590077 -0.03509008 0.25497252
-0.45538941 -0.28165501 -0.12948050
-0.61238289 -0.65526026 -0.16894794
-0.52926737 -0.47778112 0.24390277
-0.57477844 -0.57105094 -0.12092736
-0.31743303 0.04202726 -0.06105238
-0.54437655 -0.51425701 0.25531954
-0.22694236 0.25211585 0.02957359
-0.18259688 0.35917109 0.06947461
-0.44096753 -0.25762770 -0.05068495
-0.29122433 0.09691075 0.23544356
-0.12841842 0.48996919 0.05624826
-0.48449507 -0.36968580 0.11157186
-0.34896097 -0.04247506 0.09570590
-0.50414956 -0.41713637 0.11586601
-0.37942788 -0.09942166 -0.12108006
-0.31577006 0.05239013 -0.10741682
-0.45324424 -0.29423645 0.04980397
-0.22523102 0.27314529 -0.12333842
-0.16887511 0.39229429 0.11692744
-0.46313682 -0.31134310 -0.04926027
-0.27245006 0.14223076 0.29412803
-0.27821833 0.12832823 0.00051397
-0.24890222 0.19908437 0.23520423
-0.55416495 -0.50749898 -0.22162193
-0.34762269 -0.03924265 0.06164469
-0.48506534 -0.36454508 -0.04734014
-0.30203858 0.07902074 -0.05980276
-0.31641823 0.04359188 -0.05458683
-0.47008517 -0.33293214 -0.01409947
-0.46492824 -0.32244399 0.04357853
-0.24929930 0.21800128 -0.14496078
-0.18371259 0.37484026 -0.13402411
-0.27363843 0.13937318 0.15022448
-0.47241268 -0.28958124 -0.37173045
-0.19535674 0.32836163 0.12939309
-0.23284945 0.24339114 -0.04035491
-0.46260333 -0.31439418 -0.01757251
-0.33040842 0.00232950 0.02536534
-0.43966404 -0.21351881 -0.34983054
-0.42988068 -0.19152170 -0.33798856
-0.42671612 -0.17989159 -0.36713001
-0.53909647 -0.47608149 -0.18539330
-0.36614782 -0.08396838 0.23105630
-0.55808890 -0.51473677 -0.23794924
-0.37259972 -0.05770190 -0.30536854
-0.48246291 -0.35251746 -0.08929541
-0.35313487 -0.05255236 0.22710988
-0.21183982 0.28857535 0.04062871
-0.20492266 0.30526519 0.16114201
-0.32608134 0.03543432 -0.16538650
-0.09138569 0.58098531 -0.01171691
-0.10801769 0.54217118 -0.02148957
-0.38444346 -0.10004173 -0.20497955
-0.17517468 0.37708068 0.18354359
-0.38523281 -0.12183602 -0.05973259
-0.41644898 -0.19305246 -0.09000022
-0.06187922 0.65758389 -0.05090351
-0.58201402 -0.60511458 0.02068950
-0.23794600 0.22553732 0.20263647
-0.29970399 0.07645645 0.01761433
-0.22783317 0.24994920 0.23319234
-0.21414980 0.30896425 -0.18956114
-0.07146950 0.62745339 0.07243457
-0.14596958 0.44871041 -0.00805799
-0.39391616 -0.10216719 -0.35646334
-0.08515857 0.59440470 0.08110682
-0.47661993 -0.31435499 -0.26498017
-0.52115500 -0.45819145 0.11786200
-0.37754235 -0.11147750 0.10723999
-0.26975346 0.16887641 -0.14682025
-0.13613851 0.47132766 0.10397162
-0.37865934 -0.11418097 0.25949854
-0.59794927 -0.61757314 -0.18970238
-0.35240421 -0.01011152 -0.29686213
-0.24491896 0.24186066 -0.24198514
-0.22836177 0.24867924 0.15487126
-0.47873995 -0.35580018 0.34034708
-0.18382980 0.35619301 0.08950652
-0.51333833 -0.43931904 0.09137693
-0.45307887 -0.24941362 -0.32420287
-0.42671168 -0.23019046 0.26548165
-0.46327063 -0.29759565 -0.15201707
-0.37045628 -0.05503113 -0.28708172
-0.30152062 0.07207053 0.02048221
