ply
format ascii 1.0
element vertex 195
property float x
property float y
property float z
end_header
-0.28816584 0.10430986 0.02383887
-0.44347766 -0.18781418 -0.01122267
-0.19605838 0.32666719 0.08176825
-0.52091211 -0.45760468 0.07885295
-0.74379128 -0.71761155 -0.03767908
-0.31909281 0.39868507 -0.05000758
-0.49108747 -0.24857540 -0.01856503
-0.47881675 -0.35598370 0.25088775
-0.25743192 0.17849328 0.18155472
-0.36787805 -0.08814605 0.02361236
-0.48709324 -0.37595665 0.01968782
-0.36493289 -0.08104864 0.38927144
-0.28598043 0.10957531 0.14919777
-0.50858337 -0.11363852 -0.04257541
-0.58144057 0.01174121 -0.08340167
-0.40770805 -0.18430430 0.02861308
-0.50872964 -0.28435338 -0.01948851
-0.27994251 0.12416398 0.00360451
-0.17777085 0.37081891 0.04929337
-0.24722368 0.20315094 0.02210647
-0.65433049 -0.77970266 0.13695905
-0.36689898 -0.08579099 0.34015432
-0.49541804 -0.39606366 0.28436863
-0.26660535 0.15634543 0.20231746
-0.40855131 -0.18634097 0.05313671
-0.64652622 -0.29734284 -0.06281123
-0.26560283 0.15877301 0.11463889
-0.57071126 -0.51195741 -0.00892288
-0.43432587 -0.03684082 -0.02868792
-0.42926651 -0.23635516 0.14488874
-0.48531225 -0.37165955 0.09173561
-0.43786180 -0.25710338 0.07168413
-0.48114970 -0.36161500 0.22402442
-0.12352944 0.55364823 -0.00702468
-0.27691755 0.13146219 0.05785878
-0.72855890 -0.01219380 -0.12829246
-0.32684144 0.17299633 -0.02195619
-0.49443176 -0.39368263 0.30988345
-0.29881868 0.25219196 -0.02352074
-0.41660973 -0.13280755 -0.00988660
-0.65646189 0.08101815 -0.11733592
-0.46536207 -0.29253346 -0.00419137
-0.25667843 0.18032666 0.00995758
-0.23555368 0.23131652 0.11375528
-0.44892880 -0.28383031 0.31880581
-0.50899041 -0.01478191 -0.05610533
-0.66222250 -0.12043706 -0.09192033
-0.54139638 0.22940309 -0.09979877
-0.28846118 0.10357908 0.23668028
-0.60394025 -0.31104767 -0.04702111
-0.68899423 0.07708962 -0.12744743
-0.75897783 -0.06450747 -0.13115525
-0.41599530 -0.20431627 0.16255213
-0.27518424 0.13563406 0.20874999
-0.44884667 -0.28363299 0.34616163
-0.43139237 -0.24148349 0.03504784
-0.32210317 0.02235658 0.30067614
-0.48666197 -0.17903249 -0.02654138
-0.59650409 -0.64009851 0.04451508
-0.48542574 -0.17773385 -0.02631291
-0.14258836 0.45575494 0.05101304
-0.39029932 -0.03654868 -0.01432331
-0.46834913 -0.33070388 0.00539888
-0.64856225 -0.76577693 0.01624473
-0.43404779 -0.24790409 0.31050292
-0.43560350 -0.25165918 0.29015103
-0.46101245 -0.31299976 0.23376735
-0.20316009 0.30951113 0.21815114
-0.63784766 -0.73991054 0.07582621
-0.78714430 -0.77049130 -0.04469615
-0.46463084 0.07011662 -0.05309526
-0.61524928 -0.54653013 -0.01880923
-0.51383823 -0.01154973 -0.05812941
-0.24312541 0.21303804 0.10315491
-0.35877696 -0.06618669 0.38297495
-0.60503119 -0.52838951 -0.01792453
-0.44393677 -0.27177200 0.13784322
-0.39320374 -0.14928885 0.05770289
-0.23898809 0.22303021 0.05512232
-0.39909124 -0.16350047 0.00002836
-0.27911308 0.12614305 0.28246358
-0.39348066 -0.14995556 0.00601601
-0.61346209 -0.60301298 -0.01057013
-0.51184684 -0.43571648 0.00270335
-0.39570057 -0.15531902 0.12124791
-0.48448750 -0.36966875 0.10106217
-0.35147893 -0.04856003 0.28638244
-0.32620844 0.01244749 0.28044403
-0.23682134 0.22825617 0.11420925
-0.36161622 -0.07303073 0.08105854
-0.33055374 0.09672023 -0.01283342
-0.70299518 -0.36051771 -0.07272496
-0.66144562 -0.10554700 -0.09368401
-0.56010240 -0.19331065 -0.04863401
-0.65734959 -0.78699124 0.14942367
-0.33789921 -0.01577085 0.02544305
-0.55826640 0.17914674 -0.09850728
-0.20696503 0.30034009 0.04213730
-0.15532994 0.42499045 0.10232459
-0.40232664 -0.17132244 0.30809873
-0.71385413 -0.71432036 -0.02833093
-0.32996851 0.00336613 0.32761773
-0.59634572 -0.44113335 -0.02690759
-0.59120548 -0.62730920 0.19269758
-0.37540209 0.26921311 -0.05088408
-0.66124541 -0.42475915 -0.05035985
-0.27529505 0.13537681 0.08604668
-0.44200823 -0.26712406 0.36015490
-0.49678317 -0.36080274 -0.00521979
-0.24741063 0.43478096 -0.03144654
-0.73277396 -0.08648215 -0.11960417
-0.33076987 0.22586584 -0.03040666
-0.41256642 -0.19604553 0.36656287
-0.30120194 0.07282372 0.20222676
-0.37288085 -0.10022526 0.06260636
-0.31257370 0.21711366 -0.02326710
-0.15926312 0.41549554 0.09725423
-0.44415483 -0.27229387 0.00981872
-0.33219424 0.03543991 -0.00506511
-0.29092574 0.09762606 0.27470407
-0.20445932 0.30638668 0.07312779
-0.31087503 0.04946518 0.27604070
-0.50706989 -0.19636445 -0.03086948
-0.38997042 0.10679374 -0.03363857
-0.46279231 0.10254166 -0.05688815
-0.26589409 0.23224899 -0.01004570
-0.29701638 0.08292092 0.29104304
-0.64440674 -0.75574517 0.09561952
-0.17846023 0.36914766 0.13308612
-0.71614963 -0.80035567 -0.01742251
-0.73568517 -0.60193282 -0.05070375
-0.40080109 0.19348179 -0.04893059
-0.25981975 0.23234373 -0.00807114
-0.17691720 0.37287849 0.06470961
-0.62744308 -0.69274545 -0.00298403
-0.24937157 0.32193291 -0.01679433
-0.40148684 -0.09407743 -0.01018742
-0.47972494 -0.35816914 0.05087675
-0.56469238 -0.56329840 0.04748666
-0.77152026 -0.52864105 -0.07235989
-0.04319558 0.69570929 0.00024106
-0.08333945 0.59878927 0.07523928
-0.54151362 -0.50734007 0.05006728
-0.54125720 -0.37638193 -0.01765915
-0.07930553 0.60853004 0.04857292
-0.30845076 0.05533264 0.09767207
-0.51193488 -0.11637941 -0.04330049
-0.32543525 0.01433368 0.04582533
-0.41318801 0.01012086 -0.02813325
-0.62130558 -0.38386971 -0.04283392
-0.38630086 -0.13263372 0.38185480
-0.41517034 -0.20232020 0.03863362
-0.06407430 0.64530116 0.04262415
-0.74232274 0.00533047 -0.13517024
-0.25771418 0.17781536 0.13956936
-0.24949583 0.47823110 -0.03801738
-0.69776165 -0.73790610 -0.01986984
-0.66171515 -0.31334743 -0.06561171
-0.44111618 0.10090226 -0.04957398
-0.26104030 0.28970259 -0.01624407
-0.25911769 0.17442594 0.15304023
-0.37723336 -0.11073381 0.08120416
-0.15250343 0.43180925 0.16028565
-0.59967852 -0.23954087 -0.05531718
-0.04207604 0.69840896 0.03700892
-0.56698495 -0.56883234 0.02455045
-0.51694351 0.05719695 -0.06845996
-0.36745387 -0.08712376 0.07269364
-0.07280138 0.62423438 0.02129272
-0.24981914 0.19687077 0.19321214
-0.77439904 -0.32124016 -0.10140844
-0.09060470 0.58125114 0.05926913
-0.42583048 -0.22806248 0.21843781
-0.28120643 0.12109853 0.17295627
-0.13179515 0.48181093 0.05763900
-0.48602945 -0.23650654 -0.01854573
-0.46599776 -0.32503223 0.14696614
-0.16957465 0.39060625 0.04460750
-0.62151551 -0.70048225 0.13129760
-0.15267840 0.43139237 0.09415254
-0.62436587 0.10743669 -0.11041514
-0.22801700 0.24950157 0.23001143
-0.25184855 0.19196749 0.24090850
-0.14553790 0.44863036 0.09799311
-0.46401903 -0.11827657 -0.02736673
-0.59938037 0.09987084 -0.10121503
-0.44620484 -0.11708637 -0.02169974
-0.47389644 -0.11860052 -0.03055443
-0.31651527 0.03585126 0.24586439
-0.35401249 -0.05466723 0.17613968
-0.45770285 -0.30501339 0.34043002
-0.58736378 -0.61803079 0.01426491
-0.22927162 0.24648817 0.04499718
-0.74318391 -0.36707884 -0.08498416
-0.39111993 -0.14426383 0.21835305
