ply
format ascii 1.0
element vertex 1119
property float x
property float y
property float z
end_header
-0.34015161 -0.06940034 0.08481533
-0.55472302 -0.26511979 0.13831846
-0.46119529 0.02825026 0.11499319
-0.54066575 -0.61199182 0.13481265
-0.21270378 0.48452383 0.05303571
-0.27331528 0.47388801 0.06815004
-0.16812629 -0.17524190 0.04192156
-0.06713289 0.28673825 0.01673267
-0.04286277 0.15881212 0.01067881
-0.34503421 -0.66867840 0.08603279
-0.06949244 -0.35797286 0.01732764
-0.32112107 -0.50575346 0.08007015
-0.58369374 -0.47523090 0.14554188
-0.77213305 -0.38786751 0.19252937
-0.48573852 0.12287653 0.12111516
-0.03480059 0.12126176 0.00866788
-0.32332107 -0.64232421 0.08061871
-0.57114249 -0.47651929 0.14241222
-0.11977186 0.00887251 0.02985461
-0.48148543 0.00140336 0.12005241
-0.67291921 -0.23530445 0.16779086
-0.01089806 0.73601890 0.00271659
-0.19489309 -0.76963085 0.04859575
-0.11322253 -0.07793890 0.02823155
-0.55921930 0.19123133 0.13944007
-0.44917428 -0.64435428 0.11199967
-0.44252929 0.24102461 0.11034230
-0.18541601 -0.46557578 0.04623268
-0.04786015 0.00355118 0.01192268
-0.13148403 -0.77010947 0.03278497
-0.25009057 0.02105583 0.06235097
-0.07465929 0.29218683 0.01860953
-0.05929967 -0.48466921 0.01478612
-0.26456761 -0.65602970 0.06596879
-0.10232135 0.09201617 0.02550438
-0.46974003 -0.45880449 0.11712764
-0.00626379 0.79240310 0.00156185
-0.32336223 0.11480748 0.08062369
-0.38869959 -0.40825051 0.09692056
-0.10097841 -0.02286770 0.02517853
-0.33819419 -0.57413572 0.08432726
-0.46557057 -0.42494044 0.11608801
-0.44314685 -0.03785345 0.11049731
-0.46625161 0.20042787 0.11625715
-0.38390067 0.39828080 0.09572506
-0.22716647 0.03263758 0.05663480
-0.00345805 0.63424712 0.00085986
-0.37176448 0.13558418 0.09269400
-0.06092970 0.21828412 0.01518485
-0.74134398 -0.57405847 0.18485168
-0.64338094 0.07863687 0.16042522
-0.56992000 0.16021100 0.14210792
-0.58295673 -0.57298172 0.14535791
-0.07870942 0.20515490 0.01961819
-0.44295800 -0.42680064 0.11044966
-0.18186052 -0.64565903 0.04534613
-0.35446844 -0.72577584 0.08838517
-0.42447156 0.05882458 0.10583605
-0.45233288 0.31091642 0.11278825
-0.61210173 -0.21418190 0.15262599
-0.65968502 -0.74489009 0.16448978
-0.62495804 -0.63110501 0.15583085
-0.08787533 -0.49236435 0.02191133
-0.04037256 -0.49927047 0.01006672
-0.57942480 -0.50741214 0.14447735
-0.41465318 -0.71140063 0.10339198
-0.26062220 0.44559586 0.06498430
-0.38721910 -0.33239740 0.09655141
-0.32251588 -0.57618564 0.08041794
-0.15534928 -0.53806520 0.03873567
-0.73656243 -0.56460822 0.18365943
-0.19331099 -0.67443913 0.04820126
-0.03527871 0.60369158 0.00879419
-0.14247309 0.10906537 0.03551684
-0.61651427 -0.58561003 0.15372548
-0.21081688 -0.72064829 0.05256628
-0.58992738 -0.59028327 0.14709601
-0.13352649 0.58872145 0.03329335
-0.04322146 0.14554872 0.01076806
-0.03562958 -0.48954508 0.00888408
-0.20367756 -0.47137129 0.05078612
-0.31049168 -0.59625202 0.07741976
-0.30419081 0.29022139 0.07584610
-0.00730094 -0.14548282 0.00182046
-0.33174220 0.21123545 0.08271511
-0.52663225 -0.45962235 0.13131358
-0.69943053 -0.15416732 0.17440166
-0.45928833 0.06275900 0.11451827
-0.16892426 0.60824144 0.04212074
-0.20708616 0.41595092 0.05163364
-0.71298552 -0.38847375 0.17778111
-0.04673395 -0.01849561 0.01165291
-0.57537860 -0.15601422 0.14346918
-0.02646619 0.05308244 0.00658862
-0.37125525 0.33115783 0.09257051
-0.57327306 -0.51961422 0.14294338
-0.27586794 -0.02552678 0.06878648
-0.56001216 0.17336339 0.13963747
-0.08474021 0.22088838 0.02112225
-0.14438339 -0.74577993 0.03600137
-0.49293035 -0.61713022 0.12291005
-0.01992529 0.15339237 0.00495906
-0.67294598 -0.47621199 0.16779703
-0.21152724 0.07245096 0.05273560
-0.44084358 -0.46706086 0.10992244
-0.39307436 0.06889712 0.09800679
-0.23344983 -0.33255994 0.05820971
-0.29465213 -0.66969854 0.07347024
-0.70394593 -0.10999376 0.17552768
-0.64151484 -0.07596015 0.15996048
-0.38158143 -0.04056309 0.09514591
-0.56811440 -0.43258315 0.14165726
-0.50254679 -0.35115415 0.12530808
-0.25697282 -0.61242455 0.06407506
-0.50689220 -0.24950118 0.12639183
-0.16455272 -0.14285442 0.04103051
-0.18004094 -0.57902467 0.04489243
-0.26066712 -0.50909340 0.06499622
-0.12841853 -0.67482579 0.03202060
-0.56247830 -0.39154565 0.14025198
-0.59430736 -0.28190964 0.14818881
-0.71180302 -0.45826885 0.17748605
-0.76875675 -0.49142265 0.19168720
-0.02802139 -0.68356133 0.00698701
-0.70838594 -0.24953526 0.17663449
-0.16694450 -0.14655726 0.04162689
-0.00587530 0.78681052 0.00146487
-0.03044787 -0.38847214 0.00759204
-0.52073538 -0.61084986 0.12984312
-0.23358051 0.44259885 0.05824093
-0.09823996 0.35707432 0.02449054
-0.74002504 -0.32360974 0.18452351
-0.43308246 -0.27116713 0.10798725
-0.00939866 0.26799446 0.00233583
-0.47385770 0.01955997 0.11815062
-0.76070541 -0.16503274 0.18968055
-0.37782818 -0.54783064 0.09420982
-0.27797070 -0.12717369 0.06931079
-0.60168964 -0.58840400 0.15002893
-0.74937862 -0.61648184 0.18685497
-0.33764401 -0.28726310 0.08419007
-0.71001726 -0.13369358 0.17704152
-0.44269317 0.31388643 0.11038447
-0.55232048 -0.69893420 0.13771874
-0.50387108 -0.77871162 0.12563808
-0.41172451 -0.23798992 0.10266173
-0.49266756 0.14747186 0.12284347
-0.16597678 0.26011813 0.04137992
-0.68944997 -0.07041713 0.17191318
-0.26475096 -0.43650472 0.06601450
-0.63989586 0.00081509 0.15955476
-0.00561085 0.26748899 0.00139130
-0.49953064 0.03004790 0.12455281
-0.01695080 -0.22389603 0.00422661
-0.41923630 -0.78008968 0.10453476
-0.67099625 -0.48819408 0.16731082
-0.55867332 -0.77089632 0.13930278
-0.52448869 -0.32608080 0.13077936
-0.30510759 -0.26022214 0.07607726
-0.19614635 -0.46592224 0.04890825
-0.50777471 -0.18556722 0.12661202
-0.37783077 0.09621348 0.09420603
-0.57534027 -0.29280439 0.14345933
-0.01074477 0.18511473 0.00267028
-0.15924919 0.59199291 0.03970781
-0.73677874 -0.51277083 0.18371353
-0.32195833 -0.73888385 0.08027892
-0.48222867 -0.46814579 0.12024163
-0.62490916 -0.38772252 0.15581919
-0.70796371 -0.00130579 0.17652974
-0.05587990 0.24955443 0.01392609
-0.17594263 -0.79478347 0.04387053
-0.40528139 0.21060182 0.10105336
-0.34460199 0.33392671 0.08592410
-0.11046360 -0.69087684 0.02754362
-0.37286541 0.38570365 0.09297300
-0.08903358 -0.65992254 0.02220014
-0.57950413 -0.33796972 0.14449750
-0.47104922 -0.29401618 0.11745425
-0.49877465 0.27902511 0.12436873
-0.72208279 -0.28835407 0.18004975
-0.73177385 -0.62990868 0.18246524
-0.45243517 -0.27535519 0.11281286
-0.49761921 -0.24011561 0.12407962
-0.06229924 -0.62235737 0.01553405
-0.53647703 -0.00787229 0.13376935
-0.30968726 -0.79717320 0.07721918
-0.09126090 -0.73533773 0.02275551
-0.25663587 -0.21139143 0.06399105
-0.75678325 -0.07251244 0.18870278
-0.00904644 -0.06346774 0.00225569
-0.24991126 -0.10408974 0.06231429
-0.46507904 -0.55320221 0.11596545
-0.36419883 -0.50855303 0.09081140
-0.38119254 0.05951999 0.09504369
-0.74025857 -0.79233086 0.18458042
-0.24027368 0.20658313 0.05990578
-0.09192306 -0.41726866 0.02292062
-0.36267129 -0.50696862 0.09043051
-0.35392416 -0.47865164 0.08824946
-0.07316593 0.02595940 0.01823324
-0.32945773 -0.12540744 0.08214886
-0.08599549 -0.68046784 0.02144260
-0.12737520 -0.45979178 0.03176046
-0.45107844 0.10741181 0.11247179
-0.37324640 0.27791470 0.09306608
-0.52234232 -0.13628721 0.13024457
-0.57616383 -0.28337371 0.14366470
-0.55867910 -0.27590647 0.13930489
-0.62663633 -0.30323270 0.15625004
-0.26983380 -0.54242450 0.06728189
-0.32754597 -0.16540900 0.08167217
-0.02358202 0.28457204 0.00587283
-0.05001835 -0.31734425 0.01247186
-0.15016326 -0.07304058 0.03744256
-0.50451249 -0.08714910 0.12579879
-0.04579423 0.02351507 0.01140782
-0.34687474 -0.02338407 0.08649180
-0.15475297 0.13818640 0.03857937
-0.61571789 -0.23229247 0.15352766
-0.71082848 -0.39902839 0.17724322
-0.61623979 -0.77586716 0.15365674
-0.77445954 -0.20353594 0.19310999
-0.16787055 -0.34239835 0.04185779
-0.76502115 -0.24670249 0.19075643
-0.32355303 -0.76774710 0.08067655
-0.23059776 -0.60000467 0.05749855
-0.49435338 0.23062123 0.12326534
-0.01898668 0.63488883 0.00473208
-0.71624523 -0.58798116 0.17859334
-0.61744756 -0.32630587 0.15395875
-0.33277658 0.36844710 0.08297585
-0.13610610 0.21484604 0.03393073
-0.48653594 -0.04898577 0.12131641
-0.18530484 -0.52813923 0.04620496
-0.01872587 0.30030712 0.00466213
-0.22412784 -0.06154065 0.05588531
-0.75318915 -0.20040600 0.18780628
-0.31512031 -0.29725823 0.07857389
-0.55073482 -0.10845538 0.13732433
-0.11188988 -0.27271444 0.02789926
-0.22463885 -0.72923571 0.05601272
-0.37305966 -0.68994164 0.09302081
-0.65518969 -0.04623995 0.16337039
-0.19563220 0.30250764 0.04877540
-0.29787540 -0.75512201 0.07427395
-0.05154602 -0.05161885 0.01285278
-0.08529070 -0.39120242 0.02126687
-0.51540184 -0.29649937 0.12851362
-0.47678027 -0.64170706 0.11888310
-0.03824291 -0.41551247 0.00953570
-0.23719613 -0.57204348 0.05914383
-0.30161473 -0.57086831 0.07520633
-0.46695313 -0.37868747 0.11643275
-0.11544659 0.14580581 0.02877807
-0.11415309 -0.33686531 0.02846358
-0.10733982 -0.11534700 0.02676472
-0.08189639 0.41258764 0.02041594
-0.41875643 -0.59025514 0.10441510
-0.41381630 -0.63015985 0.10318330
-0.57613319 0.08830455 0.14365602
-0.43652242 -0.15815105 0.10884525
-0.09803865 -0.44158146 0.02444551
-0.38459313 0.32641709 0.09589645
-0.17026697 -0.69776034 0.04245533
-0.19269390 -0.72182518 0.04804739
-0.23637232 -0.03277640 0.05893841
-0.19555855 -0.04550889 0.04876168
-0.64294851 0.11645556 0.16031806
-0.24835613 0.10233673 0.06191967
-0.22742572 -0.70997542 0.05670762
-0.04806127 -0.30419326 0.01198387
-0.41287366 -0.35882384 0.10294826
-0.11895612 -0.48265651 0.02966120
-0.42099938 -0.08667154 0.10497472
-0.18168540 0.58367860 0.04530252
-0.43716145 0.11636554 0.10900152
-0.04378932 -0.72076052 0.01091868
-0.41828468 -0.19791433 0.10429757
-0.25151348 -0.20128077 0.06271380
-0.07755864 0.21083409 0.01933132
-0.28882506 -0.30896279 0.07201728
-0.30466822 0.09745934 0.07596171
-0.16973437 -0.70344096 0.04232253
-0.25799516 -0.49506867 0.06432998
-0.74754673 -0.01307539 0.18639977
-0.62129086 0.00701906 0.15491541
-0.43545705 -0.62389249 0.10857933
-0.69041568 0.00221029 0.17215277
-0.14445992 -0.38989285 0.03602046
-0.30340898 -0.76256722 0.07565372
-0.40065491 -0.46346223 0.09990157
-0.30378661 -0.42933723 0.07574788
-0.41407359 0.02067323 0.10324245
-0.12689663 -0.56762189 0.03164113
-0.11101801 -0.20083652 0.02768186
-0.59082568 -0.77625024 0.14731982
-0.07354742 0.45173988 0.01833462
-0.19148526 -0.06313092 0.04774602
-0.72500956 -0.63686711 0.18077855
-0.02071414 0.06489850 0.00515447
-0.41897595 -0.48445153 0.10446984
-0.58641702 -0.50159210 0.14622088
-0.18005390 -0.33463100 0.04489566
-0.14464474 0.38392889 0.03606240
-0.03228927 -0.29147360 0.00805119
-0.55106390 -0.02516636 0.13740656
-0.21187855 -0.37936440 0.05283100
-0.29188412 0.45104375 0.07278009
-0.70089346 -0.29275814 0.17476614
-0.17567693 0.55871171 0.04380375
-0.05963330 0.05945802 0.01485924
-0.39992404 -0.48674184 0.09971933
-0.47206584 -0.74019766 0.11770757
-0.38120952 -0.54798859 0.09505294
-0.12057918 0.13444819 0.03005777
-0.33519462 -0.28255323 0.08357933
-0.57748932 0.10615917 0.14399450
-0.58986914 0.07893905 0.14708114
-0.24176270 0.52992886 0.06028286
-0.56847107 -0.21985897 0.14174666
-0.70831078 -0.51676112 0.17661512
-0.31324431 -0.63993222 0.07810612
-0.68201083 0.07126544 0.17005812
-0.31307572 -0.04159653 0.07806407
-0.06278806 -0.09559775 0.01565593
-0.40053776 -0.39461625 0.09987236
-0.10036281 -0.74582183 0.02502503
-0.28840488 -0.18958129 0.07191251
-0.69911474 -0.62596732 0.17432180
-0.37516895 -0.09411592 0.09354684
-0.16560885 -0.48141420 0.04129385
-0.00009142 -0.06247103 0.00002279
-0.50323677 -0.78699613 0.12547991
-0.26809782 -0.51902783 0.06684903
-0.39005703 -0.29133108 0.09725903
-0.56709588 -0.75805336 0.14140292
-0.76612681 -0.79035294 0.19103059
-0.36665097 -0.26429886 0.09142283
-0.77618158 -0.33733371 0.19353898
-0.72500747 -0.50447959 0.18077841
-0.35735396 -0.55258870 0.08910466
-0.18620019 -0.49399331 0.04642821
-0.59561151 -0.46651170 0.14851362
-0.12187779 0.07213394 0.03038067
-0.77563936 -0.13259766 0.19340436
-0.60201019 -0.18931521 0.15010972
-0.71196705 -0.00468878 0.17752796
-0.10198533 0.20521155 0.02542226
-0.08347757 -0.78349143 0.02081477
-0.12888460 -0.65846449 0.03213682
-0.19817512 0.55822515 0.04941405
-0.36875582 -0.20462030 0.09194767
-0.75167179 -0.07839353 0.18742822
-0.11421734 -0.39552262 0.02847960
-0.20206454 -0.00553446 0.05038392
-0.22487916 -0.05555002 0.05607265
-0.12571853 0.61575139 0.03134679
-0.13060033 0.11812884 0.03255640
-0.49168563 0.06073390 0.12259706
-0.40301788 -0.18255121 0.10049081
-0.09374144 0.43409568 0.02336993
-0.65031672 0.03765405 0.16215403
-0.20239782 0.27639651 0.05046209
-0.11644106 0.56300551 0.02903235
-0.31388924 -0.31864485 0.07826693
-0.01483620 0.40368044 0.00369372
-0.25709546 -0.69638771 0.06410564
-0.33695680 -0.20389764 0.08401872
-0.35673711 0.21291085 0.08894804
-0.01733206 0.33320239 0.00431506
-0.72165781 -0.56131351 0.17994303
-0.37106472 0.26155427 0.09252175
-0.07880505 0.70633185 0.01964972
-0.16404386 0.03789413 0.04089467
-0.58856034 -0.76305848 0.14675498
-0.50747859 -0.31704298 0.12653790
-0.01354409 -0.09844847 0.00337716
-0.58340335 0.02549862 0.14546783
-0.47220349 0.25062937 0.11774225
-0.28608468 -0.69370544 0.07133398
-0.09183118 -0.59249169 0.02289771
-0.32298952 0.27718768 0.08053365
-0.01126217 0.46863726 0.00280346
-0.49602449 0.03438556 0.12367856
-0.29717934 -0.38120246 0.07410039
-0.41911405 -0.78198022 0.10450428
-0.28518525 -0.50442868 0.07110971
-0.23640770 -0.18795417 0.05894724
-0.25465462 -0.73720419 0.06349703
-0.24803543 -0.41906476 0.06184656
-0.59918416 0.17184500 0.14940566
-0.19072945 -0.03662544 0.04755757
-0.31248391 0.16461819 0.07791189
-0.72395307 -0.03637275 0.18051663
-0.64164662 -0.75008386 0.15999191
-0.28485706 0.26715204 0.07102449
-0.64100897 -0.47137800 0.15983351
-0.33921406 0.20795041 0.08457829
-0.38125134 0.38360423 0.09506414
-0.67900991 -0.13622230 0.16930979
-0.15754268 -0.50864911 0.03928259
-0.59126228 -0.37588245 0.14742932
-0.43318856 -0.14871354 0.10801397
-0.46668097 -0.09333076 0.11636545
-0.37886542 0.05550241 0.09446331
-0.55341810 -0.45696867 0.13799267
-0.67150480 0.07382473 0.16743830
-0.08558029 0.45401934 0.02133516
-0.64286697 -0.67393404 0.16029637
-0.34552431 -0.74267435 0.08615499
-0.76032752 -0.56471044 0.18958519
-0.02450941 -0.11021344 0.00611132
-0.51612431 -0.45667031 0.12869343
-0.28086126 -0.60323179 0.07003154
-0.62445503 -0.35739699 0.15570600
-0.10881615 -0.60249245 0.02713284
-0.63766330 0.08681330 0.15899958
-0.09163905 -0.34552220 0.02284980
-0.25272465 0.07195176 0.06300855
-0.65600270 -0.01212319 0.16357319
-0.34424436 -0.33502859 0.08583584
-0.00167099 0.35238898 0.00041010
-0.12761536 -0.23936768 0.03182034
-0.50386167 0.08856538 0.12563387
-0.39683145 -0.34997195 0.09894820
-0.12114039 0.24167340 0.03019928
-0.23690242 0.17689359 0.05906467
-0.50329375 -0.60592222 0.12549412
-0.61837649 -0.23528709 0.15419059
-0.49652979 -0.33966842 0.12380776
-0.26893598 -0.13537432 0.06705803
-0.51572734 0.16694321 0.12859417
-0.41553959 -0.14163411 0.10361319
-0.61767715 0.03011029 0.15401468
-0.53603292 0.12826283 0.13365702
-0.42265838 -0.49882737 0.10538804
-0.03219799 -0.02772299 0.00802843
-0.23532867 -0.76881403 0.05867819
-0.59549135 -0.09661480 0.14848444
-0.61085963 -0.29441807 0.15231612
-0.47985744 -0.69116122 0.11965038
-0.29557398 -0.69839638 0.07370009
-0.32191831 -0.24584781 0.08026894
-0.34615621 0.25103542 0.08631019
-0.44492343 -0.16432047 0.11094004
-0.52443367 -0.06834544 0.13076620
-0.42012691 -0.29867038 0.10475683
-0.00460317 0.54737771 0.00114413
-0.55588520 0.13580549 0.13860767
-0.69482273 -0.67429167 0.17325146
-0.14973608 0.57461101 0.03733524
-0.01471059 -0.40198085 0.00366802
-0.20421249 0.06014500 0.05091141
-0.32674405 -0.00050322 0.08147225
-0.00004385 -0.71955854 0.00001093
-0.08288168 -0.11603581 0.02066619
-0.06417546 0.18538162 0.01599372
-0.03926147 -0.28940201 0.00978968
-0.15785585 -0.67651486 0.03936067
-0.13353834 -0.15056428 0.03329721
-0.10920133 -0.68674606 0.02722888
-0.30098665 -0.53106946 0.07504972
-0.70435143 -0.05495305 0.17562890
-0.37573847 -0.50355029 0.09368876
-0.34947360 0.41020116 0.08714029
-0.21324079 -0.48671648 0.05317067
-0.05868136 -0.13956521 0.01463194
-0.29947111 0.37214419 0.07467063
-0.30577767 0.43925434 0.07624448
-0.62873608 -0.15194070 0.15677392
-0.48535821 -0.74715501 0.12102197
-0.06407734 0.61905581 0.01597562
-0.30971742 -0.15414242 0.07722670
-0.26499996 -0.09048945 0.06607659
-0.73536253 -0.50019413 0.18336043
-0.17576471 0.44068849 0.04382354
-0.19867964 0.54021114 0.04953954
-0.05281868 -0.21158554 0.01317011
-0.37711734 -0.17867567 0.09403258
-0.21042839 -0.20457719 0.05246941
-0.70200509 0.00612029 0.17504285
-0.41820896 -0.50420499 0.10427860
-0.37371385 0.11769751 0.09317979
-0.07253114 -0.53275287 0.01808533
-0.06185839 0.01085610 0.01541338
-0.08577545 0.54718900 0.02138519
-0.22010481 0.09138665 0.05487478
-0.00559712 -0.64316505 0.00139562
-0.13409357 -0.32007656 0.03343565
-0.35066485 0.39890802 0.08743714
-0.29563928 -0.78192949 0.07371638
-0.61219382 0.15679550 0.15264957
-0.03935693 -0.75686568 0.00981348
-0.40111724 -0.39626342 0.10001685
-0.35502148 0.06608499 0.08851760
-0.55348378 -0.52861953 0.13800889
-0.18409514 -0.56006962 0.04590333
-0.27932978 -0.03071282 0.06964967
-0.49019328 0.13712172 0.12222629
-0.03779615 0.40560046 0.00941903
-0.50797379 0.10255701 0.12665954
-0.00001144 -0.24622951 0.00000285
-0.03621189 0.12072923 0.00901980
-0.69233394 -0.02288830 0.17263240
-0.22593713 -0.45979398 0.05633645
-0.21386157 0.03666708 0.05331716
-0.41517261 0.08893164 0.10351773
-0.10982105 -0.13026080 0.02738340
-0.60280520 0.03591451 0.15030620
-0.27381471 -0.63217932 0.06827452
-0.30900925 -0.77363372 0.07705012
-0.64027566 -0.25340489 0.15965112
-0.16506056 0.49381584 0.04115522
-0.41546878 -0.41789475 0.10359534
-0.58749849 -0.27841321 0.14649102
-0.35028961 -0.67204219 0.08734320
-0.01551429 -0.75612909 0.00386842
-0.04689916 0.05331865 0.01168378
-0.21930093 0.14100692 0.05467505
-0.32446295 -0.74303603 0.08090344
-0.37158456 -0.31231055 0.09265300
-0.11555746 -0.29022518 0.02881375
-0.71221942 -0.77140331 0.17758898
-0.01727714 0.71347171 0.00430695
-0.15646763 -0.39973670 0.03901453
-0.06320747 0.29567891 0.01575397
-0.40851319 -0.05994007 0.10186133
-0.60753030 -0.51250553 0.15148547
-0.65516400 -0.74421394 0.16336247
-0.45335525 -0.10055752 0.11304266
-0.31597811 -0.47595638 0.07878778
-0.01310102 -0.49686295 0.00326668
-0.48447877 -0.31770098 0.12080287
-0.34873739 -0.33939165 0.08695616
-0.63769859 -0.33744541 0.15900834
-0.24811466 0.01914304 0.06185823
-0.57420129 -0.03116133 0.14317589
-0.60820520 -0.22262810 0.15165438
-0.34470057 -0.77739984 0.08594960
-0.37954518 -0.24638338 0.09463795
-0.01190151 -0.43709773 0.00296759
-0.09676963 -0.72597104 0.02412909
-0.05488542 -0.29122320 0.01368544
-0.41252255 0.35306415 0.10286161
-0.02966453 -0.20156376 0.00739672
-0.59596419 -0.07631606 0.14860240
-0.40919891 -0.67704284 0.10203198
-0.68696368 -0.17069969 0.17129299
-0.54378331 -0.37281173 0.13559040
-0.37929425 0.34908402 0.09457549
-0.33201334 -0.36463964 0.08278609
-0.23393101 -0.69283205 0.05832969
-0.72028154 -0.53665149 0.17959993
-0.71090329 -0.11858210 0.17726249
-0.32896718 -0.72260344 0.08202655
-0.34739244 -0.67985225 0.08662080
-0.40616691 -0.38235441 0.10127596
-0.33643028 0.14723322 0.08388302
-0.34805599 -0.61156529 0.08678625
-0.05041862 -0.38217816 0.01257167
-0.68503213 -0.17716894 0.17081136
-0.13796514 0.28694651 0.03439536
-0.30461720 0.47979760 0.07595581
-0.15805790 -0.47625041 0.03941105
-0.34978446 -0.33361590 0.08721724
-0.16596256 -0.47830832 0.04138205
-0.59388155 -0.13748685 0.14808296
-0.10658463 -0.43517327 0.02657642
-0.66235584 -0.76580673 0.16515568
-0.02352568 0.41892698 0.00586075
-0.11741136 0.51060480 0.02927337
-0.35065907 -0.75696152 0.08743532
-0.16718093 -0.44882071 0.04168584
-0.35922563 -0.56161994 0.08957136
-0.61558926 -0.39165577 0.15349524
-0.17110103 0.08176497 0.04265509
-0.69767731 0.01078883 0.17396374
-0.13473576 -0.50891268 0.03359578
-0.47829089 -0.11922849 0.11926034
-0.71310771 -0.39394420 0.17781155
-0.51961285 -0.76772749 0.12956323
-0.04322125 0.23286036 0.01076929
-0.37799168 -0.73822737 0.09425059
-0.59923595 -0.64859593 0.14941698
-0.35985905 0.40257061 0.08972994
-0.18254097 0.47697675 0.04551396
-0.04132455 -0.35804525 0.01030410
-0.76395738 -0.46860966 0.19049054
-0.20888068 0.27979651 0.05207870
-0.74764341 -0.09460790 0.18642370
-0.26535639 -0.39333180 0.06616547
-0.60567969 -0.05479760 0.15102500
-0.12374501 0.26567882 0.03084912
-0.52591419 -0.40571281 0.13113464
-0.71061170 -0.15085189 0.17718969
-0.17291346 -0.60363132 0.04311522
-0.62278849 -0.12847921 0.15529095
-0.46137366 -0.75725836 0.11504153
-0.15908328 0.38058326 0.03966273
-0.50378644 0.11716385 0.12561563
-0.07129681 0.61705309 0.01777584
-0.70320278 -0.12445256 0.17534234
-0.76338345 -0.67558855 0.19034687
-0.62680948 0.09796275 0.15629318
-0.09873638 0.36191103 0.02461440
-0.31576136 0.08495951 0.07872776
-0.53838497 -0.48266217 0.13424408
-0.01672805 0.09029656 0.00416087
-0.41640997 -0.17914997 0.10383014
-0.46103975 -0.19348271 0.11495859
-0.39179102 0.06641169 0.09768672
-0.30949533 0.16360679 0.07716661
-0.19993591 -0.03303511 0.04985316
-0.10171567 -0.43561271 0.02536236
-0.36114475 0.37705606 0.09005010
-0.08203895 0.68975657 0.02045585
-0.18109655 0.30026114 0.04515077
-0.30504039 0.14282031 0.07605533
-0.30661693 0.05211618 0.07644685
-0.18254511 -0.13151310 0.04551683
-0.64829171 -0.28245941 0.16164987
-0.63435721 -0.00634367 0.15817587
-0.24087805 0.42130128 0.06006032
-0.47584832 -0.78897113 0.11865072
-0.13396691 0.38383693 0.03339978
-0.23893982 -0.27921993 0.05957861
-0.12230255 0.58747363 0.03049445
-0.32924813 -0.02401766 0.08209660
-0.59552062 -0.24329346 0.14849143
-0.27885377 0.40298477 0.06952989
-0.31390050 -0.38236108 0.07826973
-0.12932186 -0.29973605 0.03224585
-0.08118773 -0.40509179 0.02024381
-0.66845071 -0.45062560 0.16667616
-0.27396101 0.06265138 0.06830389
-0.18757285 0.32955435 0.04676613
-0.06923871 -0.44206232 0.01726437
-0.74070990 -0.66439605 0.18469331
-0.37265757 -0.69941193 0.09292055
-0.69400680 -0.25962412 0.17304902
-0.61004859 -0.57940120 0.15211327
-0.49223167 -0.40142050 0.12273589
-0.06515777 -0.41955084 0.01624681
-0.40720251 -0.01168396 0.10153461
-0.13413815 -0.30025846 0.03344677
-0.47118762 -0.15627669 0.11748905
-0.35003626 -0.73047251 0.08728003
-0.36685044 0.25672451 0.09147076
-0.45472974 0.27977550 0.11338539
-0.69849467 0.05244702 0.17416830
-0.04902545 -0.11667464 0.01222428
-0.50750577 -0.29884201 0.12654471
-0.38981983 -0.32630071 0.09719989
-0.77073491 -0.25086266 0.19218111
-0.27013922 0.42744985 0.06735721
-0.68561810 -0.32270265 0.17095716
-0.37151343 0.02525627 0.09262943
-0.54685462 -0.00861983 0.13635702
-0.20941719 0.31985784 0.05221320
-0.72051173 -0.15311573 0.17965828
-0.20542017 0.54431415 0.05122048
-0.24818228 0.02545548 0.06187519
-0.61967283 -0.03085909 0.15451425
-0.19303951 -0.48313183 0.04813356
-0.68347299 -0.54976523 0.17042179
-0.02741209 -0.66057408 0.00683509
-0.60911143 -0.67831397 0.15187939
-0.72267318 -0.11115673 0.18019731
-0.01097938 -0.35725975 0.00273766
-0.48227391 -0.39239377 0.12025293
-0.13105638 -0.47949970 0.03267834
-0.49087581 -0.77637178 0.12239776
-0.23300976 -0.64452893 0.05809997
-0.74861634 0.02213891 0.18666646
-0.59098464 0.07090336 0.14735916
-0.55791873 -0.39093959 0.13911504
-0.08050414 0.58213085 0.02007126
-0.51772213 0.18208893 0.12909187
-0.47811639 -0.57527947 0.11921625
-0.03587896 -0.32093188 0.00894626
-0.59813255 -0.24717174 0.14914271
-0.38775164 -0.27465376 0.09668419
-0.63297945 -0.65183175 0.15783095
-0.04099692 0.70730042 0.01022163
-0.33928224 0.14735618 0.08459421
-0.18599489 -0.27919671 0.04637702
-0.48250180 -0.22467223 0.12031011
-0.67772883 -0.62515903 0.16898929
-0.36267388 0.01605402 0.09042497
-0.55845761 -0.19659419 0.13924982
-0.30560103 -0.38134015 0.07620030
-0.73420691 -0.05313250 0.18307340
-0.32143947 -0.66631466 0.08014954
-0.04057358 -0.48430780 0.01011685
-0.55344975 -0.24237169 0.13800101
-0.04773023 0.09330716 0.01189160
-0.03509981 -0.27791780 0.00875198
-0.02536269 0.74299484 0.00632360
-0.66255528 -0.71962011 0.16520554
-0.51016712 0.20942557 0.12720840
-0.75988656 -0.70169461 0.18947485
-0.12042695 0.12137745 0.03001961
-0.37239486 -0.30433962 0.09285505
-0.31310475 -0.06395200 0.07807132
-0.71946549 -0.29567152 0.17939711
-0.64597243 0.00047937 0.16107006
-0.35458335 -0.20103143 0.08841382
-0.74623817 -0.14173460 0.18607321
-0.38799697 -0.45064604 0.09674537
-0.09417758 -0.07454415 0.02348277
-0.61890882 0.00165702 0.15432130
-0.29566437 0.08230371 0.07371618
-0.51601464 -0.67748863 0.12866601
-0.39444989 -0.25464079 0.09835438
-0.30962142 -0.10654032 0.07720276
-0.12663311 0.43733567 0.03157182
-0.04501921 0.68197638 0.01122423
-0.17626639 -0.12333775 0.04395126
-0.28267437 0.41634363 0.07048286
-0.00726314 0.47367033 0.00180634
-0.19601636 0.41031972 0.04887309
-0.57673883 -0.23081116 0.14380820
-0.68143684 -0.50084817 0.16991417
-0.25495723 -0.77587658 0.06357248
-0.32598314 0.29972199 0.08128057
-0.59956139 -0.57563668 0.14949828
-0.19330008 0.44265932 0.04819632
-0.54610956 -0.59756392 0.13617004
-0.26588055 0.41452584 0.06629500
-0.66208100 -0.37690443 0.16508803
-0.59288293 0.12482831 0.14783350
-0.26364738 -0.08810144 0.06573933
-0.63783836 -0.37157801 0.15904313
-0.33410946 0.26596129 0.08330640
-0.10907551 0.66505092 0.02719744
-0.24024560 -0.60091460 0.05990420
-0.59202033 -0.72110778 0.14761771
-0.35789043 0.34437716 0.08923799
-0.16510773 -0.61424369 0.04116890
-0.27990150 0.01455797 0.06978451
-0.39158532 -0.61043775 0.09764011
-0.15533260 -0.39732984 0.03873151
-0.52384293 -0.73074675 0.13061798
-0.00324292 0.20196307 0.00079987
-0.03754955 -0.01437810 0.00936282
-0.40300050 -0.44036049 0.10048644
-0.32888106 -0.74745196 0.08200507
-0.51050234 -0.65475005 0.12729155
-0.09697045 0.39451340 0.02417453
-0.09796783 -0.27792320 0.02442785
-0.66850555 -0.04921706 0.16669071
-0.55588794 -0.27287012 0.13860890
-0.24593306 -0.00562015 0.06132234
-0.40298945 0.08397168 0.10047956
-0.21749312 -0.38806552 0.05423097
-0.15522550 0.62679505 0.03870505
-0.07124971 0.54787230 0.01776307
-0.29851666 -0.54359424 0.07443384
-0.59092790 -0.32112941 0.14734606
-0.53596032 0.20621137 0.13364030
-0.57830256 -0.16980600 0.14419824
-0.03498717 0.06533976 0.00871359
-0.22406499 0.07336334 0.05586202
-0.33771080 0.06124722 0.08420080
-0.46717665 -0.14600161 0.11648894
-0.27768293 -0.61286753 0.06923904
-0.19831900 -0.47332004 0.04944999
-0.27294829 0.30590427 0.06805553
-0.54500610 -0.13884021 0.13589580
-0.04889791 0.53435320 0.01218925
-0.42644396 0.00802450 0.10632699
-0.26732776 -0.23866573 0.06665702
-0.15630019 0.03690411 0.03896370
-0.21164095 0.26539493 0.05276679
-0.13678005 0.44888794 0.03410222
-0.69994533 -0.26920667 0.17452978
-0.76853633 -0.65239155 0.19163178
-0.38510954 0.11081007 0.09602137
-0.48110908 -0.74841231 0.11996247
-0.38797924 0.04671959 0.09673584
-0.16908158 -0.29815876 0.04215976
-0.09224426 0.28352705 0.02299438
-0.58627212 -0.59372914 0.14618456
-0.70579022 -0.09652198 0.17598759
-0.01556861 -0.27137020 0.00388196
-0.68918037 -0.22917061 0.17184561
-0.02240239 0.67056316 0.00558434
-0.47394067 -0.34461534 0.11817513
-0.74873716 -0.24131151 0.18669607
-0.13917944 0.42487454 0.03470018
-0.48686868 0.29696190 0.12140009
-0.35787508 -0.44844639 0.08923461
-0.26895481 -0.29975453 0.06706272
-0.06788704 -0.59785283 0.01692734
-0.62993675 -0.12282451 0.15707338
-0.22215149 -0.11038726 0.05539251
-0.00924647 0.49069002 0.00230115
-0.11710901 0.62924421 0.02920010
-0.07395548 -0.31912273 0.01844048
-0.11878767 0.27301261 0.02961307
-0.16610812 -0.19729669 0.04141834
-0.07787805 0.15773812 0.01941018
-0.69346863 -0.70941198 0.17291372
-0.59712803 -0.35455197 0.14889199
-0.67951626 -0.56116319 0.16943514
-0.69164979 -0.39239898 0.17246102
-0.38434967 -0.14833175 0.09583595
-0.18085434 0.39279473 0.04509186
-0.00150988 0.42954761 0.00037106
-0.09298532 -0.11679293 0.02318549
-0.10891952 0.41114271 0.02715438
-0.47482327 -0.29455736 0.11839531
-0.41232115 0.23731968 0.10280932
-0.13122539 0.07186940 0.03271158
-0.71384984 -0.08404427 0.17799728
-0.69428706 0.07711773 0.17311952
-0.67049402 -0.07442570 0.16718648
-0.13536993 0.27504072 0.03374804
-0.41257569 -0.33388448 0.10287396
-0.43429700 -0.58981651 0.10829008
-0.28229478 0.33502951 0.07038675
-0.08211066 0.62790179 0.02047263
-0.02575663 0.67531860 0.00642082
-0.15352656 0.06615657 0.03827250
-0.45726696 -0.67360312 0.11401754
-0.01699872 0.71438968 0.00423753
-0.46358266 0.16208635 0.11559092
-0.75359327 -0.22729129 0.18790697
-0.15309486 -0.41143155 0.03817354
-0.06080607 0.64964622 0.01516035
-0.06446660 -0.21504490 0.01607447
-0.61021996 -0.18083116 0.15215686
-0.20114335 0.31456128 0.05014989
-0.31322715 -0.36869511 0.07810183
-0.20824696 0.26699591 0.05192049
-0.48986849 -0.35772884 0.12214672
-0.34793276 0.40079984 0.08675589
-0.23327692 0.26083648 0.05816198
-0.17188926 0.05615492 0.04285126
-0.75287360 -0.16653687 0.18772769
-0.51414353 -0.53518182 0.12819946
-0.22303587 -0.74362499 0.05561303
-0.04056157 -0.44442725 0.01011385
-0.42315033 -0.73007399 0.10551070
-0.04435493 -0.16828194 0.01105971
-0.65905410 -0.41148436 0.16433319
-0.64129335 -0.66295910 0.15990400
-0.65171504 -0.58112162 0.16250284
-0.17571998 -0.54797351 0.04381502
-0.01434328 -0.39072576 0.00357644
-0.10767977 -0.60655373 0.02684948
-0.46281460 -0.07967291 0.11540140
-0.63388407 -0.10875276 0.15805767
-0.52045715 -0.54308236 0.12977374
-0.71711558 -0.53840989 0.17881049
-0.45679486 0.32181647 0.11390111
-0.76976639 -0.27478561 0.19193956
-0.55009681 -0.50818962 0.13716438
-0.38331863 0.17678422 0.09557596
-0.07548715 -0.59924704 0.01882240
-0.38143560 -0.33416662 0.09510931
-0.10299636 -0.43742427 0.02568170
-0.39247671 -0.23281744 0.09786237
-0.70354730 -0.56272143 0.17542721
-0.24681355 0.05280801 0.06153428
-0.41821915 -0.06742038 0.10428151
-0.36519077 -0.56612188 0.09105874
-0.52867150 -0.12426344 0.13182278
-0.22750130 0.21822938 0.05672102
-0.43201268 -0.10212977 0.10772086
-0.77108091 -0.04200981 0.19226798
-0.71778476 0.04979787 0.17897858
-0.06875108 0.18813141 0.01713474
-0.00835688 0.15722924 0.00207443
-0.50800908 -0.67813683 0.12666987
-0.56606138 -0.41339093 0.14114536
-0.06557222 0.15987334 0.01634164
-0.08464894 -0.65196508 0.02110685
-0.04134545 0.35110924 0.01030328
-0.67602009 -0.50261289 0.16856349
-0.47600156 0.04007032 0.11868560
-0.07568311 0.34872493 0.01886566
-0.75187933 -0.15321349 0.18747981
-0.35811886 0.01578033 0.08928909
-0.07648447 -0.02642228 0.01907107
-0.44957840 -0.28501600 0.11210050
-0.62260169 -0.48452753 0.15524361
-0.44598925 -0.29825300 0.11120552
-0.32783264 -0.08956863 0.08174365
-0.36135647 -0.43062147 0.09010267
-0.69944781 -0.17085204 0.17440593
-0.67734849 -0.49494818 0.16889475
-0.76884443 -0.42053205 0.19170927
-0.00475967 0.72492582 0.00118576
-0.28164756 -0.53722274 0.07022760
-0.08510240 -0.47490978 0.02121991
-0.76755273 -0.04479637 0.19138823
-0.21844485 -0.20239069 0.05446828
-0.02415683 0.05709725 0.00601282
-0.32690904 -0.63867217 0.08151336
-0.28612873 -0.29326749 0.07134496
-0.05486793 -0.48237160 0.01368108
-0.28652695 0.28272653 0.07144118
-0.60106540 -0.36583474 0.14987376
-0.75744790 -0.69182146 0.18886679
-0.36367086 0.24131015 0.09067761
-0.39114723 -0.27478188 0.09753087
-0.57552242 -0.54093975 0.14350423
-0.28508982 0.35359329 0.07108408
-0.71397561 -0.16638589 0.17802846
-0.09719575 0.65031046 0.02423476
-0.32785571 -0.46417263 0.08174941
-0.09183533 0.35421413 0.02289345
-0.46563917 -0.18320517 0.11610549
-0.35355642 0.17970289 0.08815430
-0.71683246 -0.27305505 0.17874059
-0.77508658 -0.03243901 0.19326681
-0.15104812 0.32094556 0.03765822
-0.62044168 -0.25951219 0.15470548
-0.11472277 0.64163196 0.02860527
-0.00122450 -0.24827234 0.00030532
-0.23822236 -0.14934988 0.05939972
-0.06184053 -0.76340783 0.01541967
-0.19292560 0.07166456 0.04809710
-0.16698585 -0.04453130 0.04163720
-0.72417253 -0.49301085 0.18057026
-0.21947645 -0.73247772 0.05472550
-0.23853078 0.11521203 0.05946981
-0.49013108 -0.60945153 0.12221207
-0.26676363 -0.03658292 0.06651636
-0.16836552 0.04658397 0.04197245
-0.23720893 -0.60019088 0.05914702
-0.59917063 -0.60714263 0.14940079
-0.55643111 0.22531644 0.13874540
-0.33617413 0.02849230 0.08381702
-0.76198900 -0.17158115 0.19000058
-0.38244140 -0.07945567 0.09536026
-0.29741088 0.48498705 0.07415889
-0.28278664 -0.52514488 0.07051163
-0.58650041 -0.36249882 0.14624198
-0.24663547 -0.76329249 0.06149749
-0.17777707 0.53120804 0.04432697
-0.19359370 -0.72795552 0.04827175
-0.06394194 0.02794287 0.01593318
-0.51091355 -0.74451286 0.12739410
-0.70245165 -0.59899861 0.17515393
-0.17763177 -0.33327529 0.04429171
-0.26578999 0.28291065 0.06627007
-0.23946249 -0.69170684 0.05970894
-0.76158845 -0.29515409 0.18990035
-0.50297052 0.07585211 0.12541141
-0.10690629 -0.65151203 0.02665662
-0.25822321 -0.07497179 0.06438684
-0.18773080 -0.05263340 0.04680986
-0.53427178 -0.60014218 0.13321835
-0.32329050 0.32031029 0.08060948
-0.01242887 0.35150298 0.00309267
-0.69784975 -0.51434630 0.17400669
-0.06071338 0.21009932 0.01513078
-0.32392898 0.30119038 0.08076835
-0.44244000 -0.31405061 0.11032050
-0.52929300 -0.43720868 0.13197710
-0.15579993 0.44493660 0.03884505
-0.41357192 0.20260897 0.10312060
-0.71866703 0.04544424 0.17919850
-0.32967120 -0.36909229 0.08220208
-0.18717431 -0.39159587 0.04667110
-0.25527808 0.11831822 0.06364595
-0.15393564 -0.27180675 0.03838319
-0.44102424 -0.68968266 0.10996749
-0.07247932 -0.62127346 0.01807240
-0.47556666 -0.09642417 0.11858110
-0.10147570 -0.76880229 0.02530253
-0.34993953 -0.18753532 0.08725591
-0.74244899 -0.78400898 0.18512662
-0.45613709 0.04858822 0.11373221
-0.20273998 0.26584488 0.05054726
-0.64388943 -0.20373762 0.16055232
-0.25955129 -0.71451348 0.06471799
-0.22168843 -0.27109346 0.05527705
-0.44550055 0.02519808 0.11107939
-0.57528526 -0.12163985 0.14344598
-0.41824096 -0.55156171 0.10428657
-0.14705262 -0.73425943 0.03666693
-0.37142381 0.33227432 0.09261256
-0.21899562 0.41878155 0.05460351
-0.09346694 0.05258712 0.02329587
-0.33441275 -0.00149872 0.08338444
-0.13224080 0.08950798 0.03296504
-0.11720297 0.67486078 0.02922434
-0.63121063 -0.38866770 0.15739045
-0.38666210 0.04913078 0.09640743
-0.50259012 -0.53566056 0.12531868
-0.72052461 -0.46393660 0.17966074
-0.60634410 -0.52055299 0.15118968
-0.16563153 -0.53989404 0.04129951
-0.45197597 -0.44464821 0.11269825
-0.38220859 0.38213384 0.09530282
-0.70812404 -0.36513683 0.17656894
-0.49662781 0.08075783 0.12382984
-0.56485671 -0.11202730 0.14084563
-0.02189805 0.09539444 0.00545014
-0.64410424 -0.05505069 0.16060621
-0.09255847 0.10071479 0.02307005
-0.62026829 -0.24868964 0.15466227
-0.39934260 -0.10540335 0.09957454
-0.17122786 -0.22810934 0.04269493
-0.31636885 0.39863604 0.07888485
-0.11913934 0.10830256 0.02969834
-0.68325120 -0.48934689 0.17036662
-0.77558410 -0.73032212 0.19338889
-0.69583005 -0.76037765 0.17350239
-0.68125713 -0.57809186 0.16986918
-0.15709992 0.60189945 0.03917203
-0.51129663 -0.06736370 0.12749048
-0.23895340 -0.12988506 0.05958200
-0.49770612 -0.67148727 0.12410087
-0.67995989 -0.60259050 0.16954567
-0.57506776 0.19966218 0.14339231
-0.11180358 0.16717926 0.02786997
-0.73145193 -0.64623266 0.18238492
-0.49314529 -0.58557665 0.12296364
-0.57643360 -0.11554521 0.14373232
-0.53213841 -0.41857865 0.13268664
-0.35734475 0.03430550 0.08909638
-0.13359784 0.22228213 0.03330538
-0.37612712 -0.13989051 0.09378567
-0.14883393 -0.45907596 0.03711110
-0.15505888 -0.21918176 0.03866326
-0.35898000 0.21600600 0.08950740
-0.46651882 0.07790054 0.11632160
-0.02912906 -0.59684628 0.00726321
-0.54699844 0.19707030 0.13639270
-0.23312014 -0.73964417 0.05812750
-0.19690800 -0.65712190 0.04909816
-0.02728570 0.15616800 0.00679449
-0.27089858 0.35790247 0.06754532
-0.04569008 0.19515105 0.01138436
-0.18455656 0.54323882 0.04601777
-0.12084890 -0.73967922 0.03013315
-0.33907810 0.12217414 0.08454285
-0.20965230 -0.43789211 0.05227590
-0.44934627 0.00654204 0.11203805
-0.05697855 -0.31896964 0.01420735
-0.38182768 -0.53693211 0.09520708
-0.18353350 -0.67778856 0.04576329
-0.04019721 0.21391572 0.01001494
-0.68143433 -0.02492612 0.16991456
-0.04426105 -0.50260681 0.01103630
-0.60575688 0.08312717 0.15104309
-0.30028132 -0.29650438 0.07487385
-0.03106483 -0.56478328 0.00774588
-0.37906474 0.38957450 0.09451898
-0.52721149 -0.63132924 0.13145790
-0.54533392 -0.16398869 0.13597749
-0.67861331 -0.14597736 0.16921087
-0.19371276 0.44049484 0.04829919
-0.76495612 -0.05832537 0.19074073
-0.09005160 0.08302303 0.02244467
-0.39932784 -0.25400200 0.09957067
-0.47575781 -0.24901137 0.11862844
-0.39688206 0.27066159 0.09895991
-0.55800098 -0.00515519 0.13913637
-0.16933937 -0.09405470 0.04222404
-0.27697608 -0.65359205 0.06906279
-0.03150742 -0.46120253 0.00785624
-0.25883880 -0.63261580 0.06454034
-0.14741012 -0.61928588 0.03675608
-0.38547570 0.14011371 0.09611321
-0.36093736 -0.33871931 0.08999817
-0.20134461 -0.55796450 0.05020441
-0.12343412 -0.54257798 0.03077776
-0.25777128 -0.62934482 0.06427416
-0.55013412 -0.27537200 0.13717419
-0.06686451 0.55713367 0.01666972
-0.45703903 -0.44346750 0.11396071
-0.55149341 -0.40265489 0.13751286
-0.54186976 -0.04484593 0.13511395
-0.60113198 -0.07109544 0.14989100
-0.68277305 -0.71330088 0.17024679
-0.68153334 -0.46562147 0.16993831
-0.05716179 -0.43628293 0.01425304
-0.61734778 0.16111228 0.15393487
-0.42179647 0.32302508 0.10517368
-0.06958989 -0.21822733 0.01735194
-0.70881015 -0.43269965 0.17673986
-0.55897790 -0.47505853 0.13937896
-0.25494838 -0.19235900 0.06357028
-0.51219964 -0.30236158 0.12771513
-0.68782490 -0.45543626 0.17150714
-0.18914750 -0.00560553 0.04716311
-0.33190483 -0.67309564 0.08275903
-0.49865365 0.17375045 0.12433668
-0.33406824 -0.56727630 0.08329847
-0.23157489 0.26172391 0.05773757
-0.24191722 0.36914775 0.06031853
-0.74309182 -0.54702055 0.18528756
-0.13894032 -0.03125079 0.03464417
-0.13606712 0.00289231 0.03391790
-0.76057529 -0.08419199 0.18964832
-0.58620602 -0.34728524 0.14616860
-0.01040063 -0.57843244 0.00259335
-0.10101881 -0.42044455 0.02518860
-0.30260584 -0.26988211 0.07545346
-0.26883957 0.06567508 0.06702687
-0.51686925 0.25765914 0.12888055
-0.02644901 0.10860599 0.00658515
-0.37265736 0.31608674 0.09291988
-0.27784520 0.17653801 0.06927434
-0.75126189 -0.74745786 0.18732420
-0.35061869 -0.48134759 0.08742525
-0.54369473 0.03197098 0.13556592
-0.35932457 -0.74953574 0.08959602
-0.15355691 0.33830816 0.03828407
-0.03393386 0.61857212 0.00845906
-0.29178044 0.04468358 0.07274707
-0.76002765 -0.50681001 0.18951058
-0.04676824 0.16177452 0.01165272
