ply
format ascii 1.0
element vertex 1389
property float x
property float y
property float z
end_header
-0.73561150 -0.51957911 -0.00000035
0.42481694 0.01889522 0.00000489
-0.52093834 -0.26717716 -0.00000017
-0.17918861 0.32884371 0.00000000
0.53667694 -0.40983838 -0.00000015
0.50031310 0.21588762 0.00000015
-0.25791332 0.37833157 0.26008436
0.78242356 -0.73435527 -0.00000016
-0.12047031 0.33026093 0.00000000
0.76147562 -0.42473656 -0.00000094
-0.33131617 -0.54647410 0.00000000
-0.19995724 -0.49573043 0.00000000
0.08354869 0.28304559 0.00000649
0.11434009 -0.46523216 0.00000000
-0.63726115 0.03104112 -0.00000068
0.00617841 -0.53507686 0.00000000
-0.52133942 -0.69340384 0.00000000
-0.40460628 0.25431517 -0.00000038
-0.11101669 -0.30583519 0.00000000
-0.64640200 -0.02436593 -0.00000065
-0.17186977 0.05749747 0.00000000
-0.13557678 -0.50646526 0.00000000
-0.09644895 0.31568846 0.00000000
-0.73593783 -0.10944735 -0.00000077
0.13152634 0.50088692 0.00000247
-0.11546591 -0.14333190 0.00000000
0.35224581 0.26361167 0.00000220
-0.12412805 -0.32989833 0.00000000
-0.11034910 0.60898864 0.12811278
-0.40220445 0.30819935 0.14230119
0.56558263 -0.10502663 -0.00000081
0.66541255 -0.15689947 -0.00000115
-0.24660553 0.48396507 0.11027194
-0.07214830 0.42665008 0.00000000
0.14676745 0.05942340 0.00000889
0.57960808 -0.42622459 -0.00000031
-0.33191600 0.27976760 0.29909366
0.08151478 0.12835537 0.00000884
-0.42163467 0.35056725 0.04414983
0.41696176 -0.39873248 0.00000000
-0.62030774 -0.51349479 -0.00000016
-0.46788788 -0.36611077 0.00000000
-0.44415423 0.20781961 -0.00000042
0.44077653 0.20876428 0.00000141
-0.00195619 -0.10577617 0.00000000
0.17028251 0.03207830 0.00000895
-0.10320768 0.66928804 0.04368489
-0.34594461 0.22872737 0.35787699
0.46947393 0.16247796 0.00000163
-0.01323271 -0.14656575 0.00000000
0.13014318 0.57817107 0.00000121
-0.16333596 -0.23099984 0.00000000
0.76603073 -0.37481138 -0.00000106
0.03102643 0.14462788 0.00000936
-0.50399446 -0.06134041 -0.00000031
0.11832805 0.02797280 0.00000979
-0.07505107 -0.54695779 0.00000000
0.70893145 0.08936587 -0.00000177
0.60940641 -0.59349078 -0.00000014
0.58127856 -0.06946722 -0.00000094
-0.68596530 -0.51255971 -0.00000030
0.27586836 0.42783251 0.00000092
-0.08248623 -0.22004309 0.00000000
0.47688156 -0.06347818 -0.00000051
0.25194991 -0.73185933 0.00000000
0.76718521 -0.62398559 -0.00000044
-0.39328009 0.27765208 -0.00000038
-0.49617773 -0.09945970 -0.00000026
-0.00501579 0.71623796 0.00000000
0.74107403 -0.01847562 -0.00000172
-0.28580323 -0.29518941 0.00000000
-0.36126760 -0.28957319 0.00000000
-0.15694493 0.46082813 0.28942198
0.46687949 0.28368309 -0.00000034
0.38115877 0.28182843 0.00000134
-0.16353811 0.37852129 0.00000000
0.51894647 -0.49338037 0.00000000
-0.47379786 -0.71243656 0.00000000
-0.51671946 0.02063143 -0.00000041
-0.10551154 0.06025257 0.00000000
-0.46283078 0.23932724 0.15539725
0.29961815 -0.02989299 0.00000000
0.60068387 -0.48561633 -0.00000029
-0.02222276 0.64848125 0.00000000
0.36606136 -0.41257641 0.00000000
-0.38066927 0.26978040 0.23752375
-0.04758391 -0.77436215 0.00000000
-0.09043874 0.64491516 0.10267528
-0.56654960 0.12656941 0.16975299
0.38208538 -0.76460451 0.00000000
-0.23789786 0.23271799 -0.00000001
0.21550532 0.26415989 0.00000479
0.66471726 -0.20922267 -0.00000105
-0.39136726 0.04193414 -0.00000017
0.70353967 -0.52324474 -0.00000066
0.36717173 -0.29352096 0.00000000
-0.74815762 -0.44337231 -0.00000045
0.73342466 -0.09751262 -0.00000154
0.76042676 -0.08742033 -0.00000168
-0.30354160 -0.79128695 0.00000000
-0.02587280 0.20103687 0.00000000
0.58398414 -0.22047433 -0.00000069
0.31575969 -0.15334506 0.00000000
-0.71970904 -0.55735970 -0.00000030
0.03694727 0.04534811 0.00001076
-0.30813771 -0.37831888 0.00000000
-0.32265267 0.33660993 0.22352670
-0.08564557 0.71340722 0.00150560
-0.31855467 -0.38268435 0.00000000
0.07555174 -0.49751410 0.00000000
-0.54783845 0.11760034 -0.00000057
-0.78137845 -0.35147610 -0.00000056
-0.12099663 0.08053431 0.00000000
0.33664963 -0.73764515 0.00000000
-0.45243815 -0.76317322 0.00000000
-0.37379554 0.35890430 0.10688951
0.02551775 -0.69069678 0.00000000
0.16235612 0.37507957 0.00000392
0.60952348 -0.50663674 -0.00000029
0.60099471 0.16857046 -0.00000099
-0.67085814 -0.25322032 -0.00000050
-0.19841442 -0.55645418 0.00000000
-0.29877636 0.24086022 0.41352162
-0.18934447 0.37225077 0.37864593
0.70138979 -0.06706845 -0.00000146
0.67757237 -0.33196661 -0.00000089
-0.75636828 0.01481983 -0.00000092
0.56688797 -0.33770034 -0.00000041
-0.42957532 -0.28815362 0.00000000
-0.26734254 0.12566017 0.00000000
-0.58013505 -0.04157100 -0.00000049
-0.73103249 0.02397689 -0.00000087
0.43509221 -0.03237973 -0.00000039
-0.22709692 -0.08742109 0.00000000
-0.33944842 0.39128384 0.11001470
0.27739012 -0.10689519 0.00000000
0.42345881 0.20943001 0.00000173
-0.08260187 0.40814316 0.00000000
0.11348078 0.50350207 0.00000274
-0.56033409 -0.11894124 -0.00000038
-0.23279591 0.52828681 0.06181092
-0.69128072 -0.20116644 -0.00000059
-0.23754314 -0.24782717 0.00000000
0.19636230 0.47874647 0.00000160
-0.36483103 0.36835781 0.10611289
-0.06373525 0.67905056 0.09087155
0.50726068 -0.64752072 0.00000000
-0.29930294 -0.79169929 0.00000000
-0.50717670 -0.50598800 0.00000000
-0.16439556 0.57131672 0.10210604
0.04634351 -0.20905180 0.00000000
-0.19967274 -0.71672773 0.00000000
-0.18866998 -0.71506363 0.00000000
0.49399897 0.30241808 -0.00000118
-0.26461890 0.01177279 0.00000000
0.69194049 -0.05072840 -0.00000145
0.36995995 -0.35498369 0.00000000
-0.17589784 -0.66866016 0.00000000
-0.43162414 0.35318166 0.02413166
-0.43226480 -0.26341182 0.00000000
0.57156342 -0.12734976 -0.00000080
-0.76495492 -0.68643230 -0.00000014
-0.04067584 0.41272953 0.00000000
-0.44626862 -0.53464270 0.00000000
0.52182359 -0.61820006 0.00000000
0.52781147 -0.49076280 0.00000000
-0.75505000 -0.63815767 -0.00000020
0.72318071 -0.65726542 -0.00000036
-0.10868127 0.22422671 0.00000000
0.72585475 -0.20413579 -0.00000132
0.76501870 -0.66881776 -0.00000033
-0.76640612 -0.12561509 -0.00000082
0.45627370 0.30027834 -0.00000041
0.27335685 -0.16600507 0.00000000
-0.27334157 0.37776932 0.23647355
-0.38456598 0.21859498 0.31262967
-0.64572972 -0.53833991 -0.00000019
0.00323586 -0.23571888 0.00000000
-0.24098442 -0.09090617 0.00000000
-0.20354801 0.16180396 0.00000000
0.06845311 -0.49008125 0.00000000
-0.04145887 -0.34155813 0.00000000
0.78337562 -0.44872132 -0.00000088
-0.43303540 0.33260497 0.05457119
-0.11458818 -0.46195579 0.00000000
-0.03312851 -0.15234274 0.00000000
-0.37785977 0.27870637 0.22780924
0.47630349 -0.78891212 0.00000000
0.31807050 -0.75718278 0.00000000
0.19784863 0.23176974 0.00000554
0.09819822 0.30974177 0.00000587
-0.36467582 -0.62102717 0.00000000
-0.04431946 0.73776871 0.02844995
0.68056893 -0.06555971 -0.00000137
0.35955867 -0.60285598 0.00000000
-0.08747698 0.17027929 0.00000000
-0.02034170 0.35020137 0.00000000
-0.45470551 -0.00927968 -0.00000025
-0.26835147 -0.16793987 0.00000000
-0.75163597 -0.00812634 -0.00000089
-0.19900312 -0.33718565 0.00000000
0.18780616 -0.34569973 0.00000000
-0.10924086 -0.70408952 0.00000000
0.31206813 -0.67388856 0.00000000
-0.42158127 0.28455630 0.14907692
-0.52373433 -0.05703813 -0.00000036
-0.60702103 -0.48166350 -0.00000016
-0.56252813 -0.22096632 -0.00000030
-0.77720273 0.01998847 0.00445862
0.67217731 -0.11808704 -0.00000125
0.36922455 -0.68011034 0.00000000
-0.06923085 -0.71912163 0.00000000
-0.60923445 0.16387954 0.04270026
-0.20999847 -0.58370942 0.00000000
0.21930383 0.37365386 0.00000291
0.17172164 -0.52144974 0.00000000
-0.67698920 -0.65971434 -0.00000015
0.69544882 -0.02527481 -0.00000151
-0.07531641 -0.79960233 0.00000000
0.56664151 -0.56593740 -0.00000000
-0.09103600 0.61893821 0.14298435
-0.37831163 0.41338953 0.01318031
0.21928157 -0.51324093 0.00000000
-0.44849566 -0.44193366 0.00000000
-0.33213055 0.23781608 0.36538202
0.13965359 -0.61263263 0.00000000
-0.46864754 -0.46662280 0.00000000
-0.20339784 0.51585895 0.12824138
0.32598373 -0.02920762 0.00000000
-0.14963356 -0.29009470 0.00000000
0.01238512 -0.19616856 0.00000000
-0.43979150 -0.26945782 0.00000000
-0.05823419 -0.24466047 0.00000000
0.29991573 -0.64243501 0.00000000
0.46131095 0.30196938 -0.00000054
0.50403893 -0.14353649 -0.00000048
-0.25801474 0.37073940 -0.00000017
0.60087401 -0.06873874 -0.00000103
-0.16390163 -0.42274591 0.00000000
0.17336462 -0.38200673 0.00000000
-0.35139346 0.30026856 0.23559830
0.71035486 -0.20162684 -0.00000126
0.49982110 -0.25181133 -0.00000027
-0.04692687 0.18473148 0.00000000
0.56047148 -0.29196051 -0.00000046
0.14187479 -0.74729890 0.00000000
0.38064355 -0.79220295 0.00000000
-0.78805155 -0.03356233 -0.00000094
0.74387318 -0.14310122 -0.00000151
-0.34760422 0.32199016 0.20711721
0.27803776 -0.76652461 0.00000000
-0.56394666 0.18396360 0.08273047
0.67626899 -0.20876153 -0.00000110
-0.09115141 -0.62021226 0.00000000
-0.36318630 0.31501120 0.19345316
0.44323775 -0.52665544 0.00000000
0.17653009 -0.24328250 0.00000000
0.23716353 -0.13101701 0.00000000
-0.08580631 0.68003970 0.05424638
0.08587992 -0.50700438 0.00000000
-0.06771395 -0.27018064 0.00000000
-0.55680239 -0.09966860 -0.00000039
-0.05835107 -0.66254741 0.00000000
-0.66353959 -0.29073331 -0.00000045
-0.35675660 0.41784340 0.04034141
-0.05994395 -0.10588492 0.00000000
-0.31846461 -0.61617583 0.00000000
0.13105918 0.33425453 0.00000501
0.18469445 0.60121882 -0.00000023
-0.09971685 -0.01746892 0.00000000
0.01199245 0.78715807 -0.00000002
0.55512375 -0.20868216 -0.00000059
-0.22331643 0.34329310 0.37068206
0.47946477 -0.73861122 0.00000000
0.32230261 -0.08384650 0.00000000
-0.10030211 -0.43533775 0.00000000
-0.74312484 0.03976465 0.02717359
-0.55280012 0.03673257 -0.00000050
0.08410831 0.24102154 0.00000712
-0.22558229 -0.47195300 0.00000000
-0.44063002 -0.33889022 0.00000000
-0.10874890 0.59717065 0.14942411
0.09965992 -0.25379404 0.00000000
0.24002448 -0.07089862 0.00000000
0.23078115 -0.64168346 0.00000000
0.16754782 0.54353833 0.00000107
0.61304963 -0.14591217 -0.00000094
-0.71607804 -0.30999839 -0.00000055
0.24838448 -0.69570631 0.00000000
-0.15811931 -0.19215824 0.00000000
-0.44779187 -0.00108917 -0.00000025
-0.78054458 -0.79806352 -0.00000000
-0.28085393 -0.26945579 0.00000000
-0.49108809 -0.17853799 -0.00000018
0.37324160 0.03054325 0.00000569
-0.19412038 0.37905455 -0.00000004
-0.33418378 0.29131675 -0.00000026
0.24507391 -0.73607510 0.00000000
-0.59009707 -0.28913751 -0.00000030
-0.29743478 0.25404835 0.39470646
0.31726748 -0.07563979 0.00000000
-0.30107147 -0.35577825 0.00000000
-0.55356777 -0.17703582 -0.00000032
0.12628013 0.35076582 0.00000483
0.05442785 0.34322491 0.00000603
-0.68077463 -0.32766211 -0.00000046
-0.50883311 0.19899088 -0.00000055
-0.70218635 -0.26858085 -0.00000055
0.29984412 -0.60777688 0.00000000
0.33452770 -0.29447106 0.00000000
-0.22234964 -0.09314220 0.00000000
0.63258827 -0.17560595 -0.00000098
-0.09512493 0.01823695 0.00000000
0.67061776 -0.75816309 -0.00000010
0.60631973 -0.02299115 -0.00000113
0.05742742 -0.32080019 0.00000000
-0.30244303 0.31441343 0.29087788
-0.36741260 0.40044358 0.05105227
0.40809298 -0.56375068 0.00000000
-0.04808534 0.52098751 0.00000000
-0.48297456 -0.72928315 0.00000000
0.38538110 -0.49849191 0.00000000
0.40679073 0.14421664 0.00000314
-0.52564669 0.18484551 0.14216012
0.04237195 0.69151133 0.00000099
-0.23598716 0.54150516 0.03574835
0.49080637 0.15332656 0.00000138
0.51110071 -0.66801435 0.00000000
0.76833194 0.02718623 -0.00000191
-0.27619201 0.50445497 0.03073768
0.71701199 -0.63628894 -0.00000041
0.43177494 -0.00963680 -0.00000041
-0.32839796 0.40262827 0.10954785
0.25411856 -0.68580759 0.00000000
-0.29771981 -0.18206225 0.00000000
0.22525015 0.17448978 0.00000598
-0.39539105 0.25579500 0.23635411
-0.29707778 0.28708598 -0.00000018
-0.60039270 0.04640372 -0.00000062
-0.03400120 -0.64133513 0.00000000
0.57766914 -0.29049185 -0.00000054
-0.21148095 0.58424205 0.00679352
-0.25037748 -0.30060998 0.00000000
0.63892817 -0.68046558 -0.00000011
-0.08421685 -0.56061113 0.00000000
-0.12489129 -0.23085792 0.00000000
0.71455246 0.08027351 -0.00000178
-0.13385808 -0.24569833 0.00000000
-0.48788008 -0.43624085 0.00000000
0.19718055 -0.32245111 0.00000000
0.53772163 -0.17958798 -0.00000056
0.18561107 0.03503927 0.00000867
0.03561981 -0.08844447 0.00000000
-0.44091132 -0.60553241 0.00000000
0.43778193 -0.46946469 0.00000000
0.22392415 -0.77929300 0.00000000
0.20994990 -0.67554563 0.00000000
-0.46350604 0.03451894 -0.00000031
-0.23395768 0.32562628 0.38184035
-0.01045881 0.68898469 0.00000000
0.06913358 0.29475540 0.00000654
-0.30537498 -0.21562961 0.00000000
-0.69073904 -0.12959836 -0.00000065
0.31438401 0.12432133 0.00000525
0.62896407 -0.77554029 0.00000000
-0.53600204 -0.27218091 -0.00000020
-0.37694803 -0.58971220 0.00000000
-0.47272852 0.27479890 0.08333901
-0.42243993 -0.02879871 -0.00000017
-0.16358484 0.21502560 0.00000000
-0.76266360 -0.46261728 -0.00000042
-0.13912039 0.53708488 0.19661760
-0.25859633 -0.11128837 0.00000000
0.60552418 -0.09443706 -0.00000100
-0.38320053 -0.52236527 0.00000000
-0.63198024 0.10169114 0.10534510
-0.04046993 0.73522276 0.03860754
-0.54684889 -0.39709604 -0.00000011
0.17632689 -0.39382190 0.00000000
0.43602619 0.23088332 0.00000113
-0.77492589 -0.63478827 -0.00000021
-0.36531129 -0.31903684 0.00000000
0.58131665 0.16815357 -0.00000061
-0.17997618 -0.51146191 0.00000000
-0.58066916 -0.31687567 -0.00000025
-0.58760726 0.15934700 0.08424873
-0.11962584 0.22649150 0.00000000
-0.28303710 0.23024786 -0.00000010
0.25450894 -0.43423441 0.00000000
-0.41575387 -0.30742300 0.00000000
0.56455290 -0.79009169 0.00000000
0.42287123 0.31003115 0.00000006
-0.60152382 -0.74792165 0.00000000
-0.16805951 0.59545046 0.05795619
-0.08506987 0.34315720 0.00000000
-0.57489789 0.11612743 0.17307828
-0.79793441 -0.50694072 -0.00000037
-0.08117628 0.69981682 0.03018896
0.74269718 -0.41451758 -0.00000096
0.44589362 0.11845645 0.00000282
-0.71779531 -0.74943399 -0.00000006
-0.25608560 -0.27413186 0.00000000
-0.27127206 0.39291942 0.21569841
0.21310467 0.43508768 0.00000200
0.10577751 -0.22760513 0.00000000
-0.38681990 0.19805938 -0.00000029
0.27360004 -0.45611045 0.00000000
0.11142226 -0.20697354 0.00000000
-0.43666857 -0.63163596 0.00000000
-0.27981207 0.29590830 -0.00000015
0.42703274 -0.02840612 -0.00000036
0.40887111 -0.66681969 0.00000000
-0.63213998 0.16097090 0.01093998
-0.16672008 -0.28320116 0.00000000
0.79512972 -0.11039881 -0.00000172
0.19402400 -0.39063114 0.00000000
-0.24495228 0.07930433 0.00000000
-0.74512273 -0.79278255 -0.00000001
0.69236630 -0.37340361 -0.00000088
0.38208348 -0.11674377 -0.00000001
-0.66244137 0.10847949 0.04618326
-0.38788471 -0.25046864 0.00000000
-0.55914968 0.05433730 -0.00000053
0.37317088 -0.44897002 0.00000000
-0.73821187 0.03535234 -0.00000090
-0.33554491 -0.35555163 0.00000000
-0.58072841 -0.49484938 -0.00000009
-0.01562824 -0.42550638 0.00000000
0.19625361 0.05855478 0.00000816
0.78665811 -0.13362025 -0.00000167
0.16426398 0.10030252 0.00000802
-0.05991396 -0.26493165 0.00000000
0.49739602 -0.15439904 -0.00000044
-0.36260998 0.25478104 0.29002893
0.26320255 0.38589743 0.00000186
-0.42673090 -0.33127251 0.00000000
0.04849167 -0.22364397 0.00000000
-0.41363311 0.25935912 0.20172021
0.28492418 -0.36345103 0.00000000
-0.12808008 -0.70473951 0.00000000
-0.10990788 -0.77246130 0.00000000
0.04741808 0.35294980 0.00000599
0.36228544 -0.30949187 0.00000000
-0.37159756 0.24714267 0.28788602
-0.17611924 0.41338128 0.33432558
0.08023171 0.67391258 0.00000057
-0.47142187 -0.15077744 -0.00000017
0.62024862 -0.57408816 -0.00000022
-0.03323261 0.15064652 0.00000000
0.08013746 -0.35092050 0.00000000
0.52610320 0.16480289 0.00000051
-0.13286342 0.10790376 0.00000000
-0.20775622 -0.77037966 0.00000000
-0.10387009 -0.39308128 0.00000000
0.67886257 -0.48028213 -0.00000063
-0.25384912 -0.16196653 0.00000000
-0.05980507 -0.20397350 0.00000000
-0.42670920 -0.52210861 0.00000000
-0.46548361 0.20578858 -0.00000047
0.28616893 0.38436350 0.00000145
-0.39826900 0.25631088 -0.00000037
0.56010538 0.13912190 0.00000028
0.52364683 -0.59524441 0.00000000
-0.08676448 0.41490132 0.00000000
-0.74257326 -0.15729147 -0.00000074
0.12089908 0.32392985 0.00000532
0.32475221 -0.29268584 0.00000000
-0.16526583 0.06404012 0.00000000
0.21597137 0.47035903 0.00000136
0.61004585 -0.35885155 -0.00000055
-0.39979130 0.24498489 0.24653456
-0.18563552 -0.09762854 0.00000000
-0.34761262 0.23489419 0.34543341
-0.20181268 0.37346962 0.35690758
0.17325178 -0.29395962 0.00000000
-0.28727719 0.49930644 0.02130874
-0.00919323 0.78377783 0.01116529
-0.63521624 -0.59412742 -0.00000012
-0.41559601 -0.53372949 0.00000000
-0.15539250 -0.34958225 0.00000000
0.49039963 -0.44518080 0.00000000
0.39166930 -0.31999543 0.00000000
-0.58473408 -0.59240860 -0.00000002
0.56547672 -0.42610982 -0.00000025
-0.18684623 -0.66150171 0.00000000
-0.27805266 -0.44731200 0.00000000
-0.43422028 -0.51421905 0.00000000
-0.16657931 -0.52737683 0.00000000
-0.04535898 0.43733254 0.00000000
0.09815621 0.62327504 0.00000107
-0.23781966 -0.43009588 0.00000000
0.70724022 -0.31260175 -0.00000105
-0.26205528 0.32644942 0.33590725
-0.22897694 0.53053516 0.06430555
-0.52646071 0.11863377 0.24602839
-0.24500662 -0.20152552 0.00000000
-0.24087572 0.39154890 0.26615182
0.57344449 -0.02170992 -0.00000099
-0.40969646 -0.61595756 0.00000000
0.56550342 -0.76623654 0.00000000
-0.12639020 0.41811767 0.00000000
0.39297494 -0.17658925 0.00000000
0.22575915 0.21467234 0.00000537
0.27432770 -0.19235338 0.00000000
-0.06657737 0.45616683 0.00000000
-0.70019728 -0.56252807 -0.00000029
0.57691514 -0.53373402 -0.00000010
0.26723814 -0.72804248 0.00000000
-0.56047457 -0.42104688 -0.00000012
-0.30340329 0.12071435 -0.00000005
-0.59622985 -0.29152253 -0.00000031
-0.52198541 -0.27938229 -0.00000016
0.54383701 -0.47236577 -0.00000007
-0.38395208 0.24771850 0.26734951
0.27048874 -0.30648312 0.00000000
0.59665781 -0.68478298 0.00000000
0.50093925 -0.13987508 -0.00000048
0.66495532 -0.77461958 -0.00000005
-0.53722376 -0.66355729 0.00000000
0.11862791 0.67707062 -0.00000029
-0.19060731 0.51029104 0.15739904
0.66770208 -0.74825388 -0.00000011
0.65946454 0.12017472 -0.00000131
-0.12797156 -0.29621971 0.00000000
-0.44486836 -0.24634032 -0.00000002
-0.04862183 -0.74811071 0.00000000
0.34536639 -0.37938210 0.00000000
0.63842231 -0.47875327 -0.00000046
0.54566115 -0.61963731 0.00000000
0.30585644 0.48068476 -0.00000054
0.63525528 0.04844889 0.00000035
0.16753209 -0.13615985 0.00000000
0.40515751 -0.57535034 0.00000000
0.04444571 0.14711976 0.00000912
-0.15151909 -0.53497756 0.00000000
0.09887755 0.35265216 0.00000522
-0.66355896 -0.62820953 -0.00000015
0.14770377 -0.40960589 0.00000000
0.54050994 -0.24356350 -0.00000046
-0.09334552 0.47351626 0.00000000
-0.23248941 0.15697519 0.00000000
0.07075538 0.14690359 0.00000873
-0.19518954 -0.51458412 0.00000000
0.20010965 0.05658145 0.00000813
-0.52734327 0.17615984 0.15326059
-0.09205749 -0.01343408 0.00000000
-0.13575640 -0.16277194 0.00000000
0.65580779 -0.46202931 -0.00000057
-0.08306423 0.60743219 0.17391974
0.41613531 -0.25875258 0.00000000
-0.70005870 -0.21165873 -0.00000060
-0.18510444 0.44778821 0.26540843
0.02445459 -0.38895324 0.00000000
0.05417205 0.18724059 0.00000837
-0.64930296 -0.70663816 -0.00000005
-0.33662510 0.27482101 -0.00000025
-0.20349453 0.29662567 0.00000000
-0.40787205 0.06420943 -0.00000022
-0.16256800 0.16280544 0.00000000
0.00923197 0.31621417 0.00000712
-0.62497497 -0.70333630 -0.00000000
0.14847188 0.33302703 0.00000476
-0.03254400 -0.68212932 0.00000000
0.48187342 -0.41692418 0.00000000
0.38686320 -0.03188238 -0.00000018
-0.20071995 0.48829973 0.17626522
-0.07463325 -0.34699836 0.00000000
0.17481969 0.37734061 0.00000370
0.73135209 -0.46279985 -0.00000084
-0.22830823 0.32120061 0.39784208
-0.77745712 -0.46930552 -0.00000041
-0.17049399 0.46222591 0.26568282
0.44487000 0.16817205 0.00000201
-0.67128325 -0.20422868 -0.00000054
-0.57247275 -0.63798171 0.00000000
-0.52733606 0.24659668 0.04140035
-0.74537039 -0.68825573 -0.00000014
-0.36606044 0.36058831 0.11650023
-0.13366364 0.37512857 0.00000000
0.55501854 -0.05045601 -0.00000087
0.36875263 -0.79218727 0.00000000
-0.42560300 -0.34545556 0.00000000
0.24021246 -0.57935131 0.00000000
0.20505670 -0.54997617 0.00000000
-0.21334198 -0.41642603 0.00000000
0.71333712 -0.17700043 -0.00000132
0.22726759 0.05148567 0.00000780
0.42320305 -0.24041818 0.00000000
-0.40776148 0.25088131 0.22451083
-0.12954903 -0.45047885 0.00000000
0.43390274 -0.77309746 0.00000000
0.21965827 -0.34890008 0.00000000
-0.13113035 0.60370344 0.10350135
0.44044229 -0.25238386 -0.00000002
0.20232899 0.53461111 0.00000055
-0.71600312 -0.50042009 -0.00000037
-0.58132553 -0.21511827 -0.00000034
0.55119407 -0.54463947 0.00000000
0.03912297 -0.45411059 0.00000000
-0.38679931 0.39299828 0.03208614
0.37385926 -0.16327074 0.00000000
0.17223237 0.20763332 0.00000629
0.43021819 -0.75562859 0.00000000
0.43676257 0.32586366 -0.00000047
0.07650361 -0.40357694 0.00000000
0.57921910 -0.66456187 0.00000000
0.06917200 -0.06631279 0.00000000
-0.08269446 0.25564241 0.00000000
0.17078736 -0.00196387 0.00000000
-0.27399006 0.28803131 -0.00000013
-0.12571888 0.36245528 0.00000000
0.25077677 -0.76795715 0.00000000
0.07521593 -0.58048332 0.00000000
0.38516322 -0.15452383 0.00000000
-0.06727714 0.69022167 0.06750381
-0.59614301 -0.67424458 0.00000000
-0.12398847 0.43316644 0.00000000
-0.65465873 -0.02994463 -0.00000066
0.77963465 -0.55097592 -0.00000062
-0.21948262 -0.35519177 0.00000000
-0.65824258 -0.06766830 -0.00000064
-0.06377529 -0.00661479 0.00000000
-0.32013991 0.25799584 0.35237569
0.12399972 0.28908077 0.00000579
-0.12045028 -0.48075557 0.00000000
-0.41153336 -0.51928353 0.00000000
-0.40232748 -0.14418426 -0.00000002
0.64284635 -0.08652357 -0.00000118
0.52694523 0.10744016 0.00000145
-0.51033753 0.20291752 0.13777205
-0.48790610 0.14267558 -0.00000046
-0.28972077 -0.11282280 0.00000000
0.34092641 0.17098270 0.00000396
0.02178432 -0.65486306 0.00000000
-0.66547775 0.03436883 -0.00000074
0.61900824 -0.26692981 -0.00000076
-0.43156287 0.35951900 0.01416365
0.37243235 -0.70939249 0.00000000
0.67099172 -0.64194208 -0.00000031
-0.57290959 0.19031654 0.05840492
-0.27031142 -0.61698663 0.00000000
0.05957813 -0.29466644 0.00000000
-0.10570791 -0.77137583 0.00000000
0.15739366 -0.10102503 0.00000000
-0.37471968 -0.67915267 0.00000000
-0.38681579 0.23663327 0.28040728
-0.31109551 -0.34170166 0.00000000
-0.06214782 -0.43326250 0.00000000
0.27673718 0.02245754 0.00000749
-0.41792306 0.09805019 -0.00000027
0.06930546 -0.61610276 0.00000000
-0.45474508 0.29309711 0.08283915
0.41101098 -0.38045245 0.00000000
-0.28606263 0.34421772 0.26955748
0.55736178 -0.45245582 -0.00000016
-0.76991230 -0.24437349 -0.00000069
0.33348763 -0.53670818 0.00000000
0.18242443 0.56139356 0.00000048
0.15437254 0.14298449 0.00000753
0.20526822 0.26304752 0.00000496
0.14294070 -0.41976669 0.00000000
0.20755544 -0.00552338 0.00000000
-0.29961187 0.31955466 0.28720894
-0.54045767 -0.55429339 0.00000000
0.21838327 -0.20366777 0.00000000
-0.14267525 0.35643631 0.00000000
-0.37746492 -0.47574624 0.00000000
-0.45388609 0.20710471 -0.00000044
0.73543382 -0.74897426 -0.00000013
-0.11715681 -0.02560443 0.00000000
0.24680638 0.07380223 0.00000717
0.20919859 -0.61606234 0.00000000
0.58224517 0.06367164 0.00000112
0.37227774 -0.28835595 0.00000000
0.48025033 0.18111649 0.00000112
0.12109231 -0.25722262 0.00000000
-0.04050071 -0.64270735 0.00000000
0.29356015 -0.36137235 0.00000000
0.47915030 -0.05326335 -0.00000054
0.39361250 -0.51315928 0.00000000
-0.16519526 0.52903295 0.16799279
0.50566620 -0.20448650 -0.00000038
-0.27427056 -0.31500119 0.00000000
0.33284509 -0.75918859 0.00000000
-0.65637559 -0.00204682 -0.00000069
0.26937655 -0.75298679 0.00000000
-0.27617273 -0.24719059 0.00000000
-0.48449227 -0.04437446 -0.00000029
0.61441594 -0.23284793 -0.00000080
-0.61209112 -0.43826136 -0.00000021
0.19170226 -0.71712542 0.00000000
0.79619581 -0.45875159 -0.00000085
0.60634965 -0.16716218 -0.00000088
0.62802148 -0.22394916 -0.00000087
-0.33999011 0.32723716 0.21087684
-0.51041633 0.02380536 -0.00000040
0.06828660 -0.47315472 0.00000000
-0.75431752 -0.71967643 -0.00000010
-0.60845721 0.02035514 -0.00000061
0.68794799 -0.68868238 -0.00000028
0.11319468 -0.59947813 0.00000000
0.66805452 -0.16898713 -0.00000114
0.12985705 -0.37890750 0.00000000
-0.35545820 0.34250069 0.16206712
-0.24376513 0.16950044 0.00000000
0.36685586 -0.51433873 0.00000000
-0.49208575 -0.33260024 -0.00000005
-0.36612600 0.38087395 0.08417735
-0.60534930 -0.05065321 -0.00000054
-0.29949492 -0.30300942 0.00000000
0.30727729 0.41327292 0.00000056
-0.40543443 0.36044890 0.05418550
-0.07133436 0.66078329 0.10781517
0.47699875 -0.09076058 -0.00000046
-0.01614704 -0.43065491 0.00000000
0.44354951 -0.29362172 0.00000000
-0.21525221 -0.29435742 0.00000000
-0.56100690 0.14173503 0.15446931
-0.03795863 -0.31817657 0.00000000
0.10402708 0.47591156 0.00000329
-0.76043051 0.02790937 0.01851692
-0.21711554 -0.42637396 0.00000000
0.20753010 0.32446799 0.00000396
-0.20316775 -0.05356693 0.00000000
0.69082487 0.07700601 -0.00000119
0.44102132 -0.09037924 -0.00000031
-0.44030124 -0.33621222 0.00000000
-0.61788619 -0.20799695 -0.00000043
-0.66522133 0.06906269 0.10437184
0.03955701 -0.60443413 0.00000000
0.41586643 -0.34834129 0.00000000
0.75468934 -0.45259768 -0.00000087
-0.67480218 0.08237309 0.06801466
0.11043433 0.62966812 0.00000072
0.35495245 -0.67892992 0.00000000
0.65198344 -0.37650347 -0.00000070
0.54819173 -0.62905025 0.00000000
0.65708721 -0.72423470 -0.00000011
-0.25502878 -0.47695243 0.00000000
-0.22115378 0.27804297 0.47774979
-0.54492140 -0.07025847 -0.00000039
-0.32262504 0.32689241 0.23900433
0.36488724 -0.07610655 -0.00000001
-0.26167300 -0.30749479 0.00000000
-0.03063178 -0.69721889 0.00000000
0.52065140 -0.54636914 0.00000000
0.31584582 -0.22188327 0.00000000
0.57748622 0.17342611 -0.00000062
-0.18616939 0.53191620 0.13010158
-0.61037189 -0.15236485 -0.00000046
-0.68152958 0.01311147 -0.00000076
0.43770403 -0.78637266 0.00000000
-0.27963567 -0.12607490 0.00000000
-0.21156564 -0.41198400 0.00000000
0.22632869 0.47056937 0.00000116
0.28305745 -0.77289832 0.00000000
-0.33855733 -0.43409663 0.00000000
-0.46135092 0.28598502 0.08364318
0.35966560 -0.48237765 0.00000000
0.59169698 0.07093249 0.00000082
-0.67921615 0.08462551 0.05742678
-0.79696292 -0.47082049 -0.00000041
-0.32720751 -0.72804570 0.00000000
0.69226086 0.05412417 -0.00000084
0.00644052 0.25005940 0.00000815
-0.01444331 -0.79624426 0.00000000
0.08847040 0.66486359 0.00000056
-0.34484860 -0.73412955 0.00000000
-0.16652635 0.03327774 0.00000000
0.44232532 -0.10724811 -0.00000028
-0.20833109 -0.22023894 0.00000000
-0.17709680 -0.56777543 0.00000000
-0.01823977 0.54022515 0.00000000
-0.27997071 -0.36266431 0.00000000
-0.31021065 0.07523905 -0.00000002
-0.23547690 -0.52290118 0.00000000
0.11191326 0.05718194 0.00000945
0.66527784 -0.45129585 -0.00000063
0.26446471 0.10034975 0.00000650
0.43563882 0.09987458 0.00000333
-0.21459945 0.11982983 0.00000000
-0.29239529 0.25810194 -0.00000014
0.68471718 -0.62005550 -0.00000041
0.42384011 0.08661714 0.00000378
0.63883138 -0.47983858 -0.00000046
0.41484076 -0.09792140 -0.00000018
0.14624110 0.18898705 0.00000696
-0.17481650 0.11086072 0.00000000
0.43642408 -0.03221734 -0.00000039
0.13005422 -0.17051145 0.00000000
-0.46573737 -0.59562320 0.00000000
-0.15564217 0.56286919 0.12942530
0.26337764 0.38733667 0.00000184
-0.70205945 -0.75513440 -0.00000006
0.79954368 -0.13513988 -0.00000166
-0.31037298 0.34948090 0.22258762
-0.48906010 0.19182514 0.18918373
-0.53796095 -0.79808712 0.00000000
-0.11516203 0.62917179 0.08841303
-0.21356873 0.22605360 0.00000000
-0.11210357 0.65221155 0.05667774
-0.57373089 0.12967186 0.15341970
0.50126880 -0.74405354 0.00000000
0.10308709 0.32911897 0.00000551
-0.50605267 0.16149116 0.21037321
0.76158607 -0.46511951 -0.00000084
0.48070830 -0.10253822 -0.00000046
0.70503813 -0.19939014 -0.00000124
0.14482491 -0.33447313 0.00000000
0.71024013 -0.50740469 -0.00000072
-0.30704269 0.48053831 0.01972453
0.60406017 0.07520561 0.00000051
-0.67803848 -0.61078650 -0.00000020
-0.48007768 -0.13910040 -0.00000019
0.70473796 -0.61565393 -0.00000046
-0.14108244 -0.50743330 0.00000000
0.18679270 0.54392880 0.00000069
0.71695209 -0.07625569 -0.00000151
-0.45035711 -0.50523067 0.00000000
0.20595191 0.50160092 0.00000103
0.58846664 -0.59736562 -0.00000004
-0.05519920 0.13323236 0.00000000
-0.63800681 -0.20738275 -0.00000047
-0.28770080 0.33975005 0.27405140
-0.28440285 0.40281940 0.17912000
-0.75588775 0.02407177 0.03182710
0.01593016 0.05582507 0.00001092
-0.50636923 0.11758044 -0.00000048
-0.29236886 -0.04926461 0.00000000
0.64305174 -0.52150095 -0.00000041
0.56790608 -0.77266234 0.00000000
0.54368192 -0.12106465 -0.00000069
0.65918493 -0.59982425 -0.00000034
0.27214921 -0.56725061 0.00000000
0.60337943 -0.32883665 -0.00000058
0.06827213 0.06623535 0.00000998
-0.33610073 0.38809848 0.12039090
0.16538222 0.17183758 0.00000693
-0.78639907 -0.10323871 -0.00000087
-0.40236518 -0.47757268 0.00000000
-0.25596693 -0.79336947 0.00000000
-0.21820185 0.04215263 0.00000000
0.73079014 -0.44358775 -0.00000089
-0.16350491 -0.23064987 0.00000000
-0.63519609 -0.10266136 -0.00000056
0.61745024 -0.53567827 -0.00000027
-0.33341280 0.05820488 -0.00000006
0.23495285 -0.03764536 0.00000000
0.46692315 -0.01433862 -0.00000055
-0.45603028 0.25458485 0.14196523
-0.43709186 0.20674740 0.24802248
0.52573544 -0.59117204 0.00000000
-0.31654763 0.12473640 -0.00000008
-0.45600274 -0.38142732 0.00000000
-0.38242364 0.40473929 0.02038816
0.18067652 -0.66355520 0.00000000
0.77302498 -0.38814282 -0.00000103
0.40669689 -0.63915938 0.00000000
0.11569047 -0.73482919 0.00000000
0.10363159 0.07032103 0.00000938
-0.70735145 -0.75073606 -0.00000006
-0.27075461 0.29162562 0.37739921
0.05369160 -0.64057392 0.00000000
-0.56207496 -0.57441157 0.00000000
-0.50222605 -0.64225435 0.00000000
-0.31193906 -0.52285075 0.00000000
-0.31172347 0.26868150 -0.00000020
-0.33280513 -0.72741914 0.00000000
-0.14043576 0.47269589 0.29679364
0.10680193 -0.29561657 0.00000000
0.66981292 0.12326766 -0.00000156
-0.05520506 -0.39930561 0.00000000
0.25986111 0.06748269 0.00000707
-0.44332147 0.16705093 0.30117622
-0.63850808 -0.44743502 -0.00000026
0.04148631 0.14749750 0.00000916
-0.29640305 -0.65990615 0.00000000
0.05120491 0.15956295 0.00000883
0.31810081 -0.60623842 0.00000000
-0.54111451 0.12466910 0.21316870
-0.56989253 0.21554850 0.02312202
0.77094001 -0.02564608 -0.00000183
0.68845588 -0.77217513 -0.00000007
-0.10511985 0.46034190 0.00000000
-0.66830063 -0.74507523 -0.00000006
-0.33675849 -0.62247699 0.00000000
-0.67839068 -0.04445671 -0.00000070
0.61949813 -0.28197953 -0.00000073
-0.29111442 -0.43359980 0.00000000
-0.53105515 -0.78419077 0.00000000
0.31249553 -0.32980365 0.00000000
-0.32838371 0.21587010 0.40618840
0.32568434 -0.16563547 0.00000000
0.60441095 -0.41297901 -0.00000044
0.55476189 -0.11232187 -0.00000075
0.65767795 -0.01772922 -0.00000136
0.08122127 -0.77363926 0.00000000
0.55010605 -0.66544282 0.00000000
0.32090476 0.01646429 0.00000691
-0.46582571 0.17771403 -0.00000044
0.42486471 -0.16331638 -0.00000011
0.09443568 0.48751184 0.00000326
0.33307782 -0.02499544 0.00000000
-0.42194030 0.33683208 0.06547940
0.00703085 0.49060908 0.00000453
-0.36602440 -0.47202981 0.00000000
0.09240931 0.02424824 0.00001024
-0.54476035 -0.27235484 -0.00000021
-0.60987687 -0.48143229 -0.00000017
0.64546716 -0.64658195 -0.00000020
0.78279358 -0.59297228 -0.00000052
0.34295207 -0.00462014 -0.00000004
-0.72105151 -0.67865938 -0.00000015
-0.38419876 0.40855321 0.01151133
0.49686658 -0.62931108 0.00000000
0.25625634 0.10743344 0.00000652
-0.03700082 -0.01399947 0.00000000
-0.31618026 -0.39278099 0.00000000
0.33265322 -0.48891667 0.00000000
0.69649851 -0.42920935 -0.00000080
0.56276977 -0.70556271 0.00000000
0.69426364 -0.32828280 -0.00000097
0.05941483 0.02947927 0.00001066
0.16057917 0.59201181 0.00000039
-0.13105103 -0.64912260 0.00000000
-0.53239107 -0.42676216 -0.00000005
-0.16422245 -0.55948174 0.00000000
-0.12385235 -0.60120606 0.00000000
-0.10483142 -0.18371223 0.00000000
-0.21861614 0.01674223 0.00000000
-0.74276572 -0.00251901 -0.00000088
-0.45233649 0.31464976 0.05243351
0.18707864 0.01935247 0.00000889
0.21562815 0.44751683 0.00000175
0.33268896 0.45422497 -0.00000061
0.48875323 -0.28768533 -0.00000016
0.31013551 -0.33148050 0.00000000
-0.38766542 0.38560316 0.04245590
-0.41141737 -0.01601226 -0.00000016
-0.35035592 -0.54154915 0.00000000
0.49204740 -0.12788796 -0.00000046
-0.50597095 -0.53165835 0.00000000
-0.05759302 -0.02726852 0.00000000
0.23379084 -0.67322648 0.00000000
-0.60526258 0.13108544 -0.00000070
0.42235288 0.01293786 0.00000504
-0.15668786 0.41685048 0.00000000
0.06414794 -0.50138032 0.00000000
-0.31728777 -0.00964597 0.00000000
-0.71762776 -0.11278512 -0.00000072
-0.20851348 -0.00416938 0.00000000
-0.73608243 -0.16927794 -0.00000071
-0.16272116 -0.68674582 0.00000000
-0.21411142 0.10004764 0.00000000
-0.30689934 -0.41702321 0.00000000
0.54970288 0.20651339 -0.00000064
-0.24795347 0.30714297 0.38896760
-0.15775506 0.63217682 0.01599150
-0.56544262 -0.18116295 -0.00000034
-0.24495280 -0.53680038 0.00000000
-0.45090991 0.17482375 0.27677870
-0.37827978 -0.60019732 0.00000000
-0.59502828 -0.07037201 -0.00000050
-0.15520629 0.50293428 0.22530870
0.67648906 -0.08425268 -0.00000132
-0.66600525 0.08516783 0.07754775
0.19418517 -0.35769746 0.00000000
0.02653997 -0.02429629 0.00000000
-0.73849285 -0.01871851 -0.00000085
-0.74975550 -0.54436767 -0.00000032
0.59056997 0.02859009 0.00000154
-0.72541273 -0.03874153 -0.00000081
0.74844241 -0.30493459 -0.00000124
-0.62654257 -0.69255251 -0.00000002
0.76844627 -0.65951341 -0.00000035
0.51010096 0.16548200 0.00000080
0.12658885 0.44117129 0.00000347
-0.72414899 -0.01690853 -0.00000082
-0.64553744 -0.64161372 -0.00000010
0.65220231 0.00495739 0.00000076
-0.27966794 0.00732713 0.00000000
0.28037545 -0.76703447 0.00000000
-0.23892897 0.02587129 0.00000000
0.22283322 -0.14396504 0.00000000
0.04398962 0.45970187 0.00000444
0.19015765 -0.13347620 0.00000000
0.47535539 -0.64162332 0.00000000
-0.51291072 -0.41675305 -0.00000002
0.39406630 -0.29384682 0.00000000
-0.21883287 0.08734802 0.00000000
0.21911971 -0.32555392 0.00000000
0.01672715 0.44869477 0.00000502
-0.59969676 -0.44353774 -0.00000018
-0.35199049 -0.45574030 0.00000000
-0.08151303 -0.33957413 0.00000000
-0.61225426 -0.60321051 -0.00000007
-0.14673837 0.52281815 0.20717736
-0.26328799 -0.50902355 0.00000000
0.37851146 0.36160296 0.00000005
-0.54836613 0.16851877 -0.00000061
0.07088381 -0.41108772 0.00000000
-0.44784877 -0.16652475 -0.00000010
-0.13861845 0.54777193 0.18044116
-0.55012643 0.16906524 0.12834299
-0.06047607 -0.35472232 0.00000000
0.73342019 -0.10932318 -0.00000152
-0.11325935 0.02251778 0.00000000
-0.78152382 -0.51680690 -0.00000035
0.20883216 -0.55861962 0.00000000
0.41987351 -0.09930239 -0.00000020
-0.08474754 -0.47237965 0.00000000
0.66240317 -0.16074210 -0.00000113
-0.35421085 0.44222894 0.00565428
0.05724328 0.73558336 -0.00000002
-0.18786386 0.54382426 0.10849734
-0.63271213 -0.05618544 -0.00000059
-0.48532262 0.07250734 -0.00000039
-0.13015017 0.03172950 0.00000000
-0.60743606 0.14822407 0.07042147
0.77803910 -0.34182906 -0.00000115
-0.14031069 0.53345799 0.20048741
-0.32364947 0.33186707 0.22947639
-0.09028239 -0.21687655 0.00000000
0.25632784 -0.41260353 0.00000000
-0.43424743 -0.46627790 0.00000000
-0.53047699 -0.66684419 0.00000000
0.37730226 0.34999892 0.00000027
0.00479973 0.49549112 0.00000450
-0.49159443 -0.56761974 0.00000000
-0.76075232 -0.76444203 -0.00000004
-0.10125259 0.64458901 0.08601823
0.37872913 -0.76926720 0.00000000
0.05186387 0.07332744 0.00001012
-0.30718628 0.43292022 0.09512620
0.41919518 0.36487663 -0.00000078
0.59571010 -0.11356048 -0.00000093
0.39527249 -0.77184361 0.00000000
0.29352620 -0.27028197 0.00000000
0.56036580 0.04170504 0.00000191
-0.55702007 0.02008084 -0.00000050
-0.48645744 0.20749781 0.16842525
-0.73690069 -0.05931773 -0.00000081
-0.08831497 0.38250786 0.00000000
0.36624402 -0.64417058 0.00000000
-0.48828852 -0.22871540 -0.00000013
-0.52556300 -0.36580062 -0.00000009
0.49207202 -0.72837502 0.00000000
-0.00638256 -0.49115112 0.00000000
-0.49040502 -0.02655473 -0.00000032
-0.37805945 0.25830221 0.25989899
-0.52283227 0.23867194 0.06114006
-0.15547778 -0.62969917 0.00000000
0.45737061 -0.21331193 -0.00000016
0.10557847 0.36653179 0.00000491
0.01969867 0.18346317 0.00000895
0.22033513 0.02236671 0.00000834
-0.72350085 0.06247061 0.02227876
-0.40379500 -0.56244844 0.00000000
-0.37198856 0.23208180 0.31118530
0.43580681 -0.32780802 0.00000000
0.21921220 -0.05469933 0.00000000
0.16748925 -0.46989888 0.00000000
-0.09361791 -0.06845942 0.00000000
-0.03603724 -0.29340589 0.00000000
-0.38053802 0.39198029 0.04364754
-0.57619661 -0.50558901 -0.00000008
0.02322191 -0.45336351 0.00000000
0.76952732 -0.05632258 -0.00000177
-0.26213738 0.27397865 0.41911313
0.46245515 -0.20261849 -0.00000020
-0.44094673 0.16714348 0.30480090
0.39121175 -0.19467621 0.00000000
0.52541614 -0.41517222 -0.00000009
-0.79808170 -0.20565172 -0.00000074
-0.38856900 -0.40095329 0.00000000
-0.45724338 0.21994174 -0.00000046
-0.03263526 0.18113071 0.00000000
0.25251791 -0.18151613 0.00000000
0.15270849 -0.15977518 0.00000000
-0.43798280 -0.73556423 0.00000000
-0.74507302 0.03503166 0.03159659
-0.09328564 0.64422345 0.09925228
-0.08270137 0.69416386 0.03674513
0.48522875 0.31408250 -0.00000121
0.39918098 0.21689092 0.00000207
0.13802262 -0.56596929 0.00000000
-0.27246094 -0.75162303 0.00000000
-0.10910856 0.59243309 0.15637729
0.70607001 -0.22975282 -0.00000119
0.43812782 -0.51817584 0.00000000
-0.13556243 0.43015191 0.00000000
-0.11033177 0.04752009 0.00000000
0.55147690 0.22251961 -0.00000094
-0.50972617 0.09885575 -0.00000047
-0.28002432 0.33299625 0.29697019
0.16575868 0.27448672 0.00000538
-0.36642095 -0.18939044 0.00000000
-0.27841625 0.34882614 0.27438250
-0.56061375 -0.09608660 -0.00000040
-0.73896050 -0.72108567 -0.00000010
-0.32943913 0.01796048 -0.00000001
-0.41451335 -0.18142962 -0.00000002
-0.22780199 0.27163810 -0.00000002
-0.30379394 0.28609079 0.33371550
-0.22938152 -0.41520318 0.00000000
-0.64725089 0.09536851 -0.00000076
0.78003919 -0.25160372 -0.00000137
0.41479769 0.14866640 0.00000291
-0.73604113 -0.21786965 -0.00000067
0.02336940 0.20227200 0.00000861
-0.06432612 0.37324041 0.00000000
-0.74172014 -0.54234117 -0.00000032
-0.41930598 -0.22281943 0.00000000
-0.35248727 0.15377118 -0.00000018
-0.43991283 0.14258474 -0.00000036
0.11297710 0.49294263 0.00000290
-0.22238214 0.53129113 0.07357910
-0.17767993 -0.00561525 0.00000000
-0.66139740 -0.29273778 -0.00000045
-0.48882496 0.28450292 0.04236119
-0.35316202 0.11037834 -0.00000014
0.38391420 0.04138327 0.00000530
0.18611485 0.21387853 0.00000598
-0.41420248 0.22247864 -0.00000037
-0.47806457 -0.22010115 -0.00000012
0.08467013 -0.42469567 0.00000000
-0.62148088 0.16054726 0.02854227
-0.05556997 -0.38191608 0.00000000
0.62712854 -0.01660595 -0.00000123
0.69567406 -0.70267731 -0.00000024
0.35982829 0.23414385 0.00000254
-0.38444307 0.28270462 -0.00000036
0.28988045 -0.77121955 0.00000000
0.74922270 -0.79101610 -0.00000002
-0.06328709 0.43946353 0.00000000
-0.16937485 0.23884797 0.00000000
0.30239350 -0.27052698 0.00000000
-0.39104432 -0.18762773 0.00000000
-0.28838426 0.43290502 0.12501281
-0.33209878 0.24468897 0.35451666
-0.24989145 0.50443578 0.07254031
-0.50799942 0.12701425 0.26203942
-0.03333988 0.11072707 0.00000000
-0.25252739 -0.44837224 0.00000000
-0.41784501 0.04756054 -0.00000023
-0.78919190 -0.65468740 -0.00000018
-0.55484420 -0.69070095 0.00000000
-0.77377224 0.00452835 -0.00000095
-0.53187013 0.16576847 0.16257489
0.31354550 -0.13467292 0.00000000
-0.25641862 -0.25936618 0.00000000
0.63634706 -0.73741519 0.00000000
-0.26599503 -0.38941520 0.00000000
-0.66554683 -0.24829751 -0.00000049
-0.00319517 0.75120348 0.00000000
0.14615089 -0.55978584 0.00000000
0.33466470 -0.23923409 0.00000000
0.27012271 -0.08650247 0.00000000
0.65619707 -0.21123815 -0.00000101
-0.10042650 0.31233466 0.00000000
-0.02879125 0.42005891 0.00000000
-0.44386977 -0.04258922 -0.00000020
-0.21010453 0.32834873 0.41540101
-0.38842782 -0.12644371 -0.00000001
-0.32842129 -0.31438592 0.00000000
-0.30727369 -0.61843759 0.00000000
-0.33161190 -0.61374408 0.00000000
-0.31175798 0.24257311 -0.00000017
0.01035584 0.50100434 0.00000433
-0.06165889 -0.69467413 0.00000000
0.61797088 -0.03578873 -0.00000116
0.08351795 -0.26340672 0.00000000
0.17103708 0.52407295 0.00000132
0.22553949 -0.34162247 0.00000000
0.27542531 -0.16977906 0.00000000
0.36006996 -0.67461944 0.00000000
-0.34158686 -0.57956225 0.00000000
-0.56071424 -0.04084373 -0.00000045
-0.02015953 -0.57581657 0.00000000
0.47956020 0.18350488 0.00000109
-0.62020427 -0.43070677 -0.00000024
0.43760350 -0.73379856 0.00000000
-0.17434542 0.00820135 0.00000000
-0.63565701 -0.59189487 -0.00000013
0.47491646 -0.18768525 -0.00000028
-0.44816023 0.23718108 0.18210655
-0.26018712 -0.75864977 0.00000000
0.29175657 -0.51112378 0.00000000
0.34107429 0.34075910 0.00000112
-0.00356562 -0.61633050 0.00000000
-0.52369320 -0.15928781 -0.00000027
0.23307264 -0.06406829 0.00000000
-0.39195046 0.33590895 0.11457726
-0.40855643 0.28975472 0.16150737
0.29370990 -0.68863094 0.00000000
0.16680130 0.37962410 0.00000379
-0.61324388 -0.21496926 -0.00000041
0.01998047 -0.68854070 0.00000000
-0.39359227 0.27181691 -0.00000037
0.47882959 -0.76208025 0.00000000
-0.69423449 -0.69309497 -0.00000013
-0.09336560 0.63434249 0.11481866
0.03592425 -0.66127628 0.00000000
-0.51834446 -0.42267692 -0.00000003
0.28098682 0.02770429 0.00000734
0.31431252 0.26836047 0.00000284
0.42012709 -0.39122418 0.00000000
-0.79087692 -0.47567752 -0.00000041
0.00045445 0.67344064 0.00000189
-0.43399021 0.29536608 0.11219960
0.55339414 -0.65858006 0.00000000
0.34994566 -0.12718903 0.00000000
0.15067922 -0.68976116 0.00000000
-0.28496212 0.39065146 0.19755739
-0.04036596 -0.12797734 0.00000000
-0.09232498 -0.37356734 0.00000000
-0.12852371 0.35992706 0.00000000
-0.24910386 0.22546238 -0.00000002
-0.39849940 -0.54860038 0.00000000
0.56244427 -0.54639405 -0.00000002
0.44641924 0.06492438 0.00000371
0.22743472 0.37821606 0.00000268
-0.64604974 -0.14867190 -0.00000054
-0.03712070 0.72262013 0.06394291
0.69370204 -0.18022005 -0.00000123
0.44814569 -0.74627769 0.00000000
-0.15168570 0.46667156 0.28849414
-0.79283595 -0.44193199 -0.00000045
-0.04762734 0.59498596 0.00000000
-0.09425814 0.23838697 0.00000000
0.22411110 0.39590576 0.00000245
-0.12181536 -0.21618503 0.00000000
0.24895519 -0.29016706 0.00000000
0.58515567 -0.68743062 0.00000000
-0.58028102 -0.29712462 -0.00000027
-0.40097713 0.19627960 -0.00000032
-0.15204231 -0.36145610 0.00000000
0.12347684 -0.63800472 0.00000000
-0.35218158 0.10417719 -0.00000014
0.20005237 0.10714572 0.00000737
-0.76283157 -0.73490041 -0.00000008
-0.79459524 0.00540081 0.00000376
-0.27592984 0.52165347 0.00383847
-0.01199239 0.62050372 0.00000000
-0.58744234 -0.58253479 -0.00000003
0.74533349 -0.73883218 -0.00000015
0.26788193 0.01294613 0.00000776
0.27456495 -0.61771160 0.00000000
-0.45624563 0.28819710 0.08823833
-0.35668105 0.43672100 0.01047894
-0.36012524 0.27988324 0.25410688
-0.39692152 0.07172168 -0.00000020
0.01168067 0.55175364 0.00000355
0.17270513 0.20516674 0.00000632
0.42667994 -0.72833091 0.00000000
-0.64343792 -0.30728710 -0.00000039
0.53181118 -0.48512426 0.00000000
-0.36740243 0.42643037 0.00979480
0.32349417 -0.47396916 0.00000000
-0.65540117 0.06140668 0.13212857
-0.27680168 -0.64765334 0.00000000
-0.59509856 -0.19996285 -0.00000039
-0.62875187 -0.10188431 -0.00000054
0.25776261 -0.31866407 0.00000000
-0.24418339 0.32427099 0.36775202
0.03115994 0.18651213 0.00000873
-0.47289154 -0.14508159 -0.00000017
-0.15809406 0.58546919 0.08963678
-0.58028054 0.18144293 0.06079149
0.66724467 -0.71077365 -0.00000018
-0.51174754 -0.65010804 0.00000000
-0.69892615 -0.31445733 -0.00000051
-0.55975163 -0.28666872 -0.00000023
-0.37198085 -0.62283915 0.00000000
-0.51096976 -0.67315370 0.00000000
0.51139838 -0.54831964 0.00000000
-0.63597071 -0.11928166 -0.00000054
0.63973808 -0.75852376 0.00000000
0.08539972 0.65563548 0.00000077
-0.01556375 -0.30492568 0.00000000
-0.17453074 -0.06807361 0.00000000
-0.61239547 0.05457214 -0.00000065
-0.00797588 0.12240349 0.00000000
-0.25392151 0.31232589 0.37125722
0.55571789 0.02130017 0.00000234
0.49304464 -0.40122175 0.00000000
-0.26546192 0.51775312 0.02665900
0.50207120 -0.58855504 0.00000000
0.72842747 -0.63529831 -0.00000041
-0.61365211 -0.24289688 -0.00000039
0.12189666 -0.31828523 0.00000000
-0.35271594 0.38630226 0.09685442
-0.20716664 0.05424284 0.00000000
-0.41932276 -0.23293179 0.00000000
-0.13930073 0.49350289 0.26554984
-0.21014351 -0.70112491 0.00000000
-0.49592111 0.14751601 0.24866085
-0.20515978 0.47274771 0.19391404
-0.21208031 -0.36924967 0.00000000
0.75645435 -0.25668979 -0.00000136
0.10098577 -0.35330731 0.00000000
-0.69270611 -0.32315436 -0.00000049
-0.13166268 -0.62362021 0.00000000
-0.64764291 0.03896218 -0.00000071
-0.71877921 0.05587007 0.04026133
0.26430771 -0.05571261 0.00000000
-0.28947490 -0.60432589 0.00000000
-0.10925792 -0.05973714 0.00000000
-0.03267244 -0.20963161 0.00000000
0.41774747 -0.25325203 0.00000000
-0.64583164 -0.54191059 -0.00000019
-0.22810823 0.17331880 0.00000000
0.53058672 -0.42076838 -0.00000011
0.61994702 -0.54437518 -0.00000027
-0.32795379 -0.00184999 0.00000000
-0.21950877 0.13658179 0.00000000
0.63000435 -0.50813597 -0.00000038
-0.17126258 0.43208790 0.31232852
0.59589553 -0.24713795 -0.00000069
-0.38162398 0.33287317 0.13580000
-0.32787424 -0.40288967 0.00000000
-0.38288653 -0.01576958 -0.00000010
-0.11835578 0.58568567 0.15240698
0.03473492 0.20757934 0.00000836
-0.79429311 -0.33458817 -0.00000058
0.56459999 -0.06542280 -0.00000088
0.70974165 -0.53954560 -0.00000065
0.63911450 -0.78588212 0.00000000
-0.35413784 -0.20869064 0.00000000
-0.37399966 0.16669925 -0.00000024
0.09156062 0.26802048 0.00000660
-0.02436761 0.61810678 0.00000000
0.27721274 -0.76211345 0.00000000
-0.06615021 -0.58443242 0.00000000
-0.70075375 0.07415064 0.03985624
-0.24398436 -0.26492670 0.00000000
-0.10423552 -0.68258756 0.00000000
-0.35175553 -0.05461381 0.00000000
0.05294335 -0.73858511 0.00000000
0.47210285 -0.25445488 -0.00000015
0.76771879 -0.09101082 -0.00000170
-0.08472920 0.41277954 0.00000000
0.38620427 -0.57988673 0.00000000
0.45652857 0.05060015 0.00000375
0.16515313 0.00027225 0.00000950
-0.27959743 -0.69340056 0.00000000
0.17495646 0.45687583 0.00000237
-0.37424767 -0.48780763 0.00000000
0.39539078 -0.03363927 -0.00000021
-0.23499635 0.37721926 0.29824862
-0.62636751 0.16059692 0.02070218
-0.36691484 -0.56788033 0.00000000
-0.54112804 -0.36698744 -0.00000012
-0.51547700 -0.02209546 -0.00000037
-0.17449132 -0.50075674 0.00000000
0.10857193 -0.64855617 0.00000000
-0.24540392 -0.03491224 0.00000000
-0.29306421 0.22083195 0.45440361
-0.67615062 -0.63487405 -0.00000017
0.20344858 -0.60986984 0.00000000
0.04833878 0.52195752 0.00000344
0.76928091 -0.74202460 -0.00000014
0.03853019 -0.71094650 0.00000000
0.20847532 -0.79497743 0.00000000
-0.30477285 -0.09584245 0.00000000
0.36778799 -0.53988963 0.00000000
-0.42028871 -0.78909332 0.00000000
-0.57267565 -0.68018252 0.00000000
-0.69111300 -0.30191636 -0.00000050
0.31398049 -0.14342435 0.00000000
-0.16853541 0.51310885 0.18797918
0.27195129 -0.47999159 0.00000000
-0.58015209 -0.41742972 -0.00000016
0.43487930 0.35845920 -0.00000098
0.00994999 -0.47701079 0.00000000
0.08831863 -0.05750439 0.00000000
0.38330677 0.41067347 -0.00000086
0.20015237 -0.38672137 0.00000000
-0.08826113 -0.48527792 0.00000000
0.00922158 -0.04243542 0.00000000
-0.00154875 -0.77559674 0.00000000
0.73771942 -0.72069597 -0.00000020
-0.31367445 -0.67388654 0.00000000
-0.53203225 -0.71671402 0.00000000
0.23052721 0.30023375 0.00000392
-0.57127595 -0.40935090 -0.00000015
-0.36559951 -0.00294784 -0.00000007
0.68427652 -0.44470400 -0.00000072
0.02384335 -0.17552523 0.00000000
