ply
format ascii 1.0
element vertex 1292
property float x
property float y
property float z
end_header
-0.03903669 -0.19852126 0.11337485
-0.44586587 -0.21613257 -0.00000011
-0.27992412 -0.54554796 0.00000000
-0.48846042 -0.01419862 -0.00000065
-0.56401491 -0.52165914 -0.00000007
-0.65638864 -0.27078038 -0.00000091
-0.56559074 -0.07817094 -0.00000086
-0.18783906 -0.68635529 0.00000000
-0.36050689 -0.31502533 0.00000000
-0.41179812 -0.79007888 0.00000000
-0.10427402 -0.42959940 0.30284461
-0.38481095 -0.34605187 0.00000000
-0.40069005 0.28544253 0.00000090
-0.18366148 0.24466249 0.00000556
-0.52348250 -0.40062585 -0.00000011
-0.64589614 -0.61604822 -0.00000025
-0.46954399 -0.50903690 0.00000000
-0.63762826 -0.68159062 -0.00000010
-0.34765595 -0.08692227 0.00000000
-0.54496872 -0.34581339 -0.00000030
-0.15848032 0.21850349 0.00000633
-0.14459004 -0.29384267 0.00000000
-0.63192123 -0.71607476 -0.00000002
-0.39655891 -0.76438940 0.00000000
-0.09374305 0.10446958 0.27225935
-0.67347026 -0.47321224 -0.00000062
-0.10533664 -0.23854916 0.00000000
-0.64367849 -0.36233702 -0.00000069
-0.37858424 -0.60132515 0.00000000
-0.01331212 -0.17210965 0.03866259
-0.21783218 -0.61815560 0.00000000
-0.18318290 0.08000123 0.00000804
-0.58800489 -0.72210103 0.00000000
-0.41422996 0.05903551 0.00000442
-0.14357087 -0.47788829 0.00000000
-0.12436443 -0.47683224 0.00000000
-0.49082690 -0.32352456 -0.00000011
-0.12896141 0.37091511 0.37454718
-0.05079030 0.07875671 0.14751104
-0.70899636 0.02407501 -0.00000065
-0.65075254 -0.34254479 -0.00000076
-0.20051916 0.47300258 0.00000161
-0.06166848 0.72328937 0.00000010
-0.77421582 0.00160358 -0.00000153
-0.53230828 -0.43905482 -0.00000008
-0.01569947 -0.38584700 0.04559621
-0.45558506 -0.59592289 0.00000000
-0.28980991 0.25013527 0.00000362
-0.26518857 0.51927948 -0.00000040
-0.05414259 -0.68973845 0.00000000
-0.35792518 0.11518188 0.00000457
-0.18048152 -0.14496645 0.00000000
-0.54043460 -0.05578568 -0.00000079
-0.34328407 -0.49985433 0.00000000
-0.09749792 -0.42932904 0.28316468
-0.77530205 -0.17251684 -0.00000157
-0.07230203 -0.59499907 0.00000000
-0.25343850 0.26344129 0.00000410
-0.50920278 -0.69319278 0.00000000
-0.58066565 0.09773479 0.00000058
-0.13819198 0.04776330 0.00000920
-0.54968697 -0.06766669 -0.00000081
-0.73478121 -0.73785102 -0.00000016
-0.19302922 0.56284785 0.00000025
-0.48658809 -0.40338558 0.00000000
-0.57201719 -0.27725881 -0.00000054
-0.75990480 -0.79106146 -0.00000002
-0.06214096 -0.35456017 0.18047693
-0.45169035 -0.25403911 -0.00000006
-0.02437496 0.10368588 0.07079256
-0.05678591 -0.49364498 0.00000000
-0.26126406 -0.77089232 0.00000000
-0.64321023 -0.36350548 -0.00000069
-0.23924570 0.40916622 0.00000193
-0.19617300 0.10291149 0.00000750
-0.44457254 -0.51511317 0.00000000
-0.04256418 0.64962852 0.00000161
-0.15735596 -0.67425907 0.00000000
-0.77995890 -0.06263923 -0.00000180
-0.16681445 0.12000658 0.48448446
-0.39609730 0.08874200 0.00000427
-0.65922087 -0.38553959 -0.00000072
-0.32902923 -0.40274575 0.00000000
-0.38579476 -0.30546668 0.00000000
-0.15641442 -0.23201032 0.45427740
-0.07400826 -0.43426710 0.21494332
-0.27803451 0.28717965 0.00000323
-0.29658553 0.10370295 0.00000594
-0.06119927 -0.55693734 0.00000000
-0.06680097 0.18748844 0.19401106
-0.16395240 -0.38253966 0.47616959
-0.31676051 -0.11074682 0.00000000
-0.40108806 0.34604663 -0.00000012
-0.11683798 -0.53556752 0.33933431
-0.23289914 -0.51099455 0.00000000
-0.11845967 0.17594905 0.00000757
-0.10623430 0.07295543 0.00000930
-0.13685735 -0.25680166 0.00000000
-0.33739531 0.04527582 0.00000613
-0.00313436 0.79388320 -0.00000000
-0.64509141 -0.30668890 -0.00000080
-0.26253688 -0.08268865 0.00000000
-0.69451123 0.10412525 -0.00000171
-0.15021767 -0.07542012 0.00000000
-0.66259181 -0.51642340 -0.00000050
-0.10834149 0.33217612 0.00000538
-0.64517236 -0.71259874 -0.00000008
-0.73831373 -0.79553300 -0.00000001
-0.15718584 0.03784582 0.00000906
-0.08504443 -0.28715062 0.24699582
-0.23423690 0.36588800 0.00000275
-0.20941219 -0.21770151 0.60820162
-0.40056017 -0.62873346 0.00000000
-0.29692787 -0.60305303 0.00000000
-0.16024595 -0.71648812 0.00000000
-0.34100351 -0.16272159 0.00000000
-0.07681043 0.26637939 0.00000685
-0.18558601 0.59050220 -0.00000006
-0.08694312 0.27424431 0.00000657
-0.50616843 -0.20729789 -0.00000038
-0.37417614 -0.51213318 0.00000000
-0.19164380 -0.12268973 0.55659646
-0.17282417 -0.56550330 0.00000000
-0.76737750 -0.11629914 -0.00000166
-0.63977039 -0.68845767 -0.00000010
-0.03620285 0.45098096 0.00000469
-0.09328770 0.13795477 0.27093703
-0.46833348 -0.42814216 0.00000000
-0.79609352 -0.58165753 -0.00000055
-0.69518036 0.03564835 -0.00000058
-0.14668225 0.01461635 0.42601296
-0.64895928 0.03469487 0.00000032
-0.45121834 0.25568458 0.00000043
-0.03557015 0.37966922 0.10330692
-0.62694556 -0.14606519 -0.00000100
-0.36868241 -0.54935181 0.00000000
-0.23807143 -0.04223312 0.00000000
-0.12575734 -0.07743060 0.00000000
-0.58306909 -0.05565041 -0.00000098
-0.55408734 0.06117827 0.00000170
-0.41933322 0.27498662 0.00000072
-0.20803095 -0.01964368 0.60419101
-0.17198646 0.36672243 0.00000390
-0.02128538 0.35224941 0.06181945
-0.11991747 -0.49027681 0.00000000
-0.02104335 -0.51346779 0.00000000
-0.44891241 -0.67265421 0.00000000
-0.10144479 -0.11551529 0.29462764
-0.04791576 -0.35600978 0.13916247
-0.16688114 -0.54901397 0.48467544
-0.32440501 -0.12506458 0.00000000
-0.10726686 -0.66651005 0.31153676
-0.34679744 0.21962291 0.00000303
-0.46152440 -0.61632860 0.00000000
-0.22877181 -0.10801863 0.00000000
-0.04236327 0.58192241 0.00000263
-0.79984075 -0.00758224 -0.00000198
-0.38770440 -0.33070111 0.00000000
-0.05316482 -0.44974977 0.15440740
-0.36227927 0.43543509 -0.00000090
-0.30789453 0.43755272 0.00000014
-0.10158884 -0.64044458 0.29504600
-0.10285648 -0.23951583 0.29872763
-0.05471876 -0.63053167 0.00000000
-0.05697259 0.04916482 0.16546635
-0.37387368 -0.64452118 0.00000000
-0.57578588 -0.42278424 -0.00000030
-0.03904441 -0.29895419 0.11339727
-0.07200535 -0.75032437 0.20912622
-0.17351267 -0.01679910 0.00000000
-0.51428419 -0.27061915 -0.00000030
-0.06735738 0.34132859 0.19562727
-0.22990240 0.53555393 0.00000000
-0.39282981 -0.21879464 0.00000000
-0.00817522 0.58158791 0.00000315
-0.32044452 -0.33246958 0.00000000
-0.26418072 0.24032947 0.00000428
-0.18482277 -0.75712520 0.00000000
-0.43656743 -0.32297257 0.00000000
-0.16726264 -0.60971361 0.00000000
-0.51807290 -0.60363179 0.00000000
-0.32317597 0.23398928 0.00000325
-0.10177812 -0.33566040 0.00000000
-0.23721275 -0.49017718 0.68894261
-0.77153921 -0.62527573 -0.00000044
-0.15691277 0.53987294 0.00000133
-0.06051546 0.68157297 0.00000082
-0.27935258 -0.74423867 0.00000000
-0.04104122 0.44207963 0.00000475
-0.62776804 -0.77503693 0.00000000
-0.14026421 -0.26741502 0.00000000
-0.10747986 -0.27201775 0.00000000
-0.14039652 -0.49832371 0.00000000
-0.18406181 -0.72115523 0.00000000
-0.44370338 0.01943332 0.00000452
-0.10436084 0.65981340 0.00000034
-0.07851255 -0.70929617 0.00000000
-0.30153188 -0.65570486 0.00000000
-0.45193163 -0.59794831 0.00000000
-0.23236287 -0.61159307 0.00000000
-0.56434697 -0.27292520 -0.00000051
-0.20904927 0.08484903 0.60714906
-0.32813400 -0.38103542 0.00000000
-0.17501046 -0.69502920 0.00000000
-0.14651746 0.13239434 0.00000780
-0.16391426 0.28465283 0.00000526
-0.02856365 -0.11061219 0.08295784
-0.76014018 -0.74712098 -0.00000013
-0.37715638 0.02513286 0.00000570
-0.30561206 -0.29931071 0.00000000
-0.47252679 -0.42063212 0.00000000
-0.62801760 -0.17492504 -0.00000096
-0.56290251 -0.66774637 0.00000000
-0.36609483 -0.67840767 0.00000000
-0.51952827 0.22621948 -0.00000039
-0.03621914 0.64752209 0.00000174
-0.12009915 -0.51451731 0.00000000
-0.07499201 0.26164019 0.00000694
-0.08301416 -0.66346681 0.24109928
-0.64173359 -0.64035386 -0.00000019
-0.79362220 -0.19338652 -0.00000152
-0.44898477 0.10874866 0.00000292
-0.51969469 -0.41202146 -0.00000008
-0.64337999 -0.70881659 -0.00000008
-0.26133707 -0.47644350 0.00000000
-0.15053231 -0.78737718 0.00000000
-0.59835893 -0.25960898 -0.00000068
-0.56244469 -0.52831721 -0.00000005
-0.32334423 -0.34599701 0.00000000
-0.28260356 -0.15688208 0.00000000
-0.17514426 -0.11043558 0.00000000
-0.00459834 0.08714500 0.01335503
-0.03396605 -0.66897410 0.00000000
-0.48619109 -0.16986492 -0.00000036
-0.20326434 -0.42097503 0.00000000
-0.33273131 -0.71912903 0.00000000
-0.36593175 -0.19751769 0.00000000
-0.72191858 -0.45889184 -0.00000085
-0.41708830 -0.13331859 -0.00000013
-0.41757572 -0.42509636 0.00000000
-0.71459061 -0.45046386 -0.00000084
-0.12476719 -0.16572155 0.00000000
-0.16877910 -0.59359759 0.00000000
-0.51318961 0.18418632 0.00000043
-0.25012293 0.01090548 0.00000806
-0.23193365 0.18575218 0.00000571
-0.59692252 -0.11341617 -0.00000093
-0.26156703 -0.29616961 0.00000000
-0.01117777 0.70439053 0.00000127
-0.49246705 0.15546414 0.00000131
-0.37970167 0.16219154 0.00000336
-0.29988235 0.40810159 0.00000079
-0.67260909 -0.60461187 -0.00000039
-0.28856775 -0.36342427 0.00000000
-0.39283282 0.36660665 -0.00000030
-0.31474635 0.46601531 -0.00000047
-0.25748765 -0.75659114 0.00000000
-0.76597500 -0.31651914 -0.00000121
-0.23958041 -0.13133229 0.00000000
-0.70949370 -0.07473697 -0.00000148
-0.08168164 -0.24668701 0.00000000
-0.19701643 -0.15582781 0.00000000
-0.62500530 -0.75639057 0.00000000
-0.04051733 0.41707757 0.00000513
-0.68014354 0.08704602 -0.00000115
-0.72790790 -0.74469012 -0.00000014
-0.24639615 0.00930861 0.00000814
-0.05342293 -0.69974786 0.15515703
-0.13622117 -0.01887367 0.39563015
-0.04809403 -0.02850667 0.13968022
-0.09846555 -0.75923842 0.28597498
-0.10994853 -0.34665668 0.00000000
-0.68383586 -0.33181137 -0.00000092
-0.02622366 0.17238712 0.07616177
-0.10813351 0.00737469 0.31405383
-0.01200388 -0.49522173 0.03486305
-0.23171614 0.29139733 0.00000405
-0.10047398 -0.77760243 0.00000000
-0.01590787 -0.67636192 0.04620147
-0.71421260 -0.39497414 -0.00000094
-0.19725278 -0.13775818 0.00000000
-0.55652159 -0.17189428 -0.00000066
-0.42421013 -0.18269274 -0.00000007
-0.19490217 -0.24386680 0.00000000
-0.43831292 0.07963272 0.00000362
-0.53489286 -0.45024961 -0.00000007
-0.69490647 -0.55629665 -0.00000057
-0.51125443 -0.24920908 -0.00000033
-0.02846995 0.00577679 0.08268571
-0.36352727 -0.55284470 0.00000000
-0.48651668 -0.04675960 -0.00000058
-0.52065063 -0.10667323 -0.00000062
-0.46634397 0.00572572 0.00000431
-0.09603095 0.37202764 0.27890554
-0.34804574 0.30906740 0.00000152
-0.21806577 -0.50870854 0.00000000
-0.05631059 0.26217192 0.16354370
-0.27069250 0.25977424 0.00000383
-0.42678010 -0.25570184 0.00000000
-0.32491642 -0.04475828 0.00000000
-0.51982749 -0.72546196 0.00000000
-0.33425358 -0.77860630 0.00000000
-0.38652408 0.08020029 0.00000460
-0.20436984 -0.51035964 0.00000000
-0.72628134 -0.76874006 -0.00000008
-0.76495665 -0.33834949 -0.00000115
-0.39057109 0.23464157 0.00000194
-0.01229909 0.42977121 0.00000537
-0.03762834 0.49378827 0.00000403
-0.11674979 -0.55974996 0.00000000
-0.51089346 0.02496228 0.00000314
-0.18327890 -0.61406362 0.53229970
-0.39899880 -0.28925428 0.00000000
-0.45602679 -0.27339724 -0.00000005
-0.57136142 -0.60571176 0.00000000
-0.17522071 -0.34633487 0.00000000
-0.75599694 -0.35689524 -0.00000111
-0.06897819 -0.02836698 0.00000000
-0.63354141 0.07539629 -0.00000006
-0.32432440 -0.74124402 0.00000000
-0.79445088 -0.10838165 -0.00000173
-0.38684732 -0.09053084 -0.00000008
-0.17956960 -0.25487173 0.00000000
-0.48228964 0.18273187 0.00000105
-0.02257179 -0.45828563 0.00000000
-0.57456684 -0.72111261 0.00000000
-0.46354586 -0.23856786 -0.00000014
-0.02079449 -0.06849851 0.00000000
-0.55237913 -0.65328771 0.00000000
-0.22727501 -0.78608477 0.00000000
-0.12350255 0.47502452 0.00000301
-0.08147689 -0.22265363 0.23663457
-0.00412607 -0.12662375 0.01198341
-0.18317074 -0.05710513 0.00000000
-0.54322141 -0.52340424 0.00000000
-0.45905402 -0.24430905 -0.00000011
-0.40828806 0.09671479 0.00000391
-0.05150210 0.31569818 0.00000649
-0.01153796 -0.37221938 0.00000000
-0.72005475 -0.76500785 -0.00000009
-0.04018227 0.67661810 0.00000124
-0.12073779 -0.68072242 0.00000000
-0.16911916 -0.46375701 0.00000000
-0.23842669 -0.74614573 0.00000000
-0.11031593 0.19546643 0.00000740
-0.04739252 -0.66652912 0.13764282
-0.69072312 -0.70169163 -0.00000025
-0.74832761 -0.70748901 -0.00000023
-0.73436058 -0.08547229 -0.00000157
-0.36305764 -0.34310114 0.00000000
-0.45766231 0.02779543 0.00000411
-0.19473758 -0.01826708 0.56558239
-0.01633459 0.78177780 -0.00000004
-0.28809851 -0.03976263 0.00000000
-0.70806473 -0.75631529 -0.00000011
-0.68730938 -0.31623459 -0.00000096
-0.65427917 -0.25417191 -0.00000093
-0.58272320 -0.11520947 -0.00000087
-0.37428993 -0.13295333 0.00000000
-0.08285004 -0.63015085 0.24062262
-0.19943894 0.03917359 0.00000840
-0.63766760 -0.57594550 -0.00000029
-0.72767663 -0.66256404 -0.00000034
-0.34372339 -0.19438767 0.00000000
-0.20420560 0.40344787 0.00000270
-0.53100753 0.23687640 -0.00000079
-0.51901346 -0.73251748 0.00000000
-0.42510659 -0.47248474 0.00000000
-0.04467799 0.53930050 0.00000324
-0.38890484 -0.19013120 0.00000000
-0.41902998 -0.58298469 0.00000000
-0.29876533 -0.41256025 0.00000000
-0.02645223 0.26861915 0.07682561
-0.25835481 -0.35021132 0.00000000
-0.49274927 0.00875488 0.00000375
-0.31165206 -0.79533160 0.00000000
-0.46225286 -0.52264231 0.00000000
-0.40648684 -0.28369927 0.00000000
-0.31018546 -0.64297575 0.00000000
-0.18207556 -0.55415851 0.00000000
-0.04904167 0.37163311 0.00000569
-0.15734912 0.14445367 0.00000746
-0.25921461 0.14033946 0.00000598
-0.65689623 -0.45274243 -0.00000059
-0.38229570 0.16344196 0.00000329
-0.09366700 -0.47426629 0.00000000
-0.26671720 0.32885316 0.00000275
-0.18889549 0.09441285 0.00000773
-0.13965514 -0.65955591 0.40560254
-0.00628801 -0.24593437 0.01826236
-0.19558845 0.38932076 0.00000310
-0.61386645 -0.60184282 -0.00000014
-0.10315895 -0.18521900 0.00000000
-0.03049451 0.49227044 0.00000416
-0.08555897 0.42810491 0.00000429
-0.75092351 -0.50874066 -0.00000073
-0.01320393 0.52807528 0.00000388
-0.65089685 -0.23087244 -0.00000096
-0.09456654 0.49557543 0.00000314
-0.47919145 -0.65590578 0.00000000
-0.44134882 0.27190796 0.00000035
-0.27746224 -0.54192221 0.00000000
-0.24929307 -0.33200324 0.00000000
-0.68583399 0.01509794 -0.00000006
-0.01742605 0.26236075 0.05061074
-0.11132707 0.58433717 0.00000146
-0.22059745 -0.58224893 0.00000000
-0.40082017 -0.55513972 0.00000000
-0.31724271 0.24351367 0.00000320
-0.49885902 -0.70874804 0.00000000
-0.67001617 -0.22589552 -0.00000105
-0.69169021 0.07184892 -0.00000112
-0.51335633 -0.65611213 0.00000000
-0.62050152 -0.67263448 -0.00000004
-0.08413061 0.09915272 0.00000924
-0.06073975 0.70318007 0.00000045
-0.36601469 -0.50904751 0.00000000
-0.77084702 -0.77197510 -0.00000007
-0.55944312 -0.32359800 -0.00000040
-0.00386548 0.41605234 0.01122657
-0.69485700 -0.36199200 -0.00000091
-0.52341223 -0.63563430 0.00000000
-0.24765138 0.40121299 0.00000191
-0.49226797 -0.67864686 0.00000000
-0.23038208 0.12297632 0.00000668
-0.56533521 -0.12199928 -0.00000078
-0.31035748 0.23671129 0.00000345
-0.65679914 -0.63467652 -0.00000027
-0.70375931 -0.26304549 -0.00000112
-0.76311153 -0.13644582 -0.00000160
-0.01707926 0.22326759 0.04960355
-0.24667706 0.31184742 0.00000342
-0.19648521 0.08787040 0.57065862
-0.44965386 -0.00535302 -0.00000050
-0.26030943 -0.10738985 0.00000000
-0.42839277 -0.03229590 -0.00000036
-0.18218076 -0.15179341 0.00000000
-0.08832246 -0.66536558 0.00000000
-0.23850347 -0.50127417 0.00000000
-0.46298456 -0.22861753 -0.00000016
-0.43675351 -0.30498102 0.00000000
-0.37165663 -0.70066482 0.00000000
-0.32386026 -0.61737645 0.00000000
-0.52368677 -0.00791369 -0.00000081
-0.62951928 -0.05327575 -0.00000118
-0.20007037 -0.50756407 0.00000000
-0.23835225 0.29205143 0.00000391
-0.39031646 -0.14952397 0.00000000
-0.04188981 -0.76806980 0.00000000
-0.04528335 -0.09248394 0.00000000
-0.24772041 -0.69855452 0.00000000
-0.65549827 -0.14660503 -0.00000112
-0.05445887 0.73158085 0.00000010
-0.57759660 -0.46233562 -0.00000023
-0.31156421 -0.72269428 0.00000000
-0.06831150 0.10595822 0.00000938
-0.21605115 0.23362827 0.00000524
-0.03489661 0.47798374 0.00000430
-0.09040030 -0.63849568 0.00000000
-0.20717762 -0.46907315 0.00000000
-0.67776853 0.04122382 -0.00000034
-0.31625268 -0.11011715 0.00000000
-0.03508625 -0.43739292 0.00000000
-0.45346814 0.20587251 0.00000122
-0.01169289 0.07240405 0.00001074
-0.14414252 0.18772817 0.00000701
-0.07795838 0.11804445 0.00000905
-0.51639962 -0.52321881 0.00000000
-0.03253975 -0.31220216 0.00000000
-0.26537430 0.27521655 0.00000367
-0.51315987 -0.54829037 0.00000000
-0.15716150 -0.37282375 0.00000000
-0.23597592 -0.71597409 0.00000000
-0.17725134 -0.27946427 0.00000000
-0.11560561 0.66527414 0.00000003
-0.25402778 0.47968745 0.00000047
-0.69594812 0.02792179 -0.00000047
-0.06868660 0.31448784 0.00000625
-0.00202810 0.59380734 0.00589024
-0.41465974 0.09076675 0.00000388
-0.38314283 -0.16614294 0.00000000
-0.37746021 -0.30576360 0.00000000
-0.58774078 -0.18795241 -0.00000076
-0.78858405 -0.40458944 -0.00000099
-0.06894225 0.66634732 0.00000091
-0.18607299 0.27946532 0.00000500
-0.74833453 -0.01954763 -0.00000174
-0.46583790 0.16322678 0.00000169
-0.08675980 0.05723138 0.00000983
-0.67837006 0.00294079 0.00000029
-0.09650554 -0.54284835 0.28028250
-0.26452842 -0.13406132 0.00000000
-0.49460667 -0.18366297 -0.00000037
-0.54442251 0.20143937 -0.00000046
-0.28676319 -0.40338802 0.00000000
-0.62697005 -0.57286239 -0.00000025
-0.73820174 -0.33817631 -0.00000114
-0.38379195 -0.65105796 0.00000000
-0.27966824 -0.30243242 0.00000000
-0.56218988 -0.21943684 -0.00000060
-0.24490282 0.49421111 0.00000040
-0.13182218 0.07211808 0.00000893
-0.22111975 0.18150026 0.00000594
-0.21053490 -0.68699151 0.00000000
-0.06737191 0.21762002 0.00000772
-0.39588794 0.21525313 0.00000217
-0.09479995 0.60801941 0.00000139
-0.47179431 -0.49750677 0.00000000
-0.33676118 -0.09759028 0.00000000
-0.21256641 0.29000813 0.00000444
-0.21932666 -0.68923134 0.00000000
-0.15125293 -0.14712395 0.00000000
-0.55605787 -0.56564629 0.00000000
-0.29661798 0.15799968 0.00000503
-0.61915082 0.14763737 -0.00000099
-0.04637169 0.07637185 0.13467801
-0.27051744 -0.61704254 0.00000000
-0.40046546 -0.51091856 0.00000000
-0.02751756 -0.13762742 0.00000000
-0.21254712 -0.76483124 0.00000000
-0.13373630 0.33001608 0.38841492
-0.34375653 -0.59993142 0.00000000
-0.40074092 0.19501337 0.00000241
-0.19301368 -0.69045615 0.56057256
-0.34078103 -0.30997121 0.00000000
-0.31203514 -0.14550982 0.00000000
-0.30986434 -0.15557478 0.00000000
-0.10660035 0.13260652 0.00000840
-0.15096301 0.27738261 0.43844709
-0.13281503 0.31138152 0.00000533
-0.51574761 -0.55192852 0.00000000
-0.11199006 0.48564076 0.00000303
-0.18617716 0.23942032 0.00000560
-0.31179219 -0.45614189 0.00000000
-0.30405504 -0.46857819 0.00000000
-0.35590059 0.26763433 0.00000206
-0.64191586 -0.07848000 -0.00000119
-0.53461909 0.18978228 -0.00000007
-0.33365601 -0.20154145 0.00000000
-0.11498491 0.02469765 0.00000989
-0.48389581 -0.65899920 0.00000000
-0.06639326 0.39877719 0.00000502
-0.25162646 0.14499035 0.00000603
-0.37671024 -0.40689608 0.00000000
-0.15928236 -0.66507834 0.00000000
-0.16936000 0.25773028 0.00000558
-0.08979885 0.13317765 0.00000865
-0.57024515 -0.48672158 -0.00000016
-0.18139181 -0.67995721 0.00000000
-0.02969397 -0.63754159 0.08624065
-0.28152332 0.51292282 -0.00000069
-0.77982664 -0.50289106 -0.00000074
-0.29209983 0.16764957 0.00000495
-0.11992077 -0.74469256 0.34828770
-0.38134718 0.09190539 0.00000450
-0.06828259 -0.33645678 0.00000000
-0.24899098 0.02032728 0.00000794
-0.20584778 -0.67304474 0.59784710
-0.06891017 -0.53756738 0.00000000
-0.23426931 -0.44177836 0.00000000
-0.49708241 0.20315398 0.00000042
-0.07291760 0.54482955 0.00000273
-0.16390498 -0.29581928 0.00000000
-0.30825585 -0.32547104 0.00000000
-0.10029059 0.43082795 0.00000402
-0.60727322 -0.51984304 -0.00000026
-0.49612117 -0.42803881 0.00000000
-0.52843159 -0.16094118 -0.00000056
-0.52065307 -0.68494320 0.00000000
-0.74737000 -0.63562500 -0.00000041
-0.21348603 0.28057945 0.00000457
-0.36781353 -0.59317517 0.00000000
-0.22401291 -0.23347664 0.00000000
-0.19562793 -0.24324828 0.00000000
-0.09296093 0.06477222 0.00000963
-0.67867249 -0.44063807 -0.00000070
-0.69978100 -0.73107594 -0.00000017
-0.45660883 -0.60030955 0.00000000
-0.04905954 0.55823261 0.00000289
-0.07557764 0.65065783 0.00000104
-0.19048084 -0.78844768 0.55321640
-0.67548805 -0.56553352 -0.00000047
-0.48159203 0.24422430 0.00000004
-0.52748817 -0.15843052 -0.00000056
-0.13016500 -0.44585341 0.00000000
-0.34182155 -0.32242993 0.00000000
-0.27587336 0.52131921 -0.00000068
-0.39343619 0.04482701 0.00000506
-0.31728896 -0.54544026 0.00000000
-0.28356546 -0.78647852 0.00000000
-0.14172594 -0.15220466 0.00000000
-0.42229897 0.30188933 0.00000021
-0.13552536 -0.35543522 0.39360836
-0.52297384 -0.43973967 -0.00000004
-0.02099410 0.40921810 0.00000554
-0.02275090 0.24640726 0.06607578
-0.24384682 -0.73928016 0.70820773
-0.01697332 -0.23299454 0.00000000
-0.68847001 -0.02137253 -0.00000149
-0.01308349 -0.39775795 0.00000000
-0.55463904 -0.07984243 -0.00000081
-0.41429800 -0.40220386 0.00000000
-0.31972006 -0.08443731 0.00000000
-0.03340980 -0.37370753 0.09703259
-0.51155424 -0.62974960 0.00000000
-0.22275861 -0.01133613 0.64696532
-0.30976304 0.30791378 0.00000227
-0.18104295 0.54359937 0.00000081
-0.03116449 -0.03681161 0.09051150
-0.59542459 0.15579776 -0.00000067
-0.25819826 -0.05647449 0.00000000
-0.54651839 0.06855060 0.00000172
-0.20007311 0.28625563 0.00000469
-0.18244006 -0.28746793 0.52986473
-0.07196746 -0.69989485 0.00000000
-0.69283026 -0.51130354 -0.00000064
-0.23423126 -0.09566138 0.00000000
-0.31916058 0.22164175 0.00000353
-0.44962648 -0.51916450 0.00000000
-0.71489233 0.04370319 -0.00000110
-0.55630857 -0.48245162 -0.00000011
-0.05255802 -0.70123941 0.00000000
-0.49257764 -0.49261859 0.00000000
-0.28517622 -0.51875836 0.00000000
-0.28790534 0.21027039 0.00000432
-0.29991826 -0.46473962 0.00000000
-0.78816348 -0.43085709 -0.00000092
-0.14624457 0.31767377 0.00000503
-0.31480539 -0.02177027 0.00000000
-0.06303600 0.46732259 0.00000404
-0.46197435 -0.74296898 0.00000000
-0.48511985 -0.37135318 0.00000000
-0.02282221 -0.01745971 0.06628289
-0.51870680 -0.52146125 0.00000000
-0.79078072 -0.22419649 -0.00000144
-0.07095672 -0.44752204 0.00000000
-0.00500319 0.21336839 0.01453084
-0.72938389 -0.65426254 -0.00000036
-0.10917635 0.00045374 0.00001035
-0.56490183 -0.25524372 -0.00000055
-0.38436702 -0.29240686 0.00000000
-0.63074291 -0.17215447 -0.00000097
-0.26779252 -0.79000103 0.00000000
-0.17435057 -0.42456794 0.50636935
-0.65212280 -0.08716895 -0.00000121
-0.78693783 -0.34737411 -0.00000113
-0.38734937 -0.26384035 0.00000000
-0.12119635 0.26713854 0.00000616
-0.42558253 -0.25379598 0.00000000
-0.55248445 -0.45253614 -0.00000014
-0.52625406 -0.26115093 -0.00000037
-0.03477354 0.37723598 0.00000582
-0.14929780 -0.33431432 0.00000000
-0.38053474 -0.04684910 -0.00000013
-0.14871469 -0.33583033 0.43191433
-0.04615438 -0.52722001 0.13404687
-0.53104222 -0.42059720 -0.00000011
-0.22169200 -0.47730678 0.64386523
-0.59437364 -0.19594897 -0.00000078
-0.08580347 0.33825883 0.24920118
-0.16442727 -0.62954146 0.00000000
-0.19504438 0.00263810 0.00000902
-0.28053430 0.16200589 0.00000527
-0.46584511 -0.36175397 0.00000000
-0.76066291 -0.08597555 -0.00000168
-0.16411431 0.16955090 0.00000698
-0.23414223 0.11443968 0.00000675
-0.43484804 0.15084022 0.00000249
-0.60012299 -0.25613284 -0.00000069
-0.02668417 -0.06674693 0.07749924
-0.39776888 -0.77909303 0.00000000
-0.16001377 0.16109060 0.46473309
-0.06849756 0.40965992 0.19893909
-0.04997855 -0.64175928 0.14515346
-0.41580185 -0.08703846 -0.00000021
-0.15490824 0.24351287 0.00000601
-0.25250947 -0.68188512 0.00000000
-0.56790131 -0.46497169 -0.00000019
-0.00829242 0.72969109 0.02408380
-0.57069683 -0.70753664 0.00000000
-0.21111146 0.10770684 0.61313850
-0.15064809 -0.69789881 0.00000000
-0.18288471 -0.23879296 0.00000000
-0.00236900 -0.52238035 0.00688032
-0.09270427 -0.10478872 0.00000000
-0.03039152 -0.47658819 0.00000000
-0.39879549 -0.45077655 0.00000000
-0.10709232 -0.60396749 0.31102985
-0.38255170 0.37806550 -0.00000030
-0.48841676 -0.07579754 -0.00000054
-0.50933439 -0.33084902 -0.00000017
-0.03446098 0.24271674 0.00000784
-0.51042509 -0.20092843 -0.00000041
-0.12997253 -0.40325668 0.37748119
-0.30606145 -0.05370688 0.00000000
-0.01259884 0.21321005 0.03659100
-0.17867054 -0.29970074 0.51891667
-0.35938156 0.19765346 0.00000316
-0.05378439 0.10455348 0.15620682
-0.52894980 -0.76755565 0.00000000
-0.43156520 -0.14824218 -0.00000017
-0.10961515 -0.17175718 0.00000000
-0.51969397 0.25187403 -0.00000082
-0.27428311 0.33323982 0.00000253
-0.15858886 -0.65888298 0.00000000
-0.28686491 -0.52815986 0.00000000
-0.16322468 -0.38649565 0.00000000
-0.28122023 -0.13513362 0.00000000
-0.55697829 -0.40000075 -0.00000026
-0.12942886 -0.45198289 0.37590221
-0.31474036 -0.46222281 0.00000000
-0.28242469 0.47692028 -0.00000003
-0.70235074 -0.15889159 -0.00000130
-0.37606615 0.19063336 0.00000296
-0.48825383 -0.12347082 -0.00000045
-0.30841941 -0.39583603 0.00000000
-0.66652840 -0.56964654 -0.00000042
-0.18493316 0.10050400 0.53710747
-0.32531336 -0.10423259 0.00000000
-0.11960604 0.23282188 0.00000670
-0.50633430 -0.05800204 -0.00000064
-0.68757492 -0.54807025 -0.00000055
-0.63940489 -0.69951874 -0.00000008
-0.02782488 0.21005961 0.00000843
-0.65913415 -0.54762542 -0.00000043
-0.16935235 0.48827812 0.00000195
-0.64138663 -0.70504457 -0.00000008
-0.64110816 -0.04225225 -0.00000125
-0.12085353 -0.19168811 0.35099673
-0.53438258 -0.13426092 -0.00000063
-0.37296703 -0.60632980 0.00000000
-0.73744881 -0.43676576 -0.00000091
-0.35127115 0.43149459 -0.00000059
-0.22116603 -0.51423824 0.00000000
-0.32167345 -0.19817406 0.00000000
-0.38050717 -0.45978370 0.00000000
-0.76845741 -0.66344988 -0.00000034
-0.19681939 -0.75895697 0.00000000
-0.49802983 -0.73045409 0.00000000
-0.41736418 -0.77361798 0.00000000
-0.54883552 -0.21368757 -0.00000055
-0.13089292 -0.19504359 0.38015428
-0.15143301 -0.68360513 0.43980917
-0.59101874 0.20485061 -0.00000141
-0.03423934 0.54695195 0.09944184
-0.79798949 -0.27818757 -0.00000130
-0.26633564 -0.06324548 0.00000000
-0.43524364 -0.04560496 -0.00000036
-0.05613458 -0.09304050 0.00000000
-0.17798974 -0.10570704 0.00000000
-0.11361972 0.29157990 0.00000591
-0.62933266 -0.02116542 -0.00000123
-0.14052148 0.11475622 0.40812042
-0.12694304 -0.16162415 0.00000000
-0.54987061 -0.78362674 0.00000000
-0.09383727 -0.26507702 0.27253300
-0.13075206 -0.05692148 0.00000000
-0.02581935 -0.35877991 0.07498753
-0.04583232 -0.59316128 0.00000000
-0.43505338 -0.33489904 0.00000000
-0.17948385 0.39860541 0.00000326
-0.24501923 -0.59732771 0.71161395
-0.17351927 -0.59112096 0.00000000
-0.24054056 0.25977147 0.00000440
-0.20266396 -0.36737871 0.00000000
-0.65615636 -0.48398578 -0.00000053
-0.75354409 -0.76880002 -0.00000008
-0.24010448 -0.46494013 0.00000000
-0.47684175 -0.13349144 -0.00000038
-0.72406524 0.04533999 -0.00000130
-0.56459516 -0.59048551 0.00000000
-0.02692498 0.40577355 0.00000551
-0.64612144 -0.77353209 0.00000000
-0.06003290 0.56115687 0.17435548
-0.60708785 0.15512478 -0.00000089
-0.14273685 0.51595825 0.00000200
-0.13011326 0.13108546 0.37789136
-0.19626546 0.58818984 -0.00000023
-0.01229210 -0.10347571 0.03570013
-0.59816855 -0.39238325 -0.00000044
-0.78599519 -0.29534215 -0.00000126
-0.28103435 0.31971511 0.00000263
-0.33717611 -0.46626043 0.00000000
-0.47021729 0.25847217 0.00000002
-0.69153875 -0.59018809 -0.00000049
-0.56612533 0.03833149 0.00000185
-0.03653242 -0.37941647 0.10610166
-0.37799177 -0.30242521 0.00000000
-0.12544060 -0.73053372 0.00000000
-0.22885966 0.06674891 0.00000755
-0.02754768 0.53713518 0.00000353
-0.41503686 -0.43919531 0.00000000
-0.37833577 -0.68440861 0.00000000
-0.56048387 -0.47835046 -0.00000013
-0.36430946 -0.56749982 0.00000000
-0.61084968 0.01628883 0.00000136
-0.64107788 -0.37066466 -0.00000067
-0.57011080 -0.71687073 0.00000000
-0.48404092 -0.37676072 0.00000000
-0.29817480 -0.30742246 0.00000000
-0.04149218 -0.18069096 0.12050636
-0.18495502 0.26335838 0.00000526
-0.13931197 -0.25539973 0.00000000
-0.56683910 -0.78653669 0.00000000
-0.59804010 -0.43326023 -0.00000037
-0.26972783 0.16015683 0.00000551
-0.45766869 -0.47039700 0.00000000
-0.61012471 -0.21252757 -0.00000081
-0.73888254 -0.48289913 -0.00000079
-0.52894425 0.20363297 -0.00000020
-0.66578019 -0.40907550 -0.00000070
-0.68642735 -0.15707520 -0.00000124
-0.01256815 -0.06521718 0.00000000
-0.43533865 -0.68018085 0.00000000
-0.76101935 -0.56678385 -0.00000058
-0.49777332 -0.49367723 0.00000000
-0.42968148 -0.40533900 0.00000000
-0.14516947 0.17068425 0.00000725
-0.63400131 -0.24689291 -0.00000086
-0.47671428 0.19835760 0.00000090
-0.05650122 -0.66854805 0.16409735
-0.57387775 -0.69371969 0.00000000
-0.29031491 -0.16783728 0.00000000
-0.62157434 -0.21081230 -0.00000087
-0.11352194 -0.43360943 0.00000000
-0.20110805 -0.27763236 0.58408320
-0.72928137 -0.21632586 -0.00000132
-0.37744603 -0.57557362 0.00000000
-0.64501941 -0.61402690 -0.00000025
-0.42701957 0.02445248 0.00000475
-0.52125663 -0.10167837 -0.00000063
-0.63629586 0.00932233 0.00000099
-0.32665068 -0.66742700 0.00000000
-0.44340229 0.03641126 0.00000424
-0.10407454 -0.37496468 0.30226526
-0.40548402 0.02011656 0.00000524
-0.51025695 0.00621546 0.00000346
-0.00768931 -0.65585375 0.02233218
-0.39804840 -0.36096799 0.00000000
-0.12132296 0.09662561 0.00000872
-0.03345852 -0.26932624 0.00000000
-0.17096280 -0.05336877 0.49653187
-0.10245757 -0.39097938 0.29756907
-0.48287004 -0.25280398 -0.00000020
-0.29715243 0.04477177 0.00000684
-0.14970303 0.25985390 0.00000584
-0.31399995 0.33984151 0.00000166
-0.35782650 -0.10801449 0.00000000
-0.50460654 -0.68951827 0.00000000
-0.64332485 -0.05463810 -0.00000123
-0.03177727 -0.17265005 0.00000000
-0.33500025 0.14153932 0.00000457
-0.16991155 -0.02222154 0.49347883
-0.59427726 -0.22528704 -0.00000072
-0.42689401 -0.75572759 0.00000000
-0.61714607 0.13522625 -0.00000075
-0.58845872 -0.18414055 -0.00000077
-0.78919792 -0.56305337 -0.00000059
-0.06581840 -0.51254815 0.19115737
-0.08172033 -0.49051949 0.00000000
-0.21779494 0.56198108 -0.00000021
-0.70600837 -0.61890149 -0.00000045
-0.12873919 -0.36378101 0.37389919
-0.75821620 0.01315627 -0.00000142
-0.27217144 -0.31698808 0.00000000
-0.21539924 0.21408926 0.00000554
-0.02865233 0.61416918 0.08321553
-0.65029913 0.02500777 0.00000046
-0.08620123 0.01807548 0.00001043
-0.45799965 -0.76235819 0.00000000
-0.55412185 -0.05525567 -0.00000085
-0.76294243 -0.71161699 -0.00000022
-0.44606492 -0.78218269 0.00000000
-0.22260685 -0.43642586 0.00000000
-0.79293221 0.00432849 -0.00000194
-0.08414265 -0.55507988 0.00000000
-0.76626003 -0.75757295 -0.00000011
-0.29143214 0.09912904 0.00000611
-0.54394090 0.01291051 0.00000270
-0.60501814 -0.56377786 -0.00000017
-0.22960845 -0.23548681 0.00000000
-0.40698674 0.27283439 0.00000099
-0.57548523 -0.29223174 -0.00000053
-0.75789016 -0.35667917 -0.00000111
-0.22346944 0.07301460 0.00000753
-0.26165521 -0.38338953 0.00000000
-0.22560357 -0.69529539 0.00000000
-0.66050726 0.04957337 -0.00000015
-0.67671394 0.02036443 0.00000003
-0.79573846 -0.58938217 -0.00000053
-0.54062939 -0.05870627 -0.00000079
-0.56365108 -0.27356395 -0.00000051
-0.07841564 0.51897502 0.22774521
-0.62472129 -0.12469727 -0.00000103
-0.16568840 -0.75667071 0.00000000
-0.78535509 -0.43956941 -0.00000090
-0.15494758 -0.44713563 0.00000000
-0.15684786 -0.31589821 0.45553586
-0.55291545 -0.19669995 -0.00000060
-0.70366967 -0.51622772 -0.00000068
-0.23512957 -0.24316740 0.00000000
-0.12781289 0.14812523 0.00000785
-0.50011230 -0.24107039 -0.00000029
-0.18835922 -0.17121974 0.54705662
-0.28952053 -0.73134947 0.00000000
-0.54704446 0.01252285 0.00000265
-0.53226441 0.17812373 0.00000017
-0.48101485 -0.37982565 0.00000000
-0.65973586 -0.18133143 -0.00000108
-0.44466814 -0.79553688 0.00000000
-0.30129516 -0.77894950 0.00000000
-0.03122490 0.08092862 0.00001031
-0.02812323 -0.76360661 0.00000000
-0.10449139 0.63595569 0.00000073
-0.73350787 -0.10759204 -0.00000153
-0.32107714 -0.22121696 0.00000000
-0.10101574 -0.61843628 0.00000000
-0.02904304 0.53969753 0.00000347
-0.23047547 0.16241585 0.00000609
-0.03825381 0.51134270 0.11110112
-0.33262151 -0.01159723 0.00000000
-0.00569714 -0.37100238 0.01654629
-0.42682999 -0.47149080 0.00000000
-0.27613449 -0.27169955 0.00000000
-0.36666259 -0.17583294 0.00000000
-0.12286953 0.22432333 0.35685349
-0.22302611 0.02092650 0.00000832
-0.23793414 -0.79392970 0.69103515
-0.03992294 -0.63256770 0.11594880
-0.18652827 0.37653762 0.00000349
-0.30098945 -0.19350490 0.00000000
-0.08676437 0.41992980 0.00000439
-0.19630903 -0.23065457 0.00000000
-0.45939925 -0.59699523 0.00000000
-0.39924461 -0.42139453 0.00000000
-0.08616335 -0.54479069 0.00000000
-0.79003251 0.00028673 -0.00000181
-0.01750542 0.78000969 -0.00000000
-0.00288138 0.79050559 0.00000010
-0.25495473 -0.70776266 0.00000000
-0.54265147 -0.49342191 -0.00000003
-0.10797484 -0.10598816 0.31359297
-0.10105920 0.69469345 -0.00000025
-0.75905144 -0.16981097 -0.00000153
-0.11476569 -0.57175350 0.00000000
-0.35238010 -0.50479925 0.00000000
-0.10774395 0.00566595 0.00001029
-0.43553090 -0.37339601 0.00000000
-0.15740998 0.34446591 0.00000446
-0.50176305 0.22870317 -0.00000009
-0.78196168 -0.75188720 -0.00000012
-0.52710789 -0.57835239 0.00000000
-0.27519435 -0.17329910 0.00000000
-0.13921261 -0.53212333 0.40431729
-0.07589088 -0.51364559 0.00000000
-0.32717404 0.10945563 0.00000525
-0.45228916 -0.09764003 -0.00000034
-0.61165112 -0.64448601 -0.00000006
-0.27720234 -0.64131862 0.00000000
-0.10335149 0.06514832 0.00000946
-0.32515192 -0.37512398 0.00000000
-0.45658904 -0.12915666 -0.00000031
-0.73671615 -0.44894475 -0.00000088
-0.53766280 0.02481301 0.00000262
-0.20339461 -0.40125829 0.00000000
-0.41655049 -0.77666646 0.00000000
-0.66580200 -0.08371670 -0.00000128
-0.25693819 -0.00230789 0.00000000
-0.24154560 0.39756262 0.00000208
-0.03403478 0.14166796 0.00000936
-0.63183606 -0.74239802 0.00000000
-0.59194636 -0.34054452 -0.00000051
-0.78590673 -0.21343304 -0.00000147
-0.62241942 -0.62066633 -0.00000014
-0.74301594 -0.33842397 -0.00000115
-0.15938990 0.49436185 0.00000204
-0.39064568 0.36728430 -0.00000027
-0.09013822 0.70647472 -0.00000017
-0.73599583 -0.33770224 -0.00000113
-0.42422396 -0.20577700 -0.00000003
-0.27038693 0.40087172 0.00000147
-0.61083478 0.12160568 -0.00000040
-0.15670422 -0.14646897 0.00000000
-0.22157992 0.56077206 -0.00000026
-0.09297819 0.54520804 0.00000242
-0.44314229 0.00035394 0.00000485
-0.05348760 0.51281011 0.15534538
-0.30286333 -0.19358595 0.00000000
-0.01959295 -0.14389567 0.05690410
-0.18201578 -0.22758538 0.00000000
-0.45639518 -0.46102113 0.00000000
-0.10207744 0.56301439 0.00000200
-0.54289985 0.00036362 0.00000293
-0.07065923 -0.37405282 0.00000000
-0.05306796 -0.18372054 0.00000000
-0.72807539 -0.13797539 -0.00000145
-0.28928068 0.39826787 0.00000116
-0.16219674 -0.51965362 0.00000000
-0.14297484 -0.42288548 0.00000000
-0.14797235 -0.03403768 0.42975962
-0.12105512 0.22209300 0.00000684
-0.16827819 0.43789673 0.00000282
-0.07066395 -0.42144641 0.20523039
-0.55313563 0.11844353 0.00000076
-0.68623728 -0.41133606 -0.00000079
-0.07903750 -0.66232145 0.00000000
-0.19243631 0.35112447 0.00000380
-0.11007160 -0.25552610 0.00000000
-0.02903041 -0.73485297 0.00000000
-0.10568819 -0.32309005 0.00000000
-0.37920585 -0.01364155 -0.00000018
-0.37566882 -0.21186902 0.00000000
-0.69567478 0.01300073 -0.00000021
-0.16573136 -0.11429076 0.48133764
-0.36465886 -0.53448224 0.00000000
-0.02058882 0.16809401 0.00000917
-0.14394964 -0.26449659 0.41807514
-0.64594799 -0.55204612 -0.00000037
-0.71940088 -0.33833894 -0.00000106
-0.10254697 0.38302076 0.00000471
-0.01224009 -0.61831659 0.00000000
-0.22688402 0.32920256 0.00000351
-0.55190021 -0.65282661 0.00000000
-0.52591282 -0.40629375 -0.00000011
-0.72744751 -0.62969518 -0.00000043
-0.23952579 -0.72912323 0.69565833
-0.77439409 -0.28752974 -0.00000128
-0.56712162 -0.40146360 -0.00000030
-0.09225295 0.25473994 0.00000679
-0.17079005 0.00014076 0.00000942
-0.18383715 0.16282229 0.53392458
-0.74057925 -0.40801850 -0.00000098
-0.65940374 -0.71378124 -0.00000014
-0.68285352 -0.75817549 -0.00000010
-0.40762642 -0.21053001 0.00000000
-0.13713802 -0.57493913 0.00000000
-0.46469232 0.11214406 0.00000257
-0.19093198 0.19503567 0.00000619
-0.19320498 -0.18039961 0.00000000
-0.07738228 0.09574352 0.00000940
-0.10481850 0.68702853 -0.00000013
-0.23660593 -0.35419849 0.00000000
-0.06487344 -0.18419351 0.18841292
-0.15860739 -0.68643850 0.00000000
-0.08419427 -0.53986764 0.00000000
-0.27357382 -0.02946632 0.00000000
-0.39176884 0.27150390 0.00000130
-0.01930034 -0.48556635 0.00000000
-0.60385758 -0.45529926 -0.00000036
-0.41116440 -0.66607916 0.00000000
-0.16390124 0.56077582 0.00000085
-0.12399720 -0.26717305 0.00000000
-0.28871673 -0.01846888 0.00000000
-0.26520976 -0.23801383 0.00000000
-0.26580700 0.52010721 -0.00000043
-0.35100165 -0.12775083 0.00000000
-0.40986910 -0.59433514 0.00000000
-0.61725152 -0.63987470 -0.00000009
-0.69366461 -0.13095123 -0.00000131
-0.69526970 -0.27510297 -0.00000107
-0.63810551 -0.68999660 -0.00000009
-0.31273001 -0.15311199 0.00000000
-0.73652446 0.06159504 -0.00000181
-0.45003530 -0.29553440 0.00000000
-0.17315631 0.00475824 0.00000932
-0.11586735 -0.44663048 0.00000000
-0.36494219 -0.34570345 0.00000000
-0.22122259 -0.79203349 0.64250004
-0.68677497 -0.47532913 -0.00000068
-0.22843307 -0.56541121 0.00000000
-0.19376533 0.00698607 0.56275874
-0.60502654 -0.16653557 -0.00000087
-0.75225008 -0.11538848 -0.00000159
-0.19196393 -0.09926880 0.00000000
-0.65350991 -0.70544881 -0.00000013
-0.22652254 0.47663057 0.00000105
-0.38424271 0.23191088 0.00000211
-0.78303689 -0.30075732 -0.00000125
-0.28276742 0.16565469 0.00000517
-0.52110451 -0.02895467 -0.00000076
-0.41117215 -0.25785992 0.00000000
-0.70605528 -0.34266207 -0.00000099
-0.73880172 -0.73646224 -0.00000016
-0.34388095 0.44623360 -0.00000069
-0.11803975 -0.47096291 0.00000000
-0.19535492 0.55388224 0.00000036
-0.08132518 -0.09648630 0.23619395
-0.47161874 0.31543607 -0.00000096
-0.31788135 0.19205119 0.00000405
-0.25572780 0.32276711 0.00000306
-0.52441788 -0.57160622 0.00000000
-0.16567922 0.15931626 0.00000711
-0.23526338 -0.57890832 0.00000000
-0.06881799 -0.32201332 0.19986913
-0.20434172 -0.22810209 0.59347516
-0.48824158 -0.03493656 -0.00000061
-0.67710429 -0.63897628 -0.00000035
-0.21424986 0.46903521 0.00000141
-0.59707636 -0.42001897 -0.00000039
-0.24724269 -0.00394673 0.71807575
-0.25973010 0.52421165 -0.00000038
-0.18337265 -0.23759983 0.00000000
-0.13263708 0.05534546 0.38522106
-0.13510875 0.48112896 0.00000273
-0.19822843 0.05622526 0.00000817
-0.46828976 0.18441324 0.00000129
-0.55879134 0.22462298 -0.00000112
-0.69892037 -0.65878558 -0.00000035
-0.22298738 0.38506612 0.00000265
-0.20632815 0.10626102 0.00000729
-0.01518440 -0.00898401 0.04410028
-0.16558774 0.10427218 0.48092160
-0.09428716 0.44138137 0.27384129
-0.45907122 0.21670298 0.00000093
-0.52206379 -0.10835704 -0.00000062
-0.23473860 -0.55496836 0.00000000
-0.00705298 0.64079416 0.00000228
-0.51048821 -0.64769059 0.00000000
-0.12600346 0.22136657 0.00000678
-0.14863706 -0.55459464 0.00000000
-0.66781956 -0.22599098 -0.00000104
-0.16217008 -0.38130459 0.47099313
-0.53306472 -0.12753864 -0.00000064
-0.27709112 -0.27474824 0.00000000
-0.37740001 0.11158555 0.00000425
-0.45408210 -0.47167107 0.00000000
-0.05957692 -0.24737224 0.17303015
-0.55682892 -0.69188166 0.00000000
-0.57510591 0.01388346 0.00000209
-0.42139301 0.07753308 0.00000398
-0.24316446 -0.04661102 0.00000000
-0.05557454 0.49060839 0.00000380
-0.57466531 0.17664209 -0.00000062
-0.20441820 -0.01172619 0.00000000
-0.02287672 0.44011235 0.00000505
-0.61769038 -0.60183251 -0.00000016
-0.66354978 -0.53884059 -0.00000047
-0.15806897 -0.21181546 0.00000000
-0.13200951 -0.20842130 0.00000000
-0.02820616 0.35662308 0.08191958
-0.14337870 -0.61693513 0.41641694
-0.71021998 -0.16185705 -0.00000133
-0.02660968 -0.62822706 0.07728290
-0.12315302 -0.54682922 0.00000000
-0.70477813 -0.12917346 -0.00000137
-0.24668071 -0.28279799 0.00000000
-0.46306816 -0.57052583 0.00000000
-0.30820963 0.17930712 0.00000445
-0.12986855 -0.03584024 0.00000000
-0.51082009 -0.36073980 -0.00000013
-0.10396293 -0.14926708 0.00000000
-0.42492831 -0.58168936 0.00000000
-0.27622321 -0.26196551 0.00000000
-0.56261480 -0.43463445 -0.00000022
-0.30725354 0.13856478 0.00000515
-0.24092051 -0.05418075 0.00000000
-0.77288711 -0.78832930 -0.00000003
-0.25825083 -0.70278335 0.75004143
-0.40806946 -0.03917867 -0.00000026
-0.15790829 -0.10389314 0.00000000
-0.20104945 -0.20813873 0.00000000
-0.09369226 0.53490210 0.00000256
-0.29743707 -0.50507009 0.00000000
-0.48185989 -0.49970314 0.00000000
-0.47559375 -0.04753581 -0.00000053
-0.19185176 -0.63986659 0.00000000
-0.51814401 -0.02790281 -0.00000075
-0.77406192 -0.71976078 -0.00000020
-0.53920996 -0.09020813 -0.00000073
-0.72359884 -0.40647498 -0.00000096
-0.08291128 -0.60908908 0.00000000
-0.06748527 0.01280026 0.00001079
-0.02255998 0.57551724 0.06552129
-0.26566789 -0.16723388 0.00000000
-0.45945719 -0.02644097 -0.00000050
-0.03916497 0.74250776 0.00000021
-0.11451810 0.55374193 0.00000191
-0.03477972 -0.29451719 0.00000000
-0.64629346 -0.05693157 -0.00000124
-0.40152180 -0.44744894 0.00000000
-0.53299260 0.15578799 0.00000053
-0.17606068 -0.21086241 0.00000000
-0.07698824 0.16529861 0.00000836
-0.49161342 -0.14165051 -0.00000043
-0.79100376 -0.31419003 -0.00000121
-0.74384952 -0.76726305 -0.00000008
-0.51685447 0.10922797 0.00000161
-0.51807123 -0.72042429 0.00000000
-0.48777327 -0.31578624 -0.00000011
-0.73074895 -0.45699513 -0.00000086
-0.48864436 -0.52589786 0.00000000
-0.68261892 -0.65241009 -0.00000035
-0.08464515 -0.07478675 0.00000000
-0.21940055 -0.64829868 0.63720924
-0.25864267 -0.26812869 0.00000000
-0.00900716 0.73677754 0.00000081
-0.54403806 -0.56202692 0.00000000
-0.26302031 -0.45724392 0.00000000
-0.32902187 0.36133730 0.00000101
-0.59744966 -0.40816319 -0.00000041
-0.41792706 0.11792309 0.00000337
-0.75308383 -0.40910682 -0.00000098
-0.15258706 -0.30287674 0.44316104
-0.36845446 0.00983442 0.00000612
-0.49548376 -0.10455152 -0.00000052
-0.78735423 -0.47715569 -0.00000081
-0.02810739 -0.78735429 0.00000000
-0.18225193 -0.52851182 0.00000000
-0.33141854 0.37623528 0.00000071
-0.03618014 -0.72952926 0.00000000
-0.03425944 -0.21019731 0.09950021
-0.11223216 -0.49969545 0.00000000
-0.21571445 -0.16845775 0.00000000
-0.35379511 0.02992661 0.00000607
-0.38763481 -0.31741396 0.00000000
-0.01666981 -0.49253020 0.04841438
-0.42804271 -0.35019541 0.00000000
-0.01619032 0.23144174 0.00000828
-0.04920925 0.11115189 0.00000959
-0.29942995 -0.24464168 0.00000000
-0.57334930 -0.61185861 0.00000000
-0.32685909 -0.39761513 0.00000000
-0.74564087 -0.31335190 -0.00000121
-0.43771046 -0.07334050 -0.00000032
-0.22780830 0.45723394 0.00000135
-0.43548521 -0.44847825 0.00000000
-0.13030095 0.65587771 -0.00000009
-0.01827170 -0.24320947 0.00000000
-0.67403424 -0.63372779 -0.00000034
-0.47688282 -0.04415728 -0.00000054
-0.19303973 -0.21682283 0.00000000
-0.16009234 -0.05620345 0.00000000
-0.35678095 -0.20903572 0.00000000
-0.14269193 0.10041748 0.00000834
-0.07481732 -0.28252652 0.00000000
-0.03675254 -0.36317423 0.10674096
-0.40525869 -0.66806662 0.00000000
-0.66398263 -0.16437809 -0.00000113
-0.44427922 -0.15396889 -0.00000021
-0.43001920 -0.48938504 0.00000000
-0.13937829 -0.10962332 0.40479910
-0.50748366 -0.71242559 0.00000000
-0.19567636 0.22254217 0.00000571
-0.20587970 -0.10982280 0.00000000
-0.25147668 0.28706983 0.00000374
-0.07718054 0.61038989 0.00000168
-0.08375802 0.32781705 0.00000582
-0.33101362 -0.17919384 0.00000000
-0.23633710 0.09970007 0.00000694
-0.05506077 -0.61141580 0.00000000
-0.07784711 0.21224463 0.00000764
-0.48262122 0.08726964 0.00000264
-0.27413043 0.10969136 0.00000622
-0.54492253 0.23159720 -0.00000097
-0.73388964 -0.52257156 -0.00000069
-0.02626232 0.66366971 0.00000165
-0.67948472 -0.33612433 -0.00000089
-0.03867493 -0.15027545 0.00000000
-0.06062582 -0.26586011 0.00000000
-0.05590057 0.52385771 0.00000330
-0.40298337 -0.79493195 0.00000000
-0.52372098 -0.73079538 0.00000000
-0.08757060 0.18597989 0.00000789
-0.44839522 -0.74205452 0.00000000
-0.31335846 0.46164542 -0.00000037
-0.41926271 -0.55869299 0.00000000
-0.14311361 0.23458783 0.41564947
-0.23748538 0.11871479 0.00000664
-0.54525852 -0.19608353 -0.00000057
-0.65082318 -0.15950848 -0.00000108
-0.34037483 0.06494673 0.00000574
-0.53646642 -0.11060472 -0.00000068
-0.33521932 0.28362545 0.00000219
-0.71622956 -0.21359728 -0.00000126
-0.62323874 -0.22358280 -0.00000085
-0.43205506 0.31483942 -0.00000019
-0.08487916 -0.31269681 0.00000000
-0.43918744 -0.36953509 0.00000000
-0.63694841 -0.30660567 -0.00000076
-0.49416959 -0.39409119 0.00000000
-0.46320888 -0.55043864 0.00000000
-0.34836838 -0.79209888 0.00000000
-0.56280118 -0.04426737 -0.00000091
-0.23885629 0.05753795 0.00000753
-0.21954572 0.29050443 0.00000429
-0.06374853 -0.09526084 0.18514583
-0.58085650 0.17169841 -0.00000066
-0.77472019 -0.63786364 -0.00000041
-0.16268884 -0.25798190 0.00000000
-0.44070268 -0.52090847 0.00000000
-0.54086667 -0.22618094 -0.00000049
-0.67589790 -0.60476470 -0.00000040
