ply
format ascii 1.0
element vertex 1160
property float x
property float y
property float z
end_header
-0.40348548 -0.17603026 0.00352822
-0.31905261 -0.22355129 0.00278991
-0.14120942 0.11143708 0.00123478
-0.03667430 -0.13669565 0.00032069
-0.21116762 0.12078276 0.00184652
-0.44301453 -0.70733923 0.00387387
-0.20381185 -0.02747486 0.00178220
-0.10631644 0.03289537 0.00092967
-0.54146701 -0.18296574 0.00473529
-0.34255654 0.41577679 0.00299614
-0.03640699 0.58313817 0.00031836
-0.71115345 -0.09377505 0.00621989
-0.46390560 0.32597888 0.00405759
-0.35659164 -0.47528914 0.00311816
-0.20619206 0.43577725 0.00180323
-0.51951891 0.20918538 0.00454392
-0.15685885 -0.33190057 0.00137163
-0.38043851 -0.32231221 0.00332669
-0.65552998 -0.49580336 0.00573264
-0.21912000 -0.44598451 0.00191606
-0.51616102 0.18926753 0.00451451
-0.59199947 0.20116781 0.00517798
-0.05943937 -0.41781893 0.00051976
-0.44520998 0.24678762 0.00389391
-0.51592827 0.14037104 0.00451239
-0.33790678 0.38879263 0.00295542
-0.63708669 -0.59755361 0.00557113
-0.01619720 -0.24688514 0.00014163
-0.41587901 -0.13866572 0.00363669
-0.75783008 -0.04957312 0.00662830
-0.38674048 0.04930299 0.00338209
-0.09763465 -0.14353283 0.00085375
-0.69932234 -0.18883754 0.00611624
-0.55831563 -0.29525194 0.00488251
-0.23257568 -0.61723948 0.00203372
-0.11490504 -0.39866948 0.00100477
-0.25165287 -0.69964916 0.00220054
-0.68014240 -0.01981575 0.00594872
-0.30681366 -0.45509422 0.00268288
-0.59233654 -0.53202134 0.00517975
-0.21045297 -0.49519706 0.00184027
-0.28520867 -0.48204049 0.00249396
-0.30666313 -0.43965977 0.00268157
-0.36256999 -0.49303624 0.00317044
-0.14924762 -0.72057754 0.00130507
-0.34040645 -0.64915544 0.00297663
-0.43892899 -0.75184917 0.00383815
-0.05214453 -0.62731546 0.00045597
-0.08861355 -0.51401168 0.00077487
-0.38586578 -0.70631760 0.00337414
-0.52324617 0.16435479 0.00457645
-0.51785266 0.11830811 0.00452919
-0.48293719 -0.31842071 0.00422305
-0.31546465 0.44101042 0.00275918
-0.02273815 -0.10617888 0.00019883
-0.26078582 -0.59311861 0.00228040
-0.53143561 0.23044255 0.00464820
-0.02978780 -0.17432897 0.00026047
-0.43617639 -0.62997895 0.00381408
-0.41155347 -0.22310743 0.00359877
-0.04371807 -0.23642109 0.00038229
-0.15212072 -0.66894573 0.00133020
-0.37414348 0.02844019 0.00327185
-0.08477467 0.65262949 0.00074139
-0.40306315 -0.56556511 0.00352452
-0.23335151 -0.16328581 0.00204051
-0.18992870 0.31127656 0.00166080
-0.09008451 -0.49502650 0.00078773
-0.78353685 -0.12930717 0.00685303
-0.48069131 -0.66503310 0.00420333
-0.13957371 0.28525889 0.00122048
-0.09647302 -0.54053682 0.00084359
-0.48497024 -0.75171125 0.00424075
-0.58238930 -0.71039617 0.00509261
-0.11737339 -0.57958364 0.00102635
-0.17974938 -0.20104536 0.00157179
-0.34481120 0.33118603 0.00301573
-0.27162278 -0.15648261 0.00237516
-0.26027840 -0.66441494 0.00227596
-0.45442995 0.23664355 0.00397455
-0.61638498 -0.20869926 0.00539065
-0.60059887 -0.23676468 0.00525251
-0.70440781 -0.67419952 0.00615984
-0.37304097 -0.13208047 0.00326200
-0.02532700 0.13760237 0.00022147
-0.22064903 0.04290182 0.00192943
-0.68306845 -0.49070248 0.00597356
-0.35507548 0.28599072 0.00310545
-0.74180168 0.00166287 0.00648816
-0.25826752 0.03606534 0.00225838
-0.71277177 -0.79698193 0.00623266
-0.03446907 0.28915897 0.00030141
-0.48719242 0.11283117 0.00426096
-0.23132452 0.27498722 0.00202284
-0.68865961 -0.39686197 0.00602262
-0.45412317 -0.61162829 0.00397101
-0.48900136 0.27536979 0.00427705
-0.02620424 -0.05829455 0.00022914
-0.27550668 0.02029642 0.00240913
-0.67590517 -0.65622574 0.00591063
-0.23557603 -0.16421716 0.00205996
-0.18211561 -0.02696778 0.00159248
-0.60140991 -0.56099623 0.00525908
-0.42511484 0.14753868 0.00371795
-0.12063117 -0.45785415 0.00105484
-0.37471947 -0.19062164 0.00327668
-0.28535536 -0.37631723 0.00249525
-0.47868234 -0.66912043 0.00418576
-0.64697951 -0.30414876 0.00565815
-0.41113859 -0.48321101 0.00359514
-0.65630084 -0.13581716 0.00573996
-0.72572929 -0.72113293 0.00634614
-0.47264531 -0.77361047 0.00413297
-0.30527699 0.21594927 0.00266969
-0.52169538 -0.71136069 0.00456188
-0.41027951 -0.12495015 0.00358773
-0.65324545 -0.56683391 0.00571254
-0.16596177 0.45453420 0.00145132
-0.38829497 -0.10120911 0.00339544
-0.16126841 -0.16444571 0.00141019
-0.22631298 -0.55420327 0.00197896
-0.61156386 -0.04908302 0.00534873
-0.13406895 0.15467142 0.00117235
-0.03545565 0.27683675 0.00031004
-0.04467062 0.73632610 0.00039069
-0.10015601 0.69248402 0.00087601
-0.34069166 -0.71424538 0.00297913
-0.46840620 -0.23389345 0.00409606
-0.26605201 -0.35263947 0.00232645
-0.16868863 0.05891739 0.00147507
-0.04975860 -0.04388781 0.00043511
-0.43316641 -0.33007878 0.00378776
-0.75148618 -0.63519442 0.00657155
-0.21282522 0.43787190 0.00186126
-0.04969726 0.06236266 0.00043457
-0.56063652 -0.48071581 0.00490252
-0.75766289 -0.67430204 0.00662545
-0.28522140 -0.05365863 0.00249407
-0.08145052 -0.60637665 0.00071223
-0.07789743 0.53933960 0.00068116
-0.09287494 -0.20066261 0.00081213
-0.66623324 0.00390951 0.00582707
-0.56407523 -0.08709180 0.00493323
-0.00118268 -0.65338123 0.00001034
-0.66421521 -0.10286021 0.00580925
-0.25799868 0.05175754 0.00225603
-0.73586732 -0.61830986 0.00643503
-0.45863703 -0.39763808 0.00401048
-0.70983547 -0.61516094 0.00620744
-0.70109129 -0.14896668 0.00613178
-0.28916222 -0.57468963 0.00252853
-0.29204288 -0.64443582 0.00255372
-0.26729903 -0.56803536 0.00233735
-0.23150647 -0.40157738 0.00202437
-0.04338149 -0.46090668 0.00037934
-0.62151790 -0.59234244 0.00543494
-0.20157638 0.55124760 0.00176303
-0.28306293 0.39303178 0.00247564
-0.71800619 -0.00815616 0.00627998
-0.25166419 -0.61512017 0.00220064
-0.48735300 -0.38017279 0.00426158
-0.11508577 -0.57777166 0.00100635
-0.29529807 -0.02355290 0.00258219
-0.22495306 0.12736133 0.00196707
-0.14842767 -0.53072494 0.00129790
-0.45151082 -0.14974947 0.00394839
-0.66641575 -0.40722191 0.00582801
-0.21258444 -0.22884844 0.00185891
-0.05940107 -0.19469234 0.00051942
-0.72550422 -0.30463499 0.00634510
-0.14901815 0.55522436 0.00130325
-0.23410869 -0.43324268 0.00204713
-0.73468137 -0.48271281 0.00642500
-0.50847119 -0.67129904 0.00444625
-0.05057536 -0.33100018 0.00044225
-0.41873303 0.34155047 0.00366243
-0.78390437 -0.67823547 0.00685487
-0.10983158 0.15770341 0.00096041
-0.17861170 -0.03845344 0.00156184
-0.79002571 -0.21553937 0.00690954
-0.42343223 0.14117177 0.00370322
-0.28784183 -0.67931098 0.00251699
-0.43997893 -0.60553908 0.00384733
-0.34933001 -0.63342732 0.00305466
-0.68605441 -0.34892038 0.00599991
-0.00258627 0.74517012 0.00002262
-0.15667941 0.00613133 0.00137006
-0.12123053 -0.16500625 0.00106008
-0.74513471 -0.52494758 0.00651629
-0.39090335 0.19685876 0.00341874
-0.70712954 0.04218168 0.00618491
-0.00421298 -0.32122204 0.00003684
-0.07094252 0.27223590 0.00062035
-0.19966950 -0.65298539 0.00174598
-0.21924470 0.17329821 0.00191715
-0.28529403 0.38206065 0.00249514
-0.66649312 -0.65594471 0.00582829
-0.39267856 -0.60622996 0.00343372
-0.55718905 -0.64426154 0.00487225
-0.28775689 0.00513032 0.00251625
-0.55492651 -0.11517338 0.00485315
-0.17193139 -0.05059565 0.00150343
-0.73221064 -0.24055897 0.00640387
-0.37896454 -0.17570336 0.00331380
-0.71569479 -0.25012848 0.00625937
-0.58475542 -0.55484527 0.00511339
-0.65986401 -0.73711801 0.00577017
-0.14945389 -0.60227287 0.00130688
-0.18432875 -0.19984891 0.00161183
-0.04533173 -0.77852857 0.00039640
-0.71957749 -0.72601134 0.00629234
-0.59057671 -0.77668262 0.00516421
-0.28173953 0.30529851 0.00246393
-0.10827590 -0.12626423 0.00094680
-0.21413644 -0.18483664 0.00187248
-0.10798924 -0.10795493 0.00094430
-0.31541112 -0.27776432 0.00275806
-0.30418286 0.25996095 0.00266019
-0.09047891 0.23783106 0.00079118
-0.66499770 -0.61377937 0.00581528
-0.12538607 0.04205565 0.00109642
-0.38361242 -0.47111151 0.00335444
-0.14828962 0.33693975 0.00129670
-0.62080884 -0.66685635 0.00542862
-0.15391138 -0.08942497 0.00134585
-0.09979393 0.00797653 0.00087263
-0.34960866 -0.14057840 0.00305710
-0.50465626 -0.62894028 0.00441289
-0.15195249 -0.38210899 0.00132873
-0.15330990 -0.38682893 0.00134059
-0.11490112 -0.30284742 0.00100474
-0.22917829 0.16872500 0.00200401
-0.34404597 -0.02884567 0.00300846
-0.54278398 -0.12815589 0.00474690
-0.02501795 -0.40805298 0.00021877
-0.36041239 0.05085646 0.00315176
-0.40394917 -0.13377266 0.00353234
-0.00902531 0.48907906 0.00007892
-0.27622840 -0.58818364 0.00241544
-0.04268059 -0.75155967 0.00037321
-0.41720361 0.26816350 0.00364893
-0.21864834 -0.41133675 0.00191194
-0.32500920 0.46508545 0.00284271
-0.63576114 0.02740422 0.00556054
-0.16069779 0.58915454 0.00140548
-0.62171453 -0.37583184 0.00543701
-0.13694677 0.34161204 0.00119751
-0.54792291 -0.68762422 0.00479123
-0.55858725 -0.35839310 0.00488478
-0.03743669 0.46804813 0.00032736
-0.41542506 0.00957521 0.00363296
-0.50421733 -0.34884563 0.00440916
-0.78706050 -0.26143718 0.00688351
-0.50986958 -0.38951632 0.00445854
-0.24703170 -0.61755347 0.00216013
-0.59425139 -0.76182359 0.00519634
-0.61844260 -0.40237257 0.00540834
-0.13646860 0.24791925 0.00119333
-0.12710433 0.26355103 0.00111144
-0.48771775 -0.21826412 0.00426503
-0.78758615 -0.26313514 0.00688810
-0.14341635 -0.72120434 0.00125408
-0.75519586 -0.62527585 0.00660400
-0.53198421 0.04494474 0.00465270
-0.03076511 -0.71326679 0.00026902
-0.23803045 0.29582798 0.00208153
-0.57560301 -0.61957920 0.00503327
-0.37063387 -0.60774791 0.00324095
-0.45319363 -0.51722682 0.00396288
-0.19402596 0.40586197 0.00169675
-0.25887758 0.03403605 0.00226372
-0.03697938 -0.26474839 0.00032336
-0.16455109 -0.71261495 0.00143889
-0.47569430 -0.52750891 0.00415964
-0.30984765 -0.44446564 0.00270941
-0.12024714 0.13684411 0.00105148
-0.32438695 0.02743983 0.00283657
-0.44943890 -0.48156753 0.00393005
-0.46439734 -0.33402756 0.00406085
-0.68917763 -0.26431480 0.00602737
-0.01448804 0.69607961 0.00012669
-0.52490652 -0.29481694 0.00459024
-0.06676271 -0.64244688 0.00058380
-0.51730800 0.08469668 0.00452437
-0.38736382 -0.67634749 0.00338724
-0.02550678 0.06589419 0.00022304
-0.58195704 -0.09413688 0.00508965
-0.09239613 0.01256872 0.00080794
-0.24335100 -0.67138058 0.00212795
-0.46641594 -0.31979534 0.00407851
-0.54864752 -0.51120174 0.00479759
-0.54196727 -0.27758110 0.00473952
-0.22096024 0.43395481 0.00193242
-0.08390115 -0.55867010 0.00073366
-0.72471708 -0.10838998 0.00633852
-0.25819305 -0.55517781 0.00225773
-0.28494796 -0.35942754 0.00249168
-0.07796143 -0.01939623 0.00068172
-0.51559329 -0.10156611 0.00450908
-0.21168491 0.30086339 0.00185107
-0.37542543 0.06137576 0.00328312
-0.31564230 0.05508716 0.00276011
-0.12547912 0.63932115 0.00109746
-0.03727416 0.31131151 0.00032594
-0.06819687 0.60378647 0.00059634
-0.68635482 -0.17936032 0.00600281
-0.12522143 0.33336082 0.00109498
-0.23324746 0.12965605 0.00203960
-0.69047624 -0.05566317 0.00603906
-0.08446693 -0.29286432 0.00073861
-0.63315552 -0.75245368 0.00553653
-0.39826512 -0.49013990 0.00348257
-0.47802472 -0.19490026 0.00418027
-0.47727805 -0.69410008 0.00417348
-0.65386510 -0.70737875 0.00571774
-0.06433260 0.53765565 0.00056255
-0.58676326 -0.60758632 0.00513087
-0.36341307 0.04069232 0.00317800
-0.74694830 -0.56770462 0.00653204
-0.25630423 -0.59978062 0.00224121
-0.22998691 0.08451023 0.00201108
-0.13163483 -0.50778472 0.00115106
-0.15370110 0.06697175 0.00134402
-0.54847091 -0.78684145 0.00479602
-0.52625954 -0.45858473 0.00460181
-0.44728988 -0.73596609 0.00391126
-0.34812760 0.34731528 0.00304477
-0.41460344 -0.45609793 0.00362544
-0.37107590 -0.10541353 0.00324482
-0.28591159 0.10489380 0.00250011
-0.13882548 -0.54949319 0.00121394
-0.29391974 0.17889634 0.00257028
-0.46939152 -0.17943639 0.00410477
-0.22502331 0.36089990 0.00196785
-0.19848602 0.34923214 0.00173568
-0.11325449 0.49888226 0.00099034
-0.04476472 -0.45365793 0.00039144
-0.21248060 -0.44647324 0.00185800
-0.52436298 -0.19121119 0.00458565
-0.17501011 0.51542199 0.00153057
-0.23963892 -0.33048555 0.00209549
-0.37022996 0.30295098 0.00323805
-0.11687678 0.29222357 0.00102201
-0.19866213 0.56505376 0.00173756
-0.49473923 0.17384195 0.00432708
-0.51391160 -0.64741015 0.00449382
-0.63134742 -0.19422083 0.00552157
-0.17751898 0.44996294 0.00155241
-0.21412744 -0.27808923 0.00187240
-0.46550754 -0.09698120 0.00407092
-0.47796437 0.17084005 0.00418033
-0.59661025 -0.11769356 0.00521780
-0.78875446 -0.59211522 0.00689749
-0.16839530 -0.54274988 0.00147251
-0.33433309 -0.01596192 0.00292352
-0.73418677 -0.28754321 0.00642108
-0.28967717 0.00910318 0.00253304
-0.21596564 0.09142287 0.00188848
-0.71776348 -0.38254076 0.00627725
-0.27684194 0.50219554 0.00242140
-0.41626790 -0.07581270 0.00364020
-0.41590852 -0.73005414 0.00363685
-0.36919138 -0.23451445 0.00322834
-0.02798139 0.29836240 0.00024468
-0.49987414 -0.17220059 0.00437145
-0.63276470 -0.00029475 0.00553428
-0.53844488 -0.47454783 0.00470839
-0.05009153 -0.56379819 0.00043802
-0.30815277 0.46593112 0.00269525
-0.22618353 0.10715896 0.00197783
-0.38444647 0.11162252 0.00336212
-0.14110345 0.49949700 0.00123392
-0.00267943 0.26414245 0.00002343
-0.72858512 -0.53162980 0.00637158
-0.09947655 0.25159478 0.00086986
-0.33280393 -0.29221439 0.00291015
-0.42617291 -0.20528838 0.00372664
-0.05512059 0.61290121 0.00048199
-0.36207983 -0.37094018 0.00316615
-0.35531783 -0.17371628 0.00310702
-0.15644954 -0.23477548 0.00136805
-0.73934519 -0.17936409 0.00646638
-0.02365385 0.08685618 0.00020684
-0.34068149 -0.40378052 0.00297904
-0.73674363 -0.65336233 0.00644261
-0.44915819 -0.47588801 0.00392759
-0.45833358 -0.40584958 0.00400783
-0.75836325 -0.56513840 0.00663185
-0.39321533 -0.06649963 0.00343854
-0.36972770 0.10069256 0.00323334
-0.16057587 -0.71057296 0.00140413
-0.35016418 -0.18275931 0.00306196
-0.19217943 -0.00205624 0.00168048
-0.79886287 -0.74756974 0.00698548
-0.44517431 0.29130927 0.00389366
-0.50914985 -0.70601308 0.00445218
-0.13883506 -0.33215833 0.00121402
-0.19878402 0.15465581 0.00173824
-0.30608276 -0.33447242 0.00267649
-0.24097033 -0.43120989 0.00210713
-0.15915628 -0.38490933 0.00139172
-0.47806469 -0.33140615 0.00418040
-0.08852928 -0.32855394 0.00077413
-0.64745063 -0.51705796 0.00566193
-0.05488676 -0.01862128 0.00047995
-0.26001614 0.52669322 0.00227424
-0.70533812 -0.63435018 0.00616808
-0.79005706 -0.55297047 0.00690897
-0.10424326 0.43941787 0.00091154
-0.17987581 -0.01772495 0.00157290
-0.14003646 0.03301725 0.00122453
-0.59149051 -0.44264358 0.00517249
-0.12133972 -0.11104121 0.00106104
-0.38186088 -0.59414834 0.00333912
-0.59910375 -0.16317081 0.00523954
-0.24046126 -0.65775675 0.00210268
-0.34290639 -0.41706184 0.00299849
-0.67737228 -0.68112671 0.00592342
-0.27321014 -0.41996327 0.00238904
-0.10405380 -0.55281377 0.00090988
-0.15070549 -0.11984572 0.00131782
-0.56896389 0.02057097 0.00497617
-0.43059474 -0.21744329 0.00376530
-0.43914065 -0.08733516 0.00384027
-0.76837754 -0.35262316 0.00671993
-0.60502189 0.03305274 0.00529163
-0.15206105 0.50780892 0.00132979
-0.27666402 -0.21015178 0.00241925
-0.42304206 -0.49652326 0.00369923
-0.44440866 0.16866221 0.00388677
-0.40118977 -0.61937463 0.00350814
-0.64199817 -0.21056584 0.00561472
-0.19287574 -0.23117125 0.00168657
-0.19383572 -0.01661568 0.00169497
-0.00173590 0.26480150 0.00001518
-0.31288353 -0.24803630 0.00273596
-0.04373567 -0.64567739 0.00038244
-0.11816316 0.30188298 0.00103326
-0.04531290 0.42677957 0.00039623
-0.28449506 -0.03670573 0.00248772
-0.37426484 0.07384360 0.00327299
-0.19514056 0.15630756 0.00170638
-0.13365190 0.07392175 0.00116870
-0.07839448 -0.73022717 0.00068551
-0.56552827 -0.09042977 0.00494594
-0.41189143 -0.62376130 0.00360172
-0.65369946 0.01197516 0.00571744
-0.35392109 -0.38925010 0.00309481
-0.01630160 -0.55931211 0.00014255
-0.62054509 -0.55526829 0.00542649
-0.32218176 0.29401070 0.00281770
-0.67507094 -0.33205265 0.00590385
-0.29364404 -0.00388185 0.00256772
-0.44278625 -0.43389347 0.00387188
-0.32194871 -0.68033350 0.00281523
-0.55165827 0.03526395 0.00482480
-0.46733183 0.00209943 0.00408704
-0.06341504 0.69358051 0.00055460
-0.45301765 -0.63873345 0.00396134
-0.72898996 -0.68350011 0.00637474
-0.51485306 0.15596080 0.00450301
-0.39683956 0.31937632 0.00347087
-0.09157092 -0.42565817 0.00080073
-0.35391766 -0.30976805 0.00309478
-0.16094102 -0.67985696 0.00140732
-0.59674287 -0.37649775 0.00521855
-0.76321691 -0.11920475 0.00667531
-0.38689956 0.02569935 0.00338344
-0.39271760 -0.35840791 0.00343406
-0.43781367 -0.07888016 0.00382868
-0.40300578 -0.21167246 0.00352402
-0.54718161 -0.30821642 0.00478509
-0.47515285 -0.42558792 0.00415490
-0.63422573 -0.19930944 0.00554674
-0.34652749 -0.35466295 0.00303016
-0.00115373 0.00103542 0.00001197
-0.42277554 0.26268974 0.00369767
-0.26061603 -0.70806569 0.00227892
-0.22244871 -0.28482836 0.00194517
-0.54577321 -0.01886546 0.00477323
-0.45608032 0.11240408 0.00398879
-0.23683029 -0.37301484 0.00207093
-0.56805772 -0.62856132 0.00496729
-0.14521930 -0.17291567 0.00126985
-0.41354382 0.22359815 0.00361685
-0.75983983 -0.21544401 0.00664561
-0.35108626 0.11677446 0.00307028
-0.52546215 0.12449018 0.00459577
-0.44711673 0.07900216 0.00391032
-0.04714988 -0.49778181 0.00041229
-0.71465546 -0.59377486 0.00624964
-0.11932760 0.14473753 0.00104344
-0.06265635 -0.78403085 0.00054789
-0.51120180 -0.45737267 0.00447013
-0.32337537 -0.77274662 0.00282771
-0.74368411 -0.07989316 0.00650450
-0.21648936 0.54973418 0.00189349
-0.14390734 -0.39547125 0.00125838
-0.36438009 0.39799711 0.00318703
-0.01427120 0.63934684 0.00012479
-0.71902692 -0.35274142 0.00628835
-0.08431122 0.28121978 0.00073725
-0.29405573 -0.53475410 0.00257132
-0.77951586 -0.01998101 0.00681806
-0.41300455 -0.25866655 0.00361145
-0.43387988 -0.25824073 0.00379400
-0.44530481 -0.30607739 0.00389390
-0.59621638 -0.11000564 0.00521437
-0.02739306 0.21073331 0.00023953
-0.07968542 0.61025667 0.00069680
-0.32679054 -0.27327508 0.00285757
-0.79697317 -0.61067575 0.00696930
-0.31584963 -0.19319621 0.00276190
-0.37370148 -0.26814830 0.00326777
-0.06194856 0.48005164 0.00054170
-0.07919725 -0.18996967 0.00069253
-0.08010804 0.45337418 0.00070049
-0.66225457 -0.45442718 0.00579153
-0.47910070 -0.54236269 0.00418942
-0.67054319 -0.72927082 0.00586360
-0.11104027 0.53896981 0.00097099
-0.77153051 -0.69845277 0.00674663
-0.04573034 0.55321509 0.00039988
-0.20094647 -0.49376315 0.00175715
-0.29809052 -0.05355432 0.00260661
-0.25330451 0.28198937 0.00221513
-0.47192571 -0.72506618 0.00412668
-0.14865088 0.00614832 0.00129985
-0.07134834 -0.48653236 0.00062389
-0.11009988 0.16232666 0.00096275
-0.53743321 -0.39933658 0.00469966
-0.02828948 -0.45434558 0.00024737
-0.48962781 0.29716042 0.00428256
-0.53133780 -0.18707848 0.00464667
-0.63436103 -0.38995025 0.00554762
-0.28316227 -0.44898665 0.00247607
-0.14230648 0.17818534 0.00124438
-0.66064459 -0.38237458 0.00577757
-0.03149332 -0.63707036 0.00027539
-0.45890257 -0.24266461 0.00401291
-0.08802705 0.32710302 0.00076974
-0.12141615 -0.11640829 0.00106170
-0.08175923 0.66946083 0.00071504
-0.79017717 -0.59935558 0.00690991
-0.38792944 -0.58335060 0.00339219
-0.27449071 -0.64018482 0.00240024
-0.07172620 0.19078028 0.00062720
-0.66284359 0.04553721 0.00579749
-0.22593848 0.22255488 0.00197568
-0.41326445 -0.27191737 0.00361373
-0.16205332 0.30458632 0.00141705
-0.70885700 0.03963728 0.00620001
-0.70226949 -0.50137186 0.00614152
-0.38030192 -0.08715379 0.00332554
-0.56132311 -0.62095273 0.00490840
-0.45498213 -0.75633806 0.00397852
-0.47383413 -0.58672476 0.00414337
-0.32367575 -0.09662852 0.00283033
-0.79979020 -0.41001913 -0.00000097
-0.17915021 0.62083751 0.00156696
-0.51970267 0.15566766 0.00454544
-0.05631648 -0.07540537 0.00049245
-0.37730864 0.08951759 0.00329964
-0.30601814 0.24031562 0.00267622
-0.25816381 -0.04586929 0.00225747
-0.26840043 0.32078698 0.00234726
-0.58890969 -0.42056060 0.00514995
-0.27386412 -0.61176425 0.00239476
-0.54517728 -0.35975155 0.00476747
-0.11979521 0.17181496 0.00104753
-0.31983289 -0.13296437 0.00279673
-0.56977153 -0.27024454 0.00498277
-0.61569345 0.02297735 0.00538497
-0.77637094 -0.51931149 0.00678940
-0.56364983 -0.52358216 0.00492881
-0.34912169 -0.33314827 0.00305284
-0.42750943 -0.79731292 0.00373829
-0.25800145 -0.17455980 0.00225605
-0.08457183 0.70046216 0.00073969
-0.10327154 -0.42050499 0.00090304
-0.06364522 0.58928728 0.00055654
-0.65213299 -0.28244686 0.00570326
-0.33189812 -0.02605215 0.00290223
-0.65237027 -0.48287016 0.00570502
-0.65108281 -0.44146243 0.00569382
-0.13371298 -0.06009905 0.00116923
-0.31230813 -0.37601459 0.00273093
-0.05696282 -0.28814381 0.00049810
-0.37813401 -0.22554345 0.00330653
-0.13683008 0.01582437 0.00119649
-0.32840550 -0.56756651 0.00287169
-0.34522563 -0.32387000 0.00301877
-0.36376047 0.13769230 0.00318119
-0.19434074 0.20278056 0.00169938
-0.50081319 -0.76110345 0.00437928
-0.23436061 -0.16106337 0.00204933
-0.06347014 0.35170829 0.00055500
-0.13959044 -0.34793878 0.00122063
-0.79333293 -0.43282431 0.00693792
-0.78827810 -0.57019800 0.00689338
-0.05096785 0.04148493 0.00044568
-0.58491576 -0.20566148 0.00511536
-0.70172238 0.05902950 0.00613763
-0.60566080 -0.56613904 0.00529626
-0.72732508 -0.42307571 0.00636084
-0.12363417 0.66512847 0.00108136
-0.14276840 0.62461650 0.00124869
-0.75628519 -0.36266643 0.00661418
-0.04549989 -0.56881779 0.00039787
-0.64509755 -0.00593734 0.00564216
-0.79219562 -0.33876759 0.00692821
-0.21989948 0.01562317 0.00192288
-0.18667956 0.10988576 0.00163239
-0.22719905 -0.70339578 0.00198671
-0.60526842 -0.43434632 0.00529304
-0.34728536 -0.57893914 0.00303678
-0.23688555 0.36390138 0.00207163
-0.22519363 0.16224274 0.00196917
-0.49732441 -0.55596346 0.00434878
-0.01048836 0.12960267 0.00009171
-0.09560732 -0.32641453 0.00083602
-0.61628473 -0.70927083 0.00538901
-0.31881502 -0.18740442 0.00278783
-0.05869648 -0.18059181 0.00051326
-0.08038543 0.42588454 0.00070292
-0.41467088 -0.48476884 0.00362603
-0.64577729 -0.08514910 0.00564798
-0.77439684 -0.62602234 0.00677188
-0.24672101 0.03533128 0.00215741
-0.50839466 -0.09996061 0.00444610
-0.64334774 0.03883486 0.00562692
-0.44655713 -0.26697835 0.00390487
-0.29568276 0.31456199 0.00258592
-0.28966072 0.05814502 0.00253289
-0.21868624 -0.54668415 0.00191227
-0.10851503 0.66939408 0.00094910
-0.12597191 -0.47428334 0.00110154
-0.70200610 0.08020468 0.00614015
-0.10358557 0.57280803 0.00090582
-0.10229523 0.15330680 0.00089450
-0.30123883 -0.38168851 0.00263414
-0.15975925 -0.56012899 0.00139699
-0.10151829 0.19479963 0.00088771
-0.44418773 0.34047729 0.00388511
-0.76049000 -0.13651578 0.00665143
-0.51666069 -0.15627582 0.00451833
-0.06743985 -0.03380041 0.00058972
-0.30635613 0.26063886 0.00267920
-0.61322504 -0.02626746 0.00536330
-0.70386875 -0.21354643 0.00615597
-0.63308036 0.03445377 0.00553710
-0.40575176 -0.57295543 0.00354803
-0.44748506 -0.28636613 0.00391296
-0.27513486 -0.42396250 0.00240587
-0.05688075 -0.15639286 0.00049738
-0.46477196 -0.13151979 0.00406443
-0.56034672 0.21012738 0.00490109
-0.76697564 -0.49604666 0.00670732
-0.46790364 -0.62120849 0.00409151
-0.37218159 0.20333797 0.00325497
-0.51344067 -0.78703004 0.00448970
-0.54846078 -0.40418643 0.00479612
-0.56571466 -0.75547761 0.00494680
-0.42209110 -0.47500151 0.00369091
-0.18591291 0.39318541 0.00162575
-0.32488984 -0.73444241 0.00284095
-0.03782387 -0.58081514 0.00033074
-0.47589114 -0.01601414 0.00416189
-0.06323663 -0.54838485 0.00055296
-0.44380185 0.24474205 0.00388158
-0.21273287 -0.43738678 0.00186021
-0.18906625 0.50106221 0.00165351
-0.15418385 -0.00776744 0.00134824
-0.34208015 -0.23672991 0.00299127
-0.07443918 0.65721864 0.00065098
-0.28629002 -0.21911019 0.00250342
-0.23275325 0.03323477 0.00203527
-0.10763386 -0.33968744 0.00094119
-0.38212577 -0.15710729 0.00334144
-0.06284109 -0.22061031 0.00054950
-0.33865255 0.12993306 0.00296153
-0.50452876 0.28381389 0.00441290
-0.57738441 0.03323740 0.00504985
-0.39877182 -0.79232293 0.00348700
-0.06646389 -0.42411664 0.00058118
-0.63068169 -0.45763496 0.00551532
-0.36145607 -0.64583826 0.00316070
-0.73005253 0.06732091 0.00638544
-0.25196379 -0.00713285 0.00220326
-0.70190507 -0.49716350 0.00613834
-0.24611738 0.55349398 0.00215269
-0.77302343 -0.44260904 0.00676033
-0.69739377 -0.42424232 0.00609899
-0.10213930 0.58532673 0.00089319
-0.76118058 -0.60065824 0.00665639
-0.06150673 -0.23917535 0.00053784
-0.14918672 0.62605417 0.00130484
-0.07193180 0.20592742 0.00062900
-0.25958085 -0.69998258 0.00226986
-0.03673038 0.08599916 0.00032118
-0.03286235 -0.20430920 0.00028736
-0.72383517 -0.26765850 0.00633055
-0.58827406 -0.52693343 0.00514422
-0.61494350 -0.05455551 0.00537829
-0.50277764 -0.51940912 0.00439646
-0.30963919 -0.28444687 0.00270759
-0.18295242 0.27042636 0.00159980
-0.42131662 -0.03080030 0.00368444
-0.04365670 -0.16984837 0.00038175
-0.03804133 -0.26741505 0.00033265
-0.60108155 0.16747443 0.00525738
-0.06020322 -0.55456877 0.00052644
-0.65195405 -0.22361884 0.00570179
-0.15390795 0.40409139 0.00134582
-0.00178206 -0.73639417 0.00001558
-0.02663246 0.71046036 0.00023288
-0.10912987 0.22966304 0.00095427
-0.76062346 -0.21732216 0.00665247
-0.22819912 -0.00628119 0.00199545
-0.53367478 -0.77425820 0.00466664
-0.06950803 -0.10968737 0.00060780
-0.26667064 -0.24540576 0.00233186
-0.01943285 -0.27056047 0.00016993
-0.11275583 0.65621030 0.00098618
-0.45403597 0.04367137 0.00397079
-0.67527276 -0.24095160 0.00590576
-0.22971895 0.31920028 0.00200886
-0.17391400 -0.57192546 0.00152076
-0.15835407 -0.77960163 0.00138470
-0.18563953 -0.06949380 0.00162330
-0.79170203 -0.46455574 0.00692358
-0.62912148 0.03374429 0.00550246
-0.00719479 -0.77897286 0.00006291
-0.15369731 -0.40155503 0.00134398
-0.10254936 -0.09296120 0.00089673
-0.37471858 0.18885726 0.00327714
-0.74759513 -0.29750481 0.00653836
-0.08007574 0.28295362 0.00070021
-0.28329560 -0.65052038 0.00247723
-0.26616526 0.26874164 0.00232762
-0.46592489 -0.10996907 0.00407455
-0.61321628 0.06838012 0.00536337
-0.63549721 -0.44483736 0.00555747
-0.60238802 0.03282123 0.00526859
-0.21263987 0.38170487 0.00185955
-0.58601719 -0.62624490 0.00512434
-0.27876687 0.07945117 0.00243763
-0.23808575 -0.15531553 0.00208190
-0.45879209 -0.47020859 0.00401184
-0.16537711 -0.70812035 0.00144611
-0.31595403 -0.37681881 0.00276281
-0.60965872 0.09285723 0.00533229
-0.34613198 0.43842643 0.00302746
-0.40537921 -0.19350088 0.00354478
-0.23670711 0.30208454 0.00206997
-0.03514189 0.02282510 0.00030729
-0.45446369 0.14111812 0.00397469
-0.33215022 -0.45154634 0.00290444
-0.06699330 -0.09138429 0.00058581
-0.77075380 -0.06797318 0.00674133
-0.18358079 0.23027177 0.00160529
-0.78159487 -0.01175863 0.00683626
-0.59915978 -0.48096338 0.00523953
-0.06390457 -0.05376247 0.00055880
-0.25325146 -0.51110965 0.00221452
-0.11025474 -0.33761382 0.00096411
-0.13384590 0.05934620 0.00117039
-0.16018882 -0.67915815 0.00140075
-0.05519198 0.20795068 0.00048262
-0.18780112 -0.04357817 0.00164220
-0.60041982 -0.57894695 0.00525039
-0.68139064 -0.79461390 0.00595830
-0.29059899 -0.20502326 0.00254110
-0.08673571 -0.09455589 0.00075845
-0.12203122 0.54096389 0.00106714
-0.79280555 -0.10321315 0.00693413
-0.65627581 -0.56934905 0.00573905
-0.55441362 0.18192732 0.00484914
-0.22640635 0.31897914 0.00197988
-0.09510274 -0.31434372 0.00083161
-0.70260900 -0.67192346 0.00614412
-0.60785347 -0.72070956 0.00531528
-0.31433910 -0.26557833 0.00274869
-0.32770687 -0.74178326 0.00286558
-0.71000135 -0.65199512 0.00620880
-0.03007470 -0.51777595 0.00026298
-0.40267989 0.39503539 0.00352204
-0.07834915 -0.66385937 0.00068511
-0.40613458 -0.32231024 0.00355138
-0.39649460 0.09737739 0.00346749
-0.08463500 -0.74290305 0.00074008
-0.58210641 -0.49997455 0.00509031
-0.72186220 -0.15726574 0.00631347
-0.02267590 0.59703696 0.00019829
-0.24989714 -0.40475234 0.00218519
-0.35804269 -0.37111813 0.00313085
-0.63121623 -0.57378787 0.00551981
-0.73026240 -0.78757811 0.00638561
-0.42903608 0.18982612 0.00375232
-0.08212748 0.47823557 0.00071815
-0.15350984 -0.08836366 0.00134234
-0.57631958 0.04374049 0.00504055
-0.58398908 0.10784336 0.00510775
-0.30901060 -0.15470265 0.00270210
-0.79375595 -0.06263773 0.00694254
-0.51563245 -0.38757536 0.00450896
-0.60044974 -0.71292359 0.00525054
-0.49228153 -0.19697033 0.00430499
-0.08037435 0.21840449 0.00070282
-0.04203507 0.42690200 0.00036757
-0.21751618 -0.43526620 0.00190204
-0.40345025 -0.36758152 0.00352791
-0.46308249 -0.02334744 0.00404983
-0.55841821 0.23196460 0.00488425
-0.79129720 -0.55209643 0.00691982
-0.46207181 -0.04765823 0.00404094
-0.49435082 0.25070646 0.00432381
-0.79245418 -0.35925040 0.00693042
-0.31365097 0.47465587 0.00274336
-0.33044517 -0.08832547 0.00288953
-0.20079505 -0.25890478 0.00175582
-0.54934841 -0.31568792 0.00480403
-0.26241919 0.10608730 0.00229468
-0.27109146 -0.59514368 0.00237052
-0.60044342 -0.29299811 0.00525106
-0.56631780 -0.29558647 0.00495251
-0.79176289 -0.57079673 0.00692384
-0.21695451 0.07268538 0.00189713
-0.57575738 -0.78764343 0.00503462
-0.25375575 0.53513306 0.00221949
-0.42887080 -0.78803676 0.00375019
-0.38304469 0.38695410 0.00335029
-0.71689594 0.04830095 0.00627035
-0.41691336 0.20871496 0.00364630
-0.66226894 0.03195647 0.00579244
-0.05758266 -0.39200905 0.00050352
-0.56119800 0.00751183 0.00490821
-0.40370446 0.08205776 0.00353054
-0.14207099 -0.14252494 0.00124232
-0.09635604 -0.55577934 0.00084257
-0.40981200 -0.39902797 0.00358354
-0.30601177 -0.62985051 0.00267587
-0.64163280 -0.14412346 0.00561163
-0.44106236 -0.43976858 0.00385680
-0.07240389 0.24569915 0.00063312
-0.60088402 -0.73129255 0.00525434
-0.14033458 -0.24125107 0.00122713
-0.27102137 -0.28699550 0.00236990
-0.27420664 -0.06292699 0.00239776
-0.45483115 0.13999160 0.00397790
-0.27009231 -0.76672345 0.00236178
-0.50593567 -0.02848791 0.00442471
-0.27421033 0.52451754 0.00239839
-0.23743939 -0.38745564 0.00207625
-0.12195226 -0.00214161 0.00106639
-0.23424996 -0.39891839 0.00204836
-0.09210027 -0.56452525 0.00080536
-0.19337258 0.14879763 0.00169092
-0.02113996 0.13535470 0.00018486
-0.10880552 0.38566652 0.00095143
-0.72117114 -0.56464410 0.00630668
-0.13432261 -0.28742251 0.00117456
-0.77567691 -0.79324323 0.00678265
-0.40428203 -0.63254952 0.00353518
-0.18343109 -0.65230775 0.00160398
-0.23955165 0.51227790 0.00209519
-0.08322024 0.08290168 0.00072771
-0.55561745 -0.63823789 0.00485851
-0.21260345 -0.12778822 0.00185908
-0.16388148 0.19311559 0.00143304
-0.65454882 -0.46814778 0.00572410
-0.42012957 -0.58751333 0.00367376
-0.09330462 0.22485398 0.00081589
-0.03722193 0.20086922 0.00032548
-0.55284899 -0.78270203 0.00483430
-0.43355542 -0.01365619 0.00379153
-0.06843654 -0.37479737 0.00059843
-0.29510123 -0.43736690 0.00258047
-0.23303691 0.07881564 0.00203776
-0.33855274 -0.29591361 0.00296042
-0.74470586 -0.44654179 0.00651274
-0.17404419 0.14420617 0.00152190
-0.09409082 -0.41353992 0.00082276
-0.59149367 -0.44526708 0.00517252
-0.60165530 0.10394811 0.00526229
-0.21871848 -0.11783728 0.00191255
-0.08288572 -0.41333899 0.00072478
-0.31564218 -0.48794901 0.00276008
-0.20735434 -0.13631004 0.00181318
-0.31911623 -0.41567641 0.00279046
-0.68996018 -0.24827603 0.00603424
-0.06159120 0.57681525 0.00053857
-0.02434194 0.59617245 0.00021285
-0.24180171 0.13330074 0.00211440
-0.68770796 -0.08111298 0.00601480
-0.58098167 -0.58512062 0.00508033
-0.24812193 0.03664311 0.00216966
-0.77087486 -0.73730659 0.00674080
-0.37425119 0.13157164 0.00327296
-0.06513973 -0.46977532 0.00056960
-0.15556407 -0.77837539 0.00136031
-0.10190035 0.03135806 0.00089105
-0.42470890 -0.73800325 0.00371380
-0.05491751 0.53453088 0.00048022
-0.58391839 -0.61517954 0.00510598
-0.18345311 0.04938892 0.00160418
-0.75484073 -0.46762639 0.00660129
-0.10954635 0.58926743 0.00095800
-0.19878335 -0.48002157 0.00173823
-0.13431467 0.48581493 0.00117451
-0.66462082 -0.19884393 0.00581264
-0.00668972 0.62659299 0.00005850
-0.48937267 -0.32829756 0.00427933
-0.67938507 -0.19291818 0.00594181
-0.01365646 -0.34154055 0.00011942
-0.19704597 -0.70729452 0.00172304
-0.54237461 -0.55862349 0.00474271
-0.10190892 0.53080457 0.00089113
-0.49487427 -0.01005819 0.00432797
-0.44696820 -0.65048742 0.00390844
-0.23570734 0.30920565 0.00206123
-0.58537090 0.01785118 0.00511970
-0.34456432 -0.52584887 0.00301299
-0.21639492 -0.26568249 0.00189223
-0.71492982 -0.42580184 0.00625239
-0.06642365 -0.12940598 0.00058083
-0.11199963 -0.30551389 0.00097936
-0.46981636 -0.24602418 0.00410838
-0.09659554 -0.01006979 0.00084466
-0.40516457 -0.08203628 0.00354305
-0.18572251 -0.59680873 0.00162402
-0.23019044 0.48316124 0.00201325
-0.11296726 0.40488645 0.00098782
-0.47474530 -0.50069177 0.00415134
-0.62215751 -0.02753523 0.00544144
-0.58477986 -0.54906839 0.00511362
-0.57613122 0.00533092 0.00503885
-0.37141687 -0.28460792 0.00324780
-0.63840234 -0.35399592 0.00558303
-0.27492961 0.28304464 0.00240431
-0.27338600 -0.13318156 0.00239058
-0.34970781 0.43987164 0.00305874
-0.47054547 -0.28502333 0.00411469
-0.60864621 -0.67285907 0.00532221
-0.50655061 -0.14820229 0.00442989
-0.56151849 -0.71112132 0.00491011
-0.08114885 0.29591173 0.00070959
-0.54201680 -0.60485876 0.00473958
-0.49025503 -0.49228448 0.00428696
-0.33454099 -0.02380676 0.00292534
-0.06634686 -0.22075003 0.00058016
-0.11369869 -0.49673226 0.00099422
-0.03697300 -0.19814053 0.00032330
-0.48535484 -0.16109993 0.00424445
-0.32597259 0.14000186 0.00285062
-0.38448492 0.30712220 0.00336277
-0.73160970 -0.08656532 0.00639886
-0.09587440 0.33533731 0.00083836
-0.24721166 -0.58846915 0.00216170
-0.40976927 -0.00341638 0.00358346
-0.02961340 0.26146486 0.00025895
-0.78697789 -0.70079201 0.00688168
-0.07935422 0.50095344 0.00069390
-0.56048673 -0.18667163 0.00490168
-0.12284533 -0.76206684 0.00107420
-0.28484714 -0.62887478 0.00249080
-0.62317640 0.09242715 0.00545055
-0.35032448 0.42089337 0.00306411
-0.69663078 -0.07528961 0.00609287
-0.20663740 -0.28159475 0.00180691
-0.44624934 0.28388515 0.00390306
-0.30789378 -0.61360860 0.00269233
-0.73554653 -0.63605720 0.00643218
-0.78787297 -0.45611182 0.00689012
-0.11950854 0.23867202 0.00104502
-0.65809542 -0.12649323 0.00575567
-0.06625333 -0.72443122 0.00057934
-0.66308236 -0.66721451 0.00579844
-0.72497225 -0.16025741 0.00634067
-0.00506652 -0.55329496 0.00004430
-0.44441745 -0.65326345 0.00388614
-0.01047016 -0.55339134 0.00009155
-0.00562487 0.79240912 0.00004916
-0.13901083 0.65866476 0.00121583
-0.60981661 -0.47592574 0.00533276
-0.78087360 -0.27514860 0.00682938
-0.03484178 -0.55010629 0.00030467
-0.27816066 0.14109156 0.00243235
-0.65064967 0.01130051 0.00569076
-0.21025977 -0.16314872 0.00183858
-0.30743444 -0.45509061 0.00268831
-0.36400500 0.11224350 0.00318329
-0.25414726 -0.70724261 0.00222235
-0.38416654 0.26519555 0.00335991
-0.78610611 -0.41689408 0.00687477
-0.51213819 -0.15097360 0.00447877
-0.13790162 0.03335993 0.00120586
-0.48358655 -0.61008304 0.00422865
-0.07080529 -0.52829528 0.00061915
-0.23147035 -0.79332519 0.00202406
-0.12252148 0.45600772 0.00107137
-0.37765679 0.19764635 0.00330286
-0.59609812 0.15224445 0.00521376
-0.75356811 -0.13765068 0.00659087
-0.07990955 0.23325171 0.00069876
-0.58967537 -0.09947280 0.00515716
-0.12084427 -0.46928436 0.00105670
-0.49062002 -0.54034501 0.00429015
-0.44327953 -0.79164249 0.00387619
-0.21666716 -0.51277405 0.00189461
-0.10733869 -0.38328177 0.00093861
-0.28824222 -0.31784371 0.00252049
-0.61406195 -0.39912382 0.00537002
-0.07709039 0.04399702 0.00067410
-0.49711674 0.09433151 0.00434775
-0.32502744 -0.59776181 0.00284215
-0.29278833 -0.51035374 0.00256024
-0.03816820 -0.00673004 0.00033376
-0.67824394 0.03463405 0.00593220
-0.13860226 -0.65067244 0.00121199
-0.07642587 -0.60365063 0.00066829
-0.21068260 0.54034674 0.00184268
-0.36576673 -0.00952624 0.00319851
-0.56652635 -0.12786248 0.00495461
-0.19097163 -0.13733587 0.00166992
-0.39586809 -0.09179466 0.00346171
-0.21349578 -0.77852118 0.00186688
-0.67319328 -0.07070057 0.00588784
-0.43701878 -0.34956375 0.00382144
-0.27004105 0.43240079 0.00236179
-0.40201932 -0.17356685 0.00351540
-0.71554190 -0.48513404 0.00625765
-0.04494504 0.52732527 0.00039301
-0.78021294 -0.53301513 0.00682296
-0.63598019 -0.48643315 0.00556163
-0.04063498 0.57599157 0.00035533
-0.13035180 0.32689023 0.00113984
-0.46970877 0.18010411 0.00410812
-0.19131005 -0.02840378 0.00167288
-0.01803062 -0.34857908 0.00015767
-0.02499285 -0.23294415 0.00021855
-0.46679080 -0.52199763 0.00408178
-0.25927657 0.46618950 0.00226767
-0.08534012 0.35156435 0.00074624
-0.35579297 -0.11655287 0.00311118
-0.01757281 -0.24259225 0.00015366
-0.68072194 -0.06891260 0.00595371
-0.28632775 -0.75159508 0.00250375
-0.09739569 0.18402545 0.00085166
-0.51114619 -0.74182290 0.00446964
-0.08737297 0.17784557 0.00076402
-0.54399538 -0.45771855 0.00475697
-0.63129210 0.07994048 0.00552152
-0.30961877 0.12358306 0.00270753
-0.16343556 -0.25094330 0.00142914
-0.55608487 0.15417860 0.00486371
-0.54523933 -0.01627322 0.00476856
-0.79515004 -0.60877985 0.00695336
-0.51066554 -0.69532037 0.00446544
-0.05523430 0.67014164 0.00048299
-0.18734363 0.29718986 0.00163820
-0.13471162 -0.26026106 0.00117796
-0.39509717 -0.27267766 0.00345487
-0.41826674 0.38013896 0.00365839
-0.22096071 -0.69258505 0.00193216
-0.74917293 -0.42727101 0.00655184
-0.48900485 0.17069142 0.00427691
-0.01151385 0.05826732 0.00010068
-0.53770292 0.18200429 0.00470295
-0.09351358 0.13302803 0.00081772
-0.33767217 -0.29400092 0.00295272
-0.39212123 0.12711366 0.00342928
-0.41921505 0.30081376 0.00366658
-0.64429176 -0.07848131 0.00563499
-0.60189146 -0.39136678 0.00526357
-0.37909514 -0.01407056 0.00331510
-0.65592015 -0.48788261 0.00573607
-0.72050625 0.07061287 0.00630197
-0.64389133 -0.28361106 0.00563116
-0.13412832 0.41361135 0.00117286
-0.40513775 0.32544041 0.00354347
-0.17712444 0.33099914 0.00154884
-0.32242644 0.32432619 0.00281989
-0.19472459 -0.53291285 0.00170274
-0.32725990 0.26106882 0.00286208
-0.51755059 -0.08104385 0.00452623
-0.16043201 -0.19136062 0.00140287
-0.64845890 -0.09339198 0.00567143
-0.38741511 -0.75772095 0.00338769
-0.08302662 -0.45302275 0.00072601
-0.44914675 0.02182102 0.00392798
-0.11902498 -0.53902972 0.00104080
-0.66067845 -0.31468302 0.00577797
-0.00376927 0.67059153 0.00003296
-0.76399165 -0.26942626 0.00668179
-0.50670666 0.15873770 0.00443175
-0.31585047 -0.54138064 0.00276191
-0.24619563 0.06377856 0.00215282
-0.07949302 -0.48186401 0.00069511
-0.23794927 -0.13201419 0.00208071
-0.09610411 -0.19444934 0.00084037
-0.04171896 -0.32308859 0.00036480
-0.76876712 -0.01724667 0.00672403
-0.23473193 -0.33598769 0.00205258
-0.48683065 0.09292923 0.00425777
-0.73770010 -0.66606915 0.00645094
-0.48312208 0.31539568 0.00422568
-0.40751043 0.18890581 0.00356401
-0.11095718 -0.65047580 0.00097025
-0.58285981 0.06633917 0.00509781
-0.66126704 -0.49385154 0.00578283
-0.37997541 0.36225474 0.00332340
-0.67738479 -0.05072747 0.00592454
-0.38564724 -0.44458413 0.00337223
-0.00924789 -0.36891299 0.00008087
-0.13815324 0.64539862 0.00120835
-0.12043612 -0.09750924 0.00105314
-0.43206713 -0.63457412 0.00377814
-0.53028160 -0.76765215 0.00463697
-0.02106379 0.04807511 0.00018419
-0.24170114 0.11319683 0.00211352
-0.11117412 0.19447719 0.00097214
-0.69352913 -0.61641622 0.00606487
-0.06942320 0.26766381 0.00060706
-0.43219396 -0.79717636 0.00377925
-0.30791229 -0.31420040 0.00269249
-0.53810251 -0.39967990 0.00470551
-0.31964684 0.36408284 0.00279564
-0.33340511 -0.05032752 0.00291541
-0.19997819 -0.23829828 0.00174868
-0.64149141 -0.46491915 0.00560988
-0.08839445 -0.17670923 0.00077295
-0.18443944 0.48131767 0.00161300
-0.06073200 -0.70513541 0.00053106
-0.14212942 0.21250811 0.00124283
-0.01059226 -0.03927275 0.00009262
-0.66546023 -0.30803451 0.00581981
-0.28976810 0.23309483 0.00253404
-0.16628429 -0.76358461 0.00145405
-0.49180165 -0.03463767 0.00430105
-0.02779425 -0.22437504 0.00024304
-0.26486486 -0.63267756 0.00231607
-0.49053082 -0.64916068 0.00428937
-0.75600272 -0.05865174 0.00661230
-0.05225543 0.43595535 0.00045694
-0.48302901 -0.32516062 0.00422384
-0.29811427 -0.03107880 0.00260681
-0.17492656 -0.31586847 0.00152962
-0.64690059 -0.31127876 0.00565744
-0.52393770 -0.30975011 0.00458174
-0.09396627 0.52404851 0.00082167
-0.01862258 0.41179952 0.00016284
-0.50994545 -0.15044373 0.00445959
-0.52196586 -0.20961352 0.00456465
-0.52003753 -0.12826221 0.00454791
-0.09431640 0.10425104 0.00082474
-0.24533983 0.34861246 0.00214556
-0.76652020 -0.65950656 0.00670293
-0.76350802 -0.38861942 0.00667727
-0.40291047 -0.19334053 0.00352319
