ply
format ascii 1.0
element vertex 1376
property float x
property float y
property float z
end_header
-0.53922892 -0.75827318 0.00000000
-0.61270726 -0.67113143 -0.00000001
-0.70705068 -0.07908398 -0.00000146
-0.25186539 -0.09244578 0.00000000
-0.03624577 -0.34104979 0.00000000
-0.01240439 0.23015286 0.35522783
-0.01661132 0.07778713 0.47572353
-0.26684213 -0.09933860 0.00000000
-0.25560498 -0.31283972 0.00000000
-0.02743257 0.01314167 0.78583437
-0.02233966 -0.18723360 0.63992596
-0.00060223 -0.07041271 0.01725041
-0.00550990 0.55751461 0.15779375
-0.42739582 0.05111164 0.00000430
-0.31324700 0.34974560 0.00000151
-0.01385505 0.12042974 0.39674890
-0.00470325 0.61410403 0.13470356
-0.00708235 0.34203771 0.20275186
-0.00940612 -0.66969508 0.26942974
-0.02585607 -0.24269535 0.74065953
-0.00765723 -0.42791945 0.21933427
-0.00047563 -0.03769386 0.01362393
-0.00497993 -0.55286258 0.14264539
-0.00611970 0.31927255 0.17515466
-0.01251550 0.29657704 0.35844600
-0.03811987 0.64524859 0.00000175
-0.77489597 -0.41425115 -0.00000096
-0.01667643 -0.07261711 0.47769469
-0.05825223 0.63473946 0.00000160
-0.13322480 0.16323823 0.00000754
-0.29119658 0.19679844 0.00000448
-0.02435712 0.07713977 0.69772249
-0.10320656 -0.34301513 0.00000000
-0.23448651 -0.21230178 0.00000000
-0.01305286 -0.79003143 0.37388700
-0.00169663 0.27138945 0.04839012
-0.64463496 -0.06655849 -0.00000122
-0.44736311 -0.73112202 0.00000000
-0.10584719 -0.72336990 0.00000000
-0.24701758 -0.04677944 0.00000000
-0.74451613 -0.00727158 -0.00000175
-0.20710506 -0.76406616 0.00000000
-0.00342618 0.69288111 0.09814188
-0.00786226 -0.75193113 0.22520715
-0.00258709 0.08439136 0.07382584
-0.18428881 0.01458342 0.00000900
-0.02265668 -0.70716518 0.64898270
-0.01239833 -0.25153503 0.35513878
-0.39781904 -0.48108739 0.00000000
-0.01107681 -0.08200102 0.31728506
-0.02079452 -0.33871135 0.59565443
-0.28342170 -0.79338419 0.00000000
-0.01935501 0.03702025 0.55433851
-0.02098028 0.12084556 0.60096252
-0.00539898 -0.22360082 0.00000000
-0.00911104 -0.51613837 0.26097727
-0.52077162 -0.68107253 0.00000000
-0.02000231 0.01201259 0.57287776
-0.67308050 -0.67153203 -0.00000027
-0.02310882 -0.56183577 0.66194230
-0.01700930 -0.02439883 0.48723292
-0.72104949 -0.40943804 -0.00000094
-0.67419702 -0.43459743 -0.00000069
-0.02498414 0.06867874 0.71568906
-0.35668787 -0.79591757 0.00000000
-0.69916928 -0.50399363 -0.00000068
-0.01763406 -0.73413086 0.50511128
-0.65505177 -0.59376055 -0.00000033
-0.67505544 -0.16331281 -0.00000118
-0.00096255 -0.78572255 0.02757134
-0.01311166 0.18066169 0.37547338
-0.30212018 -0.52797985 0.00000000
-0.62323499 -0.70986688 0.00000000
-0.01056828 0.01440158 0.30249840
-0.02534665 -0.06242637 0.00000000
-0.01529538 -0.24453543 0.43812266
-0.43029100 -0.28088671 0.00000000
-0.04669577 -0.51149470 0.00000000
-0.01019945 0.35308924 0.00000655
-0.02417631 -0.02146492 0.69254923
-0.25092405 0.52481002 -0.00000022
-0.00638252 0.00635201 0.18255112
-0.00092458 0.61623210 0.02641509
-0.00990437 -0.60980189 0.28370145
-0.02392777 -0.49052626 0.68540668
-0.01944520 -0.58359724 0.55698979
-0.07204789 0.18316220 0.00000817
-0.69980592 -0.14032054 -0.00000132
-0.00182905 0.23297355 0.05216812
-0.01974214 0.18235919 0.56550789
-0.77507025 -0.22424205 -0.00000144
-0.02479098 -0.43555263 0.71013784
-0.12838253 -0.34599641 0.00000000
-0.49343121 -0.16235612 -0.00000040
-0.01564468 -0.73304421 0.44812730
-0.02475269 -0.01071663 0.70906162
-0.33486047 -0.42604774 0.00000000
-0.02323771 -0.72824031 0.66562665
-0.38112637 0.20329735 0.00000265
-0.02273633 -0.45893604 0.65127647
-0.18622965 -0.57471365 0.00000000
-0.11208914 -0.10246488 0.00000000
-0.01666069 -0.54570431 0.47723022
-0.31899986 -0.11449320 0.00000000
-0.02327346 -0.16190287 0.66667813
-0.02280165 -0.78452605 0.65313232
-0.77293611 -0.46680057 -0.00000083
-0.63037133 -0.10226958 -0.00000110
-0.55130410 -0.26060620 -0.00000048
-0.01040901 0.14648551 0.29799652
-0.00136929 0.66954195 0.03918112
-0.00442517 -0.37048742 0.12675489
-0.00630592 0.32601431 0.18049359
-0.08484301 -0.24688660 0.00000000
-0.02439246 -0.02795927 0.69874132
-0.39675546 0.11472066 0.00000383
-0.00737887 -0.10929634 0.21136098
-0.23017767 -0.62617362 0.00000000
-0.38227060 -0.33525616 0.00000000
-0.63104957 -0.67308414 -0.00000009
-0.00874780 -0.46999213 0.25057262
-0.01635101 -0.21913940 0.00000000
-0.01327092 -0.34493265 0.38013336
-0.50321525 0.05163694 0.00000284
-0.44009295 -0.35052589 0.00000000
-0.49104005 -0.75578547 0.00000000
-0.00727455 -0.08522669 0.20837282
-0.02681910 -0.26383999 0.76824504
-0.00200306 -0.15150066 0.05737572
-0.02079972 -0.66598320 0.59578878
-0.00618313 -0.19895297 0.17711015
-0.00423610 -0.36502963 0.12133930
-0.14087132 -0.05818155 0.00000000
-0.29308322 -0.05341807 0.00000000
-0.00110342 0.66959423 0.03156261
-0.27495047 -0.65819514 0.00000000
-0.49725837 -0.66430354 0.00000000
-0.00842010 -0.59237623 0.24118610
-0.45508066 -0.09353542 -0.00000036
-0.01914654 0.08611221 0.54838860
-0.36672634 0.36344162 0.00000025
-0.00443656 -0.45844090 0.12708122
-0.00988691 -0.37727964 0.28320137
-0.21333279 -0.31599799 0.00000000
-0.33053714 -0.03435021 0.00000000
-0.60715646 -0.56860620 -0.00000017
-0.01621911 0.31565309 0.46460345
-0.00525833 0.14024846 0.15039483
-0.01741346 0.28195176 0.49881694
-0.40122673 0.38353485 -0.00000075
-0.58707541 -0.38981855 -0.00000040
-0.01552055 0.28464979 0.44456646
-0.48385909 -0.12163382 -0.00000044
-0.00043164 0.46962604 0.01222664
-0.18420500 0.14578386 0.00000703
-0.01775590 -0.20923364 0.50861210
-0.46494952 0.28949568 -0.00000040
-0.00610587 -0.29849488 0.17489699
-0.17511030 -0.18271390 0.00000000
-0.49822468 -0.71572745 0.00000000
-0.54962134 0.03440459 0.00000223
-0.07087263 -0.20530757 0.00000000
-0.46415937 -0.06071824 -0.00000046
-0.45232624 0.30149478 -0.00000036
-0.00388379 0.43703970 0.11113468
-0.00187834 0.13637175 0.00000993
-0.44493538 -0.05878392 -0.00000038
-0.41471714 0.33592209 -0.00000021
-0.00313228 -0.16417716 0.08972139
-0.00289668 -0.10624499 0.08297285
-0.03027002 0.01808555 0.00001127
-0.33848760 -0.58618504 0.00000000
-0.00597357 0.03623249 0.17084534
-0.00440832 -0.31205925 0.12627232
-0.76227909 0.01120645 -0.00000146
-0.00292938 0.57872498 0.00000327
-0.00915943 0.19899441 0.26220950
-0.01940405 -0.00033819 0.55583751
-0.02203766 -0.12718615 0.63127726
-0.31519666 -0.19533379 0.00000000
-0.44557738 -0.04718837 -0.00000040
-0.56469637 0.09484081 0.00000093
-0.56054413 -0.33455023 -0.00000039
-0.00098664 -0.46617055 0.02826145
-0.00195781 -0.62695855 0.05607957
-0.48024383 -0.63643587 0.00000000
-0.66861331 -0.45609173 -0.00000063
-0.00668524 0.01679114 0.19123018
-0.00069714 -0.62953931 0.01996907
-0.01817757 -0.34060088 0.52068549
-0.00453951 0.54771078 0.12997694
-0.02271465 -0.77842957 0.65064013
-0.19778353 -0.36203092 0.00000000
-0.01910679 0.07815926 0.54724526
-0.00536454 0.33059379 0.15352026
-0.32842407 0.06301981 0.00000600
-0.00160137 0.63598984 0.04581714
-0.42596397 -0.46528596 0.00000000
-0.01776955 -0.78923666 0.50899249
-0.17737484 -0.71116483 0.00000000
-0.00099763 -0.53464323 0.02857631
-0.42338762 0.01602753 0.00000497
-0.00178485 0.56398904 0.05104362
-0.00525324 -0.24971271 0.15047421
-0.00211882 0.42917469 0.00000553
-0.63439572 -0.03193588 -0.00000124
-0.48559496 -0.75354677 0.00000000
-0.01024933 -0.50934047 0.29358259
-0.00698826 0.29399380 0.20003226
-0.00250409 0.18433876 0.07149060
-0.00794537 -0.32276732 0.22758789
-0.69764650 -0.73956782 -0.00000015
-0.00563512 0.39891338 0.16130307
-0.02122105 -0.62135458 0.60785979
-0.02631543 -0.10514690 0.75382566
-0.00381251 0.42605314 0.10908749
-0.06864460 0.54214889 0.00000283
-0.20758373 0.44094139 0.00000201
-0.01611166 -0.31540883 0.46150368
-0.50504869 -0.18711799 -0.00000041
-0.00863646 -0.04164433 0.24738355
-0.01458758 0.14507492 0.41775614
-0.00263990 -0.49368295 0.07561763
-0.01087176 0.07456097 0.31122267
-0.26835346 -0.69213575 0.00000000
-0.01918670 -0.77175558 0.54958522
-0.01092147 0.47913745 0.31285280
-0.42994636 -0.23541659 -0.00000000
-0.20398328 -0.01508888 0.00000000
-0.00497449 -0.19625352 0.14248970
-0.01287719 -0.66288698 0.36885512
-0.02713979 0.28864422 0.00000726
-0.00630897 0.57812262 0.18070611
-0.00515811 0.50020838 0.14768225
-0.01801455 -0.65681636 0.51601017
-0.39126012 0.30832979 0.00000070
-0.00128876 -0.78254151 0.03691535
-0.01357545 0.21184652 0.38878179
-0.00627184 0.24917316 0.17948401
-0.56178874 -0.11613923 -0.00000078
-0.32779354 0.25094989 0.00000288
-0.00942413 -0.22401042 0.26994553
-0.00663575 0.25373644 0.18991385
-0.24984679 -0.40355769 0.00000000
-0.00890475 -0.12228377 0.25506824
-0.20098682 -0.15641402 0.00000000
-0.44189158 0.15302584 0.00000232
-0.06415847 -0.55724508 0.00000000
-0.02546579 -0.66778743 0.72945267
-0.02346274 -0.08194927 0.67210460
-0.53669161 -0.30954993 -0.00000033
-0.00011797 -0.02498676 0.00337919
-0.01332781 0.37637845 0.38176787
-0.27691224 -0.31125671 0.00000000
-0.01643130 -0.05301926 0.00000000
-0.01025367 -0.23663162 0.29370692
-0.01293859 -0.35688734 0.37061393
-0.39275262 0.12786186 0.00000369
-0.00397899 -0.51157373 0.11397454
-0.00176795 0.74782211 0.05064413
-0.02227467 -0.08453510 0.63806915
-0.00433728 0.31149000 0.12407560
-0.37224409 -0.27558199 0.00000000
-0.02002950 0.00291598 0.57365251
-0.01195057 0.30071452 0.34225693
-0.18605925 -0.33976054 0.00000000
-0.00124685 0.12822995 0.03543997
-0.01604796 0.00842605 0.45954204
-0.01405741 0.19923857 0.40258855
-0.00776560 -0.26118779 0.22243831
-0.01433021 0.29282728 0.41045484
-0.47000924 -0.14847757 -0.00000033
-0.69547480 -0.44689831 -0.00000076
-0.69783008 -0.62892044 -0.00000043
-0.06245498 0.47317040 0.00000396
-0.02269754 -0.29643056 0.65017307
-0.27661207 0.48092064 0.00000002
-0.00734096 0.34215456 0.21016365
-0.02072034 -0.66538596 0.59351498
-0.00623814 0.42533210 0.17859837
-0.00004037 0.26940179 0.00092887
-0.00554915 -0.43802327 0.15895024
-0.21675314 -0.27194771 0.00000000
-0.72794604 -0.16793998 -0.00000140
-0.46864414 0.10480692 0.00000261
-0.00566955 -0.10126407 0.00000000
-0.03855819 -0.63673764 0.00000000
-0.66408658 -0.41457185 -0.00000069
-0.46862423 -0.06985613 -0.00000046
-0.57891148 -0.13592415 -0.00000082
-0.04919834 -0.30168116 0.00000000
-0.78425169 -0.35516369 -0.00000111
-0.51961172 -0.06725093 -0.00000068
-0.01848027 -0.25105768 0.52936125
-0.04603106 0.26689169 0.00000730
-0.01731760 0.18303636 0.49601954
-0.02476159 -0.20648476 0.70930713
-0.02216443 -0.60107982 0.63488603
-0.00460066 -0.07462739 0.13178173
-0.21468095 0.34479788 0.00000348
-0.02158403 0.05244325 0.61823159
-0.41957670 -0.19655678 -0.00000003
-0.00846638 0.19192550 0.24234444
-0.39909211 -0.63207680 0.00000000
-0.01187222 0.20839433 0.33996430
-0.31474274 -0.35107470 0.00000000
-0.55299205 0.13402966 0.00000050
-0.00275338 -0.60415000 0.07886796
-0.51954514 -0.67164958 0.00000000
-0.57276326 -0.08198014 -0.00000089
-0.02351168 0.08140973 0.67349392
-0.25094107 0.05226226 0.00000743
-0.01683578 -0.11482504 0.48225749
-0.29894578 -0.40862128 0.00000000
-0.02760529 -0.64384031 0.79073763
-0.13947162 -0.18660113 0.00000000
-0.00942464 -0.10849398 0.26995999
-0.64737862 -0.62522501 -0.00000024
-0.09226821 -0.26666749 0.00000000
-0.02431466 -0.05962308 0.69651085
-0.00221222 0.52935165 0.06327529
-0.46410450 -0.38502610 0.00000000
-0.01842645 -0.64330059 0.52780855
-0.00919776 0.08334155 0.26325557
-0.00990494 -0.20125388 0.28371781
-0.00154329 0.13026211 0.04393538
-0.02466424 -0.57616287 0.70649976
-0.35915625 0.36144689 0.00000043
-0.02432922 -0.60511136 0.69690150
-0.02257355 -0.58820862 0.64660680
-0.45419708 -0.08078760 -0.00000038
-0.00617222 -0.47086504 0.17679764
-0.34623727 -0.14185522 0.00000000
-0.01930878 -0.57914543 0.55308229
-0.01384905 0.15084451 0.39659223
-0.17069167 0.55101413 0.00000088
-0.10580195 -0.37507486 0.00000000
-0.66848344 0.12020181 -0.00000148
-0.01142257 -0.05396799 0.32718885
-0.02974780 -0.47849089 0.00000000
-0.61359417 -0.64615142 -0.00000006
-0.00273563 -0.24261023 0.07835955
-0.02413079 -0.13749748 0.00000000
-0.01409770 -0.26388499 0.40381554
-0.00618220 -0.08731697 0.17708328
-0.02561891 -0.16349407 0.73386919
-0.59319955 -0.17170893 -0.00000081
-0.13043050 -0.20302457 0.00000000
-0.01333265 0.29125440 0.38186339
-0.03494835 0.67032158 0.00000142
-0.00602128 0.19127204 0.17227925
-0.18448704 0.37711218 0.00000352
-0.00154648 0.21646512 0.04406393
-0.01172999 -0.16436818 0.33599472
-0.01266611 -0.62716013 0.36280912
-0.69643289 -0.38495699 -0.00000088
-0.02508261 -0.29234102 0.71849924
-0.21346173 -0.58826298 0.00000000
-0.07899741 0.15706126 0.00000845
-0.42745230 0.22915781 0.00000133
-0.00415972 -0.38096958 0.11915121
-0.00705739 -0.71701670 0.20215237
-0.79633093 -0.44256902 -0.00000089
-0.74370497 -0.15818350 -0.00000148
-0.15295085 0.18289679 0.00000695
-0.00279788 0.31403092 0.07996477
-0.02217421 -0.18455049 0.63518649
-0.01845744 0.14145774 0.52866673
-0.24010693 0.26038885 0.00000440
-0.00131397 0.19830516 0.03739336
-0.10012436 -0.46182606 0.00000000
-0.36170411 0.07998849 0.00000508
-0.00925021 0.37435031 0.26490030
-0.62295234 0.17547005 -0.00000153
-0.72992462 -0.18801193 -0.00000137
-0.00053991 0.15455185 0.01519378
-0.02579236 0.54951090 0.00000337
-0.02646915 -0.34391299 0.75821555
-0.00411071 0.23065402 0.11754853
-0.01068995 -0.52907616 0.30620387
-0.00804582 -0.34995210 0.23046499
-0.00477632 -0.58761942 0.13681322
-0.36958951 -0.51448691 0.00000000
-0.22525989 -0.21330824 0.00000000
-0.71087664 -0.23270693 -0.00000121
-0.01689575 0.30496043 0.48399079
-0.01393391 -0.24564917 0.39912391
-0.01816505 -0.46231440 0.00000000
-0.00782821 0.38830557 0.00000606
-0.30022505 -0.26066646 0.00000000
-0.01881162 0.13552909 0.53881478
-0.00464031 0.32385105 0.13276428
-0.09691075 -0.68282002 0.00000000
-0.69936353 -0.25289640 -0.00000112
-0.59563172 -0.59148890 -0.00000008
-0.65642780 0.07547061 -0.00000050
-0.26763296 -0.39696980 0.00000000
-0.24346837 0.47404715 0.00000077
-0.00050358 0.70302612 0.01438861
-0.15207164 -0.78023332 0.00000000
-0.20255004 0.30156472 0.00000442
-0.01158670 0.06683850 0.33170936
-0.21246620 -0.62927991 0.00000000
-0.00180075 0.50559318 0.05147442
-0.02553249 -0.35798827 0.73138416
-0.01648305 -0.00996474 0.47215778
-0.12851882 -0.77914673 0.00000000
-0.21369673 -0.12599996 0.00000000
-0.08706207 -0.22439498 0.00000000
-0.00468475 0.49999371 0.13411532
-0.12184922 -0.35214281 0.00000000
-0.00553650 -0.28967473 0.15858801
-0.01431909 0.38907209 0.41018522
-0.25470880 -0.52340102 0.00000000
-0.11960131 -0.01043119 0.00000000
-0.08956185 -0.42929789 0.00000000
-0.50019991 -0.11222642 -0.00000052
-0.27960759 -0.62514156 0.00000000
-0.15300463 -0.64800823 0.00000000
-0.01927749 -0.32447764 0.55219609
-0.39679661 -0.31497526 0.00000000
-0.04110606 -0.62495971 0.00000000
-0.59938002 0.02110848 0.00000150
-0.01983931 0.01724753 0.56820875
-0.02400846 -0.10724593 0.68773663
-0.05135169 -0.15971667 0.00000000
-0.02214485 -0.55095184 0.63432753
-0.02366532 -0.12720348 0.67790568
-0.14350586 -0.40361425 0.00000000
-0.00246497 -0.34868243 0.07060681
-0.02552913 -0.16316003 0.73129719
-0.01124295 -0.36760762 0.32204381
-0.02244574 -0.02114273 0.64297307
-0.00545125 -0.33029085 0.15614615
-0.15114170 -0.43842930 0.00000000
-0.12544665 -0.54211569 0.00000000
-0.00560720 0.32035843 0.00000711
-0.01510823 -0.04104653 0.43277115
-0.00234753 -0.59303045 0.06724270
-0.00377611 0.18896261 0.10794249
-0.00824468 -0.44097957 0.23616138
-0.21845047 -0.38318935 0.00000000
-0.03566748 -0.52620620 0.00000000
-0.16895542 0.25720984 0.00000559
-0.00541317 -0.36201954 0.15505537
-0.16547243 0.15622737 0.00000716
-0.00503441 -0.55534172 0.14420606
-0.20172600 -0.76904696 0.00000000
-0.70966542 -0.76584512 -0.00000009
-0.02141562 -0.35414433 0.61344659
-0.00113900 -0.06069011 0.03262550
-0.05431318 0.49515256 0.00000375
-0.43433213 -0.72513372 0.00000000
-0.55370504 -0.35914916 -0.00000031
-0.00483410 0.65196669 0.13847305
-0.06533171 -0.38335943 0.00000000
-0.00458347 -0.60260588 0.13128915
-0.76094341 0.00201596 -0.00000128
-0.57334501 -0.54158854 -0.00000008
-0.00076645 0.23952939 0.02172198
-0.00500715 -0.03594678 0.14342511
-0.01727705 -0.32433990 0.49488869
-0.18300723 -0.79929763 0.00000000
-0.00673089 -0.35586354 0.19280000
-0.44952244 0.04496231 0.00000398
-0.33353189 0.36800390 0.00000081
-0.68488270 -0.61605233 -0.00000042
-0.01096433 -0.25974366 0.31406298
-0.51911312 -0.31941918 -0.00000024
-0.02604749 -0.30302778 0.74614018
-0.68352854 -0.50518352 -0.00000061
-0.11000018 0.33416498 0.00000533
-0.02192466 0.02472534 0.62798011
-0.01968815 -0.67298073 0.56394887
-0.20471071 -0.37859255 0.00000000
-0.02738811 -0.18891095 0.78454894
-0.37686989 -0.56388462 0.00000000
-0.00426967 0.06100129 0.12203042
-0.00529054 -0.29898673 0.15154251
-0.00010659 -0.26955283 0.00305318
-0.02178876 -0.25132132 0.00000000
-0.33645371 0.40264571 0.00000018
-0.00616905 0.13845727 0.17649090
-0.02146750 -0.50447261 0.61492538
-0.46870542 -0.21134114 -0.00000021
-0.00381033 0.57983267 0.10909451
-0.00602174 -0.70616239 0.17248718
-0.70040148 -0.23007908 -0.00000117
-0.02504020 0.04968145 0.71728605
-0.00265338 -0.21356228 0.07600351
-0.01714659 -0.40661091 0.49114817
-0.02543775 0.00733031 0.72865868
-0.01635939 -0.52644604 0.46859962
-0.00241040 -0.22459210 0.06904382
-0.01101383 0.53934908 0.00000374
-0.01320092 -0.12036708 0.37812820
-0.00339476 0.45480758 0.09712911
-0.61728466 -0.60821933 -0.00000015
-0.01143852 -0.76321721 0.32764596
-0.26731804 -0.10908556 0.00000000
-0.42605737 0.20672593 0.00000173
-0.54015595 -0.46024272 -0.00000008
-0.53485936 -0.43303716 -0.00000010
-0.44986823 0.09444275 0.00000315
-0.47303250 0.12622236 0.00000217
-0.01715848 -0.68138951 0.49148870
-0.02271028 -0.48280722 0.65052909
-0.02468367 -0.29622301 0.70707077
-0.28393778 0.49924812 -0.00000043
-0.26083237 -0.09783984 0.00000000
-0.14322691 0.17552681 0.00000721
-0.20560427 0.37268633 0.00000319
-0.38213539 -0.45916820 0.00000000
-0.29640558 -0.07706137 0.00000000
-0.03081438 -0.26124290 0.00000000
-0.02125638 0.15692046 0.60889399
-0.01427025 -0.44712034 0.40875807
-0.02288258 -0.17892587 0.65547979
-0.00107931 -0.04092775 0.03091577
-0.00936986 -0.64482462 0.26839098
-0.00960392 -0.75688356 0.27509543
-0.01190130 0.18622297 0.34078649
-0.02356648 -0.32258919 0.67506474
-0.69776797 -0.06457608 -0.00000145
-0.01070823 -0.40568969 0.30672735
-0.12299850 0.25983027 0.00000625
-0.02118490 -0.79004717 0.60682184
-0.27658153 -0.37927175 0.00000000
-0.59247673 -0.39725539 -0.00000041
-0.69846612 -0.74570310 -0.00000014
-0.77118134 -0.76697165 -0.00000008
-0.40266395 -0.18167171 0.00000000
-0.00739216 -0.37028649 0.21174160
-0.02783874 -0.34552857 0.79744554
-0.36855477 -0.51298976 0.00000000
-0.58827060 -0.54231381 -0.00000014
-0.01610455 -0.48151249 0.46129993
-0.08024273 0.12266142 0.00000895
-0.02436831 -0.43982375 0.69802934
-0.14617097 0.34046733 0.00000469
-0.00261544 0.28042454 0.07472253
-0.01005134 -0.63588011 0.28791142
-0.00872058 -0.45501593 0.24979310
-0.05065688 0.47137454 0.00000417
-0.05669486 0.54654062 0.00000295
-0.11210931 0.37316000 0.00000471
-0.01628970 -0.14500262 0.46661231
-0.72416496 -0.18324751 -0.00000135
-0.53744376 -0.76558131 0.00000000
-0.01616361 0.05984977 0.46288270
-0.01643386 0.30310401 0.47075185
-0.21703246 -0.28160399 0.00000000
-0.02740216 -0.19478728 0.78495097
-0.00995821 -0.16191415 0.28524375
-0.30215201 -0.18478824 0.00000000
-0.12250490 -0.27412319 0.00000000
-0.02058523 0.02345589 0.58959067
-0.00099927 -0.65248680 0.00000000
-0.16514246 -0.24845822 0.00000000
-0.18029374 -0.10458281 0.00000000
-0.00344561 -0.62216336 0.09869629
-0.74837500 -0.61321259 -0.00000047
-0.01468146 0.30136830 0.42052615
-0.49508387 0.00039448 0.00000385
-0.19961801 0.46233729 0.00000181
-0.01112078 -0.51204962 0.31854448
-0.00372355 -0.35198879 0.10665760
-0.01833560 -0.77675492 0.52520633
-0.01041355 -0.49677238 0.29828668
-0.01191625 0.32188612 0.34128410
-0.08132689 0.58315241 0.00000203
-0.00442995 -0.52112985 0.12689188
-0.57897615 -0.75042427 0.00000000
-0.27620679 0.31136540 0.00000286
-0.01956494 0.18863377 0.56043237
-0.02049811 -0.36226982 0.58716196
-0.27119428 -0.62931788 0.00000000
-0.45818934 0.26614553 0.00000012
-0.31713310 0.01716843 0.00000696
-0.20809828 0.03077232 0.00000840
-0.00295338 -0.03794509 0.08459688
-0.60863042 0.04516725 0.00000092
-0.00750488 -0.77697158 0.21497028
-0.00552260 -0.12818772 0.15818973
-0.00751514 -0.25210980 0.21526434
-0.20067695 0.57958382 -0.00000017
-0.15201263 0.47735974 0.00000247
-0.00949161 0.19635294 0.27172846
-0.11345662 0.34036738 0.00000518
-0.14017549 0.24569690 0.00000620
-0.12747736 0.34115934 0.00000496
-0.00490744 -0.12372315 0.14056909
-0.00188573 0.32677063 0.05383255
-0.01381017 0.26951325 0.39553839
-0.00819694 -0.36143297 0.23479369
-0.34756365 0.10368042 0.00000496
-0.01877480 -0.69656950 0.53778678
-0.00055176 0.16310292 0.01553702
-0.07508884 0.58620501 0.00000207
-0.00686405 -0.46184099 0.19661450
-0.43324900 -0.44069973 0.00000000
-0.01209562 0.17208689 0.34634867
-0.01304784 -0.08902004 0.37374416
-0.02643616 -0.72862339 0.75724351
-0.28136113 -0.40023199 0.00000000
-0.01004007 -0.65761596 0.28758845
-0.01118117 -0.74797809 0.32027423
-0.53588563 -0.74483454 0.00000000
-0.56058180 -0.36859950 -0.00000033
-0.00435680 0.38192031 0.12466512
-0.30908528 -0.32202178 0.00000000
-0.39141154 -0.19490826 0.00000000
-0.45090038 0.18828872 0.00000156
-0.01834540 -0.75799942 0.52548695
-0.01225909 -0.50578803 0.35115042
-0.60682076 0.09010508 0.00000020
-0.00750263 -0.46685594 0.21490599
-0.01522723 -0.27807599 0.43616992
-0.28421012 -0.70663941 0.00000000
-0.02282328 -0.09678932 0.65378475
-0.02382141 -0.35801026 0.68236595
-0.28519553 -0.51832396 0.00000000
-0.02070716 -0.08157159 0.59316432
-0.50245190 0.29333904 -0.00000125
-0.75554407 -0.00588936 -0.00000180
-0.02187387 -0.40738285 0.62657166
-0.00067296 0.75608879 0.01926506
-0.02179597 -0.42418897 0.62433934
-0.75002509 -0.79003614 -0.00000002
-0.01480399 -0.45894092 0.42404667
-0.01089653 -0.64634973 0.31212112
-0.01887153 -0.03401647 0.54058051
-0.01875512 -0.45839387 0.53722501
-0.02148800 0.77825135 -0.00000005
-0.30859688 -0.44240099 0.00000000
-0.00218644 -0.64695072 0.06262859
-0.14067066 -0.12775378 0.00000000
-0.36191669 0.21414801 0.00000284
-0.00102034 -0.74462098 0.02922680
-0.32199258 0.22046873 0.00000350
-0.24688172 -0.74954188 0.00000000
-0.00901287 -0.35238948 0.25816521
-0.02545436 -0.53372824 0.72913456
-0.01487611 0.07494570 0.42598981
-0.00254004 -0.32430109 0.07275697
-0.02619386 -0.51425797 0.75031799
-0.01416934 0.36600959 0.40588140
-0.00694406 0.07292832 0.19867072
-0.02960143 -0.14622544 0.00000000
-0.02557823 -0.75205976 0.73266745
-0.43997890 -0.44756618 0.00000000
-0.49928853 -0.41623330 0.00000000
-0.00276741 0.39911845 0.07912820
-0.02385714 -0.30941552 0.68339205
-0.01766001 0.08221201 0.50578195
-0.78280771 -0.38574281 -0.00000104
-0.01927970 -0.66523290 0.55224925
-0.00536152 -0.36820778 0.15357582
-0.64809340 -0.18553753 -0.00000102
-0.01371366 0.18944648 0.39273167
-0.02356313 -0.08186110 0.67498034
-0.27510962 0.11072270 0.00000619
-0.01905518 -0.45786223 0.54582113
-0.46574852 0.06705391 0.00000330
-0.02331216 -0.25825840 0.66778219
-0.16574188 -0.34572709 0.00000000
-0.21743117 -0.74836457 0.00000000
-0.01049928 0.25774857 0.30064011
-0.36127517 -0.12897728 0.00000000
-0.66458356 -0.19708487 -0.00000107
-0.00742929 -0.53887981 0.21280511
-0.01733971 -0.08218292 0.49669552
-0.68628198 0.04429027 -0.00000056
-0.00485139 0.14898346 0.13873775
-0.37145138 -0.25501189 0.00000000
-0.02304805 -0.25878987 0.66021597
-0.00374576 -0.19802743 0.10729384
-0.76675427 0.02957871 -0.00000186
-0.68840647 0.01602694 -0.00000012
-0.00926538 0.25394875 0.00000805
-0.75373894 -0.08265692 -0.00000166
-0.25455248 0.29934359 0.00000347
-0.00294698 -0.75928777 0.08441350
-0.00330702 -0.28440920 0.09472667
-0.00000002 -0.26391733 0.00000052
-0.59292752 -0.30513850 -0.00000058
-0.66921997 -0.05372496 -0.00000135
-0.19083349 0.06744418 0.00000811
-0.30574766 0.37678036 0.00000120
-0.02077676 0.18200970 0.59516054
-0.00020270 0.28360510 0.00558649
-0.02050515 0.12576362 0.58734739
-0.18887889 -0.31961250 0.00000000
-0.01509279 0.29126412 0.43231010
-0.63045990 0.14351431 -0.00000114
-0.02327999 -0.43325314 0.66685212
-0.60331309 -0.39220536 -0.00000047
-0.66731364 -0.24526720 -0.00000100
-0.38430423 -0.49653649 0.00000000
-0.01161375 -0.76561862 0.33266509
-0.02551805 -0.16334784 0.73097980
-0.30322164 0.35010171 0.00000169
-0.01366406 -0.28708011 0.39139450
-0.00471911 0.50254238 0.13510147
-0.20963188 -0.10129227 0.00000000
-0.08597567 0.29075518 0.00000634
-0.13669457 0.45589709 0.00000310
-0.70301831 0.06667469 -0.00000125
-0.00649342 -0.61000800 0.18599807
-0.01082216 -0.04250358 0.30999094
-0.40919119 -0.78782117 0.00000000
-0.43708557 0.28908339 0.00000014
-0.02846487 -0.29177636 0.00000000
-0.00741528 -0.05952072 0.21240380
-0.01362073 -0.66941470 0.00000000
-0.00463733 -0.79492074 0.13283204
-0.01465714 -0.62000585 0.41984016
-0.33937326 0.19747527 0.00000355
-0.01269610 -0.62217492 0.36366811
-0.01069920 -0.20714591 0.30646873
-0.00207560 -0.25299615 0.05945356
-0.17841005 0.10746373 0.00000770
-0.31898546 -0.60569739 0.00000000
-0.02782734 -0.47694534 0.79710966
-0.30988234 -0.69869429 0.00000000
-0.69853842 -0.56694776 -0.00000056
-0.11451912 0.44181356 0.00000364
-0.01852627 -0.67719758 0.53066778
-0.52920204 0.22741410 -0.00000060
-0.02215124 -0.74215430 0.63450187
-0.09927652 -0.62435836 0.00000000
-0.00282997 -0.10515215 0.08106180
-0.30524492 0.37870634 0.00000118
-0.27093291 0.12283005 0.00000607
-0.28304687 0.34360790 0.00000219
-0.67126894 0.11608003 -0.00000147
-0.00076490 -0.44391376 0.02190999
-0.02293064 -0.38723895 0.65684623
-0.43374616 0.02014179 0.00000470
-0.53799939 -0.62489742 0.00000000
-0.57218271 0.09427533 0.00000080
-0.24465236 -0.73060566 0.00000000
-0.06675377 0.13987008 0.00000889
-0.02655259 0.56531525 0.00000312
-0.17079680 -0.34920150 0.00000000
-0.72695023 -0.57552755 -0.00000056
-0.00074705 0.47644374 0.02126770
-0.00098573 -0.21883678 0.02823544
-0.00723568 -0.42286715 0.20725948
-0.00683939 -0.28970873 0.19590814
-0.39474589 0.18232127 0.00000274
-0.02422509 -0.77218884 0.69390708
-0.01842609 -0.46584764 0.52779877
-0.50753236 -0.34212756 -0.00000015
-0.77729321 -0.38725504 -0.00000103
-0.00159399 -0.06407587 0.04565844
-0.78393364 -0.22520348 -0.00000144
-0.00714372 -0.44226277 0.20462535
-0.01254032 -0.01133186 0.00000000
-0.20120646 0.04007098 0.00000836
-0.01665618 -0.63085473 0.47710085
-0.23267858 0.21486336 0.00000527
-0.02743001 -0.61864620 0.78571862
-0.00755417 -0.23474625 0.21638237
-0.00147300 0.64850050 0.04214405
-0.44277325 -0.16360623 -0.00000019
-0.01036192 0.07886748 0.29661286
-0.58718538 -0.31787729 -0.00000053
-0.00231231 -0.39742121 0.06623403
-0.00805889 0.39108092 0.23076487
-0.01885254 -0.34771192 0.54002112
-0.00703570 -0.56319666 0.20153114
-0.19864465 -0.32385838 0.00000000
-0.01679970 -0.49296370 0.48121196
-0.09958844 0.69634980 -0.00000024
-0.01833419 -0.47459885 0.00000000
-0.02239530 -0.45649704 0.64150685
-0.02176422 0.08370267 0.62341172
-0.56817329 0.10522441 0.00000069
-0.09226879 0.33133841 0.00000564
-0.48375592 -0.75017077 0.00000000
-0.08838183 -0.39366788 0.00000000
-0.00493080 -0.00058712 0.00000000
-0.53384644 0.04293195 0.00000239
-0.02428221 -0.33961219 0.69556761
-0.68659180 -0.32654527 -0.00000094
-0.00338975 -0.34619331 0.09709614
-0.78194791 -0.01497559 -0.00000190
-0.02025971 -0.22477724 0.58033907
-0.00575364 -0.10786394 0.16480781
-0.15718433 -0.13310049 0.00000000
-0.18034104 -0.20468231 0.00000000
-0.00659477 -0.57124525 0.18890111
-0.25157210 -0.63546413 0.00000000
-0.61348665 -0.21145433 -0.00000083
-0.20100886 -0.77721888 0.00000000
-0.54363322 -0.39906207 -0.00000020
-0.27507576 0.08329265 0.00000660
-0.00201513 0.16830888 0.05747232
-0.01861586 -0.23188110 0.53324658
-0.30559298 -0.77257675 0.00000000
-0.72825104 0.02944143 -0.00000111
-0.24741247 -0.56614655 0.00000000
-0.00799206 0.44269407 0.22887579
-0.34472612 -0.51083678 0.00000000
-0.01116313 -0.03391267 0.31975749
-0.00557044 -0.17458545 0.15956019
-0.00082620 0.11199966 0.02337920
-0.00347947 -0.49901855 0.09966630
-0.55187845 -0.32712039 -0.00000036
-0.00395150 -0.37655357 0.11318709
-0.00267199 -0.78519446 0.07653680
-0.00673978 -0.78206396 0.19305483
-0.00422294 -0.63353932 0.12096223
-0.55310726 0.21019226 -0.00000077
-0.02588681 -0.71753663 0.74150884
-0.10229967 0.60434234 0.00000130
-0.00657837 0.03259028 0.18817469
-0.39358318 -0.51200026 0.00000000
-0.69908917 -0.06668129 -0.00000145
-0.02412432 -0.56081361 0.69103390
-0.50411057 -0.15625776 -0.00000046
-0.53420377 -0.45860329 -0.00000005
-0.34772873 0.18388268 0.00000361
-0.00229796 -0.37451723 0.06582301
-0.41778618 0.28237918 0.00000062
-0.00128113 0.42751688 0.03655100
-0.02473848 -0.50125426 0.70863074
-0.00705497 -0.10733214 0.20208304
-0.00558885 0.05839784 0.15983072
-0.42769346 -0.27526447 0.00000000
-0.01898578 -0.62380755 0.54383016
-0.00753467 -0.63960242 0.21582370
-0.02012900 0.05897385 0.57653272
-0.34088364 0.13496421 0.00000456
-0.02098567 0.02357812 0.60106760
-0.50820690 -0.51255596 0.00000000
-0.24010867 -0.41345000 0.00000000
-0.07113440 0.34765452 0.00000571
-0.35530764 -0.39648837 0.00000000
-0.59947628 0.08282935 0.00000047
-0.01383993 0.13221475 0.39632130
-0.00258490 -0.21174124 0.07404197
-0.00898996 0.30577886 0.25740647
-0.02422101 -0.50539958 0.69380635
-0.49869123 -0.77104527 0.00000000
-0.53687727 -0.68984491 0.00000000
-0.00989650 -0.76748121 0.28347602
-0.46725225 -0.10274011 -0.00000040
-0.46272218 -0.25805905 -0.00000010
-0.00384741 0.64210254 0.11018890
-0.00680334 -0.40647727 0.19487552
-0.43538287 -0.44514203 0.00000000
-0.00379851 0.09597098 0.10854448
-0.10751559 -0.65031570 0.00000000
-0.00439025 0.25062615 0.12556742
-0.21839476 0.23978812 0.00000511
-0.48056048 0.24075285 0.00000011
-0.02519143 -0.02325110 0.72162998
-0.02624580 -0.40617371 0.75181347
-0.16724467 0.14025532 0.00000737
-0.25811467 -0.14830226 0.00000000
-0.02083250 -0.05181707 0.59675634
-0.01676840 -0.35457420 0.48031566
-0.02439110 -0.43644115 0.69868243
-0.39253491 -0.62346190 0.00000000
-0.02082023 -0.39372855 0.59638816
-0.02495962 -0.77412218 0.71494669
-0.11685272 -0.53439540 0.00000000
-0.01416015 -0.29231206 0.40560454
-0.01509465 -0.06623616 0.43238097
-0.01279847 -0.30210519 0.36660033
-0.01957663 -0.15743136 0.56077391
-0.65504330 -0.17068395 -0.00000108
-0.06997591 0.64761478 0.00000120
-0.01542552 -0.17776270 0.00000000
-0.00855989 0.05380338 0.24496451
-0.63061470 -0.24953505 -0.00000084
-0.00601932 0.15262665 0.17220645
-0.02786608 -0.51532918 0.79821670
-0.06962148 0.57011694 0.00000240
-0.07834814 0.22954290 0.00000737
-0.00824881 -0.49462101 0.23627965
-0.20453857 0.44012162 0.00000208
-0.01466107 -0.24499691 0.41995287
-0.21720806 0.35972944 0.00000318
-0.18426602 -0.59293711 0.00000000
-0.00237264 -0.30049619 0.06796211
-0.01490814 0.15641277 0.42694914
-0.00049564 -0.74444216 0.01419717
-0.00682520 -0.63773745 0.19550152
-0.08815333 0.04762219 0.00000996
-0.44217366 0.06496463 0.00000379
-0.02085702 -0.31277677 0.59744620
-0.02658623 0.39713058 0.00000564
-0.71662736 -0.43859443 -0.00000087
-0.34785086 -0.21963812 0.00000000
-0.01676963 0.18687946 0.48031607
-0.38847592 -0.34345603 0.00000000
-0.01365733 -0.49630809 0.39120153
-0.04507532 -0.61513543 0.00000000
-0.00115905 0.30365163 0.03299945
-0.01600364 -0.30306983 0.45840967
-0.60808122 -0.15652473 -0.00000090
-0.58502585 -0.51177961 -0.00000018
-0.01702741 0.19743086 0.48770958
-0.00901900 -0.64370394 0.25834104
-0.00760860 -0.31180438 0.21794125
-0.39792997 -0.01269991 -0.00000026
-0.00729192 -0.30751443 0.20887031
-0.27294889 -0.77780586 0.00000000
-0.00494156 0.19194821 0.14133988
-0.05672200 0.51593560 0.00000341
-0.54032564 -0.26706514 -0.00000042
-0.02509954 -0.59854352 0.71896666
-0.26319194 -0.19516923 0.00000000
-0.45986816 0.01074566 0.00000435
-0.01840056 -0.63939846 0.52706701
-0.01747357 -0.46741301 0.50051415
-0.45456162 -0.22103404 -0.00000014
-0.17579260 -0.21791004 0.00000000
-0.11214476 0.59539795 0.00000126
-0.02278347 -0.30033624 0.65263456
-0.31494787 -0.42346448 0.00000000
-0.21203488 -0.11120249 0.00000000
-0.00514055 0.39112854 0.14712767
-0.01549015 -0.39463815 0.44370103
-0.35681865 -0.35526451 0.00000000
-0.16258840 0.01238767 0.00000936
-0.34357467 0.35139489 0.00000090
-0.45056733 -0.30921444 0.00000000
-0.01989398 0.09542830 0.56981564
-0.02279771 -0.39211631 0.65303791
-0.08015490 0.64913899 0.00000098
-0.02537271 -0.03282675 0.72682256
-0.02354219 -0.55941010 0.67435753
-0.14472510 -0.07057244 0.00000000
-0.23445332 0.15072475 0.00000620
-0.27517366 0.33230057 0.00000253
-0.43020275 0.11013321 0.00000326
-0.48493794 -0.16960825 -0.00000036
-0.00726689 -0.11505839 0.20815326
-0.36129817 -0.10509963 0.00000000
-0.01015925 0.11910437 0.29082432
-0.31740606 -0.56219679 0.00000000
-0.29796961 -0.10123535 0.00000000
-0.02005413 -0.34644434 0.57444388
-0.00509999 -0.07724161 0.14608449
-0.01040756 0.28813827 0.29802698
-0.33774933 -0.19542080 0.00000000
-0.01794676 -0.74363750 0.51406837
-0.01838079 0.26889983 0.52653462
-0.00803596 -0.75026262 0.23018271
-0.02343792 -0.29494566 0.00000000
-0.00114908 0.63570607 0.03285648
-0.02235178 0.14076576 0.64028072
-0.02307686 -0.73830754 0.66101837
-0.38965514 -0.14494786 0.00000000
-0.01458399 -0.28810203 0.41774502
-0.02658531 -0.41957676 0.76153749
-0.18271221 0.26531100 0.00000526
-0.00338120 0.04799520 0.09656575
-0.49651095 -0.26959050 -0.00000023
-0.10960107 -0.38905805 0.00000000
-0.37803262 -0.42690623 0.00000000
-0.72527719 -0.74389869 -0.00000014
-0.36829606 0.03902876 0.00000564
-0.12738553 -0.12828740 0.00000000
-0.46083945 -0.41052976 0.00000000
-0.67192149 -0.37932968 -0.00000078
-0.17513835 -0.54038703 0.00000000
-0.01165262 -0.76256239 0.33377862
-0.71313524 -0.33907503 -0.00000103
-0.65153503 -0.45110914 -0.00000057
-0.00192436 -0.17811956 0.05512162
-0.63769287 -0.77654672 0.00000000
-0.17007498 -0.65555555 0.00000000
-0.61403537 -0.39116395 -0.00000051
-0.04324549 -0.40075085 0.00000000
-0.01268825 -0.72700071 0.36344329
-0.37054867 0.34212208 0.00000053
-0.00247988 0.44998896 0.07091104
-0.04248788 -0.23388799 0.00000000
-0.00074211 -0.41236353 0.02125703
-0.22468062 0.51488346 0.00000045
-0.01120975 -0.23813672 0.32109296
-0.01890504 -0.12444962 0.00000000
-0.51599181 -0.59129345 0.00000000
-0.32767004 0.29197788 0.00000219
-0.33951378 0.19066449 0.00000366
-0.05828671 0.26036400 0.00000722
-0.36002401 0.19772927 0.00000315
-0.11066374 0.07802707 0.00000916
-0.02249987 -0.48149356 0.64450133
-0.32630128 0.36718965 0.00000096
-0.11099369 -0.46200743 0.00000000
-0.24731582 0.43685877 0.00000132
-0.49738431 -0.01665423 -0.00000068
-0.02303451 -0.55827653 0.65981370
-0.02784031 -0.51057661 0.79747880
-0.12972131 0.33378279 0.00000504
-0.16221671 0.19273955 0.00000666
-0.01293769 0.06687154 0.37042946
-0.00538599 -0.14336854 0.15427673
-0.01211207 -0.71740520 0.34693915
-0.76895219 -0.67880273 -0.00000030
-0.44350946 -0.27945951 0.00000000
-0.00880339 -0.53818673 0.25216511
-0.44916841 -0.10896894 -0.00000031
-0.22614296 0.00054628 0.00000858
-0.62102634 -0.63910282 -0.00000011
-0.10527185 0.27391204 0.00000630
-0.01408189 -0.22295894 0.40336284
-0.00488530 0.54646635 0.13988674
-0.41780314 0.17862415 0.00000236
-0.02423090 -0.10696712 0.69410896
-0.01034552 0.35535654 0.29628304
-0.00056755 0.57672799 0.00000334
-0.33302972 0.43820211 -0.00000035
-0.01357324 -0.21927774 0.38879299
-0.00911933 0.51160592 0.26121888
-0.01020806 -0.07202714 0.29240048
-0.00482842 -0.77099437 0.13830557
-0.10893260 -0.52720213 0.00000000
-0.01961702 -0.77034628 0.56191158
-0.57843077 0.04276652 0.00000154
-0.69455296 0.04644707 -0.00000075
-0.77313149 -0.06936355 -0.00000176
-0.01214873 -0.20533410 0.34798932
-0.00725759 -0.73181915 0.20788684
-0.69993204 -0.43313649 -0.00000081
-0.00176689 0.08815841 0.05032468
-0.00892969 0.20161530 0.25562623
-0.18733320 -0.39541134 0.00000000
-0.00351492 -0.36654657 0.10068152
-0.18249515 -0.16582920 0.00000000
-0.62615973 -0.62025350 -0.00000016
-0.19266374 -0.13407931 0.00000000
-0.02719500 -0.42477083 0.77900094
-0.42499587 -0.55205774 0.00000000
-0.15192211 -0.79263824 0.00000000
-0.68331695 0.01370247 0.00000001
-0.20714252 -0.66948843 0.00000000
-0.77816814 -0.25290892 -0.00000137
-0.27681005 -0.05040683 0.00000000
-0.60850847 -0.31101441 -0.00000063
-0.33737907 -0.34649038 0.00000000
-0.04808460 0.60052556 0.00000227
-0.31303856 -0.59177500 0.00000000
-0.01696019 0.22579260 0.48579744
-0.33962867 -0.69177902 0.00000000
-0.00542144 -0.65942293 0.15529203
-0.01674631 -0.23268612 0.47968870
-0.01902067 -0.42419684 0.54483402
-0.21151799 0.08250213 0.00000757
-0.00397265 0.37687683 0.11365521
-0.01529485 -0.34775490 0.43810675
-0.14712548 -0.01031874 0.00000000
-0.02171957 0.04874708 0.62211418
-0.00553349 -0.38672987 0.15850177
-0.02367067 -0.71113038 0.67803073
-0.52758682 -0.74032092 0.00000000
-0.66214889 -0.00751112 -0.00000140
-0.02103429 -0.04313729 0.60253751
-0.01179448 -0.02596756 0.33784205
-0.11126471 0.43031526 0.00000387
-0.00359495 -0.72140598 0.10297414
-0.11859993 0.62849939 0.00000059
-0.34626809 -0.68112743 0.00000000
-0.02151946 -0.66592753 0.61640626
-0.33451751 0.13126872 0.00000475
-0.00369075 -0.50715375 0.10571818
-0.00567250 -0.22402476 0.16248342
-0.00512471 -0.16572058 0.14679269
-0.01172219 -0.07538641 0.33577126
-0.01626450 0.14458865 0.46581724
-0.22097941 0.20411849 0.00000560
-0.02529933 -0.56101221 0.72469223
-0.21135427 -0.39335772 0.00000000
-0.08839821 0.45550492 0.00000383
-0.02426531 -0.31614390 0.69508463
-0.01150320 0.19252561 0.32938010
-0.00345878 -0.28164592 0.09907361
-0.01197606 -0.10967844 0.34304309
-0.48013219 -0.38382497 0.00000000
-0.01078718 -0.53541404 0.30898878
-0.01799213 -0.14316306 0.51538259
-0.02543986 -0.59257919 0.72871524
-0.57962883 -0.43486387 -0.00000029
-0.26916742 0.36692736 0.00000207
-0.01073848 -0.05926833 0.30759379
-0.02403866 -0.59670061 0.68857807
-0.00593879 0.19762066 0.16991822
-0.00367604 -0.61615700 0.10529674
-0.15405898 0.06374107 0.00000872
-0.00561783 0.28456903 0.16075832
-0.36516830 -0.63791436 0.00000000
-0.01806130 0.16054831 0.00000932
-0.00456577 0.00862238 0.13049279
-0.00680722 -0.70272964 0.19498660
-0.00837352 -0.46956795 0.23985183
-0.00171658 -0.25753760 0.04916977
-0.00368551 0.43064845 0.10545030
-0.54333955 -0.35748672 -0.00000027
-0.01855304 -0.35552844 0.53144091
-0.02013627 -0.67683077 0.57678503
-0.48968461 -0.07990769 -0.00000053
-0.23515964 0.50455546 0.00000042
-0.45468795 -0.57326621 0.00000000
-0.03430273 -0.58838630 0.00000000
-0.03858849 0.33876988 0.00000634
-0.02243665 -0.73982543 0.64267766
-0.62393445 -0.68257058 -0.00000004
-0.34476611 -0.37175834 0.00000000
-0.33212417 -0.24980211 0.00000000
-0.01030837 0.44987145 0.29526618
-0.66246730 -0.33714452 -0.00000082
-0.01360366 0.34690654 0.38965905
-0.02060489 -0.04318347 0.59023625
-0.58172536 0.00178322 0.00000216
-0.01712032 0.05703367 0.49030134
-0.02432675 -0.46088257 0.69683778
-0.02787343 -0.49090210 0.79842895
-0.00896119 -0.77285689 0.25668490
-0.00637294 0.40010545 0.18244897
-0.00759693 0.21119548 0.21743833
-0.13784727 0.08574387 0.00000863
-0.74613696 -0.75182861 -0.00000012
-0.00800493 0.47407454 0.22926065
-0.48193222 -0.60644835 0.00000000
-0.01854520 0.24276990 0.53123337
-0.44691867 -0.12313877 -0.00000028
-0.01930401 0.00416460 0.55286032
-0.39453077 -0.29003090 0.00000000
-0.02762076 -0.36695808 0.79120034
-0.51518184 -0.37918758 -0.00000011
-0.24624689 0.51571441 0.00000002
-0.02645438 -0.04198457 0.75780922
-0.02407151 0.00521199 0.68950009
-0.00785673 0.56922466 0.22506130
-0.01866819 -0.17405009 0.53474861
-0.18445814 -0.41820875 0.00000000
-0.61118436 0.17070688 -0.00000123
-0.38586500 -0.29891419 0.00000000
-0.02785853 -0.64860243 0.79799098
-0.20048796 0.56593060 0.00000006
-0.50661361 0.25700268 -0.00000066
-0.01034944 -0.75780648 0.29645002
-0.29748350 -0.23131959 0.00000000
-0.00836271 0.16658954 0.23936281
-0.06547223 0.28933984 0.00000667
-0.00175215 0.06188613 0.00001105
-0.61556351 -0.02104419 -0.00000118
-0.48368251 -0.72428495 0.00000000
-0.00207099 -0.36708581 0.05932152
-0.53030241 -0.50192767 0.00000000
-0.01796500 -0.44046295 0.51459086
-0.35190198 0.41699752 -0.00000036
-0.00679641 0.07044000 0.19443873
-0.00234132 -0.63598585 0.06706485
-0.60392731 0.07533736 0.00000051
-0.00597068 0.19604012 0.17083128
-0.00504963 0.16490085 0.14442505
-0.02241207 -0.59345460 0.64198071
-0.02751655 -0.04590134 0.78823757
-0.01073484 -0.33738023 0.30748957
-0.28712037 -0.50555301 0.00000000
-0.01656988 0.16313355 0.47457904
-0.65080673 -0.58053827 -0.00000034
-0.16780794 -0.58211106 0.00000000
-0.00794144 -0.18512678 0.22747518
-0.00990743 -0.76215315 0.28378922
-0.11077215 -0.59901500 0.00000000
-0.47713226 0.06265010 0.00000315
-0.01724919 -0.18345687 0.49409726
-0.22887105 0.02094935 0.00000823
-0.00164928 0.21574675 0.04700924
-0.01619107 -0.71018338 0.46377823
-0.48358607 -0.76535791 0.00000000
-0.17591015 0.35983562 0.00000395
-0.00402606 0.45473212 0.11521924
-0.00947637 0.29287678 0.27134073
-0.63600475 -0.26020360 -0.00000084
-0.65675479 -0.61649656 -0.00000030
-0.01705213 -0.68651277 0.48844251
-0.28735372 0.00244242 0.00000763
-0.02540180 -0.39785853 0.72763819
-0.01873028 -0.74399000 0.53651142
-0.71783251 -0.21571729 -0.00000127
-0.14362402 -0.23707853 0.00000000
-0.00938419 0.07668466 0.26859480
-0.00566274 -0.21001860 0.16220410
-0.06465153 -0.57037812 0.00000000
-0.41091350 -0.02061015 -0.00000030
-0.54918039 -0.57873857 0.00000000
-0.18717462 0.25559455 0.00000534
-0.02344599 -0.24485549 0.67161661
-0.01921996 -0.17239065 0.55055529
-0.36599860 -0.37349534 0.00000000
-0.00131017 -0.40973750 0.03752870
-0.02000736 -0.61376858 0.57309240
-0.00435239 -0.56016165 0.12467031
-0.07306803 -0.75780344 0.00000000
-0.01220619 -0.23242597 0.34963492
-0.00511032 -0.52334982 0.14638042
-0.02206448 -0.48489338 0.63202840
-0.23727331 0.14139734 0.00000630
-0.02505172 -0.44228300 0.71760714
-0.02194376 -0.64241683 0.62856233
-0.66945726 -0.13418156 -0.00000121
-0.16705260 -0.44505271 0.00000000
-0.01970781 -0.43134469 0.56451857
-0.07367387 -0.30740443 0.00000000
-0.41980383 0.12786847 0.00000317
-0.07413255 0.41707921 0.00000463
-0.29894632 0.10163268 0.00000592
-0.00767873 0.10164448 0.21973513
-0.01124184 0.26749155 0.32192722
-0.30667403 -0.64944428 0.00000000
-0.01930785 -0.61937779 0.00000000
-0.01548638 -0.43670118 0.44359308
-0.73559946 -0.38632178 -0.00000103
-0.02401913 -0.17347313 0.68803918
-0.18848002 -0.64122915 0.00000000
-0.21729358 0.37958184 0.00000285
-0.00216269 -0.70554876 0.06194813
-0.08233494 -0.18356922 0.00000000
-0.01845637 -0.38942644 0.52867007
-0.01586501 0.28368691 0.45443842
-0.16209862 0.28365341 0.00000530
-0.00076635 -0.07730798 0.02195151
-0.35101727 -0.03243206 -0.00000003
-0.27528033 -0.45090330 0.00000000
-0.00226566 -0.01613904 0.06489771
-0.75762248 -0.62657046 -0.00000043
-0.41764152 -0.60572785 0.00000000
-0.01304097 -0.26489460 0.37354648
-0.00421185 0.35139391 0.12049847
-0.01647849 -0.05270046 0.47202513
-0.09899813 -0.30686343 0.00000000
-0.64018005 -0.25215718 -0.00000087
-0.00165705 -0.41956499 0.04746466
-0.61219764 -0.63879031 -0.00000007
-0.00802054 -0.00094860 0.22974098
-0.38498539 -0.38010049 0.00000000
-0.33237925 -0.61009151 0.00000000
-0.01488807 -0.03047486 0.42646468
-0.02344269 -0.45228878 0.67151225
-0.01134280 -0.72601342 0.32490411
-0.75457817 0.04161353 -0.00000188
-0.29320666 0.26756752 0.00000326
-0.01523072 -0.51356924 0.43626982
-0.01956685 -0.72502863 0.56047428
-0.06458731 -0.49255833 0.00000000
-0.13470706 0.53185290 0.00000189
-0.42265210 0.18748111 0.00000212
-0.02379331 0.02179483 0.68153530
-0.01428187 -0.01112659 0.40909958
-0.00882678 -0.57935095 0.25283495
-0.27022424 0.04837558 0.00000720
-0.00749692 -0.37486675 0.21474230
-0.44349924 0.19901791 0.00000152
-0.60869020 0.13673501 -0.00000061
-0.00568002 0.57229871 0.16267700
-0.03384542 -0.61398959 0.00000000
-0.23343320 0.07137791 0.00000741
-0.65179712 -0.31540525 -0.00000081
-0.72409886 -0.12408686 -0.00000146
-0.01711609 -0.74478549 0.49027452
-0.02560929 -0.66170764 0.73356342
-0.00400460 0.21257225 0.11450002
-0.28862074 -0.56262213 0.00000000
-0.01058860 0.33338922 0.30323860
-0.00043525 -0.52572632 0.01246729
-0.16720322 -0.44658858 0.00000000
-0.00637037 -0.30953869 0.18247335
-0.01793457 -0.49390244 0.51371926
-0.06504680 0.59778410 0.00000205
-0.01238263 0.21678486 0.35459721
-0.68099093 -0.52443850 -0.00000057
-0.01236303 0.04835337 0.35394984
-0.02202383 -0.56447160 0.63085991
-0.00347298 -0.74337900 0.09948037
-0.02536584 -0.66164082 0.72659022
-0.29521695 0.10591624 0.00000592
-0.02133453 -0.55764949 0.61111367
-0.02041278 -0.22776771 0.58472389
-0.02363431 -0.21885484 0.67701298
-0.77131349 -0.01815000 -0.00000185
-0.02054485 -0.49772128 0.58849424
-0.01198510 0.23460844 0.34321296
-0.70026851 -0.76968545 -0.00000008
-0.49253428 -0.35304266 -0.00000006
-0.01288834 -0.40349171 0.36917451
-0.20331281 -0.56563109 0.00000000
-0.01794615 -0.50706649 0.51405078
-0.30520651 -0.69820660 0.00000000
-0.01003584 -0.17713609 0.28746751
-0.00602531 -0.49216744 0.00000000
-0.20002119 -0.53887272 0.00000000
-0.37599105 -0.65933210 0.00000000
-0.31912625 -0.02632193 0.00000000
-0.29282212 -0.24786563 0.00000000
-0.02066879 -0.05820797 0.59206617
-0.01325837 -0.37225816 0.37977380
-0.00557634 -0.14468919 0.15972903
-0.30951169 -0.25250027 0.00000000
-0.01765396 -0.78260964 0.50568151
-0.28330338 0.08056194 0.00000652
-0.01140565 -0.69608206 0.32670438
-0.00509696 -0.00245411 0.14599766
-0.02311077 -0.19299126 0.66201597
-0.71829706 -0.06930257 -0.00000153
-0.22421724 -0.04005370 0.00000000
-0.30058700 0.44046018 0.00000023
-0.02765578 -0.48799798 0.79219502
-0.13895033 0.16638432 0.00000741
-0.19386663 -0.40364119 0.00000000
-0.00647020 -0.23773143 0.18533298
-0.07601743 -0.40305075 0.00000000
-0.17703883 0.46564665 0.00000219
-0.02306731 0.10695255 0.66077095
-0.18927146 0.07007948 0.00000809
-0.38219753 -0.76900363 0.00000000
-0.57707429 -0.15419057 -0.00000078
-0.37953466 0.36679399 -0.00000005
-0.11946150 -0.78811985 0.00000000
-0.00367273 -0.22096457 0.10520196
-0.01292510 -0.16627750 0.37022761
-0.74826509 -0.30015677 -0.00000125
-0.00762812 0.38173005 0.21841386
-0.30645820 -0.41601664 0.00000000
-0.20230260 0.22832334 0.00000552
-0.00635659 -0.23860489 0.18207879
-0.01687398 -0.28051481 0.48334393
-0.00777577 0.22341359 0.22256841
-0.01963348 -0.08165115 0.56240600
-0.41339687 0.36737636 -0.00000071
-0.01826010 -0.77916324 0.52304363
-0.60268331 -0.56595182 -0.00000016
-0.00080411 0.23488264 0.02279910
-0.71746111 -0.16911967 -0.00000135
-0.01054573 -0.09316610 0.30207261
-0.20148414 -0.30100819 0.00000000
-0.02474581 -0.10220642 0.70886016
-0.26907375 -0.50414681 0.00000000
-0.00446286 0.45992580 0.12773784
-0.00471686 -0.33850458 0.13511007
-0.00453941 -0.52480721 0.13002725
-0.28530189 -0.74392182 0.00000000
-0.01521766 -0.08034154 0.43590418
-0.00855635 0.50248975 0.24507894
-0.00025109 -0.43346840 0.00719220
-0.63488942 -0.48861548 -0.00000043
-0.16336142 0.12229512 0.00000770
-0.01832841 0.46522465 0.00000475
-0.00240547 -0.68776596 0.06890252
-0.01114151 -0.27709711 0.31913826
-0.75751978 -0.59284627 -0.00000052
-0.42902064 -0.57033807 0.00000000
-0.01112522 0.22207569 0.31856197
-0.01179601 0.14201614 0.33774647
-0.00309527 -0.24795163 0.08866106
-0.43128821 -0.18063228 -0.00000011
-0.00663884 -0.08502941 0.19016331
-0.44010475 0.07978565 0.00000358
-0.01222987 0.35260749 0.35028803
-0.00567218 -0.26180089 0.16247429
-0.01798994 -0.78606057 0.51530528
-0.00015632 -0.21805708 0.00447755
-0.28605816 -0.46702752 0.00000000
-0.68085480 -0.76687104 -0.00000008
-0.53132892 -0.01056989 -0.00000083
-0.08122669 0.15123914 0.00000851
-0.01076307 0.03482857 0.30808890
-0.00354014 0.50317395 0.10131576
