ply
format ascii 1.0
element vertex 1371
property float x
property float y
property float z
end_header
-0.50358254 0.51647061 -0.00000037
-0.69305646 0.20544460 -0.00000013
-0.41111639 -0.17599744 -0.00000038
-0.13646130 0.38063243 -0.00000074
-0.33753443 -0.73853040 -0.00000004
0.70567119 -0.15435281 -0.00000073
0.42807588 -0.67426777 -0.00000008
0.36879781 0.25953916 0.21025090
0.10808322 0.64320183 -0.00000095
-0.15235312 -0.20656577 -0.00000037
-0.46464568 -0.58248001 -0.00000014
-0.10886110 0.64904845 -0.00000086
-0.68659878 -0.58496326 -0.00000001
0.01188458 0.25504756 -0.00000066
-0.14270483 0.60220075 -0.00000081
-0.39031926 0.09262225 -0.00000045
0.13254090 0.64640242 0.02578805
-0.27320594 0.79976088 -0.00000066
-0.27761537 -0.72774053 -0.00000005
0.55544132 -0.20890014 -0.00000052
0.65734702 -0.65899116 -0.00000014
-0.38935995 0.65338689 -0.00000051
0.34702098 -0.16456217 -0.00000040
-0.66564238 -0.68988645 -0.00000002
-0.63452613 0.47103241 -0.00000021
0.18645138 -0.64814305 -0.00000009
-0.19107398 0.39954451 -0.00000072
-0.58821565 -0.19123785 -0.00000019
0.07606841 -0.65219456 -0.00000009
-0.45477033 0.64391142 -0.00000043
-0.14520226 0.00175019 -0.00000050
-0.11048900 -0.33065575 -0.00000029
-0.57967150 -0.32228982 -0.00000018
0.35642830 0.35778651 -0.00000091
0.43643340 0.03319988 -0.00000065
0.31587297 0.43843386 0.05596286
0.63439822 -0.19561936 -0.00000061
-0.29550865 0.03985487 -0.00000052
-0.76100916 -0.60994273 0.00000000
-0.48568732 -0.02796609 -0.00000033
-0.16636690 -0.33083031 -0.00000029
-0.44912857 -0.09034094 -0.00000036
0.15512206 0.41453993 0.28211403
-0.28572837 -0.18214422 -0.00000039
-0.45071712 0.01855735 -0.00000038
0.79176587 -0.10253454 -0.00000087
0.51296163 -0.33942041 -0.00000033
-0.34654978 0.46926966 -0.00000057
0.72353667 0.02817076 -0.00000095
0.15738828 0.41581586 0.27777565
-0.26076317 -0.28065008 -0.00000032
0.13070492 0.19063719 -0.00000062
-0.78741819 0.60571355 -0.00000002
0.39287883 -0.77112526 -0.00000002
0.48296571 -0.30692285 -0.00000033
0.44149831 0.07039805 -0.00000069
0.70300031 0.03734609 -0.00000094
0.19782874 0.59468436 0.00916774
-0.17780159 0.63863653 -0.00000078
-0.43398705 0.64028054 -0.00000046
-0.67072320 -0.02541346 -0.00000013
-0.44504637 -0.23444173 -0.00000034
-0.76092702 0.41920567 -0.00000005
-0.32624540 -0.74202329 -0.00000004
0.56499916 0.13036795 -0.00000089
-0.29787517 -0.06557540 -0.00000046
-0.43195045 0.23811173 -0.00000044
-0.51029468 0.02848059 -0.00000031
-0.56351465 -0.17192231 -0.00000022
0.35148686 0.28929067 0.19501367
-0.32215923 -0.37663272 -0.00000026
-0.74580389 -0.04340116 -0.00000005
0.54951590 -0.57455027 -0.00000014
0.69376600 0.06955369 -0.00000096
0.19872987 0.34866500 -0.00000073
-0.66729516 -0.68430698 -0.00000002
0.70791537 -0.45697573 -0.00000041
-0.54463422 -0.12897076 -0.00000025
-0.23025239 0.48995119 -0.00000070
-0.16503631 -0.11683453 -0.00000043
0.72966772 -0.70699126 -0.00000012
0.27631804 -0.52672309 -0.00000017
-0.33938023 0.72417134 -0.00000058
-0.00350935 0.46779317 -0.00000079
-0.25583506 -0.48727804 -0.00000020
-0.60370499 -0.38632137 -0.00000014
0.06346044 -0.70977771 -0.00000006
0.06636908 0.25672433 -0.00000066
0.31691045 0.41404828 0.08455963
0.29079384 0.45079812 0.07153603
-0.05572000 -0.00664362 -0.00000050
-0.49958664 -0.45719394 -0.00000021
0.34266990 -0.64535350 -0.00000010
0.44688898 0.11501268 -0.00000075
0.60667628 -0.31530508 -0.00000046
-0.54676074 -0.61789173 -0.00000011
0.40927994 0.31771776 -0.00000092
-0.10975492 -0.46500510 -0.00000021
-0.25833172 0.46379536 -0.00000066
0.76924753 -0.37898901 -0.00000053
0.71440732 -0.11744115 -0.00000078
-0.34105155 0.33225340 -0.00000055
-0.22219190 0.21110553 -0.00000063
-0.27962944 0.01269898 -0.00000051
-0.68463826 0.15663289 -0.00000014
0.42592016 0.25604945 0.14456154
0.23176278 0.23359817 0.40986118
-0.52318436 0.00696248 -0.00000030
-0.32858220 -0.35474345 -0.00000028
-0.59360868 0.27526611 -0.00000026
0.58606994 -0.49843317 -0.00000024
-0.61046720 0.37907535 -0.00000024
0.32525957 0.25923148 0.26395279
0.43925011 -0.64917284 -0.00000009
-0.10545938 0.22145498 -0.00000064
-0.71102417 -0.46341997 -0.00000001
-0.30856821 0.16871649 -0.00000056
-0.35088623 0.58443123 -0.00000056
-0.62915653 -0.05066510 -0.00000017
-0.69286674 -0.03091718 -0.00000011
0.19117789 0.30066434 -0.00000069
-0.35949495 0.72262144 -0.00000055
-0.30987629 -0.36074266 -0.00000027
-0.21575247 -0.61898458 -0.00000011
0.24044064 -0.07345960 -0.00000045
0.29911557 -0.24161926 -0.00000035
-0.32857540 0.04987797 -0.00000051
0.15100931 0.57404000 0.09179750
-0.29330716 -0.29445481 -0.00000032
0.50079632 0.21075980 -0.00000091
0.79295033 -0.11216953 -0.00000086
-0.73589462 0.78221214 -0.00000008
0.22712292 -0.16314019 -0.00000040
-0.61811942 -0.15749350 -0.00000017
0.79941291 -0.50755030 -0.00000037
-0.63029736 0.47664431 -0.00000021
0.43929118 0.25723150 0.12673694
-0.51860356 -0.64576083 -0.00000010
0.18137594 -0.79259300 -0.00000000
-0.27616251 0.00393340 -0.00000050
-0.61213994 0.55753618 -0.00000023
0.47742245 0.22677816 -0.00000090
-0.25226551 0.07410228 -0.00000055
-0.14955202 0.20914695 -0.00000063
-0.38763779 -0.72459930 -0.00000005
-0.50705057 -0.00285411 -0.00000031
0.20325615 0.31741211 -0.00000070
-0.52227181 -0.07667703 -0.00000028
0.51259887 -0.22538739 -0.00000045
0.16067594 0.05304171 -0.00000053
0.62151265 -0.38641235 -0.00000040
0.78774291 -0.53379327 -0.00000033
0.02779629 -0.36828172 -0.00000027
0.26005390 -0.53446168 -0.00000017
-0.79497105 -0.52289402 0.00000000
0.52259839 -0.13222894 -0.00000056
0.78815860 -0.15214659 -0.00000081
-0.31788453 -0.15599447 -0.00000040
-0.77084285 -0.24913725 0.00000000
0.14635077 0.57250953 0.09937773
-0.66900843 0.66643876 -0.00000016
0.24997754 0.21864362 0.40586823
-0.08632002 0.54817158 -0.00000084
-0.58759290 0.08655096 -0.00000024
-0.02118504 -0.42467293 -0.00000023
-0.65288472 0.41220343 -0.00000018
0.11119421 -0.62651747 -0.00000011
0.78987736 0.00520655 -0.00000099
0.54833198 -0.45141867 -0.00000025
-0.69131202 0.70869410 -0.00000014
0.29987296 0.09495645 -0.00000057
-0.03599642 0.66653430 -0.00000092
0.68722355 -0.58702087 -0.00000025
0.16767900 -0.49800101 -0.00000019
0.63123143 -0.73052055 -0.00000004
0.24934317 0.25831884 -0.00000069
-0.48095623 -0.12814628 -0.00000032
-0.46565545 -0.32010981 -0.00000030
0.49603829 0.26829758 0.04367927
-0.28234941 -0.72824365 -0.00000004
0.04349187 0.19483522 -0.00000062
-0.35280287 0.45637587 -0.00000056
0.16439378 -0.20852111 -0.00000037
-0.63178742 -0.69048047 -0.00000005
-0.13008849 -0.20409636 -0.00000037
-0.24833415 -0.32409543 -0.00000030
0.07767932 -0.69000381 -0.00000007
-0.79703319 0.20377260 -0.00000000
-0.67883426 0.00020218 -0.00000013
0.05124907 0.61580878 -0.00000088
-0.11831059 -0.70434809 -0.00000006
-0.59225559 0.20080177 -0.00000026
0.31352925 -0.38004827 -0.00000026
-0.04715785 0.49555859 -0.00000081
0.75190645 -0.24236944 -0.00000069
-0.63448340 0.68334138 -0.00000021
0.49141589 0.11477993 0.23736939
0.54156595 -0.50277799 -0.00000019
0.47543734 -0.09349183 -0.00000055
0.07951384 -0.70746702 -0.00000006
0.08256599 -0.51506591 -0.00000018
0.01208561 0.39888114 -0.00000075
-0.23369493 0.39125514 -0.00000068
0.04394655 0.15983409 -0.00000060
-0.76233643 0.69128060 -0.00000005
0.26467216 0.47217315 -0.00000093
0.06588554 -0.10437141 -0.00000043
0.32016042 -0.55459785 -0.00000015
0.49657804 0.26871571 -0.00000096
-0.60366237 0.77924991 -0.00000025
0.50736439 -0.78072047 -0.00000001
0.38194478 0.26736465 0.18456379
0.57622075 -0.21578954 -0.00000053
-0.40858227 0.24392544 -0.00000046
-0.19629698 -0.41791055 -0.00000024
-0.50212163 -0.65456825 -0.00000009
-0.74433964 0.18647791 -0.00000007
-0.14597961 -0.51647592 -0.00000018
-0.38554606 0.01782878 -0.00000045
0.44360587 -0.31357235 -0.00000030
0.20412549 -0.29331532 -0.00000032
-0.79184270 0.67014015 -0.00000001
0.00632977 0.71774775 -0.00000095
0.03318778 -0.70463312 -0.00000006
-0.28165072 -0.41455483 -0.00000024
-0.37963232 -0.24143083 -0.00000035
0.49436700 -0.34331319 -0.00000031
0.01714975 0.23024201 -0.00000064
-0.23890157 -0.27384394 -0.00000033
-0.68688774 -0.15557986 -0.00000009
-0.76871032 0.74203062 -0.00000004
-0.39044154 -0.70740139 -0.00000006
0.01775942 0.28171703 -0.00000068
-0.66740417 -0.28414735 -0.00000009
-0.43787837 -0.65099210 -0.00000009
-0.13374570 0.26230931 -0.00000066
-0.43405867 -0.08398686 -0.00000038
0.13712481 0.47350392 -0.00000080
0.22455508 0.10923734 -0.00000057
0.32910508 0.46225989 -0.00000099
-0.27993643 0.20656089 -0.00000059
0.39679289 -0.40436631 -0.00000025
0.41873631 -0.31112784 -0.00000031
0.55297714 0.18025190 -0.00000093
0.17787775 -0.58659828 -0.00000013
-0.21582767 -0.05993419 -0.00000046
0.02002768 -0.05305941 -0.00000047
0.38244075 0.13109884 -0.00000069
0.18522753 -0.20551549 -0.00000037
-0.24741516 -0.46579781 -0.00000021
-0.04158216 -0.02023218 -0.00000049
-0.27071258 0.15763471 -0.00000059
0.71434492 -0.70295757 -0.00000012
0.61788327 0.13747025 -0.00000095
0.25298452 0.42350942 0.15126815
-0.10399969 0.21364832 -0.00000063
-0.12895130 0.52344441 -0.00000081
0.19990678 0.25907117 -0.00000066
0.19822782 -0.19288298 -0.00000038
-0.48381126 0.60204488 -0.00000040
0.22852778 0.55695033 -0.00000098
0.08821937 0.47803497 -0.00000080
-0.65132111 -0.52506447 -0.00000006
-0.15984993 -0.33195630 -0.00000029
0.31198484 -0.39171875 -0.00000026
0.03859356 0.42793623 -0.00000077
0.31415161 0.18014173 0.37442574
-0.69269490 -0.71503234 0.00000000
-0.16858923 0.53516209 -0.00000077
-0.45417228 -0.28083947 -0.00000032
0.37849832 0.01492282 -0.00000057
-0.19177622 -0.01255720 -0.00000049
0.63623810 -0.14206347 -0.00000067
0.58407485 -0.51372486 -0.00000022
0.04667319 -0.31295219 -0.00000030
0.25077575 0.48275274 0.08141217
-0.69907278 -0.61129737 0.00000000
-0.70696485 -0.70141274 0.00000000
0.69724333 -0.11198182 -0.00000077
0.13532469 -0.23072977 -0.00000036
-0.01481048 0.60343933 -0.00000088
-0.42997980 0.39899945 -0.00000046
0.02805008 0.70582175 -0.00000094
0.19190124 -0.24537198 -0.00000035
0.57130265 -0.33664608 -0.00000040
0.57448542 -0.19833969 -0.00000055
0.35065055 0.20697546 -0.00000074
-0.60480750 0.16542816 -0.00000024
0.77473992 -0.24307013 -0.00000070
0.16260666 0.28238744 -0.00000068
0.51324600 -0.44686985 -0.00000022
0.00755896 0.31457704 -0.00000070
-0.77932256 0.46200165 -0.00000003
-0.41543064 0.34282055 -0.00000047
0.03822863 0.57023925 -0.00000086
0.57302672 0.06453587 -0.00000083
0.14889754 -0.51506412 -0.00000018
0.23820542 0.30993640 0.30847225
0.13528249 0.39327955 -0.00000075
-0.30414757 -0.41470429 -0.00000024
-0.61222684 -0.56239140 -0.00000010
-0.65025491 -0.29961553 -0.00000010
0.13796313 0.65054142 0.01407742
-0.70868015 0.16307873 -0.00000011
0.57647604 -0.03078730 -0.00000073
-0.79074544 0.01644312 -0.00000001
0.50505447 0.04872835 -0.00000074
-0.35941887 0.40421188 -0.00000054
0.16989650 0.05314883 -0.00000053
0.10443049 0.55392635 -0.00000085
-0.04765332 -0.72200906 -0.00000005
0.20641911 0.30911869 -0.00000070
-0.32734767 -0.17829651 -0.00000039
0.76970142 -0.50506949 -0.00000037
-0.66246384 -0.77039659 -0.00000001
0.39307073 -0.65903568 -0.00000009
-0.53576225 0.76222777 -0.00000033
-0.13400552 0.72710478 -0.00000083
0.45572186 -0.03087007 -0.00000060
-0.19089068 0.32608366 -0.00000070
-0.27404270 -0.70100987 -0.00000006
0.21096288 0.43346578 -0.00000083
0.07651929 -0.69827133 -0.00000006
0.01777404 -0.69747281 -0.00000006
-0.14233284 0.44708458 -0.00000078
0.15033808 0.36897808 -0.00000073
-0.68124920 0.59422284 -0.00000015
0.02723878 -0.20598321 -0.00000037
-0.11980747 -0.50025064 -0.00000019
-0.03346703 0.62516832 -0.00000089
0.72668302 -0.45211947 -0.00000043
-0.69408393 0.12275256 -0.00000013
0.25495592 -0.35080180 -0.00000028
0.33588350 -0.65283245 -0.00000009
0.26210651 0.38126686 -0.00000083
0.26909903 0.37272158 0.19373587
-0.27533454 0.32469273 -0.00000062
0.52573073 0.20181008 -0.00000092
-0.60102314 0.46225134 -0.00000025
0.33100146 -0.72860825 -0.00000004
0.55980188 -0.51916832 -0.00000019
-0.54018384 0.17799567 -0.00000031
-0.04994448 0.10590294 -0.00000057
0.11334357 0.38511348 -0.00000074
0.45681527 -0.47841164 -0.00000020
-0.66739321 0.03973311 -0.00000015
0.30717316 -0.28132617 -0.00000032
-0.62386876 -0.69508010 -0.00000006
-0.69544917 0.06059194 -0.00000012
-0.02859540 0.54736364 -0.00000084
-0.53151202 -0.09758250 -0.00000027
0.61963844 -0.69656003 -0.00000006
-0.38148838 -0.29362601 -0.00000032
0.33439109 -0.65095448 -0.00000009
0.18203609 0.31761411 0.36786377
-0.72626549 0.16486052 -0.00000009
0.12233107 0.52947396 0.18150601
-0.19916078 -0.77617091 -0.00000001
0.69745982 0.10042237 0.00259170
-0.05115175 -0.22573377 -0.00000036
0.39146650 -0.03312125 -0.00000053
-0.30723608 0.62103856 -0.00000062
-0.63909441 0.28541198 -0.00000020
0.34822220 0.18827754 -0.00000072
0.25214753 0.50590110 0.05137988
-0.21129870 0.58818603 -0.00000074
-0.23980618 -0.26257843 -0.00000034
0.62992412 -0.30507916 -0.00000049
0.77909052 -0.74162930 -0.00000007
-0.17111976 0.00474814 -0.00000050
-0.27313563 0.36514005 -0.00000063
0.20122173 -0.74110144 -0.00000004
0.11171807 0.67074424 -0.00000098
0.17549136 -0.43682393 -0.00000023
-0.46795404 -0.22177735 -0.00000031
-0.64748526 -0.46683618 -0.00000008
-0.28982231 -0.23580198 -0.00000035
-0.26706031 0.75471944 -0.00000067
0.40462726 0.35867915 -0.00000096
-0.50979692 0.72587240 -0.00000036
0.02579914 -0.76804024 -0.00000002
-0.39571384 0.10766810 -0.00000045
-0.64694560 -0.01414482 -0.00000016
-0.12115173 0.37433207 -0.00000073
0.44451967 0.26854196 -0.00000091
-0.38296938 0.65185642 -0.00000052
0.77164400 -0.30009431 -0.00000062
-0.36849612 -0.61043417 -0.00000012
0.40952879 -0.33196157 -0.00000029
-0.27802241 0.46510258 -0.00000064
0.02773583 -0.45380321 -0.00000022
0.20471142 0.55564779 0.04854987
-0.10349126 -0.66543067 -0.00000008
0.52587730 -0.65680772 -0.00000009
-0.07842795 0.41239703 -0.00000076
-0.43800625 0.22759347 -0.00000043
-0.04053010 -0.59440172 -0.00000013
-0.51552135 -0.43489674 -0.00000022
-0.25346687 -0.39886895 -0.00000025
0.26737222 0.11348668 -0.00000057
0.70751506 -0.14327417 -0.00000075
0.60655880 -0.69264793 -0.00000007
0.62951839 0.15616326 0.01753493
-0.03364435 -0.51390070 -0.00000018
0.47382578 0.28660899 0.04845732
0.38311234 -0.66609770 -0.00000008
0.56430089 -0.35437211 -0.00000037
-0.19921567 0.60574204 -0.00000075
-0.51310056 0.08055809 -0.00000032
0.69112712 -0.24313435 -0.00000062
-0.67056137 -0.70875734 -0.00000001
0.36720169 -0.62477916 -0.00000011
0.70542228 -0.09269030 -0.00000080
0.31660336 0.26204157 -0.00000076
-0.32472318 0.57386690 -0.00000059
-0.16208297 0.63095587 -0.00000080
-0.28018802 0.23485056 -0.00000060
-0.44944853 -0.27455571 -0.00000032
-0.59430480 0.58954054 -0.00000026
0.61214846 -0.21911126 -0.00000057
-0.27215058 -0.60195577 -0.00000012
0.05713403 0.10949442 -0.00000057
-0.38070926 -0.05703427 -0.00000044
0.00568392 0.79007173 0.00519627
-0.62879246 -0.29180121 -0.00000013
-0.53960145 0.57757062 -0.00000033
-0.43596649 0.41814697 -0.00000046
0.59738010 -0.20151228 -0.00000057
-0.13392638 0.30319110 -0.00000069
-0.46370938 -0.24156354 -0.00000031
-0.19282790 -0.00573736 -0.00000050
0.56333995 0.17675886 0.07336485
-0.35419109 0.75140321 -0.00000056
0.56277966 -0.64540291 -0.00000010
-0.31080157 -0.56641442 -0.00000015
0.48328379 -0.09244813 -0.00000056
0.50539398 0.27096003 0.02895941
0.03741130 0.75935322 -0.00000100
0.36578795 -0.24436738 -0.00000035
0.08173061 0.29309976 -0.00000068
0.39202800 0.11742175 -0.00000069
0.29053211 0.30278152 -0.00000078
0.33258212 0.03165884 -0.00000054
0.77530438 -0.03261178 -0.00000094
0.66654199 0.08014553 0.06529498
-0.07393928 0.08647088 -0.00000055
0.19702898 0.39964992 -0.00000078
0.15364569 -0.14951332 -0.00000041
0.61401743 -0.66142446 -0.00000010
0.78051990 -0.50369579 -0.00000037
0.31552023 -0.09056259 -0.00000044
-0.29509377 0.04466364 -0.00000053
0.03134758 -0.41186145 -0.00000024
-0.07213757 0.70125961 -0.00000090
-0.34994578 0.65894479 -0.00000056
-0.01302544 0.17735513 -0.00000061
-0.73799568 -0.59083539 0.00000000
-0.21945411 0.23127563 -0.00000064
-0.31439942 0.03442537 -0.00000052
-0.33086827 -0.03495367 -0.00000048
-0.74935728 0.39750645 -0.00000006
-0.72140270 -0.67083806 0.00000000
0.66321564 -0.40188524 -0.00000043
0.12488126 0.34253952 -0.00000071
0.17140584 0.29874480 -0.00000069
0.09638552 0.68858880 0.01840125
-0.76221985 0.26327643 -0.00000005
0.47264662 -0.75922799 -0.00000003
0.30087703 -0.37104076 -0.00000027
0.35581809 -0.15560684 -0.00000040
-0.39713669 0.66650039 -0.00000050
-0.08340879 -0.69437021 -0.00000007
-0.65368080 -0.72494787 -0.00000002
0.34170836 0.33826721 0.14700386
0.63582826 -0.35148522 -0.00000045
0.29784024 -0.67430681 -0.00000008
0.25024369 0.24107476 0.37806889
-0.33173719 0.76805079 -0.00000059
-0.60274571 0.38565144 -0.00000025
-0.79323423 0.02780686 -0.00000001
-0.18288010 0.49922210 -0.00000075
-0.44239113 0.38361245 -0.00000045
-0.48445818 -0.20080815 -0.00000030
0.31705105 -0.51508784 -0.00000018
-0.19705404 -0.01702320 -0.00000049
-0.01134691 0.02219116 -0.00000051
0.21645080 -0.68948048 -0.00000007
-0.49583840 -0.74998420 -0.00000003
-0.61766708 -0.46026787 -0.00000011
0.32953611 -0.32362950 -0.00000030
-0.08584209 0.40634859 -0.00000075
0.13960098 -0.51511842 -0.00000018
-0.64286196 -0.63179141 -0.00000005
-0.64864564 -0.35154614 -0.00000010
-0.11171237 0.25776970 -0.00000066
0.78334832 -0.11298633 -0.00000086
-0.60021293 0.58311200 -0.00000025
-0.33731806 -0.39061368 -0.00000026
0.15196182 0.08283197 -0.00000055
-0.44725302 0.41683200 -0.00000044
0.37972721 0.17046770 -0.00000073
0.30490014 0.08960656 -0.00000057
0.52605402 -0.13099149 -0.00000057
0.24546105 0.16098148 -0.00000060
-0.75045937 0.23728548 -0.00000006
-0.45461962 0.17188674 -0.00000040
-0.78977072 -0.38821754 0.00000000
0.29320621 0.24462508 0.32110086
0.22024985 0.38073745 -0.00000079
-0.62157160 -0.10502078 -0.00000017
-0.64361274 0.22891217 -0.00000020
0.36797574 0.40178069 0.03704014
-0.77351624 0.78293568 -0.00000003
0.00575974 0.14390108 -0.00000059
0.27013880 -0.54675728 -0.00000016
0.27784753 -0.13344011 -0.00000042
-0.26194015 -0.06365226 -0.00000046
0.26638278 0.33854258 0.23892468
0.57012200 -0.62248045 -0.00000011
-0.60417688 -0.43713823 -0.00000013
-0.35092047 -0.05660462 -0.00000046
-0.40954602 0.54531437 -0.00000049
0.72232342 -0.52858192 -0.00000034
-0.55571520 0.45368916 -0.00000031
0.19802439 0.49972844 0.12523024
-0.33715758 0.13532294 -0.00000052
-0.19304712 -0.25863227 -0.00000034
0.23508292 -0.22845966 -0.00000036
0.44618899 -0.34818244 -0.00000028
0.21132194 -0.11432066 -0.00000043
-0.00185862 -0.24740371 -0.00000035
0.04538180 0.26494193 -0.00000067
-0.78126049 -0.13219488 0.00000000
-0.73229486 -0.50278896 0.00000000
0.17623164 0.30672649 0.38830799
0.20635103 0.19183904 -0.00000062
-0.27788028 -0.51758963 -0.00000018
-0.74565595 -0.45362931 0.00000000
-0.05210930 -0.47026601 -0.00000021
-0.49643603 0.70721644 -0.00000038
0.63790280 0.12840208 0.04126762
0.46382320 0.26972607 0.08138672
-0.16218151 0.74246252 -0.00000080
-0.66539443 0.66581780 -0.00000017
-0.64112145 0.53882098 -0.00000020
-0.44393966 0.51399648 -0.00000045
0.25565463 -0.24276818 -0.00000035
-0.30059370 0.09776040 -0.00000055
-0.08796934 0.74100983 -0.00000089
0.58598995 -0.24485986 -0.00000051
0.25709513 0.09664749 -0.00000056
0.33325943 0.09975080 -0.00000061
-0.36633587 0.77656448 -0.00000054
-0.65051591 0.71049988 -0.00000019
-0.54112291 -0.73498207 -0.00000004
0.04711131 -0.20086543 -0.00000037
0.36567307 -0.46400905 -0.00000021
-0.00357859 -0.11293600 -0.00000043
0.48096481 0.09674898 -0.00000076
0.10853478 0.65789616 -0.00000096
0.02166269 0.05029374 -0.00000053
0.34758186 0.15948635 -0.00000069
-0.15040524 -0.11962653 -0.00000043
-0.69269204 0.36009058 -0.00000013
0.26786157 -0.41207132 -0.00000024
-0.20521057 -0.71866953 -0.00000005
0.25392580 -0.24380217 -0.00000035
-0.19932908 -0.04094377 -0.00000047
0.49406230 -0.32238373 -0.00000033
-0.41770282 -0.75008291 -0.00000003
-0.57824600 -0.24926612 -0.00000019
-0.05221207 0.52429420 -0.00000083
0.38514608 0.26650062 -0.00000084
0.57485998 -0.34808773 -0.00000039
-0.28984085 0.53525704 -0.00000064
-0.41422284 -0.69862437 -0.00000006
0.39198157 0.34541219 -0.00000093
-0.29809943 0.43697703 -0.00000062
-0.40242660 0.42070502 -0.00000050
-0.61171663 -0.75653338 -0.00000003
0.30582002 0.41899064 0.09208979
-0.31996667 0.49932113 -0.00000060
-0.66485274 -0.31695023 -0.00000009
0.32489970 0.38338792 0.11232722
0.26602876 0.36352918 0.20875500
-0.27496722 -0.15822756 -0.00000040
-0.50662285 -0.70660031 -0.00000006
-0.76803559 0.67175776 -0.00000004
-0.01980724 -0.08779298 -0.00000045
-0.45817691 0.72393167 -0.00000043
-0.32780698 0.54921621 -0.00000059
-0.25227022 -0.69813848 -0.00000006
0.08022446 -0.64794385 -0.00000010
-0.54020089 0.62489969 -0.00000032
-0.25976586 -0.69497722 -0.00000007
-0.45698527 0.41312635 -0.00000043
0.67774338 0.01095444 -0.00000088
-0.49090666 -0.69169909 -0.00000007
-0.03358800 0.11126625 -0.00000057
-0.64516717 0.56414324 -0.00000019
0.22590858 -0.56558579 -0.00000015
0.43940881 -0.25841841 -0.00000034
-0.14995021 0.36751631 -0.00000073
-0.32028905 0.56327218 -0.00000060
0.71509957 -0.03061874 -0.00000088
-0.15129970 0.41122255 -0.00000076
-0.57412010 0.77438849 -0.00000028
0.21796504 -0.42352080 -0.00000024
0.19504128 0.41412517 -0.00000080
-0.23356615 0.55030406 -0.00000071
-0.27843454 0.07342206 -0.00000055
-0.04934563 0.36549088 -0.00000073
-0.40788579 -0.05192156 -0.00000041
-0.31465262 0.53974956 -0.00000061
-0.54872197 0.18790379 -0.00000030
0.19438620 -0.55747205 -0.00000015
-0.19528717 -0.41762456 -0.00000024
-0.08593660 0.43026027 -0.00000077
-0.23773628 -0.52822447 -0.00000017
0.06303974 0.30734944 -0.00000069
-0.78412819 0.09716187 -0.00000002
-0.42450324 0.34813583 -0.00000046
-0.15704471 0.22714800 -0.00000064
-0.35838473 -0.12792028 -0.00000042
0.22210693 -0.70422918 -0.00000006
0.25854912 0.43939340 -0.00000089
0.70217681 -0.59843701 -0.00000025
0.65822136 -0.01625354 -0.00000083
0.21624707 -0.62142998 -0.00000011
-0.36870733 0.18477370 -0.00000049
0.04492012 0.13532311 -0.00000058
-0.75491714 -0.12855075 -0.00000002
-0.40567413 -0.63691455 -0.00000010
0.32662553 0.36239582 -0.00000088
0.34388718 -0.34871376 -0.00000028
-0.24539782 0.65559238 -0.00000069
-0.18805309 -0.68020636 -0.00000007
-0.69275558 0.72279829 -0.00000013
-0.77910441 0.16214491 -0.00000003
0.38959754 -0.57329780 -0.00000014
-0.15045030 -0.42511040 -0.00000023
-0.73097891 -0.73344374 0.00000000
-0.05340811 0.27949008 -0.00000067
0.26341438 0.31570831 0.27052745
-0.42532063 -0.71875423 -0.00000005
-0.26671419 0.27544531 -0.00000062
-0.11707422 0.07796436 -0.00000055
0.54260981 0.20715788 -0.00000095
-0.00629959 -0.79988623 -0.00000000
0.39358267 0.26610079 -0.00000085
-0.17316093 0.29406098 -0.00000068
-0.09059516 0.70680803 -0.00000089
0.02963699 0.01549028 -0.00000051
-0.41074121 0.02589718 -0.00000042
-0.39020190 0.19013403 -0.00000047
0.23603632 0.29099110 -0.00000071
-0.33278859 -0.67911351 -0.00000008
-0.05550982 -0.64045906 -0.00000010
-0.22977300 -0.22461237 -0.00000036
-0.22656006 -0.68485636 -0.00000007
0.62140727 -0.78609830 -0.00000001
0.34112602 -0.42564431 -0.00000023
0.46043649 -0.56611973 -0.00000015
-0.75883371 -0.75962758 0.00000000
-0.37313741 0.15275349 -0.00000048
0.70892161 -0.20841555 -0.00000068
0.36870557 0.23493847 0.24049477
-0.37896681 -0.48124811 -0.00000020
0.25366205 -0.18283615 -0.00000039
-0.63470680 -0.66995740 -0.00000005
0.42925152 0.28304791 0.10741356
0.22317362 -0.55014753 -0.00000016
-0.11296955 0.62912101 -0.00000085
0.40986720 -0.46704379 -0.00000021
-0.59144086 -0.06484518 -0.00000021
-0.07619621 0.53017002 -0.00000083
-0.43174222 0.36440071 -0.00000046
-0.16486889 -0.71783406 -0.00000005
-0.33138680 -0.05691797 -0.00000046
-0.65523773 -0.54913056 -0.00000005
-0.14363161 0.76510179 -0.00000082
0.01046215 0.31741604 -0.00000070
0.05069483 0.74051493 -0.00000099
0.05001279 -0.78245091 -0.00000001
-0.28627244 -0.36360127 -0.00000027
-0.11005338 0.58550584 -0.00000084
0.08193227 0.68912339 0.03544886
-0.38295621 0.60443413 -0.00000052
0.12925182 0.45049971 0.26975629
0.25198352 -0.56364262 -0.00000015
-0.35202393 0.62731248 -0.00000056
-0.61504352 0.57444876 -0.00000023
0.28590795 0.29816526 0.26446426
-0.14734761 0.39342451 -0.00000075
-0.41569144 -0.73215246 -0.00000004
0.63300562 0.13919713 -0.00000097
-0.34584057 0.43768635 -0.00000056
0.69508070 -0.59571904 -0.00000025
0.07661338 -0.54356658 -0.00000016
0.09916684 -0.43274167 -0.00000023
-0.35864547 -0.33820611 -0.00000029
-0.27706888 -0.53811359 -0.00000016
-0.13537963 -0.01684778 -0.00000049
0.10127165 0.53173256 -0.00000083
0.08469533 -0.21495205 -0.00000037
-0.03476315 0.71436054 -0.00000095
0.24616025 0.06554038 -0.00000054
0.21775693 0.39359638 -0.00000080
0.54097354 -0.61018324 -0.00000012
-0.18368915 -0.23738837 -0.00000035
-0.46523020 -0.28342852 -0.00000031
-0.30686018 0.34365618 -0.00000059
0.04716075 -0.64786035 -0.00000010
-0.32014045 -0.62051749 -0.00000011
-0.42527866 0.48469290 -0.00000047
0.47060287 -0.20147847 -0.00000043
-0.31560740 0.09027578 -0.00000053
-0.62265664 -0.77581441 -0.00000002
-0.15273100 0.37539059 -0.00000073
-0.19771370 0.25940773 -0.00000066
0.15646747 -0.61864799 -0.00000011
-0.37045524 0.41183546 -0.00000053
-0.02594036 0.22096884 -0.00000064
0.38092917 -0.35151681 -0.00000028
0.14563820 0.18708195 -0.00000062
-0.42589778 -0.41083884 -0.00000024
-0.35441062 -0.00807990 -0.00000047
-0.51228845 0.28731325 -0.00000036
-0.19054158 -0.34760338 -0.00000028
0.71209627 -0.37651384 -0.00000050
-0.54729736 0.74968743 -0.00000032
-0.32494125 0.25717977 -0.00000055
0.13817295 -0.70087272 -0.00000006
0.24348986 0.30506587 -0.00000073
0.24648936 0.52682137 0.03268684
0.72538370 -0.18002678 -0.00000073
-0.53217745 -0.10647156 -0.00000027
0.30616587 0.39879578 -0.00000090
0.71659827 0.01128391 -0.00000092
-0.53118855 0.07820289 -0.00000030
-0.14087373 -0.45961466 -0.00000021
0.55511385 0.14876746 -0.00000090
-0.68107992 -0.47254276 -0.00000004
-0.47538996 -0.16772828 -0.00000032
-0.13282418 -0.55641252 -0.00000015
-0.20970567 -0.79576045 -0.00000000
-0.75735116 0.38284913 -0.00000005
-0.47459748 0.64145386 -0.00000041
-0.26270896 -0.69819498 -0.00000006
-0.59876508 0.23978525 -0.00000025
-0.55900830 0.02519000 -0.00000026
-0.62376261 0.22241005 -0.00000022
-0.58315367 0.20292944 -0.00000027
0.47899786 -0.73737049 -0.00000004
-0.14949103 -0.38814494 -0.00000026
-0.63262147 -0.35527858 -0.00000011
-0.73109925 0.44736153 -0.00000009
0.45083228 0.32777408 -0.00000098
-0.19092177 -0.72459483 -0.00000005
-0.73361367 -0.56142074 0.00000000
-0.44862637 -0.74031228 -0.00000004
0.39099443 0.26489902 0.17649968
-0.07050848 -0.44654188 -0.00000022
0.41025877 0.05577258 -0.00000064
0.70996720 -0.09896472 -0.00000080
0.66674709 0.03064384 -0.00000089
0.47353324 -0.70573616 -0.00000006
0.46129468 -0.65682763 -0.00000009
-0.39534786 0.46324652 -0.00000051
0.18795294 0.16296762 -0.00000060
0.72806525 0.06408302 0.00961461
-0.72178876 0.63170791 -0.00000010
0.61347371 0.14415611 0.05189283
0.29428959 -0.65873444 -0.00000009
0.29344416 0.12415705 -0.00000059
0.25392103 0.07878688 -0.00000055
0.50576758 -0.72911412 -0.00000004
-0.07373068 -0.44329828 -0.00000022
-0.61756927 0.44978482 -0.00000023
-0.34134468 0.60937232 -0.00000057
0.47216836 0.28752929 -0.00000096
-0.79925150 0.58139801 -0.00000000
0.48226899 0.29409763 0.02894397
-0.56539184 -0.24676263 -0.00000021
0.16781282 -0.59507757 -0.00000013
-0.32015750 0.48000982 -0.00000060
-0.28410450 0.61710286 -0.00000064
-0.53745216 -0.56636232 -0.00000015
0.73757839 0.02086125 -0.00000096
-0.54427928 0.59002620 -0.00000032
-0.52473748 0.49207160 -0.00000034
-0.25168601 -0.64043170 -0.00000010
0.43922171 -0.18655185 -0.00000042
-0.31059450 -0.62648058 -0.00000011
-0.54124665 -0.26498434 -0.00000023
0.71715653 -0.62662977 -0.00000022
0.74350286 -0.59458596 -0.00000026
0.10995876 0.20931952 -0.00000063
-0.61443830 0.16206355 -0.00000023
0.31074128 0.12454543 -0.00000061
-0.18476631 0.07402608 -0.00000055
0.12225834 0.29217684 -0.00000068
-0.54288775 0.49715814 -0.00000032
0.06566082 0.69330955 -0.00000096
0.15231562 0.57396019 -0.00000092
0.04200800 0.64312881 -0.00000090
0.22576506 0.49004138 -0.00000091
0.16443640 0.56228119 -0.00000092
0.30792814 0.18042582 0.38170016
-0.04044279 0.56620371 -0.00000085
-0.39950639 0.38156620 -0.00000050
-0.02769474 -0.01269436 -0.00000049
0.50092489 0.25960132 -0.00000096
-0.59570330 -0.54793084 -0.00000012
-0.05906016 -0.30382058 -0.00000031
-0.10380428 0.43702981 -0.00000077
-0.16017421 -0.25947201 -0.00000034
0.42843819 0.36405155 0.00919636
-0.35609418 0.15506946 -0.00000050
-0.11832959 -0.39348787 -0.00000025
-0.65625209 -0.64710879 -0.00000003
0.05796426 0.07631398 -0.00000055
-0.65671587 0.46992671 -0.00000018
0.14084405 0.47721434 0.22283863
-0.39829630 0.50440520 -0.00000050
-0.29706171 -0.55451649 -0.00000015
0.53075755 -0.59367126 -0.00000013
-0.09615270 -0.20060024 -0.00000037
0.22906157 -0.72144276 -0.00000005
-0.53827083 -0.65309817 -0.00000009
0.42514029 0.00597350 -0.00000061
0.26594234 -0.72587007 -0.00000005
-0.09729029 -0.23951118 -0.00000035
-0.51001096 -0.03545430 -0.00000030
-0.00112604 0.07260459 -0.00000055
-0.62279820 -0.17802958 -0.00000016
0.71591181 -0.20533098 -0.00000069
-0.68412817 0.26909292 -0.00000014
0.52946675 -0.38478792 -0.00000030
-0.14581951 -0.07611068 -0.00000045
0.43791932 -0.55943704 -0.00000015
0.36535820 -0.11993542 -0.00000043
-0.49689275 -0.71199083 -0.00000006
-0.27072641 -0.29047704 -0.00000032
0.13001806 -0.48387733 -0.00000020
-0.07431628 0.49385497 -0.00000081
0.05463971 -0.06861987 -0.00000046
0.04290091 0.23335569 -0.00000065
-0.42606068 -0.50125307 -0.00000019
0.44711849 0.07580867 -0.00000070
0.18448494 0.02099758 -0.00000051
-0.57951629 -0.03936415 -0.00000023
0.06028723 0.46918461 -0.00000079
-0.56609851 -0.28813079 -0.00000020
0.21891722 0.24143796 -0.00000065
0.33231628 0.26706803 0.24571177
0.00387284 0.13434801 -0.00000058
-0.18564056 0.05756479 -0.00000054
-0.58525598 -0.08414674 -0.00000021
0.15785404 0.28335449 -0.00000068
-0.57084411 -0.09402082 -0.00000023
0.22297502 0.42930728 0.18092218
0.08006029 -0.53370160 -0.00000017
0.50502968 -0.49862573 -0.00000019
-0.04607038 0.67491806 -0.00000092
0.51603031 -0.44712254 -0.00000022
0.67051065 -0.48209396 -0.00000035
0.29891977 -0.56095624 -0.00000015
-0.44869262 0.51923752 -0.00000044
-0.07443180 0.06816308 -0.00000054
0.47591823 0.24077021 -0.00000091
-0.46149358 -0.15219145 -0.00000033
-0.19563597 0.30800650 -0.00000069
-0.65920234 0.48193493 -0.00000018
0.28277028 0.04942316 -0.00000053
-0.59117228 -0.77842182 -0.00000001
-0.50413752 0.28774688 -0.00000037
-0.26024294 0.23269229 -0.00000062
0.26026386 0.43263841 -0.00000089
0.29570964 0.44953689 0.06705991
0.20011258 -0.01978037 -0.00000049
-0.74240458 -0.61927891 0.00000000
0.12764409 -0.61159128 -0.00000012
0.20714529 -0.45195451 -0.00000022
0.61475712 -0.64757335 -0.00000011
-0.65683883 0.28825778 -0.00000018
0.15900683 -0.06902540 -0.00000046
0.05657874 0.23830917 -0.00000065
-0.21215089 -0.57019162 -0.00000014
0.35519335 -0.52719742 -0.00000017
-0.79821879 0.20775285 -0.00000000
-0.07024614 0.35508040 -0.00000072
0.75766754 -0.62295842 -0.00000022
-0.39911067 0.48633313 -0.00000050
0.11090958 0.30192640 -0.00000069
-0.48439506 -0.25146946 -0.00000029
0.03745142 -0.53808075 -0.00000016
0.24005106 -0.19455484 -0.00000038
-0.33476248 0.60422182 -0.00000058
-0.33127034 -0.71126920 -0.00000006
0.36933944 0.20462044 0.27685156
-0.42705491 -0.34930310 -0.00000028
0.08753288 -0.00610635 -0.00000050
-0.69419003 0.34374246 -0.00000013
-0.79394841 0.31424883 -0.00000001
0.17050035 0.28959441 0.41631070
-0.66179091 0.13108091 -0.00000017
-0.27466506 -0.26164848 -0.00000034
-0.35103551 -0.40759686 -0.00000025
-0.02894635 0.56888509 -0.00000086
0.06630713 -0.58675748 -0.00000013
-0.40059760 -0.08896956 -0.00000041
-0.08065443 -0.29955739 -0.00000031
-0.62919813 0.35039103 -0.00000021
-0.60921401 -0.29977697 -0.00000015
0.05789688 -0.75414693 -0.00000003
-0.16059838 0.52935511 -0.00000078
0.52312535 -0.53756392 -0.00000016
0.22455789 -0.50074154 -0.00000019
0.54308051 -0.15251803 -0.00000056
0.16863997 -0.54074073 -0.00000016
-0.11722107 0.67450780 -0.00000085
0.54850507 0.03715062 -0.00000077
-0.31682369 -0.21012557 -0.00000037
0.14410104 0.39742517 -0.00000075
-0.04767120 -0.76377690 -0.00000002
-0.61563140 0.79239714 -0.00000023
0.59141749 0.09778999 0.13569662
0.69804186 0.07621792 0.03152445
-0.72689807 0.77884543 -0.00000009
0.34611470 0.09368530 -0.00000062
-0.63658649 0.67868334 -0.00000020
-0.71135485 0.58128852 -0.00000011
-0.17407444 -0.79997718 -0.00000000
0.37180170 -0.60897177 -0.00000012
0.64948726 -0.28145596 -0.00000054
-0.27619702 -0.12797861 -0.00000042
-0.14205129 -0.48150143 -0.00000020
0.68985349 -0.30922750 -0.00000055
-0.47637030 -0.07466727 -0.00000033
-0.05789157 0.35501313 -0.00000072
-0.03860286 0.23335183 -0.00000065
-0.34978846 -0.26398638 -0.00000034
0.23910969 0.36954775 -0.00000080
-0.09660469 0.36453825 -0.00000073
0.39361250 0.24966477 -0.00000083
-0.19221699 -0.22025374 -0.00000036
-0.74876690 -0.64858484 0.00000000
-0.52549070 0.41840458 -0.00000034
-0.39625889 -0.23196943 -0.00000036
0.31170371 -0.09802072 -0.00000044
0.73937225 -0.15924744 -0.00000077
0.78110105 -0.12735105 -0.00000084
-0.49858865 -0.56419069 -0.00000015
0.74608105 -0.09787372 -0.00000084
0.70396048 -0.61801583 -0.00000023
0.14897847 0.64769632 -0.00000100
0.70525324 -0.69597125 -0.00000013
-0.65288770 0.28669459 -0.00000018
0.31428605 0.44501674 0.04984378
-0.36828470 0.51142228 -0.00000054
-0.37376580 0.43092889 -0.00000053
-0.66854590 0.03046269 -0.00000015
-0.52625167 0.72165102 -0.00000034
-0.18041553 0.76241630 -0.00000077
-0.42482546 0.26957691 -0.00000045
-0.11702017 -0.48990554 -0.00000019
-0.34724566 0.15858968 -0.00000051
0.27568337 -0.36378872 -0.00000027
-0.67875057 0.51508850 -0.00000015
0.20162068 0.01652303 -0.00000051
-0.58373916 -0.02003227 -0.00000023
0.35928926 -0.76919675 -0.00000002
0.09601388 0.54176539 -0.00000084
0.41591999 -0.51460147 -0.00000018
0.22865994 -0.47986659 -0.00000020
-0.32900912 0.11272393 -0.00000052
-0.65405071 0.04259446 -0.00000016
0.16100457 0.38839650 0.30692938
-0.48381957 -0.76009470 -0.00000002
-0.60893565 0.57085419 -0.00000024
-0.52391219 -0.41294086 -0.00000022
0.14583740 0.36625156 0.35262868
-0.28250426 -0.78885853 -0.00000001
0.32112685 0.42701173 -0.00000094
0.58988446 0.01010960 -0.00000079
0.73419166 -0.61681521 -0.00000023
0.05942601 -0.28396389 -0.00000032
0.72180456 -0.56141305 -0.00000030
-0.66228318 0.23673078 -0.00000017
0.18994977 -0.15165776 -0.00000041
-0.21978696 0.49559265 -0.00000071
0.53249323 0.06473951 -0.00000078
0.22974336 0.39465126 -0.00000081
0.35411924 0.33262619 0.13871212
0.07477792 0.27732465 -0.00000067
0.13539109 0.33825234 -0.00000071
0.10239452 -0.13137400 -0.00000042
-0.27513304 0.75798446 -0.00000066
0.07920858 -0.41369358 -0.00000024
-0.26353800 0.39609209 -0.00000064
0.21241789 0.45004401 -0.00000085
0.69012713 -0.18761624 -0.00000068
0.59214514 -0.34244543 -0.00000041
0.15301393 0.49227923 0.18948188
-0.31303766 -0.28441834 -0.00000032
-0.33963189 0.75981444 -0.00000058
-0.11634794 0.64791381 -0.00000085
-0.33037052 0.53061807 -0.00000059
-0.21059892 0.39274764 -0.00000070
0.04111699 0.03659379 -0.00000052
-0.65752453 0.02284393 -0.00000016
-0.18377735 0.61471683 -0.00000077
0.41794026 0.32519671 -0.00000094
0.32030109 0.19370528 0.35028154
-0.10925847 0.32347468 -0.00000070
0.55917907 -0.54757082 -0.00000016
-0.67577779 -0.34924537 -0.00000007
0.79757398 -0.48025605 -0.00000040
-0.69752616 0.55935568 -0.00000013
-0.61669940 0.71974593 -0.00000023
-0.01228508 -0.10032478 -0.00000044
-0.28115335 0.75514162 -0.00000065
0.41317478 -0.56701976 -0.00000015
-0.60876089 -0.49359664 -0.00000011
0.51463819 -0.00008857 -0.00000070
-0.63728404 0.05140466 -0.00000018
-0.67720866 -0.06921257 -0.00000012
-0.60697961 0.59593165 -0.00000024
0.47421503 -0.71541756 -0.00000005
0.46067584 0.23674116 0.12564160
-0.13572693 0.54268152 -0.00000081
-0.73319769 0.00396554 -0.00000007
0.52361524 -0.49175307 -0.00000019
-0.20243450 -0.70739299 -0.00000006
0.70502102 -0.73691255 -0.00000008
0.19197106 0.60252452 -0.00000099
-0.44362858 -0.29429501 -0.00000032
-0.22160630 -0.39567533 -0.00000025
-0.34044513 0.62524509 -0.00000057
0.13045086 0.47941136 -0.00000080
-0.20802587 -0.19744539 -0.00000038
0.34617245 -0.46113431 -0.00000021
-0.37864268 -0.00984087 -0.00000045
0.29134932 0.24485351 -0.00000072
0.36157644 -0.31095016 -0.00000031
-0.58923316 -0.75975955 -0.00000003
-0.12934414 -0.07955186 -0.00000045
0.03449309 0.43352687 -0.00000077
-0.33161104 0.61685872 -0.00000059
-0.44791892 0.24788615 -0.00000042
0.38065559 -0.53482682 -0.00000017
-0.46327430 0.16266477 -0.00000039
-0.15845707 0.55250490 -0.00000079
-0.74353558 -0.50397903 0.00000000
0.22677381 0.56284446 0.01271334
-0.55094975 0.46989593 -0.00000031
0.28798708 0.10967917 -0.00000057
-0.70446694 0.20049699 -0.00000012
-0.35789552 -0.01349394 -0.00000047
0.26949972 0.40708730 0.15115416
-0.40657979 -0.26567578 -0.00000033
0.56757480 -0.22384892 -0.00000051
0.45425195 0.20696609 0.16997813
0.21653666 -0.08375243 -0.00000045
0.46235394 -0.11386330 -0.00000052
-0.22075295 0.22323506 -0.00000064
-0.70892519 0.79005218 -0.00000011
-0.73054343 0.30967507 -0.00000009
-0.45933861 -0.37693629 -0.00000026
-0.12730162 -0.12787655 -0.00000042
0.45194641 0.19870885 -0.00000084
-0.56777561 -0.48713273 -0.00000016
0.00740278 -0.49106270 -0.00000019
0.46943972 0.20893046 0.14897014
0.53413159 0.15511794 0.13564511
-0.10096957 0.65660971 -0.00000087
-0.02296778 -0.24430220 -0.00000035
-0.55674118 -0.78831297 -0.00000001
-0.49228236 0.54534489 -0.00000038
-0.19825433 -0.35296533 -0.00000028
-0.46391428 -0.29441404 -0.00000030
-0.77222818 0.11038376 -0.00000003
-0.67958760 -0.00816232 -0.00000013
-0.50691813 0.02851370 -0.00000032
-0.27743852 -0.29102394 -0.00000032
-0.57406378 -0.05976634 -0.00000023
-0.49358419 -0.20417172 -0.00000029
-0.44144970 0.55857056 -0.00000045
0.26500723 -0.43268466 -0.00000023
-0.73976612 -0.27610591 -0.00000001
-0.59700716 -0.78247809 -0.00000001
-0.73583806 -0.21122599 -0.00000003
-0.50150496 0.28696331 -0.00000037
0.14759092 0.64213794 0.01257788
0.37182775 -0.27787569 -0.00000033
-0.18696856 0.05317761 -0.00000053
-0.56795436 -0.41779658 -0.00000017
0.34556022 -0.30836931 -0.00000031
0.20984536 0.40513286 0.22661166
0.08123334 0.02299871 -0.00000051
-0.19368766 -0.05683782 -0.00000046
-0.38915816 -0.32051364 -0.00000030
-0.48480445 0.19904998 -0.00000037
-0.75487375 0.30557227 -0.00000006
0.49792415 0.29383421 0.01009216
-0.38593066 0.02490055 -0.00000045
-0.04271447 -0.34632477 -0.00000028
-0.06222995 -0.38233474 -0.00000026
0.10021259 -0.50361013 -0.00000019
-0.45145428 -0.17252535 -0.00000034
-0.75380272 0.43682322 -0.00000006
0.24513876 0.35790646 -0.00000079
-0.76593161 -0.04659279 -0.00000003
0.57492810 0.15293556 -0.00000092
0.63937104 -0.60039866 -0.00000019
0.35027444 -0.04530725 -0.00000047
0.59777945 -0.57698888 -0.00000017
0.20767494 0.04990261 -0.00000053
-0.51206821 -0.07259652 -0.00000029
-0.15318476 -0.60745746 -0.00000012
-0.23300526 0.21875618 -0.00000064
0.76192510 -0.55590200 -0.00000031
0.05716353 0.18616888 -0.00000062
0.60419053 0.14316206 0.06448040
0.56790602 -0.32289818 -0.00000041
0.74524409 -0.03077181 -0.00000091
-0.43699947 -0.13476811 -0.00000036
-0.03496161 -0.24837679 -0.00000034
-0.37104350 0.48438749 -0.00000054
0.58661836 -0.42577997 -0.00000032
0.57166886 0.22657613 -0.00000100
-0.39342588 -0.27469006 -0.00000033
-0.14947066 0.35400528 -0.00000072
-0.40861556 0.64603317 -0.00000049
-0.11135214 0.28058642 -0.00000068
0.02563133 0.44914690 -0.00000078
-0.34869921 -0.32171935 -0.00000030
0.46994394 -0.46716651 -0.00000021
-0.45181885 0.29881623 -0.00000043
-0.77437371 -0.66569221 0.00000000
-0.05602228 -0.33908173 -0.00000029
-0.12760797 -0.65845150 -0.00000009
-0.29433629 0.63798553 -0.00000063
0.15081199 -0.58096093 -0.00000014
0.05501158 0.63304031 -0.00000090
-0.10896594 -0.36327571 -0.00000027
-0.41281810 -0.73130989 -0.00000004
-0.19080649 -0.64821500 -0.00000009
-0.39450619 -0.05021257 -0.00000042
-0.67416465 -0.53135222 -0.00000004
0.55898434 -0.03343978 -0.00000071
0.77983421 -0.39835215 -0.00000050
-0.71003425 0.27368912 -0.00000011
-0.34437340 -0.01551532 -0.00000048
0.20852342 0.36379430 0.27886170
0.53705305 0.20509155 0.07085915
-0.73536438 0.32678089 -0.00000008
0.18372168 -0.69563317 -0.00000007
-0.55502415 -0.59117502 -0.00000013
0.40291840 -0.75646585 -0.00000003
-0.73120320 -0.49563187 0.00000000
0.59800959 0.19512382 -0.00000099
-0.60488123 0.30624294 -0.00000024
0.24871571 0.29753101 -0.00000073
-0.16096905 -0.05579275 -0.00000047
0.38120198 -0.05222165 -0.00000050
-0.25564387 0.33354813 -0.00000064
0.40493140 0.04798906 -0.00000063
0.42432198 0.23949766 -0.00000085
-0.09505483 0.43780962 -0.00000077
0.30386239 -0.73423785 -0.00000004
-0.67379731 -0.56166458 -0.00000003
-0.14842469 -0.62235337 -0.00000011
0.18048766 0.28209499 -0.00000068
0.28096351 0.21680498 -0.00000068
0.60862720 -0.40484095 -0.00000036
0.21417901 -0.30847576 -0.00000031
0.16539031 -0.29329398 -0.00000032
-0.69583493 0.31396496 -0.00000013
-0.50081366 0.26673722 -0.00000037
-0.66125286 -0.09013658 -0.00000013
0.07994810 0.56220454 -0.00000085
-0.14880317 -0.24857251 -0.00000034
-0.76681024 -0.31418774 0.00000000
-0.10257614 0.77543616 -0.00000087
0.17914635 -0.41197819 -0.00000024
-0.43387681 0.70701665 -0.00000046
-0.59593630 0.64145064 -0.00000026
-0.37571213 0.64814693 -0.00000053
-0.69488382 -0.11588926 -0.00000009
-0.24881098 0.25753272 -0.00000064
0.01605741 0.53591871 -0.00000083
-0.55921477 0.54172963 -0.00000030
-0.65208161 0.67532527 -0.00000018
-0.49118966 -0.67575389 -0.00000008
0.35996449 -0.12288723 -0.00000042
0.18676516 0.37829375 -0.00000075
-0.24379241 -0.57500547 -0.00000014
0.76050532 -0.11966781 -0.00000083
0.45406967 -0.28123561 -0.00000033
0.13723321 0.12324137 -0.00000058
-0.70710158 0.50348800 -0.00000012
-0.12929302 -0.39370239 -0.00000025
-0.37944061 0.46087065 -0.00000053
-0.36321861 -0.25350791 -0.00000034
-0.66740942 0.34070382 -0.00000017
0.26560292 0.49718302 0.04557762
0.01586569 0.77926934 0.00595642
0.05079784 -0.08142709 -0.00000045
0.06473281 -0.25373527 -0.00000034
0.20863697 0.41800839 0.21232189
-0.01307158 -0.23433280 -0.00000035
-0.00588699 -0.46618450 -0.00000021
-0.02712715 0.23131754 -0.00000064
-0.65947056 0.51388234 -0.00000018
0.23915268 0.16740862 -0.00000060
0.12926120 -0.08300425 -0.00000045
-0.54214656 -0.30576301 -0.00000022
-0.51469630 -0.16068009 -0.00000027
-0.51912111 0.20286971 -0.00000034
-0.62186760 0.42514366 -0.00000022
0.33351684 -0.55232579 -0.00000015
-0.77396101 -0.54643613 0.00000000
0.21441986 0.21141538 0.45827165
0.00869330 0.40578458 -0.00000075
-0.65601593 -0.12341906 -0.00000013
-0.00231342 0.62385839 -0.00000089
0.05149673 0.53391755 -0.00000083
-0.46164861 -0.26050854 -0.00000031
0.09906906 0.33007354 -0.00000071
0.75361407 -0.11030599 -0.00000083
0.71384907 -0.26523635 -0.00000063
0.64081699 -0.06478698 -0.00000076
-0.43584836 0.01217853 -0.00000039
-0.73101443 -0.74565208 0.00000000
-0.24105488 0.23389398 -0.00000064
0.46623081 0.10947852 -0.00000076
0.12623359 0.22662690 -0.00000064
0.32460973 -0.73467934 -0.00000004
-0.52036822 -0.49852219 -0.00000019
0.16726136 -0.29873115 -0.00000031
-0.24075890 -0.48530874 -0.00000020
0.06236625 0.68190366 0.06825575
0.70304924 0.07964545 -0.00000098
0.15877928 0.15236430 -0.00000060
0.36553550 -0.17581429 -0.00000039
0.57527697 -0.20640653 -0.00000054
0.63839465 -0.46429709 -0.00000033
-0.67663527 0.37586272 -0.00000015
0.22718470 0.34478652 0.27928621
-0.51078564 -0.13454548 -0.00000028
-0.02928430 0.41736743 -0.00000076
-0.16685092 0.27252239 -0.00000067
-0.63486177 0.09006952 -0.00000019
0.39545062 0.11633341 -0.00000069
0.47679761 0.26336113 0.07329144
-0.30546594 0.45748702 -0.00000061
0.14830388 0.05769023 -0.00000054
0.38380739 0.14048204 -0.00000071
0.02074937 0.59477830 -0.00000087
-0.76358879 0.43833125 -0.00000005
-0.33142987 0.61964059 -0.00000059
-0.66729462 0.20533992 -0.00000017
-0.66207564 0.78398699 -0.00000017
0.17101857 0.62692684 -0.00000100
-0.17713210 0.34791696 -0.00000072
-0.12766702 0.68579018 -0.00000084
-0.62538868 -0.52477747 -0.00000009
-0.65777385 0.68981975 -0.00000018
0.20383020 0.31629112 0.34279117
-0.24498215 -0.72340512 -0.00000005
-0.66047835 -0.24421781 -0.00000010
0.00527639 0.30547085 -0.00000069
0.04340631 -0.47881353 -0.00000020
-0.56748992 0.21023320 -0.00000029
-0.60968047 -0.02780580 -0.00000020
0.07821109 -0.65791237 -0.00000009
-0.39322829 -0.52273589 -0.00000017
-0.37656459 -0.18518195 -0.00000038
0.16976497 -0.28485364 -0.00000032
0.01624140 -0.13265574 -0.00000042
-0.53011596 -0.73711997 -0.00000004
-0.59222800 -0.57398200 -0.00000012
0.05183910 0.71851873 0.03630351
0.20317273 0.28418750 0.38291654
0.24614218 -0.70837438 -0.00000006
-0.71837330 0.75070304 -0.00000010
0.17771824 0.53159469 -0.00000090
-0.49758658 0.66188025 -0.00000038
-0.46058825 -0.19886629 -0.00000033
0.17281601 -0.22246554 -0.00000036
-0.15950151 -0.28068525 -0.00000032
0.59176898 -0.31827652 -0.00000044
0.40473270 0.21812822 0.21695796
0.05973558 0.55557811 -0.00000085
-0.25591713 0.75774199 -0.00000068
-0.21182996 -0.08534735 -0.00000045
0.74583513 -0.45545858 -0.00000043
-0.77932167 -0.44803858 0.00000000
0.39170435 0.13914482 -0.00000071
-0.59455609 0.36102498 -0.00000026
-0.16794875 -0.68806148 -0.00000007
-0.56541055 0.29315129 -0.00000029
-0.29233885 0.78700364 -0.00000063
0.04929741 -0.29048204 -0.00000032
0.09598978 0.00200511 -0.00000050
0.23474646 -0.70879531 -0.00000006
-0.24253242 0.15317532 -0.00000060
0.44266522 0.16585381 0.23452392
0.29700339 -0.47902319 -0.00000020
0.37768635 -0.36909994 -0.00000027
0.00916840 0.47654906 -0.00000080
-0.62546211 0.78462410 -0.00000022
-0.17538057 0.28237522 -0.00000068
0.18627261 -0.59168410 -0.00000013
0.02587419 0.66737235 -0.00000092
0.01720700 -0.75783163 -0.00000003
-0.71131849 0.66343880 -0.00000011
0.15221924 0.40182713 -0.00000075
0.09631391 -0.02553010 -0.00000048
-0.64529264 -0.69086140 -0.00000004
-0.30961528 0.54676604 -0.00000061
-0.05077184 -0.15256622 -0.00000040
-0.10358455 -0.33017206 -0.00000029
0.08911087 -0.39272040 -0.00000025
-0.20608354 0.31276554 -0.00000069
-0.76709539 0.53760362 -0.00000004
0.02846430 -0.63510555 -0.00000010
-0.21590193 0.48546162 -0.00000071
-0.64515889 0.08158833 -0.00000018
-0.29036474 -0.69586706 -0.00000007
0.30974579 0.24675071 0.29824007
-0.12702267 -0.79865754 -0.00000000
-0.71915793 -0.73964709 0.00000000
-0.35113910 -0.15218922 -0.00000040
0.37359694 -0.23578738 -0.00000035
-0.49450681 -0.75393862 -0.00000003
0.10533761 -0.31916690 -0.00000030
0.22945535 -0.70101440 -0.00000006
0.01068202 0.44844493 -0.00000078
-0.79601860 0.76058090 -0.00000000
-0.66346908 0.53126043 -0.00000017
0.09034705 -0.36645094 -0.00000027
-0.27937090 0.43399107 -0.00000063
0.05733245 -0.61207169 -0.00000012
-0.67550135 -0.67451900 -0.00000001
0.20683108 0.13848895 -0.00000059
0.32495159 -0.65805942 -0.00000009
0.34339684 -0.23219199 -0.00000035
0.56918943 0.13376883 -0.00000090
0.63680100 0.10173352 -0.00000093
0.30440128 -0.13302334 -0.00000042
0.45747894 0.22733304 -0.00000088
0.71599758 -0.03116169 -0.00000088
-0.75125182 -0.21800490 -0.00000001
-0.65923226 0.02474152 -0.00000015
-0.73880321 -0.51539505 0.00000000
-0.64143670 -0.00803073 -0.00000017
0.45943981 0.21455921 -0.00000087
-0.33397248 -0.67636204 -0.00000008
0.35086903 0.36603236 0.10177707
0.42147064 0.33441469 0.05402949
0.38844284 0.35074523 0.07448031
-0.04192732 0.34424686 -0.00000072
0.58058757 0.19772153 -0.00000098
0.65379852 0.05588156 0.11062175
0.20418295 0.03860789 -0.00000052
-0.75889993 -0.48565516 0.00000000
0.65320200 0.05295439 0.11493756
0.55011439 -0.77746552 -0.00000001
