ply
format ascii 1.0
element vertex 1389
property float x
property float y
property float z
end_header
0.71397531 -0.24064234 -0.00000121
-0.10985150 -0.14294428 0.00000000
-0.05372299 0.71332425 0.01990231
-0.57830459 0.01581600 -0.00000054
-0.21030524 0.14629558 0.26778975
-0.02714141 -0.30969316 0.00000000
0.12719429 -0.00037463 0.00000000
0.14026056 -0.13407345 0.00000000
-0.18713672 -0.13883530 0.00000000
0.70596832 -0.00170757 -0.00000160
0.20385882 0.16329576 0.00000647
0.25902387 -0.23851961 0.00000000
-0.49769917 -0.34149185 -0.00000005
-0.08967150 -0.05788924 0.00000000
-0.23381434 0.11481656 0.27260318
-0.79023623 -0.60867846 -0.00000024
-0.75263792 -0.77038437 -0.00000004
-0.45859203 -0.59542394 0.00000000
-0.19710684 0.07447064 0.00000000
0.06236437 -0.37052807 0.00000000
-0.13359678 -0.67565244 0.00000000
-0.48408860 -0.38506562 0.00000000
-0.23040092 0.28531691 0.17169197
-0.23398402 -0.65703112 0.00000000
-0.53910589 0.21293592 0.02896352
0.11615067 -0.20224518 0.00000000
-0.05740662 -0.75417608 0.00000000
0.02757258 0.06385659 0.00001063
0.50351071 -0.52210575 0.00000000
-0.01048159 0.02055652 0.00000000
-0.36421338 -0.60595065 0.00000000
-0.74731773 -0.46699220 -0.00000042
-0.79139882 -0.05376418 -0.00000093
0.44107866 -0.38733804 0.00000000
-0.38538709 -0.50795758 0.00000000
-0.13245414 -0.28878167 0.00000000
0.26331991 -0.32577246 0.00000000
0.54927516 -0.24164769 -0.00000050
0.17733940 -0.20396040 0.00000000
-0.76328510 -0.55157530 -0.00000031
-0.32103217 -0.19823533 0.00000000
0.61921406 0.16997693 -0.00000137
0.69457245 -0.00007542 -0.00000155
-0.63637102 0.02566972 0.08331946
-0.39271739 -0.20087411 0.00000000
0.08679626 -0.34869811 0.00000000
-0.56314182 0.10041116 0.08240635
0.63226330 0.11273032 -0.00000066
0.53376544 -0.62752241 0.00000000
0.72906405 -0.59837443 -0.00000050
0.51121318 -0.15767162 -0.00000049
0.13382001 -0.10486863 0.00000000
-0.33553749 0.12833101 0.20300640
-0.23298165 0.11672326 0.27195457
-0.54233754 -0.76315868 0.00000000
0.46186933 0.08445423 0.00000308
-0.43478796 -0.22751930 -0.00000002
0.21988606 -0.16685487 0.00000000
0.29401734 0.18488166 0.00000463
-0.45269850 0.25924519 0.05318104
0.06159211 -0.08616127 0.00000000
0.31137988 -0.06854846 0.00000000
-0.38292342 -0.62504166 0.00000000
0.40863651 -0.74180448 0.00000000
0.40089583 -0.44896832 0.00000000
0.13584538 0.11203894 0.00000827
-0.72452420 -0.25925317 -0.00000061
-0.09685169 -0.43775013 0.00000000
0.20092209 0.32464793 0.00000408
-0.12068608 -0.27585405 0.00000000
0.39684886 0.31468257 0.00000049
0.70806187 -0.66840738 -0.00000033
0.43890792 0.11298108 0.00000305
-0.26756385 0.51189768 0.01240408
0.64513093 -0.13388170 -0.00000110
-0.07170541 -0.06263993 0.00000000
0.27064300 -0.48401612 0.00000000
-0.42477167 -0.33238706 0.00000000
0.20869002 -0.71703100 0.00000000
-0.34061304 0.16625698 0.17703575
-0.52142435 -0.31530544 -0.00000013
-0.38426948 0.35969639 0.03384141
-0.26734921 0.16744217 0.22056717
0.77263403 -0.48431632 -0.00000079
0.03797881 0.66204584 0.00000150
0.29522389 -0.11657159 0.00000000
-0.43839586 -0.30328104 0.00000000
-0.61896342 -0.07456978 -0.00000055
0.20203145 0.28058988 0.00000474
0.29698980 0.28680751 0.00000287
-0.21068589 0.35278904 0.14284927
-0.14180064 0.63195133 0.01585273
0.61474639 -0.71018511 0.00000000
0.52822948 0.16977172 0.00000038
0.16275685 -0.76826477 0.00000000
-0.52914298 0.01081001 -0.00000043
0.61936486 -0.14237222 -0.00000098
-0.48356047 -0.63943642 0.00000000
0.66473025 -0.35775208 -0.00000079
0.09079395 0.65668488 0.00000065
-0.07468402 0.37789550 0.20982353
0.40728009 0.01059457 0.00000537
-0.04401712 -0.36878893 0.00000000
0.05389823 -0.32182923 0.00000000
0.73796183 -0.03809083 -0.00000167
-0.33268827 0.10613522 0.21813218
0.06565050 0.23055673 0.00000755
-0.42752460 -0.74903792 0.00000000
0.60172367 0.05740556 0.00000085
-0.07570207 -0.34540167 0.00000000
-0.53080368 -0.62377167 0.00000000
0.57347322 -0.53877670 -0.00000008
-0.46973929 -0.00040343 -0.00000029
-0.21679688 -0.77675122 0.00000000
0.07073027 -0.51577955 0.00000000
-0.05039815 0.69656461 0.03203230
0.12972535 -0.32849729 0.00000000
-0.79111308 -0.20161991 -0.00000075
-0.14965811 0.36517048 0.17222875
-0.08817887 0.19888809 0.00000000
-0.51377946 -0.74054366 0.00000000
-0.64337450 0.02560132 0.07913098
0.30291405 -0.76202917 0.00000000
0.12174518 0.06240970 0.00000923
0.41952437 -0.33104375 0.00000000
-0.25857359 -0.00786690 0.00000000
-0.26310533 -0.10290104 0.00000000
-0.60284328 -0.57909477 -0.00000007
-0.19368863 0.13534003 0.00000000
-0.15601507 -0.23949410 0.00000000
-0.48622054 -0.41033092 0.00000000
-0.22899751 0.31032246 0.15743756
-0.48125732 -0.44796145 0.00000000
0.77287966 -0.58416182 -0.00000054
-0.09287742 0.32163915 0.23281148
0.38650700 -0.46489841 0.00000000
-0.38640168 0.18354224 0.13894209
-0.20002434 -0.14457102 0.00000000
-0.07407348 0.45430651 0.16404425
0.36011845 0.23332831 0.00000255
-0.60479754 0.04061576 0.09336170
0.03144601 -0.58191085 0.00000000
-0.02750593 -0.29396695 0.00000000
0.60054016 0.16348544 -0.00000090
-0.20851079 0.35776725 0.14115633
-0.56549668 0.05293238 0.10965896
0.18338706 -0.71151018 0.00000000
-0.63688475 -0.36039072 -0.00000033
-0.60860592 -0.60094553 -0.00000006
0.63681084 -0.60399258 -0.00000024
0.10854126 -0.09046588 0.00000000
0.73895139 -0.19269747 -0.00000140
-0.27883178 0.38260406 0.08368578
-0.03520235 0.21309671 0.00000000
-0.54094684 -0.79589814 0.00000000
0.47351697 -0.29534605 -0.00000008
-0.15805830 -0.26091772 0.00000000
-0.01561848 -0.77898926 0.00000000
0.65155429 -0.55346018 -0.00000039
-0.14895077 -0.00323013 0.00000000
-0.50505733 0.07098064 0.13526127
-0.08591582 0.20003352 0.31045893
0.22772688 -0.66945064 0.00000000
-0.00430938 0.06604158 0.00000000
-0.10397841 0.16748406 0.31920826
-0.11449625 0.66197187 0.01421239
-0.71262056 -0.77772522 -0.00000003
-0.27059171 0.41144156 0.07124596
0.42271489 -0.55569828 0.00000000
-0.18383273 0.54654038 0.04205131
-0.11335713 -0.09674286 0.00000000
0.13010868 -0.08567935 0.00000000
-0.79801303 -0.77477705 -0.00000003
-0.06949325 -0.41905862 0.00000000
0.44286984 -0.10628090 -0.00000029
-0.79598147 -0.16234285 -0.00000080
0.74824739 0.02575856 -0.00000144
-0.73886800 -0.59560931 -0.00000026
0.59857345 -0.02007197 -0.00000110
-0.43903619 -0.20801979 -0.00000005
0.59133554 -0.60799742 -0.00000003
-0.55850172 -0.27637893 -0.00000024
-0.76573241 -0.74912715 -0.00000006
-0.48215815 0.05235414 -0.00000037
0.30344504 -0.54841679 0.00000000
-0.05822167 0.04594895 0.00000000
-0.02369252 -0.54600883 0.00000000
-0.51923496 -0.52925962 0.00000000
-0.22575702 0.46854064 0.06383901
-0.20095630 -0.58637834 0.00000000
-0.29555434 0.21669438 0.17378731
-0.61153549 -0.70919675 0.00000000
-0.09060776 0.19274309 0.00000000
-0.47491294 -0.22778712 -0.00000010
0.24470794 0.16420090 0.00000584
-0.09620926 -0.76369476 0.00000000
-0.42283306 -0.32274228 0.00000000
0.22167335 0.25084183 0.00000489
0.38715157 -0.33163574 0.00000000
0.34315878 0.39255127 0.00000022
0.10376202 -0.15690742 0.00000000
-0.00024585 -0.39327791 0.00000000
-0.37632969 -0.19533385 0.00000000
-0.04375626 0.54482049 0.12768868
-0.65880716 -0.20907277 -0.00000051
-0.62229419 -0.52506721 -0.00000016
0.18174244 -0.63174528 0.00000000
0.78008890 -0.78196824 -0.00000005
-0.21238969 -0.18617874 0.00000000
-0.51968473 -0.75896341 0.00000000
0.26133481 -0.01600141 0.00000000
-0.35651579 -0.36584237 0.00000000
-0.05216323 0.67437613 0.04436692
0.31145960 0.28765348 0.00000258
0.54681575 -0.62154871 0.00000000
-0.42882884 0.31486392 0.03400624
-0.59989685 0.15809999 0.02536680
-0.23696081 0.20133597 0.21844999
-0.37435135 -0.19211861 0.00000000
0.44254377 -0.17551737 -0.00000016
0.21244293 0.34514794 0.00000352
0.10006311 0.29532623 0.00000606
-0.39172366 -0.70604134 0.00000000
0.65329236 -0.51614153 -0.00000046
-0.06013224 0.56325865 0.10666288
0.15565865 0.40453920 0.00000358
0.24649015 0.31340674 0.00000339
0.16418421 0.56859821 0.00000071
-0.52112257 -0.60810840 0.00000000
-0.44793493 -0.70445144 0.00000000
0.43813941 -0.02189064 -0.00000042
0.28617400 0.27346027 0.00000330
0.14720803 0.20296338 0.00000673
0.39211720 -0.08505514 -0.00000011
0.18551709 0.06021524 0.00000830
-0.68609750 -0.40439019 -0.00000040
0.16565646 -0.49102452 0.00000000
-0.18665475 0.17876808 0.26246166
0.27177605 -0.18462947 0.00000000
0.70592338 -0.67187911 -0.00000032
-0.35462248 0.20391962 0.14582832
0.28326434 -0.19746293 0.00000000
0.43550140 -0.35664558 0.00000000
-0.25377834 -0.00472887 0.00000000
-0.42185029 0.08742003 0.17558588
-0.03491260 -0.43878669 0.00000000
-0.41217858 -0.10420022 -0.00000008
0.25873286 -0.28475285 0.00000000
0.29513082 -0.21811639 0.00000000
0.24631692 -0.70770514 0.00000000
-0.18007638 0.13862945 0.00000000
-0.68819481 -0.36556691 -0.00000044
-0.72673976 -0.02014949 -0.00000083
-0.19041573 -0.73203862 0.00000000
0.22860718 -0.13007931 0.00000000
-0.54693311 -0.15644711 -0.00000032
-0.00319787 -0.09416798 0.00000000
0.40021348 -0.65547538 0.00000000
0.64890760 -0.79469299 0.00000000
0.05830948 -0.44883129 0.00000000
-0.27332070 -0.15321289 0.00000000
0.25874984 -0.76277411 0.00000000
-0.48931581 -0.66688764 0.00000000
0.30184987 -0.76712728 0.00000000
-0.12000155 -0.02050194 0.00000000
-0.07258852 -0.72729981 0.00000000
-0.41269132 -0.02029980 -0.00000016
-0.43203828 0.05199124 0.19083004
0.34602112 -0.57038134 0.00000000
0.31686684 0.47528872 -0.00000066
-0.53179294 -0.48115945 -0.00000000
-0.43897885 -0.32141945 0.00000000
0.48517832 0.18497550 0.00000096
-0.53650463 -0.60441536 0.00000000
0.24670669 -0.10284024 0.00000000
0.48937175 -0.21038035 -0.00000030
0.18334316 -0.28651011 0.00000000
0.77238947 -0.23135920 -0.00000142
-0.17861074 -0.05574413 0.00000000
-0.17854735 -0.66733497 0.00000000
-0.56978118 0.05616056 -0.00000056
-0.04971213 -0.44382387 0.00000000
0.69333994 -0.70783156 -0.00000023
-0.69497383 -0.41259724 -0.00000041
0.66507977 -0.66158473 -0.00000025
0.39793384 0.07698744 0.00000444
-0.69256759 -0.06678110 -0.00000071
-0.66469830 -0.74249458 -0.00000006
-0.04505570 0.66948032 0.05161623
0.02706376 -0.50871003 0.00000000
-0.21060632 -0.54323602 0.00000000
-0.02307287 -0.38149765 0.00000000
-0.12716964 -0.61116040 0.00000000
0.41008741 0.16719906 0.00000270
0.49822763 -0.69993591 0.00000000
-0.14253826 0.11404765 0.32819298
-0.13693441 -0.43299839 0.00000000
0.02741961 -0.04951131 0.00000000
0.17771025 -0.60117447 0.00000000
0.13615556 -0.72282219 0.00000000
-0.28231075 0.18855494 0.19878033
0.07575897 -0.67664462 0.00000000
0.70626229 -0.27643958 -0.00000111
-0.53750318 0.19300337 0.04196976
-0.30532467 0.25566319 0.14435135
0.35730216 -0.50708312 0.00000000
0.39647225 -0.74183559 0.00000000
-0.56416762 -0.66962844 0.00000000
0.17082843 0.47770438 0.00000210
0.73657823 -0.35533291 -0.00000110
-0.48796529 -0.03219193 -0.00000031
0.31084755 0.48692241 -0.00000074
0.32602850 -0.32852513 0.00000000
0.10547773 -0.73456442 0.00000000
-0.01959226 0.20742778 0.00000000
-0.42438394 -0.44557291 0.00000000
0.25333527 -0.57078612 0.00000000
0.09131223 -0.35449100 0.00000000
0.08065120 0.09063276 0.00000942
-0.61853349 -0.42706066 -0.00000024
-0.20501675 0.20457831 0.23578414
-0.31630483 -0.22887968 0.00000000
-0.05645739 -0.24724019 0.00000000
-0.36799082 -0.63416189 0.00000000
0.01661200 -0.58789760 0.00000000
-0.60683674 0.09194818 0.06112785
0.10548171 0.67137104 0.00000012
-0.02773110 0.10816736 0.00000000
-0.44517761 -0.16234846 -0.00000010
0.21815564 0.50456363 0.00000075
-0.08249242 0.46562082 0.15212648
0.00679425 0.01609195 0.00001166
0.24692053 -0.12349036 0.00000000
0.36843458 -0.71233916 0.00000000
-0.65051764 -0.10813554 -0.00000059
-0.13525546 -0.44673362 0.00000000
-0.11404033 -0.69985157 0.00000000
-0.26405898 0.36791205 0.10148111
0.09437078 0.58318329 0.00000181
0.14615078 -0.74662268 0.00000000
0.64149570 -0.23101039 -0.00000092
-0.32141617 0.36761963 0.06701664
0.68933171 -0.40895438 -0.00000080
0.04753371 -0.46781716 0.00000000
0.07679719 0.50049472 0.00000333
-0.44535187 -0.23934218 -0.00000003
0.63719428 0.10403230 -0.00000061
-0.32451525 0.28973544 0.11218315
0.54947454 -0.08754185 -0.00000078
0.45848382 0.22102422 0.00000087
0.20188195 0.43191531 0.00000227
0.21295883 -0.78649145 0.00000000
-0.78418314 -0.07801721 -0.00000090
-0.61256951 -0.67549586 -0.00000000
-0.37637800 -0.24855313 0.00000000
0.68875569 -0.65220779 -0.00000037
0.51879406 -0.67795736 0.00000000
-0.58731282 -0.60889548 -0.00000001
0.19543812 -0.70764947 0.00000000
-0.12299099 0.58564270 0.05518104
0.45880523 0.04356782 0.00000382
-0.10937448 -0.06171649 0.00000000
0.39312920 -0.52181166 0.00000000
-0.60614181 -0.36317259 -0.00000027
-0.15857826 -0.74090624 0.00000000
0.79511625 -0.72322953 -0.00000019
0.25103739 -0.53554493 0.00000000
0.26328453 -0.45891598 0.00000000
-0.34586519 -0.46997005 0.00000000
0.10333858 0.48593646 0.00000315
0.00293215 -0.09962191 0.00000000
0.41721353 0.00304835 0.00000530
-0.09242443 -0.22898853 0.00000000
-0.44844761 0.31558931 0.02171930
0.35983834 -0.24084727 0.00000000
-0.05540881 -0.53021371 0.00000000
0.74643308 -0.19316064 -0.00000143
-0.37016329 -0.47450367 0.00000000
-0.69447124 -0.13585380 -0.00000065
-0.12813443 -0.62672436 0.00000000
0.37631744 0.10092395 0.00000445
-0.19529428 -0.07715445 0.00000000
-0.65018368 -0.49546105 -0.00000024
0.47745186 0.29978886 -0.00000081
-0.25092745 0.36709151 0.10990752
0.23639414 0.06243627 0.00000750
0.24777395 0.38801789 0.00000212
-0.42153740 -0.78442615 0.00000000
0.01514576 -0.28597528 0.00000000
-0.06475075 -0.42006227 0.00000000
0.41851684 0.30803362 0.00000018
0.79135066 -0.60067374 -0.00000050
0.30087915 -0.55956292 0.00000000
-0.69396275 -0.77430242 -0.00000003
0.18576454 -0.61613536 0.00000000
-0.45926955 -0.70124996 0.00000000
-0.04996060 -0.65604943 0.00000000
-0.11042733 -0.35842314 0.00000000
0.15576684 -0.60475671 0.00000000
-0.25220615 0.45387825 0.05672031
0.45489565 0.23129722 0.00000076
0.28311667 0.16055335 0.00000524
-0.27473217 0.10589046 0.00000000
0.31088263 -0.16957714 0.00000000
0.28262815 -0.74275637 0.00000000
-0.18028383 0.20205621 0.25224459
-0.38741785 0.21276498 0.12067927
0.13955100 -0.25699154 0.00000000
-0.37768117 0.29178953 0.07883284
0.18255030 -0.49340189 0.00000000
0.15913676 0.24952407 0.00000586
-0.30967110 -0.15967257 0.00000000
0.28363857 0.07090412 0.00000666
0.28283963 0.02410727 0.00000737
-0.58855236 0.14895494 0.03774150
-0.38775292 -0.52038980 0.00000000
-0.60193473 -0.79478759 0.00000000
0.04804402 0.52518618 0.00000340
0.43482354 -0.41467348 0.00000000
-0.32196757 0.06814899 -0.00000004
-0.40844476 -0.32296199 0.00000000
-0.25073567 -0.21519250 0.00000000
0.52494955 -0.19306672 -0.00000048
0.43691906 0.20749521 0.00000151
-0.59753901 -0.53549021 -0.00000009
0.29587829 0.06090722 0.00000662
-0.45707071 0.30558431 0.02255388
0.09765743 0.60539120 0.00000138
-0.04025322 0.21169701 0.00000000
0.31795329 0.08130778 0.00000590
-0.01866679 -0.14395095 0.00000000
-0.59405398 -0.10981203 -0.00000046
-0.74588710 0.02122538 0.01986098
-0.17900133 0.16245867 0.00000000
-0.65276110 -0.68677372 -0.00000008
0.51888138 -0.79098910 0.00000000
0.73355436 -0.03014217 -0.00000166
0.26498193 -0.73167002 0.00000000
0.18823297 0.33792800 0.00000409
-0.26061854 0.14933866 0.23556560
-0.65163940 0.08650591 0.03735600
0.53438812 -0.55961114 0.00000000
0.55905837 -0.12415029 -0.00000075
-0.38698950 -0.20719253 0.00000000
-0.39722618 0.05923705 -0.00000019
-0.00922801 -0.72492307 0.00000000
-0.63769293 -0.46556237 -0.00000024
-0.48098096 -0.57648575 0.00000000
-0.21374555 -0.12707958 0.00000000
0.60500240 -0.15617535 -0.00000089
-0.56568193 -0.35742447 -0.00000018
0.21829228 0.09741821 0.00000724
-0.35556436 -0.32626265 0.00000000
-0.36604214 -0.36750638 0.00000000
0.31519261 -0.20619811 0.00000000
-0.50333261 -0.57856303 0.00000000
-0.54406911 -0.57316655 0.00000000
0.14014341 0.61378968 0.00000042
-0.05727701 -0.19467305 0.00000000
0.10175569 -0.02363955 0.00000000
0.54382396 0.06427340 0.00000185
-0.07004908 0.51838988 0.12777196
0.09569359 0.44710776 0.00000385
-0.60518450 0.05964042 0.08163805
0.08644865 0.54514325 0.00000252
-0.49729821 -0.00404812 -0.00000035
-0.30593717 -0.37207770 0.00000000
-0.41747603 -0.11145085 -0.00000009
-0.06281863 0.52241623 0.12970702
-0.49643454 0.17485917 0.07773151
-0.34937167 -0.34644040 0.00000000
0.24662893 0.53962284 -0.00000039
-0.52900869 -0.76900643 0.00000000
-0.16571091 -0.11846649 0.00000000
-0.49959204 0.28532040 0.00911137
-0.51094013 -0.30702233 -0.00000011
-0.29015067 -0.66492659 0.00000000
0.39562210 -0.45553666 0.00000000
0.56369150 0.17695379 -0.00000042
0.39863390 -0.32552159 0.00000000
-0.66034704 -0.62098801 -0.00000015
0.42515072 -0.64298534 0.00000000
0.47229943 -0.23668262 -0.00000018
0.41883132 -0.57710236 0.00000000
-0.27887952 -0.13553438 0.00000000
-0.65722942 0.06582881 0.04646784
-0.64580452 -0.04774744 -0.00000063
0.46469364 -0.58068669 0.00000000
0.08392113 0.05497147 0.00000991
0.51089853 -0.58626109 0.00000000
0.45002979 -0.52380604 0.00000000
-0.03319702 0.08310772 0.00000000
-0.17107520 0.32443929 0.18389349
0.76036626 -0.09827828 -0.00000166
0.41872895 0.11423755 0.00000341
0.04820506 0.54442424 0.00000311
0.70678347 -0.40787989 -0.00000088
0.13128893 0.50830787 0.00000235
0.18495405 0.20895179 0.00000607
0.69655633 0.04012635 -0.00000068
0.23176070 0.00348880 0.00000845
0.19683979 -0.44320017 0.00000000
-0.71930420 -0.61784518 -0.00000023
-0.24063759 0.16328108 0.00000000
-0.38257566 -0.07950415 -0.00000004
0.73631305 -0.13344520 -0.00000149
-0.19896527 0.07834481 0.00000000
0.09956293 0.61283660 0.00000121
0.15237737 0.34077397 0.00000459
-0.32902810 -0.45616835 0.00000000
0.24359813 -0.23035195 0.00000000
-0.12554374 0.14031352 0.32259357
-0.02469484 -0.11930692 0.00000000
-0.03068745 -0.70745480 0.00000000
-0.71762913 0.02165600 0.03666742
0.29585978 0.32645908 0.00000223
-0.33272451 0.36010322 0.06472646
0.20323944 -0.72674298 0.00000000
-0.52933478 -0.44032666 -0.00000003
-0.41304058 -0.19738293 0.00000000
-0.54620326 0.08867420 0.09972498
-0.04654862 0.60613573 0.08897125
0.01069660 -0.75090301 0.00000000
-0.06906410 -0.65434366 0.00000000
-0.19986621 0.16095777 0.00000000
0.43266344 -0.06819647 -0.00000031
-0.33450890 -0.10792888 0.00000000
0.07220234 0.56660479 0.00000241
0.74076128 -0.57879156 -0.00000055
0.25693548 -0.73989797 0.00000000
0.53528428 -0.47117469 -0.00000004
-0.06604937 -0.15404254 0.00000000
0.17270803 -0.71281600 0.00000000
0.24054541 -0.41264251 0.00000000
-0.75567079 -0.64466071 -0.00000019
-0.03869117 0.67128462 0.05437038
-0.68867177 -0.12265660 -0.00000065
0.70168960 -0.75020558 -0.00000012
0.46002468 -0.13429987 -0.00000031
0.29782254 -0.26789522 0.00000000
0.72675717 -0.23773742 -0.00000127
0.51338726 -0.32652643 -0.00000020
0.18486574 -0.79101551 0.00000000
-0.71403384 -0.28473976 -0.00000056
0.07727018 -0.26515138 0.00000000
0.14163141 0.25785372 0.00000600
0.09532031 -0.78547120 0.00000000
0.04646873 -0.44675803 0.00000000
-0.32530844 -0.79424286 0.00000000
-0.33899525 -0.65583605 0.00000000
0.15223058 0.01047051 0.00000955
0.40276182 0.04361453 0.00000490
0.24988097 -0.63162220 0.00000000
0.26551220 0.10180230 0.00000647
0.18791521 0.26529858 0.00000519
0.36144227 -0.48514226 0.00000000
-0.23872453 0.47847471 0.05000753
0.25843221 -0.38363025 0.00000000
-0.41994959 0.24678810 0.08048334
0.31465551 0.35082921 0.00000146
0.37861162 0.35210228 0.00000021
-0.09361980 -0.43267345 0.00000000
-0.63903266 0.12797359 0.01992543
-0.34917560 -0.03257283 -0.00000001
-0.68871742 -0.69019097 -0.00000014
-0.35056993 -0.38019121 0.00000000
-0.42196733 -0.34388885 0.00000000
0.20499781 0.43626755 0.00000214
-0.06393875 -0.02624753 0.00000000
-0.02224337 0.72905642 0.02941292
-0.14963615 -0.47175929 0.00000000
-0.43365246 -0.49259055 0.00000000
-0.15613537 -0.30799606 0.00000000
-0.60141844 -0.38003707 -0.00000024
-0.52599084 -0.76084483 0.00000000
-0.33725920 -0.14071979 0.00000000
0.49989742 0.00395349 0.00000370
-0.39371774 -0.23395750 0.00000000
-0.56593204 -0.54978371 -0.00000001
-0.11879070 0.13236794 0.00000000
-0.44626135 -0.26076901 -0.00000001
0.45547402 -0.23548733 -0.00000011
0.62192976 0.07428298 0.00000018
0.06392938 0.58338600 0.00000228
0.79397506 -0.76935512 -0.00000008
0.15550081 -0.47963816 0.00000000
-0.49654421 -0.11607384 -0.00000025
0.14366598 0.23957130 0.00000624
-0.19452927 0.22932085 0.22717485
-0.56003785 0.05646482 -0.00000054
0.48311514 -0.44205099 0.00000000
0.39187175 -0.39638337 0.00000000
-0.41445866 -0.39808899 0.00000000
-0.07096106 0.58075941 0.08955342
0.74848121 -0.49766958 -0.00000076
0.11012293 0.67241204 0.00000002
-0.49891409 0.00730549 -0.00000036
0.75143474 -0.65397370 -0.00000037
-0.07037962 0.33405644 0.23889948
0.40918019 -0.03560202 -0.00000027
0.77114356 -0.51500577 -0.00000071
0.26779458 -0.79406250 0.00000000
-0.12242922 -0.24455619 0.00000000
0.16946222 -0.28473276 0.00000000
-0.49587050 -0.79775757 0.00000000
-0.33178011 -0.15831459 0.00000000
-0.55640072 -0.14822280 -0.00000035
0.51113188 0.05065026 0.00000270
0.55449831 -0.69146949 0.00000000
-0.55462587 0.10045952 0.08752036
0.03259706 0.33141842 0.00000654
-0.28654954 -0.16881911 0.00000000
-0.40761742 -0.41644704 0.00000000
-0.00281887 0.14099492 0.00000000
0.38509235 0.26136881 0.00000160
0.62917018 -0.18426333 -0.00000095
-0.50635391 -0.65343451 0.00000000
-0.15948829 -0.22352260 0.00000000
0.34413329 -0.42989936 0.00000000
0.32744884 -0.30109718 0.00000000
-0.25368282 -0.33275425 0.00000000
-0.08448071 0.71263999 0.00173932
-0.23158395 0.06014662 0.00000000
-0.23391753 0.08582852 0.00000000
-0.31856331 0.25418597 0.13724799
-0.56795400 -0.25836521 -0.00000028
0.19831704 0.51730108 0.00000091
-0.57447827 -0.30598429 -0.00000025
-0.25484833 0.50337607 0.02523032
-0.43036997 -0.01160527 -0.00000020
-0.08280794 -0.17199866 0.00000000
0.43097976 0.22615504 0.00000131
-0.15016019 0.10712002 0.32777369
-0.66087317 -0.72806889 -0.00000006
0.06591862 -0.15745515 0.00000000
-0.04650105 0.69400340 0.03593276
-0.73467267 -0.08939157 -0.00000078
0.10653621 -0.45329675 0.00000000
-0.07980968 -0.02670842 0.00000000
-0.76131833 -0.48477098 -0.00000039
0.77242911 -0.14059924 -0.00000163
0.59238786 -0.40106919 -0.00000040
-0.33663917 0.09519054 0.22235605
0.59260398 -0.03756795 -0.00000105
0.09555886 0.22054505 0.00000725
0.58385396 -0.29663751 -0.00000055
0.12166729 0.29622012 0.00000572
0.32317230 -0.13511881 0.00000000
0.39561102 -0.40639952 0.00000000
-0.18685590 0.46961370 0.08668540
-0.10816482 0.16586408 0.31765828
0.43112773 0.14625025 0.00000264
0.63060331 -0.54918325 -0.00000031
-0.25725275 0.00422870 0.00000000
-0.66973579 -0.38452250 -0.00000038
0.69275606 -0.03452613 -0.00000148
0.73267436 -0.57386559 -0.00000057
0.03089003 0.69369793 0.00000113
0.44395217 -0.55238503 0.00000000
0.69614559 -0.43631780 -0.00000079
0.12657052 0.64693397 0.00000013
0.09286326 -0.49469814 0.00000000
0.35984853 0.20299146 0.00000306
-0.09849635 0.20978613 0.29697099
0.21923214 -0.69110745 0.00000000
0.75295252 -0.06042372 -0.00000169
-0.55193120 -0.30010805 -0.00000021
-0.67888016 0.11289525 0.00496600
-0.39555493 -0.18278739 0.00000000
-0.48946211 -0.20517628 -0.00000016
-0.35869002 0.26733989 0.10506899
-0.46620643 -0.79494131 0.00000000
-0.33373645 -0.52824306 0.00000000
0.20526010 0.17910095 0.00000622
0.21763572 0.04937265 0.00000798
0.41745517 -0.76522070 0.00000000
0.20905991 -0.51613516 0.00000000
0.06343014 -0.66792578 0.00000000
0.40805197 -0.74390507 0.00000000
-0.09016446 -0.61158693 0.00000000
-0.12291049 -0.69198716 0.00000000
-0.01350705 -0.38198903 0.00000000
0.37314114 -0.59220469 0.00000000
0.21506850 0.46226415 0.00000151
0.41287693 0.28571814 0.00000066
0.16685873 -0.53747189 0.00000000
0.12005740 0.55244356 0.00000183
-0.33755773 0.07849456 0.23188473
-0.08758275 -0.49702802 0.00000000
0.47601876 -0.40918040 0.00000000
-0.22277381 0.15365344 0.25581571
-0.38503292 -0.58144975 0.00000000
0.26079646 0.40052721 0.00000166
0.62952703 -0.43693265 -0.00000050
-0.17580417 0.40545991 0.13210548
0.08105950 -0.39156768 0.00000000
-0.15013359 0.25178587 0.24041963
-0.15550423 -0.72450453 0.00000000
0.74451834 -0.22985156 -0.00000136
-0.20911089 -0.75318247 0.00000000
-0.68704849 0.09806978 0.00898656
0.55481088 -0.70131928 0.00000000
0.71552271 -0.66693896 -0.00000033
0.40260169 -0.46505335 0.00000000
0.49819052 -0.00191703 -0.00000071
-0.13557284 0.12590738 0.32523710
0.04069729 0.70482218 0.00000081
-0.35383916 0.06027115 -0.00000010
0.26735342 -0.10046350 0.00000000
0.02295571 -0.16242380 0.00000000
0.12389902 -0.50053078 0.00000000
0.18590751 -0.08115650 0.00000000
-0.31591660 0.11910177 -0.00000007
-0.30413687 -0.23792788 0.00000000
-0.18396169 -0.13296239 0.00000000
0.01036152 -0.09922780 0.00000000
0.04289057 0.21043739 0.00000820
0.40594915 -0.12243114 -0.00000010
-0.29126582 0.08205343 0.00000000
0.22341023 -0.31146660 0.00000000
-0.79297376 -0.62688267 -0.00000022
-0.22150061 -0.50546247 0.00000000
-0.04023497 0.56482744 0.11773222
0.35177019 -0.37425712 0.00000000
-0.28096089 -0.15645546 0.00000000
-0.51489782 0.05085097 0.14147539
0.13657328 -0.10971289 0.00000000
0.71943164 0.06063569 -0.00000147
-0.10748062 -0.08413395 0.00000000
0.09423482 0.05623844 0.00000973
-0.23065329 -0.42119983 0.00000000
0.66656625 -0.74514854 -0.00000011
-0.50907463 -0.68144530 0.00000000
-0.67853993 0.04210530 0.04792512
0.12633282 -0.07286433 0.00000000
-0.47732052 -0.59051663 0.00000000
-0.14264949 -0.37801546 0.00000000
0.58569646 -0.48527843 -0.00000023
-0.67823952 0.08890858 0.01983965
-0.02742803 -0.26542088 0.00000000
-0.35328576 0.07534957 0.22428533
-0.23272620 0.44262573 0.07528126
-0.05227145 0.67698127 0.04272821
-0.63968909 -0.23795989 -0.00000045
-0.29442102 -0.39403591 0.00000000
-0.65577394 -0.13153405 -0.00000058
-0.32513991 -0.01870790 0.00000000
-0.21249062 0.04749910 0.00000000
0.47929978 -0.37984389 0.00000000
-0.57846183 -0.50436264 -0.00000008
0.42549095 -0.02425363 -0.00000036
0.59045476 -0.64244032 0.00000000
-0.77525741 -0.47264019 -0.00000041
0.64199901 -0.47060782 -0.00000049
0.42404464 -0.16797476 -0.00000010
0.32617328 -0.08284172 0.00000000
-0.75679398 -0.47857758 -0.00000040
-0.00148123 -0.01707308 0.00000000
-0.64852172 -0.41240773 -0.00000031
-0.13540670 0.17964968 0.29288006
-0.27866420 -0.77626872 0.00000000
-0.47622958 -0.68725485 0.00000000
-0.28723520 -0.28342223 0.00000000
0.20005982 -0.07922002 0.00000000
0.45386302 0.24061818 0.00000063
-0.32373679 -0.31141031 0.00000000
-0.77079326 -0.46957767 -0.00000041
-0.28071943 0.02604160 0.00000000
0.19713552 -0.60455263 0.00000000
0.05079698 0.55414134 0.00000292
0.02314529 -0.55601054 0.00000000
-0.50526184 -0.51460123 0.00000000
0.17015287 -0.79543531 0.00000000
-0.46494856 -0.10665752 -0.00000019
-0.38107988 0.23726262 0.10971175
-0.11752305 -0.39325365 0.00000000
-0.55861324 -0.45607480 -0.00000008
-0.22242057 -0.20234472 0.00000000
0.23655160 -0.29200792 0.00000000
-0.73906505 -0.04814971 -0.00000083
-0.40205494 -0.65718573 0.00000000
0.01192209 -0.40356341 0.00000000
-0.20174107 -0.60982990 0.00000000
-0.22551909 -0.31392354 0.00000000
0.69091731 -0.21065485 -0.00000116
0.58854055 -0.41017240 -0.00000037
-0.20755167 0.33981472 0.15257792
-0.08097590 -0.73971397 0.00000000
0.30252671 0.01552113 0.00000720
-0.41249755 0.13573398 0.15205523
0.37492096 -0.52575999 0.00000000
0.77720040 -0.11006954 -0.00000171
-0.72201264 -0.26835212 -0.00000060
-0.74401319 -0.08751621 -0.00000080
0.71982348 0.05984740 -0.00000146
-0.55986434 -0.24804673 -0.00000027
0.01700810 -0.75660032 0.00000000
-0.16179413 0.18393245 0.00000000
-0.62472808 -0.32307908 -0.00000034
0.56656271 -0.30816844 -0.00000046
-0.40496036 0.09432945 0.18161365
0.65822607 -0.51091635 -0.00000049
0.79436868 -0.14117162 -0.00000165
-0.05182165 -0.69650942 0.00000000
-0.07433698 0.21245427 0.00000000
0.63009828 -0.16340300 -0.00000099
-0.69529498 -0.73756200 -0.00000008
-0.45529911 -0.46285254 0.00000000
-0.22855005 0.28583652 0.17249596
-0.20508404 -0.40945321 0.00000000
-0.44109693 0.16989596 0.11415038
-0.50616086 0.05451251 0.14454073
0.36506122 -0.69851714 0.00000000
-0.02161793 -0.65204030 0.00000000
-0.41018769 0.10232945 0.17362498
-0.61321270 -0.22959878 -0.00000040
0.53159463 -0.66275245 0.00000000
-0.27104071 -0.27268422 0.00000000
-0.41831109 0.19786303 0.11102124
0.38223720 0.19939765 0.00000269
-0.12780340 0.31593332 0.21516424
-0.40500209 -0.72363961 0.00000000
0.25632221 -0.44026488 0.00000000
-0.76027364 -0.04004154 -0.00000088
-0.15156765 0.17452615 0.00000000
0.49365041 -0.25141180 -0.00000025
0.76891398 -0.30852133 -0.00000123
-0.29944378 0.08849907 0.24886116
0.05051574 -0.67343521 0.00000000
0.65336007 -0.44942018 -0.00000058
0.35910490 -0.56711632 0.00000000
0.04103977 -0.08337533 0.00000000
0.00371584 0.73339981 0.00000094
-0.40876004 0.29329526 0.05915327
0.51796031 -0.13772853 -0.00000055
0.74802405 -0.21827361 -0.00000139
-0.27964696 -0.48889533 0.00000000
-0.10090299 -0.38653842 0.00000000
-0.66434085 -0.61504620 -0.00000017
-0.00632529 -0.08189462 0.00000000
-0.07417304 -0.49184495 0.00000000
-0.03944397 0.62676728 0.08080172
0.12501504 -0.39503244 0.00000000
-0.12685832 -0.17068069 0.00000000
-0.67367601 -0.12575373 -0.00000062
-0.70770431 -0.36207274 -0.00000048
0.31099924 -0.41082981 0.00000000
0.72568864 -0.30499899 -0.00000114
-0.48310798 -0.62146866 0.00000000
-0.08097825 0.12574472 0.00000000
-0.24730021 -0.08620198 0.00000000
-0.02454618 -0.12193724 0.00000000
-0.19291575 -0.31872907 0.00000000
0.56992072 -0.77899998 0.00000000
-0.17359509 0.46611896 0.09680495
-0.41107684 0.25836697 0.07884898
0.38517874 -0.02302083 -0.00000019
0.71034908 0.08780604 -0.00000177
0.27182797 -0.44239688 0.00000000
-0.75726914 -0.32180691 -0.00000060
0.69587368 -0.65922230 -0.00000035
-0.71455121 -0.08252276 -0.00000074
0.27139422 -0.62146628 0.00000000
0.20748894 -0.04905922 0.00000000
0.21527095 -0.60080421 0.00000000
-0.70198476 -0.20375919 -0.00000061
-0.69327265 -0.24530844 -0.00000056
-0.35247204 0.07003039 -0.00000011
0.62156504 -0.22485183 -0.00000084
0.23924764 -0.69078708 0.00000000
0.12460827 0.48526695 0.00000284
-0.36624062 -0.10786490 0.00000000
-0.20040460 0.17419592 0.00000000
-0.08549201 0.12235225 0.00000000
-0.14949353 -0.62096953 0.00000000
0.09153832 -0.07836665 0.00000000
-0.01661704 -0.76874268 0.00000000
-0.31306016 -0.21783911 0.00000000
-0.78717226 -0.78912216 -0.00000001
0.53065801 -0.49282202 0.00000000
0.40210542 -0.68132192 0.00000000
-0.76123804 -0.57281733 -0.00000028
0.61388665 0.05778052 0.00000061
-0.21762955 0.52467239 0.03484679
0.62315291 0.09806439 -0.00000024
-0.70626581 0.01650076 -0.00000081
0.23156944 -0.37650037 0.00000000
-0.65800852 -0.70740783 -0.00000007
0.17135485 -0.58927774 0.00000000
-0.78592914 -0.66370147 -0.00000017
0.69562566 -0.48261219 -0.00000070
-0.36846513 0.23194595 0.12054149
-0.14430913 -0.59332424 0.00000000
-0.06204382 0.64519864 0.05602120
0.29132706 -0.32489699 0.00000000
-0.44204134 -0.62034762 0.00000000
0.33303884 0.00508911 0.00000688
-0.64727670 -0.64074939 -0.00000011
-0.29708365 -0.32032618 0.00000000
0.52914512 -0.65808147 0.00000000
-0.46756333 -0.27828071 -0.00000004
-0.71059853 -0.43533951 -0.00000042
-0.11932830 0.16955008 0.30869007
-0.36857194 -0.50128621 0.00000000
-0.50265640 0.17959104 0.07111596
-0.74324352 -0.33327651 -0.00000058
0.42863026 -0.58338153 0.00000000
0.17921016 -0.68625015 0.00000000
0.51310122 -0.08146816 -0.00000063
0.15033565 0.56589448 0.00000102
0.76331884 -0.29998246 -0.00000125
-0.15785420 -0.03005503 0.00000000
0.06198223 -0.21492349 0.00000000
0.26528063 -0.35851914 0.00000000
0.18043023 -0.21990012 0.00000000
-0.53647619 -0.37241152 -0.00000011
0.27236646 -0.68745416 0.00000000
0.10806320 0.48301312 0.00000312
-0.14138071 -0.79478437 0.00000000
-0.13776283 0.50538057 0.09473372
-0.13759081 -0.05144075 0.00000000
-0.72871399 -0.21766117 -0.00000066
-0.05236711 -0.25416043 0.00000000
-0.70550328 -0.72216344 -0.00000010
-0.13966045 -0.04671558 0.00000000
-0.68960577 -0.07729338 -0.00000070
0.59676981 -0.48374876 -0.00000028
-0.26889539 -0.06797780 0.00000000
0.71043819 -0.69218081 -0.00000027
-0.49518365 0.24190074 0.03799718
-0.09526716 0.31474704 0.23553067
0.57662982 -0.08192907 -0.00000090
0.15956898 -0.65415233 0.00000000
0.35219726 0.27357548 0.00000203
0.16094406 -0.54467005 0.00000000
-0.36529166 0.40652284 0.01702226
0.31989479 0.35173848 0.00000134
-0.23391826 0.17789175 0.23444653
0.55785728 0.17111640 -0.00000021
-0.25955090 0.09109420 0.00000000
-0.15187056 0.41416115 0.14130494
-0.24218661 0.30219299 0.15438189
0.03114285 0.68921375 0.00000119
0.34637591 0.11676058 0.00000476
-0.06090222 -0.29026651 0.00000000
-0.10708420 -0.49021623 0.00000000
-0.11094792 -0.79558641 0.00000000
-0.43470192 0.14820403 0.13111353
0.41160095 0.23864485 0.00000147
0.69624400 -0.48705360 -0.00000070
-0.10357210 0.16683602 0.31984502
-0.36988631 0.07906861 0.21201347
-0.57300019 -0.59609860 0.00000000
-0.20110147 0.15464795 0.26830393
-0.13275756 0.56676787 0.06068193
0.54101574 -0.73116189 0.00000000
-0.26580092 -0.33957291 0.00000000
0.58724433 -0.28127238 -0.00000059
0.06427199 -0.57084876 0.00000000
-0.30567211 0.13288027 -0.00000006
-0.62290812 -0.27454329 -0.00000038
-0.19243179 -0.16303092 0.00000000
-0.10216646 -0.17034532 0.00000000
0.32149196 -0.13562363 0.00000000
-0.43928328 0.19282420 0.10139822
-0.72097707 -0.02101073 -0.00000081
-0.71212178 -0.72549862 -0.00000009
-0.69634092 -0.36026576 -0.00000046
0.11754592 -0.74594653 0.00000000
0.70638639 0.02404348 -0.00000060
-0.48077399 -0.11603484 -0.00000022
0.37476397 -0.72753620 0.00000000
-0.47632551 0.09514483 0.13801996
-0.70695752 -0.79324305 -0.00000001
0.33921760 -0.34883085 0.00000000
-0.43982908 0.10180504 0.15603969
-0.78888214 -0.71608943 -0.00000010
0.36305028 0.35325754 0.00000049
-0.24389379 0.18197073 0.22595842
-0.26326835 -0.75231510 0.00000000
-0.27713051 -0.75626463 0.00000000
0.37301114 0.00801785 0.00000607
-0.69484174 -0.76402837 -0.00000004
0.41282386 0.23778221 0.00000146
0.19037144 0.32870048 0.00000420
0.59888458 -0.42654899 -0.00000039
-0.73389792 -0.25987306 -0.00000063
0.67782497 -0.46510115 -0.00000066
-0.50777745 0.16800737 0.07501907
0.64393103 -0.07368560 -0.00000120
-0.75462282 -0.50061840 -0.00000037
0.04451803 -0.68565923 0.00000000
0.63659918 -0.32554406 -0.00000073
0.48811829 0.16885407 0.00000117
-0.50149524 -0.13251887 -0.00000025
0.33261934 0.10703030 0.00000519
-0.07686411 0.40781492 0.19043720
-0.20502765 -0.42947450 0.00000000
0.60443801 -0.20523348 -0.00000080
0.07840835 -0.50053328 0.00000000
-0.72876680 -0.16429526 -0.00000070
-0.37453941 -0.13129690 0.00000000
-0.16341321 0.40941784 0.13719854
0.61956698 -0.15748224 -0.00000095
0.38328788 -0.39499334 0.00000000
0.03685765 -0.04665439 0.00000000
-0.14342466 -0.30144966 0.00000000
0.71296489 -0.33022565 -0.00000104
-0.31837460 0.10901830 0.22503559
-0.13142984 -0.17810246 0.00000000
-0.16804814 0.19992509 0.26092130
-0.26840076 0.21165967 0.19322717
-0.15913430 0.31629550 0.19602349
0.76151764 -0.12313034 -0.00000162
0.72607601 -0.51628679 -0.00000071
-0.74546349 -0.58891970 -0.00000026
-0.10611997 0.07378046 0.00000000
-0.01035105 0.13280205 0.00000000
-0.33333021 -0.11688332 0.00000000
-0.07751167 -0.06659766 0.00000000
-0.20218562 -0.33007309 0.00000000
-0.50780678 0.28431258 0.00475874
0.04625391 0.37572855 0.00000567
-0.04234133 0.56451154 0.11665087
-0.35796198 0.38781151 0.03274976
0.05651851 -0.40158761 0.00000000
0.07744202 0.36291322 0.00000539
-0.77059126 -0.36389652 -0.00000055
0.39769483 0.32075086 0.00000037
-0.13570113 0.14583766 0.31312281
-0.34609497 -0.35671329 0.00000000
-0.10744105 0.54763061 0.08752960
-0.44558012 -0.35221660 0.00000000
0.46505123 -0.14648609 -0.00000031
0.45729426 -0.73610204 0.00000000
-0.24739894 -0.38402718 0.00000000
-0.27076009 0.07948296 0.27162966
0.13123941 0.26177201 0.00000609
-0.56130368 -0.76626194 0.00000000
-0.56854272 -0.31229886 -0.00000023
0.70146352 -0.74696833 -0.00000013
0.64620876 0.10430077 -0.00000079
0.06792442 -0.43705484 0.00000000
0.34439987 0.14887933 0.00000426
-0.58233839 -0.22478135 -0.00000034
0.31034464 -0.03764142 0.00000000
-0.28803992 -0.00898875 0.00000000
0.22716495 -0.72721100 0.00000000
0.07487222 -0.06997117 0.00000000
0.26516801 0.19992362 0.00000493
-0.53354561 -0.18454315 -0.00000027
0.68554151 -0.45944813 -0.00000070
-0.30645192 -0.64675111 0.00000000
0.21093860 -0.48475873 0.00000000
-0.35883257 0.32221916 0.07183853
0.72490132 -0.17390101 -0.00000137
-0.64819956 -0.35068774 -0.00000037
0.23614287 -0.10620312 0.00000000
0.59715766 -0.33331928 -0.00000055
-0.63312322 -0.00316328 -0.00000064
-0.56435966 0.01036339 -0.00000051
-0.13120820 0.51421994 0.09335382
0.46807733 -0.16571169 -0.00000029
-0.59164035 0.17910782 0.01766567
-0.19627878 -0.46512401 0.00000000
-0.34739634 -0.31951413 0.00000000
-0.53475285 -0.54273069 0.00000000
-0.55239773 0.01963935 -0.00000049
0.47133341 -0.50045401 0.00000000
-0.14655250 -0.24056233 0.00000000
-0.02752619 -0.24885163 0.00000000
-0.57475752 0.04451529 0.10914934
-0.28323951 0.24869074 0.16190073
-0.66770411 -0.64740461 -0.00000015
0.11972434 -0.60944515 0.00000000
0.14917023 0.19567075 0.00000681
-0.08021971 -0.44039080 0.00000000
0.77126878 -0.36876750 -0.00000108
-0.07252199 0.38544509 0.20656972
0.49931690 0.06069832 0.00000276
0.27631679 0.51790977 -0.00000059
-0.50173557 -0.60775965 0.00000000
0.17029598 0.43152100 0.00000288
0.39370459 0.17035776 0.00000296
-0.74570036 -0.50260788 -0.00000037
-0.56387889 -0.45542330 -0.00000009
0.44045347 -0.42504755 0.00000000
0.36921081 -0.45796344 0.00000000
-0.46235546 -0.55091321 0.00000000
0.12530784 -0.07276521 0.00000000
-0.56092471 -0.57485950 0.00000000
-0.44927710 -0.30752960 0.00000000
-0.47201201 -0.24079853 -0.00000009
-0.11252761 0.05023901 0.00000000
-0.36962861 0.15371361 0.16708729
-0.59213692 -0.35108489 -0.00000025
-0.41032335 -0.00550325 -0.00000016
0.04353814 0.29246268 0.00000696
-0.37767690 -0.60156488 0.00000000
0.78494388 -0.74587542 -0.00000014
0.27054006 -0.40152368 0.00000000
0.40115610 0.11094277 0.00000381
0.11401842 0.05049982 0.00000952
-0.21581376 0.55435491 0.01801667
0.42075297 0.00109061 0.00000527
-0.19793761 0.54779077 0.03277745
-0.37703434 -0.42362633 0.00000000
0.71550912 -0.21868388 -0.00000125
0.00444069 -0.13540149 0.00000000
-0.25379863 0.17670186 0.22315858
-0.10448128 -0.13777906 0.00000000
-0.24061395 0.50734997 0.03142719
-0.61395097 -0.41895720 -0.00000023
0.23810305 -0.60984409 0.00000000
-0.28610751 0.34638417 0.10116660
-0.72970718 -0.60967952 -0.00000024
0.35237789 -0.40614063 0.00000000
-0.08238172 -0.18229833 0.00000000
0.79883468 -0.34821290 -0.00000113
-0.56621796 -0.52942163 -0.00000003
-0.32967257 -0.77366132 0.00000000
0.51407832 -0.14608832 -0.00000052
-0.37689787 0.32364735 0.06006536
-0.21406402 -0.24641837 0.00000000
-0.40690815 -0.39897376 0.00000000
0.13754530 0.34383532 0.00000477
-0.18265857 0.39342088 0.13523676
0.06425138 -0.07556437 0.00000000
0.56939399 -0.19493017 -0.00000067
-0.12957527 -0.67056143 0.00000000
-0.12698938 0.28183970 0.23624653
-0.11430870 0.27074951 0.25060278
0.01823116 0.08558884 0.00001044
-0.60781407 -0.68452764 0.00000000
0.20132913 0.35845530 0.00000351
0.33324111 -0.24307843 0.00000000
-0.63000947 0.12761091 0.02559408
-0.40308154 0.12996556 0.16122591
0.05654207 0.42072511 0.00000484
0.12362792 0.36847442 0.00000461
0.78346413 -0.63557208 -0.00000041
-0.60359329 -0.63336688 -0.00000002
-0.25680366 0.23763807 0.18454163
0.61906606 -0.74643677 0.00000000
0.55416733 0.13279654 0.00000050
-0.34221867 0.09985574 0.21616885
0.05088081 -0.57195026 0.00000000
-0.13361266 -0.30289084 0.00000000
0.56045622 -0.77833635 0.00000000
0.14519551 -0.69999528 0.00000000
0.22105581 -0.57309902 0.00000000
0.47473943 -0.37026846 0.00000000
0.15510219 -0.18176082 0.00000000
0.11027828 -0.18609574 0.00000000
-0.67974073 -0.07868979 -0.00000067
0.12428568 0.40431368 0.00000406
-0.68648583 -0.48491070 -0.00000033
0.31932646 -0.03230595 0.00000000
0.30020705 -0.71516097 0.00000000
-0.05023103 0.68619907 0.03839346
-0.35121155 0.17818049 0.16343354
0.31654143 -0.28180367 0.00000000
0.48846829 0.22395018 0.00000024
-0.73175240 -0.41686943 -0.00000048
0.12497862 0.16602960 0.00000762
-0.09480571 0.11747107 0.00000000
0.43197712 0.12600271 0.00000296
-0.77594513 0.00448121 -0.00000095
0.01779763 0.08903766 0.00001040
0.38082358 0.30523953 0.00000095
-0.44351500 -0.07273879 -0.00000018
-0.09600009 -0.16230924 0.00000000
0.16668496 0.17481031 0.00000686
0.06169157 0.34063536 0.00000596
-0.73194391 0.02410449 0.02654321
-0.22894444 -0.66404259 0.00000000
-0.79599822 -0.20755994 -0.00000074
0.35038802 0.21828128 0.00000299
-0.12655064 0.02478106 0.00000000
-0.51044935 0.06975052 0.13274767
0.21727633 -0.65279043 0.00000000
0.13423654 -0.28794044 0.00000000
-0.21054567 0.23032710 0.21689416
-0.12189735 -0.35995024 0.00000000
0.04332625 0.67724210 0.00000119
0.66836947 -0.06966703 -0.00000132
0.13762204 0.48763010 0.00000258
-0.70318633 -0.26112711 -0.00000056
-0.25464204 -0.60972130 0.00000000
0.10589203 -0.79351920 0.00000000
0.03467809 0.41951549 0.00000518
-0.69052309 -0.78234112 -0.00000002
0.74065804 -0.31585482 -0.00000119
0.13076267 0.30120423 0.00000551
-0.49945912 0.11543592 0.11179353
-0.25480336 0.15570845 0.23523062
0.69437975 -0.12643202 -0.00000133
-0.70965946 -0.30669379 -0.00000054
0.51389188 0.24549969 -0.00000061
0.01907935 -0.58495539 0.00000000
-0.20446157 0.10517566 0.29615313
0.53338939 -0.03942529 -0.00000079
-0.29027760 -0.22582980 0.00000000
0.05182446 0.66225708 0.00000128
-0.55621076 -0.37900385 -0.00000014
-0.60679603 -0.44519717 -0.00000019
-0.71344459 -0.41928086 -0.00000044
-0.14103122 0.55629843 0.06200804
-0.50400525 0.04524739 -0.00000041
-0.37353495 0.00298099 -0.00000009
0.65404463 -0.22159621 -0.00000099
-0.76501662 -0.14958636 -0.00000079
-0.22180428 0.35108769 0.13716194
-0.35387176 -0.50707328 0.00000000
-0.07035972 0.34278297 0.23364116
0.29466864 0.45727265 0.00000007
0.08360098 0.15038119 0.00000848
0.79267186 -0.79456836 -0.00000001
0.21977657 -0.65517008 0.00000000
-0.51699835 -0.69060338 0.00000000
0.12367792 0.27907875 0.00000595
0.10810920 0.32364294 0.00000551
-0.01023102 -0.28617907 0.00000000
-0.38120019 0.05553389 -0.00000016
-0.23431493 -0.07003520 0.00000000
-0.59877676 -0.55562079 -0.00000008
-0.57525557 -0.05702804 -0.00000047
-0.25710791 0.20989643 0.20111229
0.45604628 -0.17504948 -0.00000022
-0.09257646 -0.03787322 0.00000000
-0.01578485 -0.09594871 0.00000000
0.00259162 -0.43489435 0.00000000
0.36323202 0.41955686 -0.00000062
-0.19555683 -0.22367942 0.00000000
-0.47840565 0.05242330 0.16256537
-0.10724371 -0.49131492 0.00000000
-0.12046412 0.48387396 0.11816992
-0.17945376 -0.53759646 0.00000000
-0.43864718 -0.48195875 0.00000000
-0.33926991 -0.22887953 0.00000000
0.14476898 -0.66534740 0.00000000
0.46097735 -0.35712475 0.00000000
-0.31047171 0.28118706 0.12582763
0.11152404 -0.18036848 0.00000000
-0.65804881 -0.76300013 -0.00000002
-0.70774937 -0.70119894 -0.00000012
-0.37187448 -0.02288060 -0.00000007
-0.39016840 0.38922411 0.01244544
-0.19246790 0.58180171 0.01553996
-0.06493173 -0.72792399 0.00000000
-0.10289329 0.10302064 0.00000000
-0.72925568 -0.06045980 -0.00000080
0.19237763 0.55561036 0.00000039
0.28980711 -0.76620203 0.00000000
-0.08815379 0.04049050 0.00000000
-0.15942736 -0.35662752 0.00000000
0.38343304 -0.51527900 0.00000000
-0.72095305 -0.47214961 -0.00000041
-0.22957227 -0.67190713 0.00000000
0.54688853 0.03718428 0.00000224
0.18431818 -0.08771069 0.00000000
0.72497034 -0.43978003 -0.00000090
0.75778592 -0.71466178 -0.00000021
-0.29452389 -0.18686593 0.00000000
-0.54881835 -0.38268599 -0.00000013
-0.13968568 -0.23370937 0.00000000
-0.13158682 0.22064821 0.27042621
0.58247977 -0.69410241 0.00000000
-0.23508868 0.07723233 0.29453239
0.35424954 0.07262342 0.00000535
-0.15153164 -0.30986023 0.00000000
0.61916590 -0.25642210 -0.00000077
-0.32572943 -0.08887768 0.00000000
0.16395809 0.28849316 0.00000520
0.43964282 -0.35811934 0.00000000
-0.55690116 -0.71914423 0.00000000
-0.42345417 -0.22954123 0.00000000
0.40727794 0.14489090 0.00000312
0.41209564 -0.21654077 0.00000000
-0.38683593 0.18949050 0.13508739
-0.02849560 0.13490783 0.00000000
-0.41415909 0.33441204 0.03105996
0.02328958 0.03069592 0.00001119
-0.36196321 -0.59143186 0.00000000
-0.13057853 0.23071840 0.26495332
0.05841573 -0.11607789 0.00000000
0.29126820 0.34259039 0.00000205
0.49991718 0.13051879 0.00000158
0.24468045 -0.19003747 0.00000000
-0.61075366 -0.61332065 -0.00000005
0.06020314 -0.64207500 0.00000000
-0.60284215 -0.40398955 -0.00000022
0.61717880 -0.42189869 -0.00000047
-0.47600147 0.04799400 0.16669245
-0.12879930 0.28397289 0.23386511
0.18617596 -0.50619054 0.00000000
-0.71959311 0.05286650 0.01663166
0.31157237 -0.30698347 0.00000000
0.36784557 -0.00490012 -0.00000015
0.43862742 -0.01694218 -0.00000043
-0.25560358 -0.65233779 0.00000000
-0.11021762 0.19599324 0.29822218
0.42117536 -0.13284615 -0.00000015
0.13854085 0.17423089 0.00000730
-0.14255269 0.06052976 0.00000000
0.12400529 -0.69672585 0.00000000
-0.53847122 -0.09004418 -0.00000036
0.04618467 -0.26177466 0.00000000
0.74717194 -0.77470887 -0.00000006
-0.51777399 -0.61840743 0.00000000
0.69469941 0.03248050 -0.00000052
-0.55460060 0.17651339 0.04160283
-0.28185713 -0.39537984 0.00000000
-0.15989509 -0.09148014 0.00000000
0.42619148 -0.06094375 -0.00000030
-0.27841222 -0.26098242 0.00000000
-0.26748297 -0.18475029 0.00000000
0.04866746 0.18661945 0.00000847
-0.30585149 -0.12935044 0.00000000
-0.10285829 0.17875701 0.00000000
-0.54541534 -0.31296867 -0.00000018
-0.07361718 -0.11831313 0.00000000
-0.40541011 0.06232391 0.20067181
0.22377239 -0.57328820 0.00000000
0.25609303 0.36476055 0.00000235
0.66327876 -0.06792293 -0.00000130
-0.38540152 -0.47320956 0.00000000
-0.43872395 0.14674455 0.12956586
-0.35705453 0.08067161 -0.00000013
0.56714219 -0.19373025 -0.00000066
-0.21925905 -0.05752399 0.00000000
-0.07047597 0.69771695 0.01921034
0.09613131 0.28635833 0.00000625
0.08847486 0.58329540 0.00000192
0.49541777 -0.04741604 -0.00000062
0.06868929 -0.18638852 0.00000000
-0.22838952 -0.39903456 0.00000000
-0.03350342 -0.36010620 0.00000000
0.57216346 -0.31542501 -0.00000047
0.28493288 0.44465941 0.00000046
0.34500566 0.39525044 0.00000014
-0.17360014 0.33839673 0.17393903
-0.60582334 -0.54721516 -0.00000010
-0.18380022 -0.22187093 0.00000000
-0.17394873 -0.11889163 0.00000000
0.11417373 -0.39451262 0.00000000
-0.79437113 -0.59462613 -0.00000026
0.06467706 0.34173372 0.00000590
0.55618191 -0.03868674 -0.00000089
-0.01910674 0.01715970 0.00000000
-0.15499279 -0.08537260 0.00000000
0.40375102 -0.63427103 0.00000000
-0.04068831 -0.18492872 0.00000000
-0.12683260 -0.35573009 0.00000000
0.46694654 0.10499872 0.00000264
0.65917623 0.09548316 -0.00000089
-0.32279721 0.14526355 0.20047446
-0.56748062 -0.00879696 -0.00000050
0.43191835 -0.57422698 0.00000000
-0.77683544 -0.11836889 -0.00000085
0.37630635 0.00732184 0.00000601
0.10320793 -0.06210924 0.00000000
-0.73052102 -0.48550385 -0.00000039
-0.26667568 -0.30479705 0.00000000
-0.78626037 -0.00028563 -0.00000097
-0.02220622 -0.24000534 0.00000000
-0.04271172 0.50637203 0.15154020
0.60811484 -0.75267190 0.00000000
-0.12875625 0.19782370 0.28592044
-0.15599543 -0.53187090 0.00000000
0.45333987 0.25642040 0.00000037
-0.52435291 -0.21129777 -0.00000023
-0.13656142 -0.51745272 0.00000000
-0.08436833 -0.30983308 0.00000000
-0.39910501 -0.55549788 0.00000000
-0.01525388 -0.32072267 0.00000000
-0.02203135 -0.23505105 0.00000000
-0.39407602 -0.25776216 0.00000000
-0.33220890 -0.50530219 0.00000000
-0.42043310 -0.33635703 0.00000000
-0.39093485 -0.65635949 0.00000000
-0.12691963 0.01061575 0.00000000
-0.40757507 -0.45842671 0.00000000
0.27560288 0.28009534 0.00000339
0.33427757 -0.63802993 0.00000000
0.17947970 0.45098916 0.00000238
-0.44798571 0.02930252 -0.00000027
0.19611683 -0.03075012 0.00000000
-0.13380755 -0.33354795 0.00000000
