ply
format ascii 1.0
element vertex 1302
property float x
property float y
property float z
end_header
-0.20119780 0.43316770 0.00000226
-0.25202239 -0.48449004 0.00000000
-0.57347065 0.03182729 0.00000182
-0.62567574 -0.33490986 -0.00000066
-0.14112690 -0.47757646 0.00000000
-0.15464571 -0.68640465 0.00000000
-0.03406411 0.28950244 0.10482266
-0.05246625 0.68333948 0.00000094
-0.33560577 0.21437590 0.00000334
-0.41799599 -0.04096879 -0.00000030
-0.10420082 -0.35367322 0.00000000
-0.13429071 0.58625817 0.00000099
-0.57318294 -0.57365614 -0.00000002
-0.65845472 -0.72806472 -0.00000011
-0.60040832 -0.75870299 0.00000000
-0.61767268 -0.24746567 -0.00000078
-0.51678342 -0.22424750 -0.00000039
-0.16629426 -0.03857849 0.00000000
-0.19368654 -0.19097829 0.59613073
-0.47317675 -0.79237568 0.00000000
-0.46542346 -0.37403235 0.00000000
-0.22712323 -0.45658219 0.00000000
-0.30562592 -0.17747872 0.00000000
-0.03146744 -0.72669828 0.00000000
-0.41663995 -0.51579785 0.00000000
-0.20580362 0.00226722 0.00000886
-0.01858464 0.58692807 0.05719207
-0.21348356 -0.09042710 0.00000000
-0.36581746 -0.16542055 0.00000000
-0.45080140 -0.73674387 0.00000000
-0.22294033 0.46988982 0.00000123
-0.21109685 -0.45304304 0.00000000
-0.04231123 0.62328953 0.00000201
-0.02234960 -0.34649518 0.00000000
-0.14439012 0.25474226 0.00000600
-0.15849142 0.42097229 0.00000329
-0.03015168 0.13331129 0.00000955
-0.33838633 -0.66363877 0.00000000
-0.51791841 -0.29568601 -0.00000027
-0.40243009 0.01885556 0.00000532
-0.67847627 -0.77908641 -0.00000005
-0.38682050 -0.63470697 0.00000000
-0.01408468 -0.67094803 0.00000000
-0.08724547 0.12257316 0.26850310
-0.09906596 0.15183248 0.00000823
-0.34639654 -0.69363672 0.00000000
-0.45577174 -0.07543735 -0.00000040
-0.04068553 -0.62113953 0.00000000
-0.49712667 0.16832209 0.00000100
-0.38270861 -0.77635348 0.00000000
-0.33205217 -0.03461952 0.00000000
-0.02473266 -0.74271864 0.00000000
-0.33367711 -0.30602726 0.00000000
-0.07031675 0.44302309 0.00000429
-0.04967910 -0.15944827 0.15290216
-0.02059632 0.25001961 0.00000794
-0.05237783 -0.54422283 0.00000000
-0.10637135 0.20594953 0.00000731
-0.68180197 -0.48095143 -0.00000065
-0.07930998 -0.70852023 0.00000000
-0.09521578 0.55109781 0.00000230
-0.12925027 -0.63829321 0.00000000
-0.12044200 0.46161279 0.00000326
-0.01644265 0.77954721 -0.00000003
-0.01656337 -0.10432631 0.00000000
-0.01198725 -0.21280459 0.00000000
-0.00455449 -0.39554712 0.00000000
-0.75182205 -0.70000267 -0.00000025
-0.36795086 -0.39755887 0.00000000
-0.64179659 -0.66876900 -0.00000014
-0.12957048 -0.31853220 0.00000000
-0.32922012 -0.46379375 0.00000000
-0.57747704 -0.10554616 -0.00000086
-0.06319513 0.53226203 0.00000306
-0.04692862 0.63300741 0.14443709
-0.24366133 0.41578981 0.00000174
-0.41985917 0.26799220 0.00000082
-0.06708496 0.25134879 0.20645659
-0.11484151 -0.67408717 0.00000000
-0.14467938 -0.12472693 0.44529486
-0.48108828 -0.51615614 0.00000000
-0.36079910 0.19170207 0.00000323
-0.33640432 -0.11069380 0.00000000
-0.28302225 0.06735867 0.00000672
-0.72067595 -0.55320436 -0.00000062
-0.39625585 0.29439303 0.00000084
-0.02684959 -0.17434341 0.00000000
-0.16590507 -0.07945328 0.00000000
-0.08178371 0.53228647 0.25171557
-0.01724156 -0.42870966 0.00000000
-0.61932868 -0.51566124 -0.00000032
-0.24880724 0.48910996 0.00000042
-0.31354508 0.02724535 0.00000686
-0.55118209 -0.06105900 -0.00000083
-0.07475025 -0.55293554 0.23006606
-0.69243109 -0.25375992 -0.00000109
-0.29626346 -0.40264466 0.00000000
-0.77408582 -0.30879921 -0.00000123
-0.67061347 -0.61480182 -0.00000036
-0.08637602 -0.21559936 0.00000000
-0.48216656 -0.07263314 -0.00000052
-0.70967489 -0.54987049 -0.00000063
-0.67824763 -0.10516210 -0.00000129
-0.39777532 0.16681503 0.00000294
-0.71407551 -0.01382226 -0.00000161
-0.34256130 0.42039579 -0.00000024
-0.48285791 0.18763967 0.00000096
-0.52454317 -0.49721205 0.00000000
-0.62708372 -0.26981887 -0.00000079
-0.60509986 -0.28027606 -0.00000067
-0.11303108 0.00149652 0.00001027
-0.27631351 0.46415457 0.00000030
-0.32934639 0.21817069 0.00000339
-0.66569346 0.01434902 0.00000034
-0.68898827 -0.23074830 -0.00000112
-0.24266326 -0.50722313 0.74687064
-0.39805225 -0.24608706 0.00000000
-0.37752676 -0.56273848 0.00000000
-0.37847072 -0.59106469 0.00000000
-0.30299953 0.29042035 0.00000269
-0.10701393 -0.42093670 0.00000000
-0.27370426 -0.53464484 0.00000000
-0.16435252 -0.50488377 0.00000000
-0.13473763 -0.11806099 0.00000000
-0.10332702 0.11195452 0.00000876
-0.56188321 -0.25416711 -0.00000053
-0.18113317 -0.42600515 0.00000000
-0.05852033 -0.53221262 0.18011366
-0.15193714 0.46010599 0.00000276
-0.10029112 -0.58051062 0.30867565
-0.07178227 -0.07881054 0.00000000
-0.59831119 -0.47628149 -0.00000030
-0.51927263 0.19856262 0.00000007
-0.20638096 -0.20472732 0.63520205
-0.61117524 -0.65803581 -0.00000003
-0.27947274 -0.25898013 0.00000000
-0.07678379 0.22290336 0.23630777
-0.61383331 -0.76952362 0.00000000
-0.66755587 -0.79845619 -0.00000000
-0.44581619 -0.21006162 -0.00000012
-0.16835068 -0.61837810 0.00000000
-0.23869807 -0.70276040 0.73466504
-0.05217243 -0.21483241 0.00000000
-0.09837468 -0.04684857 0.00000000
-0.25579727 -0.73340738 0.00000000
-0.09497658 -0.13834384 0.29231858
-0.07508686 -0.67093062 0.00000000
-0.58926564 0.06317433 0.00000099
-0.13842857 -0.78261054 0.42605495
-0.42064834 0.15663113 0.00000267
-0.47933891 -0.72331810 0.00000000
-0.76518321 0.03287001 -0.00000191
-0.53954226 -0.73714006 0.00000000
-0.27485323 -0.60699540 0.00000000
-0.79958612 -0.76047707 -0.00000010
-0.05147399 0.66366917 0.00000127
-0.28039429 -0.38071451 0.00000000
-0.04653481 -0.35933781 0.00000000
-0.76532757 -0.05642937 -0.00000175
-0.15637782 -0.23850591 0.48130015
-0.44496709 0.17131104 0.00000196
-0.56854552 -0.16031592 -0.00000073
-0.17012846 0.33178219 0.00000446
-0.11694481 0.39790887 0.00000427
-0.06617917 -0.27215752 0.00000000
-0.28040811 -0.00409163 0.00000000
-0.01881795 0.42151892 0.00000539
-0.04660525 -0.60086930 0.00000000
-0.69901484 0.03243008 -0.00000060
-0.47453439 0.24677800 0.00000013
-0.26791385 -0.71992999 0.00000000
-0.11296626 0.21871758 0.00000701
-0.01627844 0.02133961 0.05006699
-0.02095468 0.69946790 0.00000119
-0.52233529 0.08592073 0.00000190
-0.35029233 -0.25666559 0.00000000
-0.09431780 0.16427930 0.29027423
-0.25123507 0.12497916 0.00000633
-0.59082770 -0.69154334 0.00000000
-0.68158489 -0.32952386 -0.00000091
-0.42886305 -0.24308337 0.00000000
-0.42293939 -0.44414669 0.00000000
-0.47734478 -0.55300266 0.00000000
-0.28991085 -0.77333611 0.00000000
-0.41198343 0.20781460 0.00000198
-0.74636489 -0.31272206 -0.00000122
-0.41727912 -0.26599771 0.00000000
-0.51784098 0.00599629 0.00000332
-0.62935609 -0.50305963 -0.00000038
-0.18072388 -0.44620937 0.00000000
-0.07986200 -0.08150720 0.00000000
-0.01039450 0.27718589 0.00000769
-0.13314742 -0.41446581 0.00000000
-0.65108985 -0.41986203 -0.00000062
-0.04433747 -0.45425281 0.13646170
-0.13637850 -0.55206263 0.00000000
-0.19115677 -0.48072204 0.00000000
-0.29498687 -0.29646736 0.00000000
-0.50111145 -0.69787240 0.00000000
-0.07954363 0.19157007 0.00000793
-0.04791329 -0.51952237 0.00000000
-0.28663197 -0.23624989 0.00000000
-0.59042853 -0.32612750 -0.00000053
-0.31787708 -0.30287808 0.00000000
-0.34061468 0.43043464 -0.00000037
-0.32715422 -0.56710631 0.00000000
-0.76456469 0.02972232 -0.00000182
-0.05147447 -0.19676243 0.00000000
-0.06740767 0.45990855 0.20746174
-0.31287229 -0.77302980 0.00000000
-0.59693915 -0.68886966 0.00000000
-0.08173525 -0.31951514 0.00000000
-0.10652885 -0.02537229 0.00000000
-0.75541657 -0.32538545 -0.00000119
-0.63188124 -0.22364552 -0.00000089
-0.75694197 -0.12018918 -0.00000160
-0.02887863 0.10903876 0.00000993
-0.61007506 -0.67337739 0.00000000
-0.26752952 -0.12789658 0.00000000
-0.32958248 0.27830282 0.00000239
-0.71909469 -0.10504234 -0.00000147
-0.05383855 -0.45372283 0.00000000
-0.45820814 -0.11168549 -0.00000034
-0.00631682 0.10331872 0.00001035
-0.61407912 -0.27574825 -0.00000072
-0.14924237 -0.44236365 0.00000000
-0.21307577 -0.59519607 0.00000000
-0.38405517 -0.48393667 0.00000000
-0.22721931 0.50759572 0.00000052
-0.65058208 0.11896203 -0.00000112
-0.67820066 -0.75911117 -0.00000010
-0.32784194 0.17096981 0.00000421
-0.02246974 -0.75009930 0.00000000
-0.19470073 -0.50608355 0.00000000
-0.27639943 -0.47030833 0.00000000
-0.31603095 0.07821818 0.00000599
-0.66744643 -0.30703411 -0.00000089
-0.06737719 -0.74231237 0.00000000
-0.68770075 -0.13613594 -0.00000128
-0.18069388 -0.16340825 0.00000000
-0.48868814 -0.23134302 -0.00000026
-0.76807737 -0.44107184 -0.00000090
-0.13994300 -0.49979368 0.00000000
-0.21087126 -0.66090673 0.00000000
-0.53436649 0.10899818 0.00000128
-0.01761891 0.07073333 0.05419519
-0.79351574 -0.56572092 -0.00000059
-0.13882889 -0.21590263 0.00000000
-0.52919573 -0.20732932 -0.00000048
-0.55423617 -0.44051149 -0.00000017
-0.52672142 0.24061361 -0.00000077
-0.28242186 0.35515392 0.00000201
-0.73679590 -0.05091537 -0.00000164
-0.17552966 -0.00230819 0.54024780
-0.72916865 -0.35419109 -0.00000107
-0.17498589 0.12955637 0.00000742
-0.14748673 -0.00930490 0.00000000
-0.25433505 -0.17768006 0.00000000
-0.09210388 0.45356694 0.28347659
-0.07293634 -0.70279706 0.00000000
-0.02708872 -0.53583312 0.08337357
-0.36838570 0.39212766 -0.00000026
-0.39408851 0.34727213 -0.00000001
-0.03132077 0.65393490 0.00000172
-0.01689268 0.67582047 0.00000161
-0.57280815 -0.25310287 -0.00000058
-0.09014698 0.52623957 0.00000275
-0.00311858 0.13964701 0.00956751
-0.18760093 0.49151081 0.00000155
-0.28516215 0.17032862 0.00000504
-0.45676288 -0.41849840 0.00000000
-0.01659746 -0.51967049 0.05108360
-0.15392707 -0.76320946 0.47375619
-0.78008527 -0.16027269 -0.00000160
-0.32700729 0.43301761 -0.00000015
-0.06532732 -0.69613576 0.20106418
-0.14180523 0.30760694 0.00000525
-0.10035369 0.49713919 0.00000303
-0.01378932 -0.70856118 0.04244072
-0.70610023 -0.37844583 -0.00000093
-0.58849972 -0.09114859 -0.00000094
-0.51848835 0.23133633 -0.00000046
-0.76025456 -0.42375317 -0.00000094
-0.28019476 -0.60255146 0.00000000
-0.71303159 -0.19170320 -0.00000129
-0.40113303 -0.62343377 0.00000000
-0.21977618 0.11155000 0.00000701
-0.28405961 -0.17333184 0.00000000
-0.16144487 -0.00575119 0.00000000
-0.12165956 -0.62841052 0.00000000
-0.72107083 -0.17120232 -0.00000136
-0.06246305 -0.32327721 0.00000000
-0.63928533 -0.38190934 -0.00000064
-0.14220726 -0.11679967 0.43768612
-0.33105820 -0.31406522 0.00000000
-0.42759165 -0.01818868 -0.00000038
-0.23678786 -0.05790991 0.00000000
-0.31376547 -0.06205924 0.00000000
-0.61305535 -0.02719870 -0.00000115
-0.09260737 -0.56271482 0.00000000
-0.33184657 0.18540522 0.00000389
-0.21772993 -0.13293356 0.00000000
-0.07218163 -0.67892736 0.00000000
-0.71307963 -0.55065018 -0.00000062
-0.11201633 -0.13924275 0.00000000
-0.17601372 0.51953888 0.00000130
-0.14263383 0.52635968 0.00000183
-0.40178049 0.21237534 0.00000210
-0.18382372 -0.32162392 0.00000000
-0.48475692 -0.65193623 0.00000000
-0.66318285 0.12824240 -0.00000151
-0.58630210 -0.25415877 -0.00000064
-0.06559328 -0.02065663 0.20188276
-0.39806780 0.15177469 0.00000318
-0.33584675 0.06007846 0.00000591
-0.38220331 -0.09146400 -0.00000006
-0.46450737 -0.62017190 0.00000000
-0.70528358 -0.65195376 -0.00000037
-0.03030981 0.49108598 0.00000418
-0.26693985 0.08481433 0.00000670
-0.50454104 -0.71555883 0.00000000
-0.60115075 -0.01181420 -0.00000113
-0.42187467 0.33422911 -0.00000032
-0.39203468 -0.14216712 -0.00000001
-0.79567629 -0.55108267 -0.00000062
-0.42592001 0.16485427 0.00000243
-0.17785814 0.54263592 0.00000088
-0.11667877 -0.75551140 0.00000000
-0.21933050 -0.32661861 0.00000000
-0.72306311 -0.05096341 -0.00000158
-0.27648655 0.50754035 -0.00000042
-0.28861216 0.29587018 0.00000288
-0.13839293 -0.05219696 0.00000000
-0.25353003 -0.21928811 0.00000000
-0.18758886 -0.52440310 0.00000000
-0.04294233 0.44579250 0.00000467
-0.53362119 -0.12820059 -0.00000064
-0.17096795 -0.37181669 0.00000000
-0.11924401 0.39906120 0.00000421
-0.15495364 -0.46984804 0.00000000
-0.40456966 -0.26099378 0.00000000
-0.09053090 0.06125859 0.27861246
-0.17178431 -0.67544919 0.00000000
-0.07920562 0.26774171 0.00000679
-0.71196914 -0.54174554 -0.00000065
-0.66587752 -0.63308489 -0.00000031
-0.05330869 -0.15324908 0.00000000
-0.00958175 -0.41241759 0.00000000
-0.71515137 -0.52980459 -0.00000068
-0.46965834 -0.50790310 0.00000000
-0.01510520 0.26481995 0.00000780
-0.50127852 -0.11524219 -0.00000052
-0.15883182 -0.72989166 0.00000000
-0.15599027 0.02719730 0.00000924
-0.75130248 -0.10861861 -0.00000160
-0.41690505 -0.46894780 0.00000000
-0.22239871 -0.33651751 0.00000000
-0.06079437 0.00177671 0.00001106
-0.42217565 -0.42380860 0.00000000
-0.34553885 -0.73333830 0.00000000
-0.53561842 -0.74249232 0.00000000
-0.17303634 -0.37858510 0.00000000
-0.21595366 -0.65114343 0.00000000
-0.60355985 -0.45807809 -0.00000035
-0.33055422 0.04184712 0.00000632
-0.28996772 -0.34342965 0.00000000
-0.17872158 -0.35263574 0.00000000
-0.78168851 -0.23817138 -0.00000140
-0.25350568 0.07715114 0.00000702
-0.15227561 -0.60413730 0.00000000
-0.31964579 -0.59714705 0.00000000
-0.37339100 0.03311519 0.00000564
-0.45449877 -0.78862524 0.00000000
-0.10074644 -0.29410374 0.00000000
-0.19650631 -0.09032187 0.00000000
-0.03953210 0.55890739 0.12166620
-0.63006282 -0.49941394 -0.00000039
-0.71096367 -0.63519484 -0.00000041
-0.53728533 -0.52089405 0.00000000
-0.74807084 -0.04229012 -0.00000170
-0.20132372 -0.56011385 0.00000000
-0.26022202 0.26165423 0.00000400
-0.62791115 -0.55299503 -0.00000029
-0.53641236 -0.59180635 0.00000000
-0.01242701 0.59309936 0.00000292
-0.34660700 -0.47278315 0.00000000
-0.70676053 -0.58870530 -0.00000053
-0.45091203 0.16241601 0.00000199
-0.67808050 -0.54711318 -0.00000051
-0.40780070 -0.08884179 -0.00000017
-0.28825623 -0.04047981 0.00000000
-0.33607721 0.25433019 0.00000266
-0.12785266 0.48073956 0.00000286
-0.05889143 -0.00820983 0.00000000
-0.04568384 0.52346188 0.00000346
-0.67262805 0.10211997 -0.00000126
-0.60914606 -0.62690318 -0.00000008
-0.51695734 -0.26648027 -0.00000032
-0.55010128 -0.17272992 -0.00000063
-0.25197011 0.33453697 0.00000294
-0.34644276 0.06817988 0.00000557
-0.72307575 0.00728877 -0.00000064
-0.26288140 -0.30255660 0.00000000
-0.28466049 -0.43763399 0.00000000
-0.19277626 -0.71945232 0.59332609
-0.23017302 -0.13286498 0.00000000
-0.42624202 -0.18092184 -0.00000009
-0.15121272 -0.09408472 0.00000000
-0.06244438 0.18999778 0.00000821
-0.57102013 0.08864893 0.00000092
-0.17555110 0.39624599 0.00000337
-0.37192553 -0.26111180 0.00000000
-0.75842303 -0.04135223 -0.00000175
-0.10058447 -0.03487548 0.00000000
-0.24762972 0.38549057 0.00000217
-0.28544375 -0.17349871 0.00000000
-0.22480857 -0.70683920 0.00000000
-0.78861064 -0.12800236 -0.00000168
-0.58217591 -0.55354762 -0.00000009
-0.03719093 -0.25178656 0.11446611
-0.12153981 -0.37834743 0.00000000
-0.04257619 -0.44309449 0.00000000
-0.37931576 -0.54908389 0.00000000
-0.17344420 -0.46987844 0.00000000
-0.27532566 0.31225529 0.00000286
-0.74198651 -0.52456009 -0.00000069
-0.44714782 0.03170839 0.00000425
-0.03550365 -0.70670795 0.10927300
-0.09581413 -0.46556538 0.00000000
-0.20216326 0.40789083 0.00000267
-0.20746861 0.02459411 0.00000850
-0.29224008 0.35503280 0.00000182
-0.10400125 0.17808558 0.00000776
-0.02492450 0.15991896 0.07668548
-0.45007813 -0.15831757 -0.00000023
-0.53901011 -0.21064033 -0.00000051
-0.39075178 -0.14817987 0.00000000
-0.20558248 -0.74626541 0.00000000
-0.38247633 -0.16462572 0.00000000
-0.55207556 -0.06591495 -0.00000083
-0.30532238 0.45138839 -0.00000004
-0.70814008 0.08766395 -0.00000170
-0.51135087 0.23959205 -0.00000046
-0.23144598 -0.38816547 0.71234697
-0.38968951 -0.00848964 -0.00000023
-0.73111552 -0.35598668 -0.00000108
-0.05396348 -0.14875656 0.00000000
-0.12899648 0.20791940 0.00000693
-0.50876719 -0.17314541 -0.00000045
-0.30965900 -0.53025585 0.00000000
-0.65462756 -0.42191488 -0.00000063
-0.79628962 -0.13729873 -0.00000166
-0.54307508 -0.12211944 -0.00000069
-0.22250620 -0.45725366 0.00000000
-0.51462841 0.06499063 0.00000239
-0.29921445 -0.15000518 0.00000000
-0.12252918 -0.79560769 0.37711987
-0.10563318 0.43314287 0.00000391
-0.16897732 -0.02715413 0.00000000
-0.13035034 0.36590195 0.00000454
-0.03191135 -0.38284734 0.00000000
-0.45435759 0.34037298 -0.00000105
-0.03256569 0.18291342 0.00000876
-0.11250569 0.02859400 0.00000987
-0.01594859 0.29308486 0.04906459
-0.15920992 -0.18950738 0.00000000
-0.14814937 0.36665133 0.00000426
-0.76697522 0.02704045 -0.00000182
-0.49696478 -0.74749315 0.00000000
-0.10622350 0.27531478 0.00000627
-0.41806722 -0.15172350 -0.00000010
-0.04671126 -0.08427602 0.00000000
-0.18910803 0.40628248 0.00000295
-0.04353281 0.39827400 0.13397177
-0.77641946 -0.79650146 -0.00000001
-0.04031658 0.56244612 0.12408105
-0.30826283 -0.77751154 0.00000000
-0.50210094 -0.00057367 -0.00000073
-0.17715535 -0.42757562 0.00000000
-0.13810225 0.02124166 0.00000960
-0.27947485 0.41934794 0.00000099
-0.16707003 -0.24868786 0.00000000
-0.27351710 0.15056571 0.00000560
-0.46497130 -0.43125778 0.00000000
-0.25834754 -0.45754662 0.00000000
-0.43242347 -0.68162876 0.00000000
-0.55259687 0.12466730 0.00000067
-0.76706624 -0.66984981 -0.00000033
-0.04582980 0.57892334 0.14105175
-0.32935682 0.24018297 0.00000303
-0.17765220 0.54845697 0.00000079
-0.44229457 -0.77784675 0.00000000
-0.03362600 -0.14763854 0.10349399
-0.72919118 -0.53339481 -0.00000067
-0.04760376 -0.53838122 0.00000000
-0.39146033 -0.21081220 0.00000000
-0.27353477 -0.21978548 0.00000000
-0.54077452 0.16184430 0.00000027
-0.37157652 -0.75851762 0.00000000
-0.41876096 -0.54225105 0.00000000
-0.32713655 -0.10111518 0.00000000
-0.13189241 -0.33251497 0.40593800
-0.38883957 -0.07711115 -0.00000011
-0.09838855 0.52446431 0.00000265
-0.69335425 -0.74696535 -0.00000013
-0.79081380 -0.50430369 -0.00000074
-0.79013878 -0.30079606 -0.00000125
-0.71917611 -0.13487546 -0.00000142
-0.36003464 -0.18337753 0.00000000
-0.43443230 -0.11776872 -0.00000023
-0.08452729 -0.41485593 0.26015779
-0.24402279 0.28813484 0.00000386
-0.34333360 -0.07390970 0.00000000
-0.38241836 0.29606977 0.00000107
-0.03737809 0.19184080 0.00000856
-0.25848806 -0.73311734 0.00000000
-0.64646471 0.00283417 0.00000090
-0.26923397 -0.35409534 0.00000000
-0.42234161 0.12364459 0.00000319
-0.03108033 -0.30702242 0.00000000
-0.40676916 0.16778941 0.00000275
-0.03278140 0.71319789 0.00000081
-0.00772781 -0.40342593 0.00000000
-0.15514544 -0.61992508 0.47750607
-0.29101679 -0.06884685 0.00000000
-0.02846834 0.42351213 0.08760563
-0.01612591 -0.28686666 0.00000000
-0.07985917 -0.48486653 0.24579026
-0.54817224 -0.05569287 -0.00000083
-0.03732407 0.60248893 0.11487240
-0.65762615 -0.31722045 -0.00000083
-0.00318833 -0.09103523 0.00000000
-0.78245109 -0.43989453 -0.00000090
-0.30034497 -0.06874229 0.00000000
-0.24545480 -0.58358479 0.00000000
-0.40236843 -0.56181026 0.00000000
-0.01971687 0.22077145 0.06065966
-0.44841009 -0.45651153 0.00000000
-0.21795984 0.49764302 0.00000086
-0.09315591 -0.37296718 0.00000000
-0.47317222 -0.17433248 -0.00000030
-0.03769221 -0.29170722 0.00000000
-0.00415531 -0.49583578 0.01278920
-0.36561042 -0.05418869 -0.00000005
-0.66265130 -0.45455527 -0.00000061
-0.41885564 -0.43734223 0.00000000
-0.02031322 0.71371037 0.00000099
-0.79590756 -0.37686551 -0.00000106
-0.73252195 -0.79604834 -0.00000001
-0.41957542 0.23899388 0.00000131
-0.49654061 -0.12261857 -0.00000049
-0.08548832 -0.12908059 0.26311564
-0.03641274 -0.41033465 0.00000000
-0.30431545 -0.61194116 0.00000000
-0.25597376 -0.25926548 0.00000000
-0.06335131 -0.71678132 0.00000000
-0.60049593 -0.70821679 0.00000000
-0.08169051 0.32612744 0.25141671
-0.05743256 -0.53226531 0.17676573
-0.47578540 -0.41856125 0.00000000
-0.32361171 -0.18650369 0.00000000
-0.65491736 -0.79315746 0.00000000
-0.20028020 -0.72283471 0.00000000
-0.58302659 -0.24517746 -0.00000064
-0.38882992 -0.63251132 0.00000000
-0.74283624 -0.77946538 -0.00000005
-0.54077888 -0.29559126 -0.00000037
-0.24987963 0.22271571 0.00000484
-0.19765504 0.08588931 0.00000773
-0.35320449 -0.17768729 0.00000000
-0.07528253 0.48288569 0.23170199
-0.69480199 -0.28874192 -0.00000104
-0.06591941 0.02567847 0.00001062
-0.69239408 -0.25548136 -0.00000109
-0.48886287 -0.12360882 -0.00000045
-0.04810426 -0.48110890 0.14805512
-0.02254233 0.57908392 0.00000297
-0.76055688 -0.19525467 -0.00000149
-0.27205840 -0.34738085 0.00000000
-0.16745736 -0.51832253 0.00000000
-0.12245337 -0.53316492 0.00000000
-0.13711549 0.14180563 0.00000780
-0.13489060 -0.63027161 0.41516581
-0.65568745 -0.17019667 -0.00000108
-0.06924634 0.07982409 0.00000976
-0.78239006 -0.35300571 -0.00000112
-0.55863684 -0.02311663 -0.00000093
-0.07899393 -0.11904553 0.24312724
-0.27966878 0.39659280 0.00000137
-0.38383543 -0.05334749 -0.00000013
-0.45582214 0.05154980 0.00000375
-0.06072040 -0.70650220 0.18688503
-0.56776959 -0.45143688 -0.00000021
-0.02948807 0.36711952 0.00000605
-0.01962933 0.58833224 0.00000288
-0.05861958 0.27434275 0.00000700
-0.06742817 -0.68257666 0.20753019
-0.13111122 -0.31414255 0.00000000
-0.11116034 0.33171725 0.34212548
-0.68088853 -0.27456501 -0.00000101
-0.03579146 -0.18945242 0.00000000
-0.79319680 -0.65004998 -0.00000037
-0.08047150 -0.51023990 0.24767490
-0.64314443 -0.41188982 -0.00000060
-0.02831064 -0.46084857 0.00000000
-0.58393115 -0.32067060 -0.00000051
-0.39409274 0.19058318 0.00000261
-0.04889147 -0.30737314 0.15047799
-0.03014485 -0.18397786 0.09277971
-0.38540232 -0.29641134 0.00000000
-0.13946187 0.18350936 0.42922929
-0.03666021 0.45551124 0.00000461
-0.01697894 -0.50542802 0.05225772
-0.22065552 -0.17080478 0.00000000
-0.33447346 -0.61392653 0.00000000
-0.54838753 -0.18562873 -0.00000060
-0.38738555 0.30542219 0.00000082
-0.30401397 0.45319089 -0.00000005
-0.78491646 -0.22733647 -0.00000143
-0.26088759 0.28253406 0.00000363
-0.05104449 -0.46316260 0.15710455
-0.59837508 -0.11119025 -0.00000094
-0.24384341 0.25889274 0.00000436
-0.47412837 0.18856063 0.00000111
-0.42609504 -0.38283902 0.00000000
-0.20306353 0.26733863 0.00000493
-0.66473877 -0.76869571 -0.00000006
-0.58900076 -0.57083112 -0.00000009
-0.39453009 0.29018468 0.00000094
-0.00226200 -0.65919703 0.00000000
-0.63207960 -0.10431269 -0.00000110
-0.29475218 -0.00757870 0.00000000
-0.27016863 -0.54101443 0.00000000
-0.07976402 -0.17437150 0.00000000
-0.19484854 -0.41508266 0.00000000
-0.42568868 -0.66697907 0.00000000
-0.17074420 0.17571037 0.52551615
-0.08697628 -0.45727155 0.00000000
-0.03174526 0.18128642 0.00000880
-0.52878886 -0.66790140 0.00000000
-0.41135418 0.06385592 0.00000440
-0.18836077 -0.05456236 0.00000000
-0.02925266 -0.64579576 0.09003373
-0.42606393 0.28193963 0.00000047
-0.17138197 -0.37111709 0.00000000
-0.04210634 -0.43522868 0.00000000
-0.76904649 -0.08070698 -0.00000173
-0.74724120 -0.15028688 -0.00000151
-0.25937697 -0.57204723 0.00000000
-0.21973829 0.08648045 0.00000739
-0.18043479 0.51035237 0.00000137
-0.70341021 -0.06387563 -0.00000147
-0.78119773 -0.49120435 -0.00000077
-0.62816852 -0.02620679 -0.00000122
-0.10934873 -0.62612754 0.00000000
-0.36007434 -0.16406184 0.00000000
-0.41167125 0.09233613 0.00000392
-0.15271585 -0.67001736 0.00000000
-0.22379348 -0.56052220 0.00000000
-0.57733852 -0.05675431 -0.00000095
-0.26279587 0.15526232 0.00000571
-0.64914018 -0.05719641 -0.00000126
-0.58951467 0.12081872 0.00000002
-0.66464502 0.08083234 -0.00000075
-0.43994099 -0.29804322 0.00000000
-0.67224425 0.12099980 -0.00000157
-0.16755755 -0.18605460 0.00000000
-0.09872537 0.46579370 0.30385831
-0.39622271 -0.21268238 0.00000000
-0.14784679 0.11817462 0.00000800
-0.75909972 -0.57874751 -0.00000055
-0.08283983 0.01161552 0.00001058
-0.24470399 -0.37189314 0.00000000
-0.74465549 -0.09172498 -0.00000160
-0.66188955 -0.43205434 -0.00000065
-0.47535029 0.14631131 0.00000179
-0.10002432 -0.39396426 0.00000000
-0.01021395 0.50692707 0.00000424
-0.28065297 0.12440544 0.00000590
-0.06873899 -0.11256798 0.21156462
-0.52286536 -0.56236023 0.00000000
-0.01766641 -0.01201622 0.00000000
-0.44832557 -0.62857413 0.00000000
-0.30696726 -0.12166561 0.00000000
-0.70563257 -0.24672253 -0.00000116
-0.55449200 -0.04029013 -0.00000088
-0.51998585 -0.72726762 0.00000000
-0.30070493 -0.37508243 0.00000000
-0.61394244 -0.73496652 0.00000000
-0.10107395 -0.15974718 0.00000000
-0.40847102 -0.72750056 0.00000000
-0.12845989 0.10891862 0.00000843
-0.27199295 -0.13317958 0.00000000
-0.57611668 0.00771463 0.00000217
-0.01256127 0.03902333 0.03862665
-0.35060439 -0.32248276 0.00000000
-0.40928572 -0.79725903 0.00000000
-0.42700610 -0.49961427 0.00000000
-0.19431406 -0.12267618 0.00000000
-0.24957807 -0.39781594 0.00000000
-0.09149367 0.37030840 0.00000506
-0.07998301 0.10963708 0.00000915
-0.35674912 0.17128181 0.00000365
-0.78268582 -0.11175805 -0.00000172
-0.19873855 0.22198755 0.00000567
-0.43375021 -0.57510090 0.00000000
-0.70862645 -0.17289872 -0.00000130
-0.26366487 -0.56741160 0.00000000
-0.70847917 -0.30901670 -0.00000106
-0.61978680 -0.55486083 -0.00000025
-0.07377135 0.01374023 0.22702555
-0.20287272 0.57648355 -0.00000016
-0.24966031 -0.18105650 0.00000000
-0.34135920 -0.63936281 0.00000000
-0.01662736 -0.16443563 0.05117563
-0.15069152 -0.04215030 0.00000000
-0.11360628 -0.11559331 0.00000000
-0.16657837 -0.72112626 0.00000000
-0.66878480 -0.73908073 -0.00000013
-0.02117722 -0.22045299 0.06517917
-0.10488559 -0.51391149 0.00000000
-0.65031159 -0.13135301 -0.00000113
-0.44309112 -0.39909536 0.00000000
-0.65821528 -0.03571620 -0.00000133
-0.20999543 -0.07037543 0.00000000
-0.11691408 -0.14336869 0.00000000
-0.26268953 -0.58876926 0.00000000
-0.29753017 -0.39182156 0.00000000
-0.22681482 0.12412208 0.00000672
-0.01673931 0.29940206 0.00000726
-0.10901418 -0.58437449 0.00000000
-0.25229862 0.02770153 0.00000778
-0.16891690 -0.22487918 0.00000000
-0.09918396 0.14632861 0.00000831
-0.56573701 -0.42266428 -0.00000025
-0.00430393 -0.60328549 0.01324662
-0.04817520 -0.42809847 0.00000000
-0.22492342 0.18292221 0.00000586
-0.21366005 0.29085928 0.00000440
-0.74338901 -0.65510243 -0.00000036
-0.14034532 -0.60074371 0.00000000
-0.05031053 -0.67549342 0.00000000
-0.15787327 -0.53435862 0.00000000
-0.41599169 -0.38651997 0.00000000
-0.03275497 0.64312333 0.10081102
-0.23851500 -0.48670614 0.00000000
-0.38574895 0.16971752 0.00000312
-0.74158418 -0.37620208 -0.00000106
-0.32404563 0.27466562 0.00000255
-0.15275054 -0.74723160 0.00000000
-0.68688017 -0.65269291 -0.00000036
-0.08200466 0.67705756 0.00000048
-0.08653452 0.21617343 0.00000745
-0.06547011 0.48498544 0.00000374
-0.20771404 0.53244185 0.00000048
-0.33773085 -0.19786416 0.00000000
-0.19890559 -0.09525497 0.00000000
-0.06275549 0.06008095 0.00001015
-0.09856110 -0.03460768 0.00000000
-0.21339124 0.25546888 0.00000495
-0.08364855 -0.06985061 0.00000000
-0.78811002 -0.78842592 -0.00000003
-0.09888768 0.30094942 0.30434832
-0.03576034 0.09591564 0.11003436
-0.73807979 0.02740422 -0.00000127
-0.04516241 -0.58960849 0.00000000
-0.00339121 -0.10222698 0.00000000
-0.30186531 -0.07929302 0.00000000
-0.46010858 -0.09940946 -0.00000037
-0.07083763 0.53448385 0.00000291
-0.11771041 0.04914093 0.00000949
-0.42621768 -0.04022317 -0.00000033
-0.63831419 0.09839797 -0.00000054
-0.63882411 -0.56494671 -0.00000031
-0.60095543 -0.07980918 -0.00000101
-0.19491708 -0.48058441 0.00000000
-0.45416984 -0.46453860 0.00000000
-0.70814210 -0.50412565 -0.00000072
-0.19410884 -0.74487275 0.00000000
-0.32011324 -0.03685036 0.00000000
-0.39431989 0.38587412 -0.00000065
-0.59103161 0.05190049 0.00000115
-0.00357767 0.05162168 0.01097639
-0.10770142 -0.65104228 0.00000000
-0.75588781 -0.18296860 -0.00000149
-0.23178272 0.23840228 0.00000493
-0.24841575 0.15077251 0.00000599
-0.31039998 -0.35860232 0.00000000
-0.07087012 0.04597874 0.21809730
-0.09136320 0.57977414 0.00000192
-0.63291991 0.12708354 -0.00000091
-0.42624280 0.31056979 -0.00000001
-0.72205049 -0.71927261 -0.00000020
-0.22862898 -0.12296905 0.00000000
-0.09831568 -0.61358905 0.30259565
-0.59872270 -0.58303589 -0.00000011
-0.15156783 -0.23579240 0.00000000
-0.31296355 -0.71927661 0.00000000
-0.12345326 -0.02968104 0.37996477
-0.44685704 -0.69172460 0.00000000
-0.74222505 -0.24421898 -0.00000132
-0.77209347 -0.44705147 -0.00000088
-0.55619901 -0.73594213 0.00000000
-0.48985112 0.23619045 0.00000001
-0.66120601 -0.59647614 -0.00000035
-0.13031869 -0.20169315 0.00000000
-0.33267838 0.06278147 0.00000593
-0.63157600 -0.19649224 -0.00000093
-0.69702828 -0.79509032 -0.00000001
-0.35858384 0.05072468 0.00000563
-0.78477418 -0.53630835 -0.00000066
-0.08341516 -0.15050863 0.25673488
-0.22558631 -0.49470386 0.00000000
-0.77282178 -0.21967985 -0.00000145
-0.07386617 -0.08115557 0.00000000
-0.46911454 0.20681345 0.00000090
-0.60500848 -0.45620319 -0.00000036
-0.02765090 0.31085008 0.00000692
-0.15935698 -0.38183615 0.00000000
-0.39473161 -0.77564812 0.00000000
-0.23807724 -0.07558435 0.73275888
-0.26493624 -0.32811737 0.00000000
-0.15670829 0.25044250 0.00000588
-0.08101355 -0.15754446 0.00000000
-0.61704785 -0.76139951 0.00000000
-0.63288760 -0.63580400 -0.00000016
-0.36502194 -0.69243830 0.00000000
-0.15429451 0.27031499 0.00000562
-0.12484956 -0.27817109 0.00000000
-0.34258273 -0.67541558 0.00000000
-0.39126688 0.12255147 0.00000380
-0.27570435 0.34512973 0.00000230
-0.20696935 0.13308629 0.00000688
-0.06783753 0.39303660 0.00000508
-0.44483662 -0.18455757 -0.00000016
-0.59661001 -0.66656059 0.00000000
-0.32183924 -0.32676309 0.00000000
-0.12110347 -0.14946400 0.00000000
-0.50682634 -0.76642632 0.00000000
-0.13803379 -0.68452078 0.42483991
-0.11487560 0.58135808 0.00000145
-0.22255535 -0.05976762 0.00000000
-0.41542828 -0.58902794 0.00000000
-0.01580628 0.76669639 0.00000025
-0.14049803 0.13873123 0.00000780
-0.49864417 -0.06745723 -0.00000059
-0.49147630 -0.64063919 0.00000000
-0.27231419 0.34820965 0.00000232
-0.37109932 -0.02494597 -0.00000013
-0.63549584 -0.65783745 -0.00000014
-0.19551203 -0.40824270 0.00000000
-0.69337934 -0.34981942 -0.00000093
-0.08032007 -0.46618998 0.24720882
-0.21635245 -0.24272802 0.00000000
-0.76604009 -0.41822544 -0.00000095
-0.55624616 -0.09259065 -0.00000080
-0.35596499 -0.30925617 0.00000000
-0.69609928 -0.19225830 -0.00000122
-0.43736243 -0.45110068 0.00000000
-0.06137978 -0.11055262 0.18891446
-0.64253443 -0.67370182 -0.00000014
-0.15446153 0.08691599 0.00000837
-0.59133464 -0.19442798 -0.00000077
-0.21864654 -0.36208823 0.67295265
-0.31613505 0.23325659 0.00000340
-0.08844697 -0.36076489 0.00000000
-0.33305982 -0.61691046 0.00000000
-0.31787878 -0.43513340 0.00000000
-0.63058180 -0.11710458 -0.00000107
-0.41913295 0.10342432 0.00000359
-0.04182775 0.28488284 0.12871835
-0.53641921 0.19033530 -0.00000012
-0.67207384 -0.74252105 -0.00000014
-0.68457198 -0.39496496 -0.00000081
-0.22454856 -0.58855218 0.00000000
-0.23473310 0.00524241 0.00000838
-0.00432687 -0.18643948 0.00000000
-0.31900817 -0.35122126 0.00000000
-0.58062077 -0.46727034 -0.00000024
-0.02763925 -0.58192366 0.00000000
-0.09363316 -0.29351318 0.28818381
-0.00251966 -0.79892981 0.00000000
-0.73082769 -0.39978603 -0.00000100
-0.21320783 -0.12971568 0.65621448
-0.56622523 -0.06689709 -0.00000088
-0.52420747 -0.30146137 -0.00000029
-0.56576294 -0.05493708 -0.00000090
-0.59327435 0.15588365 -0.00000063
-0.34243688 -0.14534619 0.00000000
-0.10123036 -0.63065714 0.31156644
-0.35942325 -0.18716519 0.00000000
-0.03052859 0.14160365 0.00000942
-0.14377265 -0.77825052 0.00000000
-0.21034367 -0.47585186 0.64739710
-0.44367772 0.20169128 0.00000147
-0.36133161 -0.24925175 0.00000000
-0.21544269 -0.21145520 0.00000000
-0.39311680 0.37238014 -0.00000041
-0.69626790 -0.70893806 -0.00000023
-0.47305724 0.23755425 0.00000031
-0.45850006 0.32055724 -0.00000080
-0.37711766 -0.05955713 -0.00000009
-0.19307755 -0.26763356 0.00000000
-0.41407731 0.36234435 -0.00000064
-0.57962203 -0.36793771 -0.00000041
-0.19793691 -0.45322794 0.00000000
-0.09335696 -0.29089752 0.00000000
-0.00379710 -0.62455624 0.00000000
-0.15158354 -0.25731027 0.00000000
-0.20088907 -0.37898928 0.61829787
-0.14766344 -0.15967533 0.45447913
-0.58443522 -0.04154202 -0.00000101
-0.60067624 0.04128778 0.00000114
-0.60314268 -0.74880350 0.00000000
-0.04539816 0.17244425 0.13970248
-0.18106174 -0.21171837 0.00000000
-0.75993085 -0.78992319 -0.00000003
-0.18416074 -0.74806517 0.00000000
-0.24359912 0.21215554 0.00000514
-0.39845544 -0.61765438 0.00000000
-0.05108847 -0.57566750 0.15723991
-0.23374616 0.42111921 0.00000184
-0.10046052 -0.76793385 0.30919704
-0.05225968 -0.41164464 0.16084465
-0.11395351 -0.55313927 0.00000000
-0.21148963 -0.54085022 0.00000000
-0.40396404 0.16893762 0.00000278
-0.11531307 0.31029889 0.00000561
-0.47401744 0.22476174 0.00000051
-0.69763404 -0.61140913 -0.00000047
-0.37180990 -0.45817268 0.00000000
-0.40911591 0.23214318 0.00000163
-0.29685053 -0.61493880 0.00000000
-0.15041710 0.20969188 0.00000658
-0.44726369 0.19286019 0.00000155
-0.11770632 0.03661915 0.00000967
-0.41981697 -0.14004821 -0.00000013
-0.38424876 0.32440299 0.00000057
-0.19520183 -0.04924891 0.00000000
-0.76607519 -0.14918830 -0.00000159
-0.43636265 -0.25461611 0.00000000
-0.41306719 0.29524189 0.00000050
-0.02235109 0.25512165 0.00000784
-0.25885037 0.03043467 0.00000764
-0.17955022 0.07952457 0.55261558
-0.40207836 -0.79908693 0.00000000
-0.11929163 -0.63086653 0.00000000
-0.18416844 -0.68483746 0.00000000
-0.02329877 -0.79092193 0.07170887
-0.52374762 -0.09746840 -0.00000065
-0.23720205 0.44654566 0.00000135
-0.05397530 0.10930756 0.00000955
-0.66742241 0.00743502 0.00000042
-0.37643880 -0.01910551 -0.00000016
-0.29559621 -0.13135667 0.00000000
-0.36445215 -0.40485129 0.00000000
-0.58814979 -0.50733638 -0.00000020
-0.41602674 -0.14649469 -0.00000010
-0.76912010 -0.16891512 -0.00000157
-0.51198250 -0.07435162 -0.00000064
-0.51373333 -0.46076757 0.00000000
-0.16167970 0.33817586 0.00000449
-0.26817060 -0.70748895 0.00000000
-0.68615568 -0.20512389 -0.00000115
-0.02667071 -0.04078517 0.00000000
-0.71153665 0.08536992 -0.00000177
-0.32585633 0.40385956 0.00000036
-0.46408689 -0.48463160 0.00000000
-0.59422427 -0.66833538 0.00000000
-0.42528936 0.08342746 0.00000380
-0.24765949 -0.28909099 0.00000000
-0.59023875 -0.40869847 -0.00000038
-0.33512762 -0.46335554 0.00000000
-0.13191947 0.51560503 0.00000222
-0.31827611 -0.08737854 0.00000000
-0.76887667 -0.38092464 -0.00000105
-0.56763440 -0.07609322 -0.00000087
-0.09462349 -0.79881769 0.29123184
-0.06177433 0.48706162 0.00000376
-0.01689215 0.58727467 0.00000294
-0.62816322 -0.40443438 -0.00000055
-0.58701253 -0.38565397 -0.00000041
-0.70371312 0.00470817 -0.00000023
-0.32665503 -0.46024892 0.00000000
-0.31801343 -0.19696487 0.00000000
-0.24105290 0.55781829 -0.00000058
-0.34680146 0.09376272 0.00000514
-0.61327845 -0.26674157 -0.00000073
-0.44120359 -0.15217689 -0.00000020
-0.54805624 -0.12280919 -0.00000071
-0.13084215 0.25523460 0.40270185
-0.75285137 -0.64039767 -0.00000040
-0.75472975 -0.59369910 -0.00000052
-0.65462548 -0.61745447 -0.00000029
-0.62167633 0.12769321 -0.00000071
-0.04414323 -0.14664494 0.00000000
-0.22753046 0.45469442 0.00000140
-0.61565685 -0.56757551 -0.00000021
-0.54978424 -0.52750081 0.00000000
-0.41370678 -0.11143888 -0.00000015
-0.52100867 0.06682463 0.00000224
-0.27111527 -0.62375790 0.00000000
-0.37438586 -0.39306700 0.00000000
-0.01218264 0.29689473 0.03747346
-0.51401770 -0.08493310 -0.00000063
-0.47892666 -0.04728471 -0.00000055
-0.70558000 -0.78914559 -0.00000003
-0.77827907 -0.38646731 -0.00000103
-0.08017521 0.29483065 0.00000637
-0.09152290 0.19014041 0.00000777
-0.75068116 -0.03475660 -0.00000173
-0.65112495 -0.28596413 -0.00000086
-0.31278914 -0.45848069 0.00000000
-0.69165438 -0.45190808 -0.00000074
-0.50262082 0.06626136 0.00000260
-0.70130605 -0.46519914 -0.00000076
-0.09086787 -0.11090828 0.00000000
-0.66286314 0.12784044 -0.00000150
-0.24065816 0.18761133 0.00000555
-0.17566767 -0.56418145 0.00000000
-0.16326523 -0.66702259 0.50249714
-0.42331022 0.24706778 0.00000111
-0.24505585 -0.35760626 0.00000000
-0.21416068 -0.26280239 0.00000000
-0.42229894 -0.17016484 -0.00000009
-0.18035156 0.56999159 0.00000038
-0.16342025 0.53678358 0.00000126
-0.24547908 0.31656000 0.00000336
-0.07437092 -0.22866704 0.22889856
-0.59608209 -0.24627584 -0.00000069
-0.41224313 -0.01191620 -0.00000032
-0.14055865 -0.63415605 0.00000000
-0.21339869 -0.25512776 0.65680122
-0.38257489 0.05600610 0.00000508
-0.43767393 -0.68033475 0.00000000
-0.50570619 -0.23826228 -0.00000032
-0.05443616 -0.08132638 0.00000000
-0.07068530 0.72478569 -0.00000017
-0.29020396 0.46614188 0.00000000
-0.43853354 0.05246975 0.00000407
-0.18445882 0.06312737 0.00000827
-0.45218039 0.12290926 0.00000263
-0.25571412 -0.74092031 0.00000000
-0.43896317 -0.08075831 -0.00000032
-0.48221776 -0.43050885 0.00000000
-0.37915844 -0.13668548 0.00000000
-0.66212785 0.06621182 -0.00000046
-0.33220479 0.03558259 0.00000639
-0.07410525 0.32992378 0.00000593
-0.42771670 -0.34214327 0.00000000
-0.79284298 -0.36459371 -0.00000109
-0.51378578 -0.07263459 -0.00000065
-0.58671093 0.20518295 -0.00000133
-0.61988491 -0.48164588 -0.00000038
-0.58012795 -0.29182595 -0.00000055
-0.13753989 0.27373004 0.00000582
-0.62281591 -0.18221577 -0.00000092
-0.19477713 -0.54264975 0.00000000
-0.06095357 -0.08026083 0.00000000
-0.18752490 -0.44057170 0.00000000
-0.49820101 0.08630248 0.00000235
-0.54152119 0.02175144 0.00000260
-0.02842144 0.39535636 0.00000564
-0.03958517 -0.53431505 0.00000000
-0.62459981 -0.52141458 -0.00000033
-0.14462094 -0.42180470 0.00000000
-0.05911907 -0.32914659 0.18195647
-0.65862429 -0.78094018 -0.00000002
-0.02241105 0.52588707 0.00000377
-0.47866508 -0.07788327 -0.00000049
-0.13856398 -0.36884820 0.00000000
-0.06996979 0.34274462 0.21534117
-0.09622965 -0.07012781 0.29617527
-0.51606971 -0.26655731 -0.00000032
-0.15752761 0.45938176 0.00000266
-0.41042328 -0.58957487 0.00000000
-0.10232248 0.16071454 0.00000805
-0.16342549 -0.70987868 0.00000000
-0.08806027 0.32961985 0.00000573
-0.66908115 -0.42098722 -0.00000070
-0.13811654 0.53103483 0.00000184
-0.47850990 0.20314313 0.00000078
-0.13027319 0.42128983 0.00000371
-0.53325915 0.05872074 0.00000214
-0.61593610 -0.35417950 -0.00000059
-0.05579307 0.48233643 0.00000392
-0.74998450 -0.67379200 -0.00000032
-0.18189384 -0.43609837 0.00000000
-0.21747883 -0.15694521 0.00000000
-0.34795672 -0.38950771 0.00000000
-0.62321216 -0.47742072 -0.00000040
-0.08847979 -0.10862120 0.27232277
-0.01560210 -0.29282072 0.00000000
-0.05711437 -0.40001422 0.00000000
-0.38902324 0.03107215 0.00000537
-0.03084776 0.14279298 0.09491602
-0.55220258 -0.09676948 -0.00000077
-0.76966667 -0.49338189 -0.00000077
-0.19616212 -0.42928770 0.60374880
-0.03926428 -0.06765286 0.00000000
-0.07088655 -0.09270126 0.00000000
-0.38653058 -0.22626616 0.00000000
-0.12517011 0.46847543 0.00000308
-0.48722750 -0.19740131 -0.00000032
-0.47605228 0.03549964 0.00000363
-0.52623093 -0.55927300 0.00000000
-0.23695149 -0.56813890 0.00000000
-0.68512678 -0.26118004 -0.00000105
-0.17238015 -0.69041598 0.00000000
-0.00852977 -0.03630850 0.00000000
-0.09467671 -0.30980822 0.00000000
-0.47951385 0.15502499 0.00000157
-0.15400141 -0.18465377 0.00000000
-0.36345586 -0.62430638 0.00000000
-0.35191768 0.02486696 0.00000619
-0.51229256 -0.53094149 0.00000000
-0.69393843 -0.13544156 -0.00000131
-0.37502182 0.07594393 0.00000489
-0.07630734 -0.76796520 0.00000000
-0.54408622 -0.79977387 0.00000000
-0.42230231 0.15837106 0.00000261
-0.32490379 -0.52362025 0.00000000
-0.79124117 -0.43361241 -0.00000092
-0.08868568 -0.37266076 0.27295646
-0.17922771 -0.36273599 0.55162776
-0.01387048 0.08629553 0.00001050
-0.46696982 -0.78512400 0.00000000
-0.43161488 -0.43607113 0.00000000
-0.68384367 0.06377838 -0.00000083
-0.30357426 0.27327180 0.00000297
-0.66276056 0.06512311 -0.00000045
-0.71706325 -0.37821445 -0.00000098
-0.14798295 -0.63858569 0.00000000
-0.72812390 -0.67228943 -0.00000032
-0.71126729 -0.10046367 -0.00000144
-0.41476804 0.08539203 0.00000397
-0.37247497 -0.51217687 0.00000000
-0.15805569 0.12852427 0.48645806
-0.06518338 -0.59733969 0.20062117
-0.67868674 -0.60306156 -0.00000042
-0.49107307 -0.09981259 -0.00000051
-0.10250166 0.37329492 0.00000485
-0.38898611 0.05335910 0.00000500
-0.20659226 -0.18375462 0.63585252
-0.13037929 -0.33889285 0.00000000
-0.21075818 -0.74347192 0.00000000
-0.09229395 0.69609112 -0.00000004
-0.00623080 0.00771127 0.01914045
-0.54697722 0.15139271 0.00000033
-0.09365946 -0.44406787 0.28826475
-0.24516860 -0.21645901 0.00000000
-0.70517355 -0.00418564 -0.00000159
-0.11147145 -0.40099332 0.00000000
-0.10995736 0.03189842 0.00000986
-0.53638637 -0.53139251 0.00000000
-0.57561153 -0.57317609 -0.00000003
-0.07806459 0.30252993 0.24025472
-0.32891521 0.17530786 0.00000412
-0.54205537 0.24577518 -0.00000115
-0.59217823 -0.50978440 -0.00000021
-0.61022103 -0.32480296 -0.00000062
-0.14246361 -0.20144042 0.43847463
-0.28705734 -0.22714932 0.00000000
-0.23359045 -0.34925878 0.71894753
-0.27230409 -0.54859495 0.00000000
-0.05154320 -0.35785398 0.00000000
-0.13124309 0.15944031 0.40393040
-0.31638417 0.39645872 0.00000066
-0.64843059 -0.66885287 -0.00000017
-0.37692085 -0.21907668 0.00000000
-0.16386276 -0.17589208 0.50433797
-0.08580273 -0.55648375 0.26408333
-0.40315115 -0.57049000 0.00000000
-0.17284638 -0.70120692 0.00000000
-0.16683900 0.55064023 0.00000096
-0.11454275 -0.71435136 0.00000000
-0.64791954 -0.56403315 -0.00000035
-0.47809887 -0.18759887 -0.00000029
-0.22434536 0.41462523 0.00000213
-0.00772807 -0.62886602 0.00000000
-0.46192020 0.28605488 -0.00000029
-0.06763525 -0.52374882 0.20816754
-0.18473028 -0.65035754 0.00000000
-0.30010742 -0.19128226 0.00000000
-0.19125086 -0.53217882 0.00000000
-0.70262474 -0.42620814 -0.00000083
-0.72370982 -0.78361362 -0.00000004
-0.11113443 0.01357433 0.00001012
-0.25637865 -0.04647796 0.00000000
-0.01792124 0.43729329 0.00000517
-0.76641256 -0.71122545 -0.00000022
-0.02731506 -0.36256766 0.08407019
-0.21164000 -0.40489250 0.65138739
-0.16960229 -0.07672715 0.00000000
-0.34418097 -0.29958656 0.00000000
-0.03425279 -0.03998403 0.00000000
-0.11385645 0.46044233 0.00000338
-0.62489736 -0.58338588 -0.00000022
-0.15189345 -0.64214009 0.00000000
-0.16217864 -0.19234022 0.00000000
-0.52267641 -0.43637645 -0.00000005
-0.48093611 0.05153971 0.00000327
-0.18481828 -0.58549511 0.00000000
-0.34238687 -0.22291696 0.00000000
-0.24197567 -0.59499270 0.00000000
-0.08120593 0.53457135 0.00000276
-0.17852543 0.18641098 0.54946750
-0.33035967 -0.17258099 0.00000000
-0.42011014 0.16492920 0.00000254
-0.19385894 -0.53657073 0.00000000
-0.09974620 0.13808385 0.00000842
-0.01563593 -0.12646571 0.04812421
-0.30747917 0.02814819 0.00000694
-0.15094130 -0.63090849 0.00000000
-0.13847387 0.65539962 -0.00000024
-0.43953523 -0.49026525 0.00000000
-0.24720053 0.53177053 -0.00000027
-0.61245215 0.13008210 -0.00000057
-0.11288455 0.22715056 0.00000689
-0.40639853 -0.69267356 0.00000000
-0.00004598 0.13907094 0.00000991
-0.40753749 0.30695549 0.00000041
-0.19960570 -0.18878476 0.00000000
-0.11731284 -0.65017927 0.00000000
-0.39054784 0.40845993 -0.00000096
-0.07149973 -0.34200805 0.00000000
-0.14389867 0.27928126 0.00000564
-0.79673356 -0.46787533 -0.00000083
-0.38497517 0.34726584 0.00000017
-0.59253186 -0.69142616 0.00000000
-0.36932635 -0.12856629 0.00000000
-0.27807596 -0.79125720 0.00000000
-0.18270351 -0.32762209 0.00000000
-0.70368785 -0.62755173 -0.00000043
-0.47835949 -0.63161314 0.00000000
-0.07231569 -0.16577430 0.22257298
-0.73747200 -0.20664498 -0.00000137
-0.13445044 -0.35450572 0.00000000
-0.66231066 -0.31744191 -0.00000085
-0.62540954 0.14872128 -0.00000113
-0.50483793 -0.23561385 -0.00000032
-0.60739774 -0.02435009 -0.00000113
-0.56495297 -0.56748027 0.00000000
-0.40137726 -0.06429766 -0.00000019
-0.74112964 -0.06841189 -0.00000163
-0.05528713 0.14588179 0.17013875
-0.03441519 0.66668367 0.00000148
-0.01729784 0.59390503 0.00000283
-0.08460300 0.39916077 0.00000474
-0.39854592 -0.57720023 0.00000000
-0.43577787 0.18362309 0.00000193
-0.59573382 -0.49242163 -0.00000026
-0.22455645 -0.25556791 0.00000000
-0.64291173 -0.33836108 -0.00000073
-0.06601943 0.48568222 0.00000372
-0.43343180 -0.60327661 0.00000000
-0.04118154 0.52304626 0.12674111
-0.35257527 0.02863222 0.00000611
-0.63227564 -0.49315438 -0.00000041
-0.57334596 -0.19668125 -0.00000069
-0.51056278 -0.33790651 -0.00000017
-0.29521081 -0.40376320 0.00000000
-0.20682707 -0.60420328 0.00000000
-0.59877849 -0.63050139 -0.00000003
-0.02327487 -0.25452688 0.07163531
-0.08201010 0.15585500 0.00000842
-0.61992484 -0.74685568 0.00000000
-0.08320132 -0.32733613 0.25607672
-0.31328049 0.30891052 0.00000219
-0.30426082 -0.73996848 0.00000000
-0.42453909 0.09802767 0.00000357
-0.14303866 -0.73925620 0.00000000
-0.56805986 0.05826838 0.00000148
-0.05969228 0.71612042 0.00000025
-0.49148965 -0.43871951 0.00000000
-0.04112959 0.08976433 0.12656023
-0.59135550 -0.17385431 -0.00000080
-0.62566561 -0.06597068 -0.00000114
-0.63982350 -0.77158582 0.00000000
-0.71825939 -0.59375191 -0.00000052
-0.11572415 0.53284496 0.00000224
-0.00584322 0.72481608 0.01798144
-0.43547478 0.31553900 -0.00000027
-0.63518715 -0.27689680 -0.00000081
-0.44450706 -0.05515850 -0.00000039
-0.10078204 -0.32769433 0.31018659
-0.58744943 -0.54205698 -0.00000013
-0.24436451 0.18787529 0.00000549
-0.65868610 -0.24845393 -0.00000096
-0.59796602 -0.14686006 -0.00000088
-0.63175762 0.04217087 0.00000053
-0.15421116 -0.61004835 0.00000000
-0.00984633 0.03489609 0.00001133
-0.30189103 0.48580509 -0.00000055
-0.13724945 0.24449067 0.00000626
-0.45989928 -0.35928258 0.00000000
-0.12014869 -0.59129477 0.36979321
-0.08457462 0.25989604 0.00000683
-0.07843840 -0.61520672 0.00000000
-0.02773800 0.02585408 0.00001119
-0.50534064 -0.13902041 -0.00000050
-0.54966575 -0.38125661 -0.00000026
