ply
format ascii 1.0
element vertex 1366
property float x
property float y
property float z
end_header
-0.35776132 -0.56371093 0.00000329
-0.05125561 -0.18106404 0.00000193
-0.62669474 -0.71298569 0.07405300
-0.04378836 -0.36131144 0.00000143
-0.22047783 0.26770642 0.21916343
-0.23392139 0.23525383 0.18648684
-0.08855149 -0.77682036 0.00000073
-0.02222333 0.62954950 0.00000530
-0.71550357 -0.70783120 -0.10752657
-0.20755944 0.08606719 0.00000738
-0.60531318 -0.66136688 0.08420661
-0.52212989 -0.68627882 0.00000422
-0.62815231 -0.26810011 -0.21962233
-0.18910000 0.34347528 0.00610459
-0.16556615 0.40027747 0.16619509
-0.12674426 0.37619573 0.00000594
-0.68226808 -0.53704518 -0.15188009
-0.13748790 0.46807531 0.01800850
-0.56338716 -0.12754679 -0.21188213
-0.69993436 -0.60399115 -0.13997892
-0.52779108 -0.68727309 0.00000426
-0.27045667 0.14705959 0.07939443
-0.20463313 0.37834811 -0.03544359
-0.07231352 0.28410974 0.00000785
-0.23988570 0.02951110 0.00000736
-0.36402193 -0.26327205 0.00000409
-0.12590784 0.21879242 0.00000753
-0.53084731 -0.63044548 0.00000443
-0.31105065 0.19510879 -0.07152930
-0.16205201 -0.75730532 0.00000133
-0.24633703 0.20529181 0.04192694
-0.32693925 0.07625540 -0.03209941
-0.52618676 -0.58585143 0.00000451
-0.54484415 -0.23952968 -0.13510326
-0.36672977 0.14891791 -0.11474618
-0.52431172 -0.46581304 0.12527914
-0.01077242 -0.42846459 0.00000101
-0.40633318 -0.07243506 -0.05315776
-0.65834260 -0.33910376 -0.22054380
-0.17032152 -0.27633688 0.00000259
-0.37817970 -0.56855589 0.00000343
-0.03950464 0.58715290 0.00000541
-0.08920526 -0.50893366 0.00000140
-0.45303690 -0.38766167 0.00000445
-0.31894791 0.02999523 0.05047604
-0.55398798 -0.70007282 0.00000443
-0.22659121 0.25296038 0.05946630
-0.08140787 -0.63429570 0.00000103
-0.49037805 -0.66917419 0.00000403
-0.45634976 -0.77623326 0.00000350
-0.08017679 -0.37877691 0.00000166
-0.00031070 -0.63955587 0.00000040
-0.35456887 -0.59250706 0.00000319
-0.36688417 -0.08574767 0.25053337
-0.66192019 -0.79802531 0.01587461
-0.03000708 -0.59737515 0.00000073
-0.18358101 -0.39203712 0.00000240
-0.63070101 -0.24455278 -0.23417020
-0.20558622 0.32698581 -0.01141148
-0.45854914 -0.30704907 0.16181293
-0.09597830 -0.62338024 0.00000117
-0.42256877 0.07631491 -0.14521448
-0.53657186 -0.29142946 -0.09989960
-0.44544196 -0.71472853 0.00000357
-0.21076623 0.38090155 -0.04394701
-0.19029003 0.18067414 0.00000675
-0.27586561 0.16471429 -0.01503317
-0.21829090 0.35773665 -0.04149821
-0.14573988 0.44814444 0.13159910
-0.13511284 -0.34851637 0.00000215
-0.24074708 0.21878657 0.04686634
-0.47321290 -0.52672493 0.00000425
-0.62665182 -0.35643375 -0.17458043
-0.47943714 -0.35748333 0.34370995
-0.02468661 0.70212072 0.00000453
-0.32884961 0.00607159 0.28921244
-0.43446538 -0.14820164 -0.04931264
-0.47069356 -0.17723487 -0.07793208
-0.38940594 -0.08406910 -0.02744240
-0.44465443 0.18785110 -0.22596630
-0.36061594 -0.58368433 0.00000326
-0.00929592 0.76063395 0.00000423
-0.42718562 -0.23133168 0.18799847
-0.54532969 -0.07329154 -0.21710417
-0.39317465 -0.57350779 0.00000353
-0.15301140 0.58929110 -0.07772648
-0.36721516 -0.08655214 0.31858346
-0.02939979 -0.72993279 0.00000040
-0.67595834 -0.27732959 -0.27163252
-0.31850088 0.12224665 -0.04464893
-0.28042984 0.25212350 -0.06324684
-0.28976810 0.27690461 -0.08642846
-0.67980593 -0.35379800 -0.23872651
-0.28328714 -0.32635173 0.00000332
-0.53223860 -0.34206200 -0.06997463
-0.60782963 -0.31739679 -0.17144395
-0.61986935 -0.20319441 -0.24161969
-0.60356206 -0.37643826 -0.13747779
-0.47100317 0.07249750 -0.20062029
-0.01757577 -0.74975079 0.00000026
-0.41742650 -0.20778000 0.40167242
-0.41071960 -0.19158521 0.33365229
-0.40369508 -0.00095282 -0.08504692
-0.52359003 -0.31527987 -0.07286595
-0.21336678 -0.04611810 0.00000349
-0.20608401 0.20726673 0.00000620
-0.60541266 -0.31786975 -0.16835412
-0.39944598 -0.16436020 0.14546205
-0.30434567 0.34968549 -0.13931786
-0.07717276 -0.40234959 0.00000158
-0.34155366 -0.60528165 0.00000306
-0.42499632 -0.43438724 0.00000412
-0.57279891 -0.70568079 0.00000456
-0.63827926 -0.74095249 0.07069618
-0.02968703 -0.24355666 0.00000162
-0.60630047 -0.02535864 -0.31268144
-0.13505749 0.55233979 -0.03839511
-0.57044089 -0.35070699 -0.11091505
-0.20291826 -0.00981042 0.00000351
-0.44736892 0.02357479 -0.14870761
-0.27637038 0.24308364 -0.05401829
-0.04542227 0.31652659 0.00000801
-0.22422060 -0.54941267 0.00000232
-0.14249980 -0.70356864 0.00000132
-0.63538462 -0.43623462 -0.14581911
-0.56222659 -0.25199679 -0.14955167
-0.02206414 0.20445819 0.00000956
-0.44933870 0.12923796 -0.20279475
-0.52634448 0.00001930 -0.23056115
-0.25547317 0.35465923 -0.08396038
-0.12932861 0.58540720 -0.04781811
-0.37836426 -0.06067208 -0.02584574
-0.37686226 -0.10984005 0.19308259
-0.59604985 -0.13265689 -0.24800332
-0.22954614 0.24582440 0.08773562
-0.36171257 -0.03036751 -0.02099858
-0.66383529 -0.57603991 -0.11098299
-0.09260081 -0.73005503 0.00000087
-0.01102786 0.62725800 0.00000553
-0.69427270 -0.75691283 -0.05838007
-0.27053756 0.23855631 -0.04490311
-0.07397945 -0.71263063 0.00000078
-0.40309122 0.14829107 -0.15743805
-0.06772706 0.21807145 0.00000859
-0.15226334 -0.24119912 0.00000255
-0.55797464 0.05114934 -0.29301056
-0.62566501 -0.66261947 -0.02343777
-0.34418717 -0.72223783 0.00000279
-0.57936579 -0.54677176 -0.02543251
-0.49712482 -0.17376909 -0.11088513
-0.65473509 -0.19994587 -0.28444013
-0.26432031 -0.30796924 0.00000322
-0.53651047 -0.49526283 0.10853495
-0.29441193 0.18841518 -0.04857454
-0.10126310 0.41613251 0.00000601
-0.39416388 0.18533070 -0.16502450
-0.01437806 0.31488678 0.00000859
-0.39829585 0.23907477 -0.19623661
-0.11676642 -0.19608901 0.00000239
-0.49589184 0.11653577 -0.25162375
-0.55923057 -0.77745873 0.00000428
-0.57408237 -0.02397878 -0.27525806
-0.01474613 0.41132250 0.00000762
-0.49484941 -0.12844902 -0.13039306
-0.17618398 -0.12640937 0.00000301
-0.48633295 -0.16139263 -0.10418577
-0.34064335 -0.02239170 0.00819353
-0.14522915 0.44938791 0.00095131
-0.49482623 -0.39463320 0.23675931
-0.08031010 0.11340614 0.00000941
-0.31391233 -0.68892610 0.00000265
-0.70177007 -0.68342137 -0.10324319
-0.07882954 -0.18324116 0.00000214
-0.30959222 0.27450028 -0.10869358
-0.39481878 0.04974055 -0.09938185
-0.56793344 -0.06741020 -0.24671432
-0.30318111 0.35729003 -0.14166570
-0.23200715 -0.71601117 0.00000196
-0.01312160 0.44323811 0.00000733
-0.16483448 -0.35187095 0.00000236
-0.20464531 0.30594242 0.05205179
-0.24515624 -0.71652269 0.00000206
-0.13977855 -0.73468941 0.00000122
-0.25012544 -0.54483557 0.00000252
-0.63614196 -0.73579180 0.02296462
-0.28968683 0.37126723 -0.13255467
-0.06755112 0.42979786 0.00000648
-0.39538926 -0.66054744 0.00000333
-0.15831833 -0.68258268 0.00000149
-0.06415969 -0.42276597 0.00000143
-0.69738299 -0.45994130 -0.20752034
-0.43650508 -0.25383285 0.23364092
-0.69675624 -0.51239824 -0.18108475
-0.20881078 -0.12828918 0.00000325
-0.47540903 -0.34774917 0.08079747
-0.39584014 -0.44506338 0.00000387
-0.18406089 -0.17353234 0.00000295
-0.44143891 -0.44869894 0.00000421
-0.19730237 0.35687196 -0.01625484
-0.37319738 -0.37947142 0.00000387
-0.46780354 0.11140466 -0.21589474
-0.17404580 0.37981185 0.09362989
-0.20960400 0.29396123 0.17707720
-0.31562504 0.03800087 0.25507072
-0.18469761 0.52885824 -0.08559452
-0.15470707 -0.62940598 0.00000159
-0.08757287 0.27403200 0.00000767
-0.41982952 -0.74497050 0.00000330
-0.42421979 -0.37757671 0.00000426
-0.42188731 -0.21854681 0.34077871
-0.13321085 -0.61847633 0.00000146
-0.58262312 -0.07400727 -0.26085377
-0.29887763 -0.13236108 0.00000392
-0.42790073 -0.35120079 0.00000435
-0.35041654 -0.52220315 0.00000334
-0.28625858 0.10891404 0.04025864
-0.45782694 -0.30530390 0.12335229
-0.28260958 -0.06665629 0.00000397
-0.32041845 0.02644309 0.07519749
-0.35878336 -0.06618670 0.03037319
-0.12387670 -0.56370652 0.00000153
-0.41946009 0.03119752 -0.11943815
-0.63059205 -0.24644105 -0.23311640
-0.67273140 -0.79066628 -0.01637449
-0.65142298 -0.15385149 -0.30310148
-0.36590666 0.05794608 -0.06921142
-0.59733754 -0.52927661 -0.05525395
-0.44655430 -0.27809364 0.22704583
-0.11327840 -0.22230992 0.00000230
-0.56513768 -0.72817761 0.00000444
-0.57307786 -0.58354634 0.21890284
-0.30858549 0.05500034 0.19599603
-0.24605808 0.35046691 -0.07077308
-0.45255831 0.03134151 -0.15864873
-0.03415157 0.58420956 0.00000554
-0.06703506 0.15640688 0.00000922
-0.52132636 -0.67760259 0.00000424
-0.26475140 0.26196933 -0.04952930
-0.22719663 -0.73733342 0.00000187
-0.50582546 -0.42117926 0.03510323
-0.26720062 0.29604787 -0.06911853
-0.19239682 -0.08440416 0.00000324
-0.22675245 -0.27368304 0.00000303
-0.15851599 0.03927519 0.00000874
-0.18896845 -0.22135115 0.00000287
-0.68178648 -0.54482418 -0.14750023
-0.04762014 -0.62325132 0.00000080
-0.36495361 -0.74336839 0.00000289
-0.34130228 -0.56005299 0.00000317
-0.55333227 -0.38476491 -0.07400157
-0.25883266 0.43023363 -0.12495228
-0.67957830 -0.45730573 -0.18775734
-0.01459123 0.77384937 -0.00444238
-0.19887201 -0.22648595 0.00000293
-0.40413645 -0.55104047 0.00000367
-0.61358970 -0.66502410 -0.00798065
-0.30649200 0.06005253 0.21966082
-0.66331762 -0.49237108 -0.15135346
-0.37756950 -0.69589299 0.00000311
-0.53872448 -0.10276546 -0.19485644
-0.59094101 -0.62666678 0.02544949
-0.27182749 -0.72624624 0.00000224
-0.05027063 -0.77904063 0.00000043
-0.38499302 -0.12947002 0.20450354
-0.30188775 0.07117341 0.15247127
-0.66753036 -0.78745574 -0.01179688
-0.43919432 -0.26032716 0.27803031
-0.14900148 -0.73545498 0.00000129
-0.17136244 -0.42301774 0.00000224
-0.39082360 0.04682479 -0.09322913
-0.24110956 -0.39754462 0.00000283
-0.64855278 -0.33007798 -0.21338829
-0.37517616 -0.41764382 0.00000379
-0.28105000 -0.11426158 0.00000383
-0.44838023 0.02461863 -0.15041484
-0.24172270 -0.17592077 0.00000338
-0.03899314 0.45935315 0.00000670
-0.23297416 0.23753998 0.19451185
-0.57150620 -0.30648395 -0.13383611
-0.02920189 -0.44162905 0.00000112
-0.43645591 -0.51135945 0.00000401
-0.04718727 -0.18220833 0.00000190
-0.23606707 0.38114443 -0.07398528
-0.11318745 0.54393333 -0.00841507
-0.10772227 -0.12670237 0.00000250
-0.39529717 0.15121228 -0.14965221
-0.00820668 -0.25911921 0.00000141
-0.40547347 0.18479016 -0.17813382
-0.63067847 -0.72260308 0.17804332
-0.41240814 -0.19565721 0.22770026
-0.11916091 -0.67722994 0.00000121
-0.38295183 -0.12454215 0.20474917
-0.54807687 -0.10902720 -0.20284873
-0.59796977 -0.18369891 -0.22527230
-0.18490456 0.44761813 -0.04604477
-0.44332254 -0.27028915 0.17294665
-0.46571895 -0.40835035 0.00000449
-0.29158399 0.09604766 0.16368832
-0.25801611 -0.78140223 0.00000199
-0.13430378 0.18135408 0.00000775
-0.02756917 -0.12935188 0.00000188
-0.10535721 -0.04357697 0.00000269
-0.45525536 -0.66645348 0.00000377
-0.31718770 0.03423750 0.14024933
-0.32218060 0.02219005 0.06124087
-0.50800598 -0.67176121 0.00000415
-0.42325202 -0.07641929 -0.07121305
-0.65144318 -0.53951889 -0.11421794
-0.00148590 0.52077085 0.00000677
-0.03045210 -0.41185334 0.00000120
-0.38914353 -0.13948864 0.16659136
-0.37482294 -0.10490911 0.01386686
-0.54945993 -0.00566010 -0.25511420
-0.26673079 0.15604909 0.14752316
-0.56919360 -0.57416326 0.01556262
-0.45402914 0.14459977 -0.21586615
-0.35112837 -0.01874832 -0.01417388
-0.09677056 0.00730792 0.00001017
-0.16224344 -0.54612410 0.00000186
-0.57706088 -0.47082126 -0.05990896
-0.21926801 -0.27000087 0.00000298
-0.12601554 -0.69626421 0.00000121
-0.34297702 -0.02803497 0.29480460
-0.20882791 0.44684091 -0.07395443
-0.01784375 -0.65489179 0.00000050
-0.05220217 0.71978194 -0.02243463
-0.62708533 -0.71392852 0.05624505
-0.23751722 -0.62528712 0.00000223
-0.72051597 -0.66089976 -0.13644166
-0.60074776 -0.65034574 0.21199401
-0.40114439 0.01611981 -0.09039343
-0.34775960 -0.37005618 0.00000370
-0.08542914 -0.62976062 0.00000107
-0.29071224 -0.06840411 0.00000402
-0.05587090 0.61206096 0.00000487
-0.41374633 -0.19888642 0.19284862
-0.66733432 -0.46176499 -0.17109467
-0.33145967 -0.16763602 0.00000408
-0.63195711 -0.16393782 -0.27514231
-0.16839407 0.24229781 0.00000653
-0.66959578 -0.23384783 -0.28540698
-0.04121540 -0.34428802 0.00000145
-0.64610362 -0.58890736 -0.08371238
-0.28371841 -0.59577966 0.00000265
-0.46933135 -0.33307943 0.15469787
-0.58588022 -0.12386541 -0.24028380
-0.18660939 -0.26772970 0.00000274
-0.46661988 -0.30802310 -0.00905224
-0.18383171 -0.22456889 0.00000283
-0.35412002 0.29701090 -0.17237613
-0.35808659 -0.06451877 0.37645811
-0.67764854 -0.28839046 -0.26821330
-0.37823698 0.02271832 -0.06653665
-0.69652671 -0.47489488 -0.19918320
-0.50492948 -0.60045838 0.00000431
-0.28696701 0.10718328 0.29597914
-0.22028415 -0.49795017 0.00000242
-0.20127082 -0.77710778 0.00000158
-0.28500021 0.11194097 0.17798387
-0.14830548 0.44195724 0.04936177
-0.05875378 -0.01381160 0.00000241
-0.64079005 -0.07747433 -0.32793897
-0.46641979 -0.06327770 -0.12869674
-0.03028491 0.34425196 0.00000801
-0.02073549 0.31138691 0.00000851
-0.61798459 -0.23017332 -0.22617614
-0.43808180 -0.42785496 0.00000424
-0.54219097 -0.74557269 0.00000423
-0.51786113 -0.56674242 0.00000449
-0.36458269 0.23132759 -0.15257451
-0.54091698 0.01714759 -0.25618386
-0.58438247 -0.61083740 0.12981755
-0.58284307 -0.41620031 -0.09350092
-0.44121736 -0.53417355 0.00000399
-0.00397201 -0.63189465 0.00000040
-0.58094078 -0.60252625 0.07877233
-0.20612961 -0.23027050 0.00000298
-0.32209703 0.30277395 -0.13733055
-0.41366261 -0.01892276 -0.08803632
-0.21559639 -0.74142683 0.00000177
-0.04434059 -0.28522873 0.00000162
-0.06457583 0.31330314 0.00000770
-0.54163617 -0.50763559 0.06541446
-0.00375532 0.36938652 0.00000824
-0.59099412 -0.03897952 -0.28790903
-0.38630107 0.27788377 -0.20106246
-0.33680999 -0.11800505 0.00000425
-0.39408824 -0.10330485 -0.02355725
-0.05287357 0.28219068 0.00000822
-0.01545635 0.69092494 0.00000481
-0.26546764 0.23344123 -0.03640214
-0.05475794 -0.01869772 0.00000237
-0.39416948 -0.24408206 0.00000436
-0.27410394 0.42209730 -0.13902573
-0.58557606 -0.61371714 0.08618597
-0.52998960 -0.47952470 0.23340020
-0.15396269 0.22628108 0.00000695
-0.13481010 0.58781826 -0.05548124
-0.13426352 0.09356648 0.00000863
-0.62569362 -0.15282334 -0.27317974
-0.64748019 -0.25363207 -0.24956462
-0.43368706 -0.32598639 0.00000446
-0.23324642 -0.35360187 0.00000288
-0.66219211 -0.79868174 0.00191384
-0.33877316 -0.41680896 0.00000351
-0.18395762 -0.36987627 0.00000246
-0.39838454 -0.28782704 0.00000429
-0.33809671 -0.53224790 0.00000322
-0.04246323 -0.20437887 0.00000181
-0.09038682 0.09401927 0.00000942
-0.54747522 -0.77621645 0.00000419
-0.45908064 -0.30832911 0.08852018
-0.04195842 0.11855877 0.00001005
-0.24369967 -0.40918151 0.00000282
-0.63728851 -0.22176948 -0.25311974
-0.40603244 0.21983828 -0.19596270
-0.43176159 -0.24237821 0.16741069
-0.55308032 -0.37948996 -0.07628744
-0.35568243 0.30009890 -0.17573632
-0.58433986 -0.37661812 -0.11465906
-0.51346797 0.09427401 -0.26150367
-0.61811936 -0.09420391 -0.29293597
-0.09949054 0.11104053 0.00000909
-0.06574858 0.41311127 0.00000668
-0.44619662 -0.27722394 0.08172136
-0.03064082 0.13434921 0.00001010
-0.49220827 -0.38830584 0.07073480
-0.70639849 -0.68901807 -0.10597490
-0.36720702 -0.42665085 0.00000370
-0.00841353 0.32113239 0.00000864
-0.39358026 0.21056253 -0.17669384
-0.21987869 -0.65043795 0.00000203
-0.43629071 -0.25331113 0.13465160
-0.13146052 0.33410308 0.00000628
-0.46733138 -0.78757620 0.00000356
-0.66466933 -0.45140859 -0.17301606
-0.45362112 -0.37254268 0.00000449
-0.63864887 -0.25904086 -0.23647211
-0.37837926 -0.65815282 0.00000321
-0.16463766 0.44281137 -0.01972377
-0.52671850 -0.09795538 -0.18301526
-0.01932696 -0.60743445 0.00000063
-0.39377454 0.02764669 -0.08732458
-0.00403498 -0.54190516 0.00000062
-0.30689311 0.12830541 -0.03389006
-0.05151434 -0.33360785 0.00000155
-0.40223962 -0.12538116 -0.02238302
-0.20340124 0.45667160 -0.07235261
-0.11672552 -0.21989030 0.00000233
-0.28389949 -0.55358696 0.00000276
-0.46661732 -0.27723494 -0.02412986
-0.06594942 0.69813454 -0.02808762
-0.16498223 -0.68177789 0.00000154
-0.37570643 -0.47648591 0.00000364
-0.38003600 -0.39368251 0.00000388
-0.23811767 0.22512524 0.16170695
-0.44161126 0.00813996 -0.13433838
-0.10605745 -0.14939994 0.00000243
-0.44009224 -0.01743573 -0.12001416
-0.13547495 0.15065505 0.00000804
-0.32266200 -0.56856734 0.00000301
-0.45917425 0.11564795 -0.20776877
-0.16945186 -0.13720563 0.00000294
-0.40025046 -0.16631442 0.42902157
-0.41494292 -0.12017239 -0.03995626
-0.18214150 -0.67971289 0.00000167
-0.15812913 0.02494150 0.00000889
-0.42129940 -0.78548843 0.00000321
-0.57520789 -0.58868277 0.00841299
-0.35285848 -0.04505791 -0.00333281
-0.32839710 0.00716397 0.29049170
-0.02967893 -0.05672982 0.00000208
-0.33808896 -0.78402388 0.00000259
-0.15709877 0.42072552 0.08784654
-0.45752376 0.06787768 -0.18241735
-0.07530695 0.37618619 0.00000687
-0.16407774 0.40387538 0.10831994
-0.31823921 0.13116246 -0.04870677
-0.01173280 0.10857939 0.00001070
-0.34045964 0.09580061 -0.05766182
-0.49150491 -0.38660920 0.10477984
-0.61938077 -0.66875190 -0.01300273
-0.50518972 -0.10304624 -0.15506347
-0.39179489 -0.14589864 0.39993256
-0.17697552 -0.54054093 0.00000198
-0.11984520 -0.00432713 0.00000289
-0.24976984 -0.77536070 0.00000195
-0.51153302 -0.78717780 0.00000389
-0.60833853 -0.02496653 -0.31528360
-0.37889624 -0.11475100 0.20367870
-0.65157694 -0.10749022 -0.32599217
-0.63799179 -0.74025851 0.13786422
-0.66080952 -0.50961375 -0.13994187
-0.29756427 -0.44017506 0.00000314
-0.46699524 -0.44861582 0.00000440
-0.41493604 -0.20175566 0.12239403
-0.66259742 -0.79966027 0.07227583
-0.49493363 -0.39489424 0.30976751
-0.04057893 -0.19928098 0.00000181
-0.50852168 -0.20242615 -0.11032533
-0.03390216 0.55831403 0.00000580
-0.34731799 0.07871209 -0.05740152
-0.65998000 -0.79334140 0.02369406
-0.49313080 -0.00908210 -0.18682639
-0.28171581 -0.12493701 0.00000381
-0.25319913 0.08122641 0.00000660
-0.65953618 -0.28305608 -0.24940842
-0.20268154 -0.18376066 0.00000307
-0.25722662 -0.36561710 0.00000303
-0.12691194 -0.03226167 0.00000288
-0.15867068 0.43235540 -0.00754586
-0.38377455 -0.12653416 0.37619841
-0.45433241 -0.68195134 0.00000372
-0.34959447 -0.40778443 0.00000362
-0.66495210 -0.26563540 -0.26434568
-0.13054833 -0.00438571 0.00000297
-0.69325751 -0.39080292 -0.23650724
-0.40359035 -0.17435950 0.00101056
-0.53025538 -0.74412531 0.00000414
-0.32780665 0.20483336 -0.09610746
-0.27215499 -0.19753602 0.00000356
-0.29744235 -0.67984885 0.00000254
-0.02365960 0.11140753 0.00001046
-0.37366715 -0.60287428 0.00000331
-0.09051694 0.17855901 0.00000858
-0.26426491 -0.33857504 0.00000315
-0.49464065 -0.27221051 -0.05972902
-0.38166425 -0.07784200 -0.02133786
-0.28482434 0.14150304 -0.01425751
-0.31141493 0.04816397 0.26582095
-0.42648634 -0.22964108 0.13203576
-0.36953768 -0.58894861 0.00000332
-0.61014223 -0.45575628 -0.10640745
-0.50207102 -0.38302252 -0.01423767
-0.15272301 0.43128788 0.10669005
-0.41972467 -0.13395214 -0.03886114
-0.61624330 -0.35585538 -0.16255547
-0.46668836 0.10855808 -0.21318164
-0.06245901 -0.65029711 0.00000085
-0.64110810 -0.46967280 -0.13620852
-0.13410202 0.32803556 0.00000629
-0.17912886 0.03993056 0.00000836
-0.65286094 -0.61338907 -0.07971143
-0.38596398 -0.77496576 0.00000297
-0.57602501 -0.24300420 -0.17027335
-0.38216045 -0.12262439 0.03516392
-0.16182140 -0.72596395 0.00000141
-0.47029480 -0.33540437 0.12978368
-0.21097189 -0.04109180 0.00000349
-0.35971260 -0.20739701 0.00000420
-0.00793983 -0.52407688 0.00000075
-0.49866480 -0.18908276 -0.10520526
-0.24199867 0.21575111 0.22031073
-0.27376133 0.13907634 0.14418039
-0.07347006 -0.16042571 0.00000215
-0.20506629 0.05337291 0.00000775
-0.22589278 0.48808938 -0.11433938
-0.49299669 -0.39021724 0.25893435
-0.39819330 0.19235794 -0.17323168
-0.69077992 -0.42047578 -0.21904317
-0.39029777 0.08396388 -0.11079943
-0.66294044 -0.69037014 -0.05392374
-0.52164501 -0.76757628 0.00000402
-0.21499509 0.28095639 0.04894574
-0.51102424 -0.24550828 -0.09218215
-0.44965318 -0.28557765 0.28959033
-0.48474339 0.12932307 -0.24470393
-0.53668511 -0.26692817 -0.11203476
-0.65845853 -0.33483714 -0.22277072
-0.39400280 -0.75444561 0.00000309
-0.34985599 -0.61235410 0.00000311
-0.00430332 -0.40928900 0.00000101
-0.32139349 0.13922825 -0.05638777
-0.10189841 -0.79222649 0.00000079
-0.09492576 0.50683385 0.00000521
-0.22632276 0.25360543 0.09792195
-0.36722115 -0.53621238 0.00000343
-0.46801573 0.17449056 -0.24704751
-0.52229506 -0.39774460 -0.03094178
-0.15849523 0.41735625 0.06240194
-0.37928611 -0.11568829 0.11086691
-0.52865887 -0.79330295 0.00000401
-0.20169879 -0.74763799 0.00000165
-0.07758566 0.31561559 0.00000744
-0.12551638 0.62552053 -0.06295901
-0.08247057 -0.36298788 0.00000171
-0.11412017 0.04146516 0.00000952
-0.62126321 -0.60380197 -0.04704252
-0.33473781 -0.00812923 0.10992485
-0.45879582 -0.62827909 0.00000389
-0.30879092 0.05449469 0.31736186
-0.25932011 -0.02878540 0.00000388
-0.46163729 -0.12340519 -0.09358969
-0.01024404 0.56803954 0.00000613
-0.59102303 -0.04768338 -0.28367972
-0.02324795 -0.02588843 0.00000211
-0.05656218 0.45337543 0.00000644
-0.42365843 -0.75019234 0.00000332
-0.33372217 -0.00569568 0.33967885
-0.23507120 0.01977135 0.00000755
-0.64859200 -0.29031488 -0.23291139
-0.66604394 -0.71865815 -0.04373755
-0.69531304 -0.42475334 -0.22230832
-0.58812803 -0.42501116 -0.09543480
-0.59295326 -0.38121116 -0.12259481
-0.44695005 -0.25807589 -0.01025742
-0.22516689 0.46728498 -0.10329023
-0.43433395 -0.24859376 0.29277286
-0.22260581 0.26258612 0.00644781
-0.36700645 -0.08604246 0.11124287
-0.25638041 -0.07862347 0.00000374
-0.64624870 -0.39092684 -0.18085875
-0.52341115 -0.13748448 -0.15974213
-0.13056505 0.48899421 -0.00205358
-0.60178351 -0.65284449 0.06118875
-0.68378359 -0.35282251 -0.24390791
-0.65869981 -0.70289439 -0.04277457
-0.62416142 -0.03989676 -0.32668141
-0.32805687 0.27609912 -0.13131195
-0.36898318 -0.35639206 0.00000389
-0.63599986 -0.73544967 0.11642246
-0.21000694 -0.33710375 0.00000274
-0.25857621 0.24719016 -0.03498747
-0.60996991 -0.67260849 0.06644027
-0.14391281 -0.00921259 0.00000306
-0.59742475 -0.75214654 0.00000463
-0.20122822 -0.65600872 0.00000188
-0.21285141 -0.60285825 0.00000210
-0.37155774 0.25407225 -0.17196397
-0.21481058 -0.04879886 0.00000350
-0.09658033 0.44256988 0.00000583
-0.47656760 -0.65627897 0.00000395
-0.60147202 -0.38499141 -0.13081674
-0.31367943 0.04270268 0.19583455
-0.48195189 -0.36355114 0.22389996
-0.47048980 -0.33587238 0.06522908
-0.22641084 0.25339139 0.11544478
-0.67249578 -0.42123139 -0.19705220
-0.31598395 -0.59436774 0.00000290
-0.06035762 0.47824663 0.00000612
-0.30089325 -0.66293770 0.00000261
-0.59583461 -0.50409913 -0.06580912
-0.32144770 -0.31703287 0.00000363
-0.47196230 -0.33942825 0.08624063
-0.14600398 -0.61986458 0.00000155
-0.11662722 -0.31422612 0.00000209
-0.13636796 0.36203840 0.00000591
-0.16942598 0.39096111 0.14149982
-0.32395878 0.28838441 -0.13248359
-0.00768824 -0.54938018 0.00000068
-0.49930906 -0.40545487 0.21541172
-0.62807918 -0.10484853 -0.29949972
-0.42836088 -0.23416606 0.11914215
-0.25985277 0.21554764 -0.02099736
-0.31295317 0.11982183 -0.03690076
-0.39621586 -0.53825963 0.00000364
-0.29835913 0.07969408 0.12809905
-0.04293923 0.27862859 0.00000844
-0.63166487 -0.16839004 -0.27261597
-0.00670025 -0.49745038 0.00000072
-0.47488850 0.05303559 -0.19568168
-0.01336472 -0.11211319 0.00000182
-0.18787155 0.53562009 -0.09266000
-0.32169819 -0.23764555 0.00000383
-0.47005975 -0.62663257 0.00000398
-0.24528182 -0.52929509 0.00000253
-0.35621887 -0.16361722 0.00000428
-0.45818749 -0.30617458 0.12941070
-0.07840005 0.61072546 0.00152126
-0.58216321 -0.10028071 -0.24744065
-0.44010124 -0.42657256 0.00000425
-0.34446183 -0.52918583 0.00000328
-0.63012409 -0.07307386 -0.31748173
-0.60039592 -0.27410108 -0.18386051
-0.53765762 0.00888812 -0.24828370
-0.14235646 -0.38835141 0.00000210
-0.19879584 -0.27614567 0.00000281
-0.43488273 -0.01176615 -0.11663088
-0.70189065 -0.45376289 -0.21587685
-0.21659957 0.15445785 0.00000653
-0.33168247 0.06976505 -0.03452926
-0.25551736 0.18313102 0.01422028
-0.11991148 0.38479602 0.00000598
-0.49920392 -0.40520206 0.23952170
-0.51823187 -0.15570368 -0.14469337
-0.31075156 -0.62068301 0.00000279
-0.33007145 -0.75524265 0.00000260
-0.17659774 0.07403174 0.00000806
-0.33020234 0.27915549 -0.13534619
-0.28237620 0.32232878 -0.09993766
-0.65356457 -0.32926819 -0.21971144
-0.51545292 -0.44442672 0.14359806
-0.36666870 0.23680037 -0.15772207
-0.38572928 -0.63917661 0.00000331
-0.67835826 -0.83770937 0.10514110
-0.55151236 -0.34529167 -0.09118427
-0.17726079 -0.03391082 0.00000325
-0.53085697 -0.05362023 -0.20962526
-0.27563170 0.03457464 0.00000666
-0.31837356 0.24085361 -0.10259647
-0.27066052 0.14655301 0.25991425
-0.20790577 0.29806164 0.16945118
-0.01515329 -0.45288894 0.00000098
-0.52767211 -0.18577409 -0.14112759
-0.16101077 0.02930792 0.00000879
-0.12411664 0.60649502 -0.05198434
-0.12998052 0.39344791 0.00000571
-0.49471700 -0.46665302 0.00000457
-0.44483364 -0.41986507 0.00000431
-0.35475874 0.29005176 -0.16972256
-0.17236467 -0.38820514 0.00000233
-0.31918517 0.02940362 0.28551728
-0.02386796 -0.07277452 0.00000200
-0.44644168 -0.27781925 0.16855237
-0.16463602 0.19988334 0.00000702
-0.64581668 -0.75914901 0.13214177
-0.11782528 0.63513529 -0.05857363
-0.57034892 -0.41010603 -0.08171148
-0.48178676 -0.67345804 0.00000395
-0.55112511 -0.53054684 0.13230760
-0.18691190 -0.49723384 0.00000217
-0.66278338 -0.80010927 0.13307671
-0.53395689 -0.46251833 -0.01300469
-0.40722349 -0.18313387 0.07596103
-0.31997237 0.34015787 -0.15313008
-0.24788830 0.35125363 -0.07332275
-0.53738868 -0.23560575 -0.12820907
-0.35200056 -0.04981891 0.28808916
-0.18857841 0.04935068 0.00000809
-0.09738335 0.60610038 -0.02017779
-0.45891994 -0.30795166 0.36115322
-0.45928830 -0.10452989 -0.10005746
-0.29955015 0.22524004 -0.07268890
-0.42093050 -0.54672313 0.00000381
-0.64576387 -0.42156163 -0.16527990
-0.13844961 -0.03231834 0.00000296
-0.60896236 -0.17953578 -0.24031042
-0.15852559 0.41727805 0.12397761
-0.00999755 -0.34488201 0.00000121
-0.39968723 0.02016326 -0.09065091
-0.52255756 -0.26420894 -0.09666058
-0.48882273 -0.36284330 -0.00845550
-0.52414823 -0.12545925 -0.16650394
-0.66659045 -0.63479233 -0.08546288
-0.02746935 0.74900633 -0.00750223
-0.73560363 -0.70929366 -0.13057841
-0.29338214 0.09170420 0.19367461
-0.44737679 -0.05762146 -0.10894857
-0.65794593 -0.61653608 -0.08418303
-0.48837429 -0.37905896 0.32049891
-0.28196645 -0.29802987 0.00000338
-0.68366098 -0.54409647 -0.15007332
-0.45618224 -0.67817229 0.00000375
-0.36402407 -0.57655185 0.00000330
-0.18403412 -0.33328968 0.00000256
-0.24870488 0.19957410 0.05789720
-0.13700831 0.46922424 0.12925203
-0.15356600 -0.04472430 0.00000305
-0.20914340 -0.64430612 0.00000197
-0.11925536 -0.00635840 0.00000288
-0.33847386 -0.45494699 0.00000342
-0.43663710 -0.07054710 -0.08991744
-0.34338188 -0.51664698 0.00000330
-0.22716583 -0.78435177 0.00000175
-0.37802145 -0.11263878 0.19689372
-0.39592364 -0.15585668 0.15029424
-0.40063205 0.12776206 -0.14447412
-0.64119762 -0.57736671 -0.08356378
-0.41340792 -0.55011380 0.00000374
-0.29016998 0.37910208 -0.13696381
-0.40715596 -0.18296978 0.05070336
-0.49990624 -0.40689439 0.16359606
-0.19181830 0.38768482 -0.02486297
-0.38889289 -0.37921235 0.00000399
-0.63427967 -0.78577232 0.00000482
-0.18330026 0.00252770 0.00000866
-0.34661275 -0.03680411 0.03073824
-0.29070994 0.09816216 0.10849701
-0.41411912 0.03783343 -0.11637275
-0.47043207 -0.07012459 -0.13008755
-0.69006383 -0.69801247 -0.08225363
-0.73716062 -0.75047147 -0.11224991
-0.26123768 0.07549555 0.00000651
-0.51968390 -0.16298069 -0.14284602
-0.44344544 -0.04097045 -0.11245567
-0.42377874 0.18385375 -0.19932187
-0.48087081 -0.23719727 -0.06059610
-0.05128428 0.34893420 0.00000758
-0.14869629 0.44101426 0.04276114
-0.19982797 0.31757420 0.02852861
-0.31440550 -0.78918886 0.00000240
-0.42768401 -0.39926127 0.00000423
-0.43546981 0.14709167 -0.19513962
-0.55583328 -0.32204318 -0.10768140
-0.00833493 0.35088515 0.00000834
-0.58551049 -0.05100542 -0.27553362
-0.45325196 -0.29426363 0.23577644
-0.32665199 0.35580203 -0.16869210
-0.29548642 0.19096577 -0.05109453
-0.53354710 -0.26005855 -0.11168891
-0.20976317 0.44336933 -0.07335989
-0.46025676 0.02534835 -0.16481680
-0.61389297 -0.56798655 -0.05587016
-0.00372319 -0.08986021 0.00000175
-0.18922202 -0.48664248 0.00000221
-0.48592031 -0.06093208 -0.15290539
-0.27010474 -0.71433985 0.00000225
-0.58233160 -0.48460454 -0.05939038
-0.36171556 -0.48386654 0.00000352
-0.20037454 -0.02351988 0.00000345
-0.38176233 -0.51154709 0.00000360
-0.37494013 -0.10519664 0.12308208
-0.27225322 0.14272012 0.10820789
-0.19484967 0.07600258 0.00000771
-0.41788274 -0.66745293 0.00000348
-0.16141902 -0.76222360 0.00000131
-0.63404465 -0.73072952 0.16735649
-0.48638198 -0.34792033 -0.01287883
-0.11341213 -0.21718714 0.00000231
-0.48194656 -0.32494351 -0.01888833
-0.38644436 -0.56462258 0.00000350
-0.20678511 0.04945853 0.00000776
-0.11122659 0.08364976 0.00000915
-0.45783669 -0.58372313 0.00000399
-0.24941857 0.19783413 0.26986429
-0.04060444 0.67883021 0.00000448
-0.01030486 0.52202743 0.00000659
-0.63321644 -0.72505087 -0.00178736
-0.31525925 0.03888892 0.19298404
-0.52698207 -0.31423926 -0.07738685
-0.23109941 -0.04039909 0.00000364
-0.31863457 -0.36667180 0.00000349
-0.67461097 -0.42587879 -0.19727699
-0.72931421 -0.70063561 -0.12738210
-0.18566783 0.08543001 0.00000778
-0.33269152 0.30552506 -0.15120655
-0.58619809 -0.61521912 0.09226396
-0.47902435 0.12064592 -0.23369054
-0.27710688 -0.43459189 0.00000300
-0.27387092 0.13881956 0.04720017
-0.63701808 -0.73790783 0.11735038
-0.30904204 -0.12868892 0.00000401
-0.62642586 -0.25405559 -0.22446010
-0.43002009 -0.02370509 -0.10503684
-0.43898052 -0.36627808 0.00000440
-0.03357992 -0.01269462 0.00000222
-0.65488482 -0.69362235 -0.04280488
-0.68554562 -0.77499020 -0.03920569
-0.38977399 -0.14101255 0.20949785
-0.56597829 -0.17015241 -0.19407710
-0.52318370 -0.35884693 -0.05104550
-0.31949115 -0.60188341 0.00000291
-0.30573377 -0.56786275 0.00000289
-0.15006290 0.32224244 0.00000606
-0.17758998 0.03732735 0.00000841
-0.63452083 -0.05255172 -0.33273298
-0.32359362 0.22007383 -0.09859072
-0.68477947 -0.39480180 -0.22452328
-0.37770081 0.20526649 -0.15532155
-0.44353536 0.05933343 -0.16169019
-0.52447766 0.09287906 -0.27383980
-0.14439251 0.13316526 0.00000805
-0.68058878 -0.66930473 -0.08511105
-0.17900243 -0.26721883 0.00000268
-0.23345506 -0.12315706 0.00000345
-0.45049110 -0.20269427 -0.04157179
-0.36560416 0.17911679 -0.12820762
-0.20046893 0.01257898 0.00000824
-0.68854564 -0.76189744 -0.04916626
-0.08605257 -0.66410422 0.00000099
-0.73660725 -0.76916283 -0.10244015
-0.30383077 0.38814476 -0.15754774
-0.61083347 -0.22404650 -0.22072083
-0.03286107 0.67465883 0.00000466
-0.35792992 0.12399344 -0.09213105
-0.70180446 -0.66225451 -0.11365180
-0.26336929 0.16415761 0.23183887
-0.52499723 -0.39643413 -0.03477908
-0.23372845 -0.67819172 0.00000207
-0.05537431 0.24694504 0.00000853
-0.40883604 -0.34091374 0.00000423
-0.58905166 -0.62210953 0.14685227
-0.07976701 -0.22508115 0.00000204
-0.43991110 -0.50472790 0.00000406
-0.48823676 -0.37872666 0.28178284
-0.17327923 -0.72400457 0.00000150
-0.00802414 0.58317822 0.00000602
-0.20301867 0.30985674 0.21041967
-0.51843977 -0.64826930 0.00000429
-0.25762242 -0.18712178 0.00000348
-0.25649431 0.18076952 0.05147143
-0.48541197 -0.58357751 0.00000420
-0.17681061 0.43848833 -0.03200122
-0.55719459 -0.50968635 -0.01737985
-0.11349872 -0.06231851 0.00000270
-0.11710623 -0.36536613 0.00000197
-0.66055715 -0.29091877 -0.24676445
-0.30491853 -0.67701018 0.00000261
-0.50473565 -0.14216876 -0.13536350
-0.38237172 -0.25505245 0.00000425
-0.57456154 0.00701491 -0.29100659
-0.26306197 -0.46957099 0.00000281
-0.00680072 -0.41730070 0.00000101
-0.55917096 -0.36756474 -0.08933088
-0.40477291 -0.36430460 0.00000414
-0.45627239 -0.78058714 0.00000349
-0.13841785 0.34607616 0.00000603
-0.13494091 0.55631518 -0.04020452
-0.33760205 0.20582706 -0.10817765
-0.31892842 0.03002191 0.30498821
-0.54164255 -0.77111185 0.00000416
-0.61826849 -0.74516493 0.00000480
-0.26298237 0.21376589 -0.02382548
-0.01789220 -0.76317656 0.00000023
-0.23037028 0.32089558 -0.03773645
-0.33765757 -0.01517373 0.05589964
-0.27971381 0.40386328 -0.13672793
-0.02535954 0.26919517 0.00000885
-0.18518192 -0.39592510 0.00000241
-0.42795596 -0.23319934 0.37548044
-0.27615845 0.35822746 -0.11016944
-0.40813911 0.24587011 -0.21120527
-0.05386632 0.44314793 0.00000659
-0.64041609 -0.38070178 -0.17896998
-0.20218185 0.31993422 -0.00393154
-0.19240741 0.33548900 0.02587877
-0.03796560 -0.66152567 0.00000063
-0.64995432 -0.62999600 -0.06813986
-0.23497403 0.39923549 -0.08155439
-0.41758516 -0.66234809 0.00000349
-0.05923248 -0.71689701 0.00000065
-0.24051885 0.21933967 0.02027670
-0.08722491 0.01044670 0.00001032
-0.55784667 -0.26937380 -0.13586073
-0.20099217 -0.12208991 0.00000321
-0.02269414 -0.48734236 0.00000095
-0.42097238 0.02768205 -0.11950450
-0.00131574 -0.12922734 0.00000167
-0.17125840 -0.58817089 0.00000182
-0.26710901 0.00844864 0.00000708
-0.06607936 0.64046556 0.05522758
-0.67654181 -0.65431273 -0.08766883
-0.02509071 0.29324895 0.00000861
-0.10709499 -0.37418431 0.00000187
-0.43507677 -0.25038618 0.27089977
-0.26061136 -0.67295617 0.00000228
-0.57124132 -0.01076400 -0.27837151
-0.19543625 -0.18619630 0.00000301
-0.24892339 0.10293011 0.00000646
-0.25738755 0.17860828 0.11113145
-0.30521536 -0.58298713 0.00000285
-0.33267334 0.18145002 -0.09040848
-0.51533026 -0.00099152 -0.21704122
-0.25512490 -0.24289054 0.00000332
-0.48234463 -0.36450243 0.30853531
-0.36670864 -0.08533542 0.39445665
-0.15884516 -0.51744437 0.00000190
-0.21327119 0.40220845 -0.05734612
-0.27115053 0.14537495 0.19860964
-0.18277895 -0.73425573 0.00000154
-0.47504422 -0.70912248 0.00000381
-0.29122216 0.09690989 0.30484927
-0.47800523 -0.45996690 0.00000446
-0.54876089 -0.39758718 -0.06231524
-0.30857137 0.05502651 0.29520699
-0.54791182 -0.52279168 0.25488105
-0.31987119 0.02774273 0.34430641
-0.54119039 -0.27011859 -0.11579955
-0.56607842 -0.24082647 -0.15957797
-0.24028099 0.40152255 -0.08895039
-0.28186858 0.11949733 0.22749968
-0.69757867 -0.68485707 -0.09758362
-0.18210532 0.44957778 -0.04369446
-0.00515745 -0.02975769 0.00000189
-0.47835892 -0.07197628 -0.13855422
-0.43389031 0.14841996 -0.19392243
-0.34316421 -0.02848654 0.29051328
-0.72898006 -0.68406671 -0.13510276
-0.64350319 -0.70446670 -0.02403408
-0.45813271 -0.30604705 0.24078625
-0.00503372 -0.77101117 0.00000011
-0.02683122 0.08094892 0.00001070
-0.30813226 0.18915358 -0.06516111
-0.35031253 -0.04574440 0.29694799
-0.15859643 -0.71572781 0.00000141
-0.24148014 0.32519025 -0.05297803
-0.18632355 0.38544562 -0.01726837
-0.15874885 -0.60636944 0.00000168
-0.31874609 0.03046195 0.30654928
-0.49903622 -0.30133399 -0.05066160
-0.05983870 -0.17585620 0.00000201
-0.43411922 0.14072408 -0.19042338
-0.67230058 -0.55946010 -0.12911430
-0.06555969 -0.16013743 0.00000209
-0.08457723 0.59580863 0.05179950
-0.60466707 -0.65980756 0.18080793
-0.34514347 0.08356327 -0.05720634
-0.30296215 0.06858488 0.08626117
-0.34110081 -0.02350053 0.23319864
-0.00706630 0.60439253 0.00000583
-0.22313038 -0.59272313 0.00000220
-0.04453861 0.16106889 0.00000958
-0.29729149 0.08226603 0.19728290
-0.55425000 -0.13260795 -0.19859824
-0.04923982 0.68112051 0.03969821
-0.08085228 -0.18136789 0.00000216
-0.05751236 0.53597951 0.00000560
-0.34968331 -0.04421324 0.14520253
-0.43858492 0.01323417 -0.13325495
-0.35817757 -0.06473616 0.34832880
-0.04702763 -0.64194262 0.00000075
-0.44089940 -0.69755536 0.00000358
-0.36012754 -0.28844672 0.00000400
-0.32476211 0.01594407 0.23302916
-0.33482730 -0.00835561 0.23875177
-0.36458415 -0.47444671 0.00000356
-0.16904896 -0.13639621 0.00000293
-0.49728203 -0.35015687 -0.02467282
-0.58165312 -0.29025126 -0.15378615
-0.14658329 -0.74686301 0.00000124
-0.27229002 -0.17765521 0.00000361
-0.71991879 -0.57935882 -0.17567579
-0.40422216 -0.38786238 0.00000408
-0.22703679 -0.57019776 0.00000229
-0.06957382 -0.00206927 0.00000252
-0.22046688 0.02747877 0.00000773
-0.56973714 -0.30258679 -0.13365309
-0.35182914 -0.54903388 0.00000328
-0.31450370 -0.75576073 0.00000248
-0.05840253 -0.68237704 0.00000073
-0.62713307 -0.08905439 -0.30611718
-0.12757161 0.49201280 0.04597958
-0.16771780 0.39509040 0.07368039
-0.28349480 0.37079397 -0.12500054
-0.62176675 -0.70108879 0.13862526
-0.03607906 -0.60965019 0.00000075
-0.67339104 -0.57850015 -0.12107757
-0.54914111 -0.44463831 -0.03971830
-0.13014241 -0.67169219 0.00000130
-0.21519090 -0.23866598 0.00000303
-0.68202317 -0.63192010 -0.10511885
-0.41417655 -0.44654197 0.00000401
-0.45746490 -0.30442631 0.04005397
-0.40518036 -0.45306182 0.00000392
-0.07980201 -0.64141077 0.00000100
-0.48402858 -0.34372050 -0.01215302
-0.03759194 0.40193048 0.00000730
-0.17816550 0.00613603 0.00000871
-0.13181506 0.11463451 0.00000847
-0.62433678 -0.20843910 -0.24433357
-0.10798282 -0.25681320 0.00000217
-0.61123013 -0.55626899 -0.05846078
-0.45437786 -0.29698589 0.33197969
-0.42092720 -0.14816950 -0.03331924
-0.39250329 -0.14760655 0.32431692
-0.17243975 -0.25152928 0.00000267
-0.33331907 0.04917810 -0.02638035
-0.15585147 0.46912947 -0.02222533
-0.05973105 -0.75116283 0.00000057
-0.06782720 -0.33304626 0.00000168
-0.41023770 -0.55030340 0.00000372
-0.15931612 0.41537705 0.03007091
-0.53273636 -0.13719442 -0.17091139
-0.62377721 -0.45768699 -0.12158533
-0.22152668 0.50348192 -0.11671613
-0.41563120 -0.67248088 0.00000345
-0.03468047 0.03588906 0.00001101
-0.29133067 0.09665748 0.18523552
-0.29805556 0.08042591 0.14098537
-0.66999894 -0.64671761 -0.08365222
-0.34783798 -0.03977025 0.29523480
-0.06557944 -0.76843435 0.00000057
-0.39546728 -0.27146971 0.00000430
-0.27514422 0.39481193 -0.12689050
-0.21784487 -0.60044402 0.00000214
-0.20591018 -0.07815775 0.00000336
-0.55677748 -0.08875264 -0.22306821
-0.51153374 -0.77695817 0.00000392
-0.32826492 -0.54745424 0.00000311
-0.35357428 0.20727777 -0.12777612
-0.49708399 -0.40008119 0.17111973
-0.07570702 0.30492881 0.00000758
-0.36373973 -0.07815907 0.18676703
-0.36207849 -0.07414504 0.24012113
-0.36747095 -0.08717152 0.34121895
-0.35865739 0.14861023 -0.10504954
-0.44127053 0.08266121 -0.17043877
-0.15036547 0.49646297 -0.02912687
-0.59823489 -0.29649425 -0.17033647
-0.20609041 0.39380017 -0.04473588
-0.40971243 -0.58632070 0.00000363
-0.43762714 -0.74885106 0.00000343
-0.60635036 -0.25690106 -0.19932666
-0.52043486 -0.04432354 -0.20185463
-0.45440021 -0.02658890 -0.13245425
-0.46890250 -0.16143839 -0.08355152
-0.01283773 0.78229189 -0.00650425
-0.64644355 -0.72265702 -0.01860116
-0.22578119 0.10971282 0.00000681
-0.31732360 -0.20708202 0.00000388
-0.00225183 -0.47766155 0.00000079
-0.38832068 -0.13750467 0.22615007
-0.19565400 0.32764962 0.04477644
-0.24869592 0.19959149 0.11085654
-0.47756869 -0.22513629 -0.06259898
-0.42152864 0.15057699 -0.18036081
-0.51188833 0.09292266 -0.25897372
-0.35890105 -0.06647473 0.12236761
-0.25571817 -0.12463633 0.00000362
-0.14135267 -0.13738658 0.00000272
-0.69379783 -0.54346734 -0.16236818
-0.42478177 -0.15450968 -0.03477177
-0.42569652 -0.05257409 -0.08578356
-0.31996024 0.02754284 0.15577690
-0.24072231 -0.24562804 0.00000320
-0.65728927 -0.15782514 -0.30809194
-0.69006950 -0.42089203 -0.21799923
-0.11604576 -0.40467057 0.00000186
-0.18532258 0.35258186 0.16584963
-0.32536685 -0.66592747 0.00000279
-0.06879217 -0.76552594 0.00000061
-0.61212170 -0.66938704 -0.00410764
-0.37151957 -0.79419595 0.00000282
-0.04107776 0.00294807 0.00001123
-0.01509629 0.17662074 0.00000996
-0.42028296 -0.09456487 -0.05881400
-0.49050146 -0.38418815 0.13918398
-0.33640495 0.01451838 -0.01305190
-0.40983358 -0.69437671 0.00000336
-0.02820225 0.13667996 0.00001012
-0.32357794 0.01879823 0.29131940
-0.73221183 -0.71752113 -0.12253767
-0.24420208 0.46386951 -0.12412709
-0.08746587 -0.66421747 0.00000100
-0.27907127 0.12626183 0.08600294
-0.18368669 0.02138485 0.00000846
-0.60074931 -0.64677233 -0.00173671
-0.02528388 0.33738032 0.00000817
-0.41605386 -0.03221373 -0.08435385
-0.14232996 -0.04536657 0.00000296
-0.17715305 0.48343524 -0.05442284
-0.06211523 0.52060014 0.00000567
-0.15843214 0.45450500 -0.01811347
-0.49949741 -0.18966822 -0.10590304
-0.02664940 -0.74185169 0.00000035
-0.56754506 -0.23374613 -0.16478039
-0.26110801 0.16961317 0.27655455
-0.30890906 0.22520153 -0.08373735
-0.29302537 -0.16897249 0.00000379
-0.68796319 -0.76984572 -0.04458432
-0.67768872 -0.66196245 -0.08527812
-0.54500538 -0.10140911 -0.20294811
-0.41091511 -0.19206037 0.40911898
-0.66229373 -0.38936165 -0.20059875
-0.20970538 -0.04045755 0.00000348
-0.42497340 -0.22598337 0.01168339
-0.31105524 0.34658000 -0.14573100
-0.61805087 -0.05381296 -0.31263876
-0.19143116 -0.72733104 0.00000163
-0.09750675 0.06757632 0.00000956
-0.36262342 0.13096397 -0.10109574
-0.17724852 -0.55513316 0.00000195
-0.04802945 0.09135300 0.00001022
-0.17108314 -0.21630020 0.00000275
-0.01712055 0.36000162 0.00000809
-0.15079200 0.43595576 0.03116017
-0.23747063 -0.57361788 0.00000236
-0.60971516 -0.30790004 -0.17832530
-0.27240923 0.42667821 -0.13926554
-0.00969703 -0.31793323 0.00000128
-0.00719019 0.72982597 0.00000457
-0.25085130 -0.52982289 0.00000257
-0.16053827 -0.56847912 0.00000179
-0.21341179 0.28476483 0.22294937
-0.37009910 -0.51344377 0.00000351
-0.54823935 -0.52358240 0.27018827
-0.07822397 0.62651813 -0.00752239
-0.23386587 -0.44394639 0.00000265
-0.12438348 -0.47605988 0.00000175
-0.09842976 0.11941189 0.00000902
-0.37422961 -0.52534175 0.00000351
-0.60073143 -0.25644621 -0.19290498
-0.62514067 -0.06658992 -0.31476468
-0.42446598 -0.22476716 0.21864121
-0.55008233 0.00672068 -0.26191476
-0.00478870 -0.25596854 0.00000140
-0.61127788 -0.13859372 -0.26310280
-0.31841069 0.03128926 0.08686103
-0.45890766 -0.30791894 0.26301801
-0.32927474 0.00504008 0.35414618
-0.01170568 -0.78513771 0.00000013
-0.49646571 -0.15254596 -0.12050124
-0.58033097 -0.05004554 -0.26987886
-0.16095574 -0.37951913 0.00000227
-0.12896141 -0.30007300 0.00000222
-0.57056570 -0.51408488 -0.03103697
-0.69959515 -0.53110975 -0.17527652
-0.46689355 -0.32718888 0.03289626
-0.00740578 0.14098360 0.00001046
-0.03180319 0.25080708 0.00000892
-0.12441834 -0.20504002 0.00000243
-0.55386484 -0.53715581 0.00606839
-0.29069135 -0.55017400 0.00000282
-0.39075446 -0.10992081 -0.01637437
-0.50207943 -0.29083967 -0.05940060
-0.49446541 -0.03303611 -0.17667410
-0.28141475 0.36580026 -0.12009466
-0.43989795 -0.26201564 0.03615164
-0.50382650 -0.11034788 -0.14987496
-0.04262221 0.03524530 0.00001088
-0.17831825 -0.20740205 0.00000283
-0.61463594 -0.73674190 0.00000480
-0.37598509 -0.09829110 -0.00460579
-0.28799167 -0.33927101 0.00000332
-0.37842882 -0.57019979 0.00000343
-0.70437157 -0.58971840 -0.15221696
-0.22750358 0.35290241 -0.05002460
-0.15853354 0.41726804 0.00882093
-0.00858331 0.73079306 0.00000454
-0.66183341 -0.43832567 -0.17607087
-0.23114322 0.41756332 -0.08600196
-0.40166399 -0.02869130 -0.06906292
-0.56894404 -0.16364434 -0.20077196
-0.61656284 -0.24520995 -0.21712968
-0.49587563 -0.26711318 -0.06368617
-0.30391008 0.32082510 -0.12466582
-0.25598687 0.06084095 0.00000676
-0.09265891 0.17323591 0.00000859
-0.61612296 -0.39138389 -0.14501064
-0.59497708 -0.15622015 -0.23519300
-0.71502024 -0.74298590 -0.08973560
-0.36094344 -0.33467114 0.00000389
-0.23275591 0.23808213 0.00377856
-0.58463156 -0.02199970 -0.28870240
-0.08199768 0.27763289 0.00000774
-0.39657909 0.05540089 -0.10423614
-0.34274536 -0.36359906 0.00000368
-0.03146794 -0.32324436 0.00000143
-0.12765075 0.49182180 0.04530157
-0.08661087 0.08407750 0.00000959
-0.68846399 -0.59857196 -0.12906967
-0.15519561 -0.78324884 0.00000121
-0.26877400 -0.41585734 0.00000299
-0.08317945 -0.49044895 0.00000140
-0.39262316 0.03055941 -0.08738977
-0.35729060 -0.18208812 0.00000424
-0.41982257 -0.03712129 -0.08640658
-0.42132932 -0.20981900 -0.00359760
-0.36752531 -0.38612318 0.00000381
-0.65722615 -0.66702545 -0.05860121
-0.44386587 0.02817026 -0.14681613
-0.73127866 -0.66293031 -0.14817384
-0.24877895 0.08498899 0.00000665
-0.31945807 0.33003232 -0.14756203
-0.33578891 0.09069871 -0.04963937
-0.00074052 -0.55651122 0.00000060
-0.20742606 0.29922110 0.15264505
-0.20459601 0.30606133 0.05287546
-0.36780787 0.03658901 -0.06099818
-0.13687983 -0.54681176 0.00000167
-0.66470861 -0.56371295 -0.11805369
-0.39181277 -0.05402453 -0.04500493
-0.25043035 0.19540244 0.13352332
-0.03931025 0.59444880 0.00000534
-0.33233774 -0.41697425 0.00000346
-0.65668595 -0.55195653 -0.11432544
-0.61092371 -0.40682903 -0.13129704
-0.20760807 0.46079654 -0.07934790
-0.50272113 -0.22889674 -0.09050025
-0.11472454 -0.29890469 0.00000212
-0.61227447 -0.27955854 -0.19523396
-0.57326782 -0.06727079 -0.25309059
-0.25054002 -0.75547820 0.00000200
-0.14218090 -0.60695088 0.00000156
-0.61150295 -0.49704248 -0.08779367
-0.11448721 0.56583351 -0.02067960
-0.11065913 -0.31951225 0.00000204
-0.37217149 -0.09851640 0.21441770
-0.50896180 -0.73781323 0.00000400
-0.53043181 -0.48058400 0.02411351
-0.37046072 -0.59538913 0.00000331
-0.47760242 0.00445806 -0.17509592
-0.36369005 0.15084939 -0.11209769
-0.32130679 -0.57428998 0.00000299
-0.66897643 -0.22898398 -0.28705701
-0.41104370 -0.29966953 0.00000435
-0.15648192 -0.56956112 0.00000176
-0.07075002 0.03009472 0.00001042
-0.53389925 -0.72126108 0.00000422
-0.29823679 0.25048438 -0.08350141
-0.21043868 0.09831675 0.00000721
-0.60163003 -0.28561223 -0.17968152
-0.16685836 0.18572980 0.00000712
-0.56495720 -0.24888308 -0.15430588
-0.66909182 -0.49492386 -0.15693106
-0.28382435 0.11477682 0.21367814
-0.57383823 -0.46476454 -0.05906484
-0.06470052 0.70560575 -0.03027043
-0.05821974 -0.79146439 0.00000046
-0.38084474 0.29075450 -0.20091458
-0.66408861 -0.79216254 -0.00542156
-0.57264555 -0.66421705 0.00000466
-0.26230696 -0.55447233 0.00000259
-0.18222000 -0.03270814 0.00000329
-0.38061619 -0.11891009 0.38618344
-0.30987212 -0.14000387 0.00000399
-0.36632678 -0.63018256 0.00000319
-0.48471949 -0.66955018 0.00000398
-0.57190138 -0.02530755 -0.27202809
-0.20474178 0.49641091 -0.09340363
-0.34000561 -0.32958731 0.00000374
-0.50820923 0.11997435 -0.26787397
-0.24081668 -0.50261915 0.00000256
-0.46281341 0.13079646 -0.21949257
-0.15542907 0.00130465 0.00000917
-0.56231505 -0.55756325 0.18068095
-0.56217867 -0.10075705 -0.22357520
-0.31688753 0.22490855 -0.09302868
-0.33894175 -0.01829188 0.27919742
-0.10856867 -0.18571454 0.00000235
-0.42411590 -0.22391680 0.09745479
-0.12394558 0.50076157 0.11029543
-0.47881269 -0.57407194 0.00000418
-0.26432651 -0.41859937 0.00000295
-0.22385754 -0.56750780 0.00000227
-0.65021533 -0.30761969 -0.22635478
-0.00887446 0.14720075 0.00001037
-0.11802378 0.14675307 0.00000840
-0.42949209 -0.68488163 0.00000353
-0.08403870 0.28379932 0.00000764
-0.14456664 0.18134753 0.00000757
-0.25966516 0.31497720 -0.06947981
-0.44359720 0.11145827 -0.18729600
-0.54132664 -0.14267910 -0.17838310
-0.46429133 -0.30831173 -0.00615729
-0.47652122 -0.30601785 -0.02174294
-0.08884643 0.10097667 0.00000938
-0.22480196 -0.10907575 0.00000342
-0.24686357 0.20402050 0.04345829
-0.33918202 -0.51392335 0.00000327
-0.18686615 0.01899972 0.00000843
-0.57720029 -0.51383436 -0.03900521
-0.30318981 -0.70251989 0.00000253
-0.09488031 -0.37134299 0.00000179
-0.19913541 0.39759204 -0.03836871
-0.39354786 -0.01472319 -0.06630729
-0.13731749 0.46847883 0.11642890
-0.35022578 -0.04553141 0.25228775
-0.68966430 -0.53090131 -0.16363543
-0.23067230 -0.24812604 0.00000312
-0.14652409 0.11082178 0.00000824
-0.13759784 0.60958868 -0.06944183
-0.01122616 -0.69763237 0.00000034
-0.44752651 -0.71608818 0.00000359
-0.46247429 0.08764765 -0.19795564
-0.00402693 0.29307488 0.00000900
-0.08610457 0.65728432 -0.03191196
-0.27658835 -0.30566311 0.00000332
-0.39763600 -0.36517540 0.00000409
-0.47934601 -0.35726330 0.34327725
-0.36302266 -0.07112914 -0.00258194
-0.20473997 -0.73999137 0.00000169
-0.37060818 -0.45400468 0.00000366
-0.24756011 0.20232484 0.21967828
-0.42943615 -0.14519005 -0.04484060
-0.19278578 0.33456355 0.17570117
