ply
format ascii 1.0
element vertex 1364
property float x
property float y
property float z
end_header
-0.25760108 0.21086416 0.08926702
-0.67821163 -0.67537683 -0.00000024
-0.00917891 -0.69150299 0.00000047
-0.16282174 0.43288943 0.07077292
-0.58352941 0.19764356 0.00000059
-0.40413627 -0.56918132 0.00000101
-0.44514745 0.25628349 0.00000278
-0.29386699 0.01037922 0.00000750
-0.56803501 0.21674271 0.00000073
-0.68028444 -0.36570290 -0.00000042
-0.42408174 -0.75475556 0.00000020
-0.41812295 -0.23323511 0.00000248
-0.06629114 -0.08275201 0.00000314
-0.28215212 -0.60921282 0.00000083
-0.24446656 -0.10016841 0.00000306
-0.09299699 0.58217233 0.01824704
-0.70504606 -0.13577384 -0.00000082
-0.40424514 -0.26965564 0.00000232
-0.46830213 0.19358250 0.00000283
-0.75504756 -0.34328774 -0.00000114
-0.56468129 -0.47986135 0.22713792
-0.36314034 0.00427335 0.00000636
-0.39105582 -0.03052512 0.30929604
-0.69441909 0.09250111 -0.00000071
-0.59532589 -0.37221208 0.00000058
-0.36052760 0.00263734 0.19890007
-0.51122659 -0.37652519 0.15711336
-0.64629561 0.10199599 0.00000014
-0.55876726 -0.69644362 0.00000045
-0.52251130 0.24258474 0.00000140
-0.43762150 0.33578402 0.00000229
-0.60197788 -0.21352886 0.00000043
-0.51482165 0.02840122 0.00000325
-0.38669273 0.15006416 0.00000474
-0.55176574 -0.33500278 0.00000108
-0.23271105 -0.01862822 0.00000342
-0.10267326 -0.08929418 0.00000311
-0.13667846 -0.55938387 0.00000105
-0.61273634 -0.13565812 0.00000026
-0.63366574 0.02692012 0.00000098
-0.18478680 -0.21276405 0.00000257
-0.39987117 -0.11143567 0.14691481
-0.30412617 0.25450963 0.00000550
-0.53379858 -0.66791075 0.00000058
-0.30044755 0.04975034 0.00000716
-0.27195486 -0.16831908 0.00000276
-0.49439573 -0.38473389 0.02410664
-0.14009941 0.49993265 0.00000670
-0.05186199 0.67165941 0.00000702
-0.00174556 -0.08362880 0.00000313
-0.66853809 -0.44543222 -0.00000024
-0.66289014 -0.70881444 -0.00000005
-0.20309794 -0.53707880 0.00000115
-0.06982585 0.16339861 0.00000993
-0.43647766 -0.04405404 0.00000229
-0.71579331 0.08260986 -0.00000105
-0.69223112 -0.82736903 0.11935541
-0.38769713 -0.04143471 0.00000286
-0.47851491 -0.17405361 0.00000186
-0.45308039 0.12923919 0.00000363
-0.26186946 0.08558788 0.00000751
-0.77973950 -0.26848742 -0.00000133
-0.54258150 0.13587607 0.00000186
-0.08397643 -0.12313491 0.00000296
-0.68284661 -0.23291539 -0.00000051
-0.47067860 -0.71731114 0.00000036
-0.21315762 0.02151428 0.00000865
-0.62172753 0.01428572 0.00000131
-0.09533760 0.13399482 0.00000972
-0.66515374 -0.71805966 -0.00000007
-0.46736053 -0.21899240 0.00000201
-0.25354311 0.45979065 0.00000484
-0.74960655 -0.25989747 -0.00000128
-0.27486607 0.27219203 0.00000592
-0.02009459 -0.58233178 0.00000086
-0.13657108 -0.31137037 0.00000214
-0.13727888 -0.29577225 0.00000221
-0.28949296 -0.35959330 0.00000193
-0.05263718 0.16911203 0.00001015
-0.12339641 0.47008264 0.00000720
-0.41028592 -0.07660783 0.31022912
-0.54809880 -0.64439714 0.00000068
-0.46924710 0.33014578 0.00000173
-0.62496227 -0.68763858 0.05762780
-0.15572615 -0.18512695 0.00000269
-0.30608961 0.19779611 0.00000591
-0.36939102 -0.00375434 0.23976575
-0.37534806 0.19972824 0.00000457
-0.09239198 -0.31113461 0.00000214
-0.19507328 -0.09678765 0.00000308
-0.32312709 -0.65099180 0.00000065
-0.67827249 -0.34437752 -0.00000040
-0.15570095 0.31140137 0.00000770
-0.20502239 0.36011142 0.15002646
-0.00291008 -0.69052285 0.00000047
-0.67230582 -0.08549354 -0.00000046
-0.11985421 0.48076773 0.00000719
-0.74543589 -0.29788527 -0.00000121
-0.00234587 -0.65610278 0.00000062
-0.20857775 -0.78884244 0.00000005
-0.14372548 0.65460604 0.00000538
-0.23128334 -0.08121144 0.00000314
-0.03884840 0.26551697 0.00000975
-0.72669971 0.06262469 -0.00000117
-0.25345352 0.21209656 0.06535548
-0.38464659 -0.03728733 0.24874434
-0.21958938 -0.24215034 0.00000244
-0.53000051 -0.58137566 0.00000096
-0.50102431 0.15741952 0.00000249
-0.09104178 0.59605998 0.04321177
-0.49713960 0.03371811 0.00000355
-0.42015871 -0.07832926 0.37044898
-0.31269395 0.21257909 0.00000567
-0.31537330 0.47635391 0.00000352
-0.28010148 0.15065576 0.07323310
-0.48433864 0.09115793 0.00000334
-0.33001021 -0.26952782 0.00000232
-0.10710633 -0.36557323 0.00000190
-0.38775408 -0.43370494 0.00000160
-0.55992162 -0.48466316 0.18277071
-0.59454328 0.10675812 0.00000110
-0.34143469 -0.41521692 0.00000168
-0.13823806 0.28026146 0.00000816
-0.39047432 -0.07046566 0.19670635
-0.51602942 -0.36090848 0.23121671
-0.03754709 -0.03324771 0.00000335
-0.04579884 -0.31383094 0.00000213
-0.63070834 -0.43838513 0.00000020
-0.23504233 -0.09273059 0.00000309
-0.20387934 0.33249471 0.06730537
-0.46543381 -0.42955437 0.00000162
-0.54840469 0.04913728 0.00000244
-0.05313063 0.37575522 0.00000885
-0.55895740 -0.46679038 0.22510247
-0.00735372 -0.34467906 0.00000196
-0.39250347 -0.68326807 0.00000051
-0.14099506 0.12192097 0.00000911
-0.09780876 -0.61648691 0.00000080
-0.60512596 -0.38462520 0.00000047
-0.14714897 -0.30856383 0.00000215
-0.48583084 -0.32098418 0.14140186
-0.77010900 -0.65628827 -0.00000036
-0.00094535 -0.48606649 0.00000137
-0.15785159 0.43665221 0.04834410
-0.29253441 0.28813669 0.00000545
-0.68256396 -0.53399867 -0.00000036
-0.06829959 0.48904139 0.00000791
-0.20725368 -0.48675153 0.00000137
-0.21627712 0.31246588 0.09427038
-0.43279299 -0.13119031 0.30955964
-0.63621616 0.02987403 0.00000091
-0.58208853 -0.77263504 0.00000012
-0.50984865 -0.12740222 0.00000147
-0.58873177 0.14002147 0.00000094
-0.49471268 -0.12676308 0.00000164
-0.36214492 -0.44382003 0.00000156
-0.35217023 -0.43938509 0.00000158
-0.15614019 0.20160659 0.00000838
-0.24684840 0.21771295 0.03722544
-0.22373459 0.09560828 0.00000803
-0.15933815 0.46366847 0.00000662
-0.02541180 0.25472006 0.00001002
-0.59756452 -0.76822066 0.00000014
-0.26059270 0.24244323 0.19493169
-0.45741251 -0.18562929 0.32316896
-0.63330579 -0.58047116 0.00000024
-0.33943969 -0.37838376 0.00000184
-0.66599208 -0.30514202 -0.00000028
-0.43192047 0.28146836 0.00000283
-0.42793500 -0.15747762 0.00000244
-0.44151318 -0.23284429 0.09006398
-0.67144489 -0.43804768 -0.00000028
-0.29432833 -0.52801979 0.00000119
-0.10440043 0.67366469 0.00000600
-0.20865667 0.36347562 0.18308106
-0.04461994 0.19989552 0.00001008
-0.13722801 -0.48477548 0.00000138
-0.66954517 -0.31757462 -0.00000031
-0.44914225 -0.19748011 0.23652467
-0.04197139 0.70920479 0.02872140
-0.25575122 0.06154617 0.00000776
-0.45216423 -0.69689131 0.00000045
-0.27082461 -0.03309028 0.00000336
-0.20013125 0.52480197 0.00000535
-0.62204415 -0.10858181 0.00000014
-0.47950310 0.15097629 0.00000295
-0.13538672 -0.58344334 0.00000095
-0.18570970 0.57626987 0.00000521
-0.19477591 0.40056276 0.00000644
-0.07238730 0.05310771 0.00001058
-0.55457854 -0.45090720 0.23956716
-0.61389160 -0.78657895 0.00000006
-0.00794690 -0.01409411 0.00000340
-0.45297778 0.13538159 0.00000359
-0.16074447 0.42723316 0.04171294
-0.08524288 0.62115681 0.07343158
-0.48608330 -0.70197773 0.00000043
-0.22871524 -0.15463348 0.00000282
-0.53488040 -0.26619872 0.00000124
-0.62708879 -0.14872204 0.00000010
-0.18107121 0.38524061 0.06099412
-0.07283518 0.45455453 0.00000806
-0.43876517 0.03801430 0.00000464
-0.42757764 -0.64560091 0.00000068
-0.27272603 -0.51973397 0.00000123
-0.51391315 -0.36045274 0.21854462
-0.01237345 0.77684975 0.00000695
-0.29404342 0.30251884 0.00000531
-0.39462930 -0.13143036 0.05800283
-0.59053159 -0.12814482 0.00000052
-0.21256132 0.53008831 0.00000506
-0.55586606 0.04884317 0.00000230
-0.00748506 -0.27055845 0.00000232
-0.24596816 0.32794982 0.00000603
-0.28724563 -0.16458625 0.00000278
-0.56040311 -0.48630217 0.00000105
-0.30745682 -0.69691372 0.00000045
-0.71358091 -0.13345686 -0.00000092
-0.18529838 -0.46893585 0.00000145
-0.20626462 0.36602554 0.17429870
-0.17221957 0.34427163 0.00000725
-0.08162656 0.20180240 0.00000951
-0.39801207 -0.36424962 0.00000191
-0.72945982 -0.05433672 -0.00000115
-0.59404314 0.05272795 0.00000154
-0.24444482 -0.17749326 0.00000272
-0.53959310 -0.53541940 0.00000116
-0.30305681 0.14293878 0.00000641
-0.31356543 -0.76163012 0.00000017
-0.33113647 0.17566986 0.00000561
-0.22777332 0.32230899 0.00000643
-0.18593034 -0.32877231 0.00000206
-0.00534459 -0.49057066 0.00000135
-0.60114306 -0.69140500 0.00000048
-0.09096613 0.20041128 0.00000937
-0.15468112 -0.57841074 0.00000097
-0.17550045 -0.70130265 0.00000043
-0.41421297 -0.06493686 0.36782971
-0.72790813 -0.18441027 -0.00000106
-0.31682083 -0.31021091 0.00000214
-0.44860533 -0.51754469 0.00000124
-0.19371136 -0.40725926 0.00000172
-0.69472224 -0.83447915 0.11637049
-0.61403215 0.02985685 0.00000133
-0.70312124 -0.13231330 -0.00000080
-0.22018562 0.04182602 0.00000842
-0.16698086 -0.73039705 0.00000030
-0.58893716 -0.52417427 0.00000073
-0.76885551 -0.40350175 -0.00000099
-0.39982963 0.37189859 0.00000273
-0.79042912 -0.79944986 -0.00000000
-0.40349707 -0.10408939 0.19075838
-0.08727762 0.33198595 0.00000861
-0.45083830 -0.63774723 0.00000071
-0.17152463 -0.05708238 0.00000325
-0.26379514 -0.13192199 0.00000292
-0.31821215 0.07878877 0.12807836
-0.07165852 -0.01273529 0.00000344
-0.17452469 -0.66290504 0.00000060
-0.25093755 -0.49081051 0.00000135
-0.47850087 -0.14138491 0.00000184
-0.52329922 -0.46617520 0.00000146
-0.31454682 0.37009850 0.00000438
-0.21623407 -0.48300406 0.00000139
-0.16899656 0.41040373 0.05013524
-0.58251774 -0.04822142 0.00000058
-0.68566316 0.03957110 -0.00000012
-0.62499076 -0.18506414 0.00000014
-0.77813649 -0.31893906 -0.00000120
-0.19521143 0.36241534 0.09179934
-0.28443891 -0.52587152 0.00000120
-0.09453718 -0.24755991 0.00000242
-0.75648826 -0.62115574 -0.00000045
-0.27545229 0.39592424 0.00000492
-0.74855387 -0.38676730 -0.00000103
-0.34712288 0.12908693 0.00000567
-0.50998646 -0.56145477 0.00000104
-0.18694603 -0.71145999 0.00000039
-0.26121116 -0.24019423 0.00000245
-0.48562151 -0.25840026 0.31045508
-0.73584777 -0.62016958 -0.00000045
-0.04822309 -0.42625979 0.00000164
-0.04270265 0.09372091 0.00001077
-0.08305659 -0.63756859 0.00000071
-0.11725321 -0.13942651 0.00000289
-0.75541598 -0.69706261 -0.00000026
-0.77262694 -0.04671278 -0.00000166
-0.43278667 -0.21499804 0.08129169
-0.09182565 -0.76629066 0.00000015
-0.50795031 -0.31237045 0.31028092
-0.55587810 -0.31806713 0.00000102
-0.57061791 -0.50263917 0.20413911
-0.38806883 -0.66269171 0.00000060
-0.65849745 -0.76509851 0.06715858
-0.67085773 0.01641809 0.00000035
-0.35710889 -0.39895013 0.00000175
-0.61638653 -0.10607555 0.00000021
-0.75280243 -0.19766337 -0.00000135
-0.01260653 -0.03749108 0.00000334
-0.02403055 0.59803915 0.00000790
-0.34002835 0.00926473 0.08217771
-0.02706721 0.06211522 0.00001120
-0.71587563 -0.62472022 -0.00000044
-0.14139730 0.47925311 0.05617851
-0.58797276 -0.53909922 0.21894594
-0.29701558 -0.70765024 0.00000040
-0.54219919 -0.15807720 0.00000110
-0.07426827 -0.66435277 0.00000059
-0.11673284 -0.35275301 0.00000196
-0.68122214 -0.81929153 0.06897817
-0.08641257 0.32590950 0.00000866
-0.71448672 -0.56907570 -0.00000058
-0.10687443 -0.71853584 0.00000036
-0.29248649 -0.70976871 0.00000039
-0.07883821 -0.20227481 0.00000262
-0.23624317 -0.02235247 0.00000340
-0.64754242 -0.20045605 -0.00000011
-0.16705509 -0.07252874 0.00000318
-0.05929011 0.16038661 0.00001010
-0.12189531 0.52495098 0.05240989
-0.47416490 -0.27033904 0.00000196
-0.25915220 -0.39601576 0.00000177
-0.31700423 0.21861759 0.00000554
-0.43516698 -0.67358518 0.00000055
-0.00770557 -0.12911358 0.00000294
-0.76192045 -0.20956273 -0.00000145
-0.05235431 0.09386432 0.00001062
-0.54681873 -0.69712859 0.00000045
-0.77230090 -0.22225673 -0.00000144
-0.07406307 0.02916201 0.00001070
-0.04508671 -0.76023239 0.00000017
-0.64053845 -0.25611252 -0.00000000
-0.35984617 0.00510681 0.20114499
-0.20848104 -0.48897222 0.00000136
-0.24448846 -0.39417332 0.00000178
-0.20014086 -0.18650015 0.00000268
-0.66749430 -0.79964495 0.03223068
-0.59994668 0.07386480 0.00000125
-0.35961288 -0.30653358 0.00000216
-0.51835978 -0.34661850 0.00000147
-0.21282324 -0.05427706 0.00000326
-0.41868216 -0.15740693 0.14539599
-0.69713843 -0.68918550 -0.00000028
-0.44904545 -0.25650579 0.07514873
-0.31469759 0.39536485 0.00000418
-0.19782324 0.37298897 0.13776477
-0.66601360 -0.21359192 -0.00000032
-0.37364745 -0.47648180 0.00000142
-0.32013243 -0.46264744 0.00000148
-0.09428084 0.27401188 0.00000886
-0.47341681 -0.24289317 0.27244565
-0.48028240 -0.32374260 0.09741243
-0.47890228 -0.60661763 0.00000085
-0.04835739 0.52241635 0.00000801
-0.17029206 -0.62097609 0.00000078
-0.37170282 0.31081754 0.00000375
-0.49600148 -0.30065253 0.00000171
-0.18075918 0.37713990 0.03688277
-0.61014467 -0.39853361 0.00000042
-0.33904546 -0.64534307 0.00000068
-0.14135344 0.23354672 0.00000841
-0.10558813 0.55645639 0.03099609
-0.41654617 -0.55810934 0.00000106
-0.41890800 -0.11401477 0.26504698
-0.16217571 0.18525504 0.00000840
-0.43083808 -0.30665931 0.00000216
-0.24331072 0.22543815 0.03500472
-0.73142529 -0.77784985 -0.00000006
-0.30637306 -0.71036679 0.00000039
-0.38821322 -0.75226057 0.00000021
-0.46204334 -0.66777050 0.00000058
-0.63052189 -0.28938180 0.00000013
-0.15976036 -0.55976874 0.00000105
-0.25276861 -0.61835659 0.00000079
-0.06045152 0.27629167 0.00000936
-0.69099915 -0.11935360 -0.00000066
-0.72875535 -0.27389035 -0.00000103
-0.20435394 -0.70774400 0.00000040
-0.23610036 0.14068951 0.00000756
-0.52003568 -0.21945041 0.00000139
-0.16840729 0.03127628 0.00000926
-0.07164972 0.41625500 0.00000832
-0.10195717 -0.73471582 0.00000029
-0.79151452 -0.23163763 -0.00000142
-0.16978188 -0.52694428 0.00000119
-0.01842973 -0.76449704 0.00000016
-0.09016899 -0.71990389 0.00000035
-0.68759847 -0.58365756 -0.00000040
-0.17614003 0.38123071 0.01765480
-0.41545388 -0.30177751 0.00000218
-0.31283087 -0.16852109 0.00000276
-0.29925913 0.05019152 0.00000717
-0.78403705 -0.49496073 -0.00000076
-0.42934212 -0.09708791 0.37974045
-0.75553763 -0.54598534 -0.00000064
-0.68832219 -0.40675589 -0.00000049
-0.15208261 -0.70538765 0.00000041
-0.44420999 0.29039297 0.00000252
-0.52996689 -0.43165490 0.13018940
-0.17767929 -0.65056837 0.00000065
-0.41408661 -0.53866529 0.00000114
-0.13504705 0.55192983 0.00000638
-0.77127999 -0.13949209 -0.00000160
-0.17183159 -0.19800594 0.00000263
-0.17710052 0.25718826 0.00000772
-0.70296580 -0.69844186 -0.00000025
-0.40516657 -0.12334157 0.14930652
-0.39075649 0.27388039 0.00000368
-0.00930149 -0.79400486 -0.00000002
-0.10076329 0.15729573 0.00000950
-0.58143222 -0.30358055 0.00000071
-0.32213053 0.04416720 0.05955735
-0.53134412 0.25858152 0.00000110
-0.78103286 -0.30187720 -0.00000125
-0.21149611 -0.04741472 0.00000329
-0.39441758 -0.65117598 0.00000065
-0.21169464 0.31420714 0.06888524
-0.49473265 -0.27395219 0.00000172
-0.41629475 -0.10929610 0.26071638
-0.43052998 0.32264391 0.00000253
-0.34992957 -0.31224334 0.00000213
-0.28615108 -0.45611516 0.00000150
-0.73778361 -0.32151061 -0.00000111
-0.61536121 0.09172365 0.00000082
-0.25505254 -0.62839472 0.00000075
-0.23666777 -0.39698687 0.00000176
-0.19836268 0.37954235 0.15915748
-0.29178873 -0.59851176 0.00000088
-0.02688570 -0.77023178 0.00000013
-0.27908739 0.16053610 0.09347240
-0.43859148 -0.76740950 0.00000014
-0.33750182 0.03426839 0.13365766
-0.13385727 -0.01487025 0.00000343
-0.58434951 0.06972544 0.00000159
-0.43327123 0.06688955 0.00000451
-0.59335911 -0.48277318 0.00000066
-0.45134422 -0.14440656 0.00000216
-0.38562551 0.23723289 0.00000407
-0.35425800 0.32605517 0.00000397
-0.06955130 -0.68028593 0.00000052
-0.30825615 -0.70394236 0.00000042
-0.08481589 0.59539765 0.00047668
-0.25742087 0.05095753 0.00000780
-0.49936852 -0.33463389 0.19323274
-0.04731673 0.48334330 0.00000827
-0.49111754 -0.26443520 0.33015367
-0.14227533 -0.22915716 0.00000250
-0.64753002 -0.72323263 0.10906332
-0.23414579 -0.37991071 0.00000184
-0.49630383 -0.30086353 0.26504815
-0.36048958 0.28624013 0.00000416
-0.32434392 0.32520667 0.00000455
-0.29404554 0.03259278 0.00000736
-0.64821899 -0.33898488 -0.00000005
-0.49582046 -0.46748686 0.00000145
-0.13723308 -0.55957544 0.00000105
-0.27985430 0.14486192 0.05583015
-0.40013501 0.24754366 0.00000371
-0.79003406 -0.09167372 -0.00000177
-0.11058611 -0.34081185 0.00000201
-0.38368547 -0.08569821 0.11059230
-0.01438037 0.38104421 0.00000940
-0.52884799 -0.58417845 0.00000094
-0.39078745 0.10206915 0.00000505
-0.62740624 -0.54077089 0.00000029
-0.33515269 -0.51215494 0.00000126
-0.32542831 -0.44496948 0.00000155
-0.72043061 0.00850343 -0.00000054
-0.76128709 -0.07580447 -0.00000151
-0.14828882 -0.25841463 0.00000237
-0.08935221 0.65631080 0.00000643
-0.18120910 -0.21328397 0.00000257
-0.18785740 -0.17734897 0.00000272
-0.16019829 0.55373120 0.00000588
-0.40092430 -0.63258445 0.00000073
-0.22777013 -0.25852308 0.00000237
-0.04404177 -0.02926364 0.00000337
-0.60802889 -0.42486411 0.00000046
-0.09392317 0.59700012 0.06471537
-0.46066201 -0.13846931 0.00000205
-0.12396995 0.21208997 0.00000880
-0.50777149 -0.54708141 0.00000111
-0.12951377 0.35761443 0.00000781
-0.14700516 -0.52292848 0.00000121
-0.47538018 0.14016858 0.00000312
-0.66369969 -0.34417769 -0.00000023
-0.08233321 -0.64164960 0.00000069
-0.35889357 0.00454624 0.19335566
-0.36954975 0.26966059 0.00000412
-0.24735034 0.25193626 0.13372277
-0.01637542 0.18240692 0.00001061
-0.42962560 -0.14953314 0.00000242
-0.50544518 -0.47611609 0.00000142
-0.23409402 -0.44472638 0.00000155
-0.16278033 0.58600432 0.00000558
-0.37964132 -0.06352181 0.14439557
-0.20516399 -0.43083602 0.00000162
-0.09163945 0.69839799 0.00000597
-0.52594829 -0.29530400 0.00000136
-0.47216547 -0.67949218 0.00000053
-0.22194549 0.29490373 0.08371098
-0.31128162 -0.08563489 0.00000313
-0.02613138 -0.03943373 0.00000333
-0.36010191 0.43790662 0.00000296
-0.74322236 -0.03983208 -0.00000131
-0.20167443 0.51312983 0.00000541
-0.33576879 0.40149075 0.00000372
-0.14224984 0.46074116 0.01137143
-0.23874830 0.15055276 0.00000746
-0.01219808 -0.01055998 0.00000340
-0.06451093 -0.06822978 0.00000320
-0.18622231 -0.46441039 0.00000147
-0.51487809 -0.03906827 0.00000137
-0.07437694 -0.09969099 0.00000306
-0.48102024 -0.29621992 0.17721342
-0.31930599 -0.28629252 0.00000225
-0.26548916 -0.67511171 0.00000055
-0.30627888 -0.20239840 0.00000261
-0.39639866 0.22885413 0.00000393
-0.36356211 -0.35079488 0.00000197
-0.40132031 0.09977640 0.00000486
-0.01720380 0.18770526 0.00001057
-0.20815983 -0.14056227 0.00000289
-0.39688814 0.13316184 0.00000468
-0.39241016 -0.11951748 0.07585464
-0.03809584 0.15727226 0.00001044
-0.26356152 -0.03523567 0.00000335
-0.54546720 -0.20781267 0.00000109
-0.15278290 -0.69260448 0.00000047
-0.77911437 -0.36834043 -0.00000108
-0.51065856 -0.31222904 0.32847053
-0.73573691 -0.53236979 -0.00000067
-0.00512371 -0.04664532 0.00000327
-0.56178749 -0.78170830 0.00000008
-0.10618677 0.40478852 0.00000787
-0.52894700 0.06837035 0.00000266
-0.15570915 -0.03009392 0.00000337
-0.22833604 -0.59057391 0.00000092
-0.13117020 0.45221436 0.00000719
-0.78356659 -0.31231540 -0.00000122
-0.46097690 -0.22453329 0.24065877
-0.58888662 -0.13477738 0.00000054
-0.21574146 -0.60015732 0.00000087
-0.09586995 -0.54432696 0.00000112
-0.34261698 -0.43439704 0.00000160
-0.06207836 0.52939761 0.00000775
-0.36115968 -0.03863692 0.09065688
-0.58971912 -0.43140554 0.00000068
-0.50893974 -0.33925140 0.24358322
-0.04799950 -0.56433362 0.00000103
-0.31362000 0.04502260 0.00593522
-0.54975814 -0.07085846 0.00000097
-0.62954342 -0.10316786 0.00000005
-0.15234467 0.51990736 0.00000630
-0.37570873 -0.44020948 0.00000157
-0.49319607 -0.29866573 0.25060165
-0.51215202 -0.62330729 0.00000077
-0.52357203 -0.38225517 0.00000143
-0.67565936 -0.30497545 -0.00000039
-0.50720435 0.06588152 0.00000310
-0.19065772 0.34638941 0.01821946
-0.37188733 -0.45397818 0.00000151
-0.58211011 -0.45462519 0.00000078
-0.52956647 -0.19683874 0.00000127
-0.62398773 -0.31274351 0.00000022
-0.05143836 -0.01046516 0.00000345
-0.16875961 -0.21266302 0.00000257
-0.06600561 0.35307682 0.00000880
-0.42858791 -0.18569659 0.13348147
-0.37984723 -0.54829288 0.00000110
-0.55294180 -0.77847677 0.00000009
-0.65047181 -0.47046649 -0.00000002
-0.14156213 -0.67098773 0.00000056
-0.17401770 0.43875787 0.16036062
-0.31060103 0.45686078 0.00000376
-0.48480731 -0.27885416 0.00000183
-0.02640375 0.15081562 0.00001066
-0.08148394 0.23748176 0.00000929
-0.62935793 -0.10034206 0.00000005
-0.74546933 -0.68294001 -0.00000029
-0.61522943 -0.51929396 0.00000042
-0.20582785 -0.26981059 0.00000232
-0.04261392 0.74411005 0.00000663
-0.05364912 0.32498655 0.00000916
-0.67731053 0.11165235 -0.00000061
-0.30296087 0.14093187 0.00000642
-0.43596295 -0.17341623 0.00000236
-0.46827978 -0.67105496 0.00000056
-0.28327271 -0.62215066 0.00000078
-0.71281803 -0.74421704 -0.00000014
-0.20590673 0.26504606 0.00000724
-0.28954372 -0.01597022 0.00000343
-0.62596029 -0.55366451 0.00000031
-0.14944217 0.19924060 0.00000850
-0.53769159 -0.42430502 0.20098989
-0.01862828 -0.78235751 0.00000008
-0.65918952 -0.14885035 -0.00000028
-0.70934784 -0.76380807 -0.00000009
-0.64597076 -0.35305950 -0.00000002
-0.74552351 -0.38716945 -0.00000103
-0.42551914 -0.14214534 0.23190559
-0.32943383 -0.64021945 0.00000070
-0.74396217 0.01626164 -0.00000105
-0.30201480 -0.73043931 0.00000030
-0.61930329 -0.64000893 0.15012643
-0.45883277 -0.16222288 0.39624706
-0.53911042 -0.38354045 0.32132560
-0.32185647 -0.53455836 0.00000116
-0.01699490 -0.02238930 0.00000340
-0.72033042 -0.44945449 -0.00000085
-0.16354772 0.21695226 0.00000818
-0.40158650 -0.16067816 0.02409418
-0.29099998 0.13911027 0.11344327
-0.58312660 -0.25697142 0.00000067
-0.04976228 -0.17450459 0.00000274
-0.34749117 -0.18637723 0.00000268
-0.54341304 0.25490439 0.00000090
-0.33979023 -0.00408182 0.04426664
-0.43326271 -0.17650971 0.18923330
-0.41115639 -0.15276840 0.10855030
-0.48352239 -0.30971578 0.15691137
-0.31049499 -0.40482783 0.00000173
-0.70997894 -0.33610725 -0.00000078
-0.63085520 -0.74481785 0.00000024
-0.35680580 0.37980983 0.00000349
-0.50196922 -0.69524270 0.00000046
-0.30884820 0.38837680 0.00000434
-0.20083846 0.52257186 0.00000535
-0.54969746 -0.44055808 0.23566060
-0.24527249 0.23223850 0.06642096
-0.61654681 -0.66154152 0.07336913
-0.30755186 0.17247756 0.00000609
-0.46943483 -0.29256973 0.11098663
-0.23688146 -0.18290135 0.00000270
-0.01603709 -0.03160505 0.00000336
-0.70568860 -0.05308740 -0.00000087
-0.12535746 0.28891617 0.00000830
-0.79333663 -0.39686713 -0.00000101
-0.47992471 -0.01515396 0.00000176
-0.20403440 0.58785874 0.00000477
-0.31896493 0.22991985 0.00000541
-0.56624109 -0.59455025 0.00000090
-0.16008623 0.27567688 0.00000786
-0.62141877 -0.67907012 0.05766520
-0.13125023 0.28589773 0.00000823
-0.43513280 -0.70398259 0.00000042
-0.60844123 0.05194900 0.00000127
-0.11727312 0.55533522 0.10476462
-0.66050929 -0.63375717 -0.00000005
-0.52420342 -0.40323618 0.00000143
-0.55871737 -0.04813752 0.00000086
-0.39427379 -0.63197207 0.00000074
-0.67982221 -0.60053462 -0.00000030
-0.00080902 -0.14535388 0.00000286
-0.60648435 0.08770288 0.00000102
-0.40911445 -0.31253469 0.00000213
-0.27519196 -0.48547748 0.00000138
-0.00022652 0.50276649 0.00000885
-0.25417227 -0.79141325 0.00000004
-0.18587774 -0.71234733 0.00000038
-0.71000212 -0.17174643 -0.00000086
-0.45989552 -0.12007234 0.00000205
-0.19877499 0.57569867 0.00000497
-0.67545593 -0.39799216 -0.00000034
-0.32401678 -0.27139544 0.00000231
-0.43822348 -0.34683484 0.00000198
-0.07251703 0.17408688 0.00000982
-0.48135334 -0.31240585 0.13532563
-0.00392737 -0.34511974 0.00000197
-0.25504041 0.00419773 0.00000813
-0.51931417 -0.33981356 0.31025732
-0.03067631 -0.58890116 0.00000092
-0.61345309 -0.03194551 0.00000020
-0.16524467 -0.79839414 0.00000001
-0.16597486 0.62857783 0.00000518
-0.53259087 -0.33248815 0.00000130
-0.13143303 -0.15293688 0.00000283
-0.53383106 0.06160527 0.00000262
-0.76818871 -0.02795953 -0.00000161
-0.70304251 -0.54178411 -0.00000060
-0.34109968 -0.62243676 0.00000078
-0.09528922 -0.76504141 0.00000015
-0.21240927 -0.54765582 0.00000110
-0.06767047 -0.61474419 0.00000081
-0.03813452 0.51414824 0.00000821
-0.65088814 -0.08703595 -0.00000021
-0.23892999 -0.31819978 0.00000211
-0.32399312 -0.21351396 0.00000257
-0.59551364 -0.45956799 0.00000062
-0.55953705 0.04019805 0.00000230
-0.03777494 0.71147591 0.00731697
-0.41407338 0.07881131 0.00000478
-0.09935326 0.29369062 0.00000867
-0.41766185 -0.11593746 0.25161833
-0.11393421 0.21892673 0.00000891
-0.63609475 -0.05519916 -0.00000005
-0.28527650 -0.16879897 0.00000276
-0.30382627 0.14617500 0.00000637
-0.17279407 -0.63435626 0.00000072
-0.00555335 0.37230256 0.00000959
-0.44949722 -0.05324819 0.00000214
-0.77891994 -0.37083101 -0.00000107
-0.56851655 0.06820338 0.00000190
-0.16340256 0.03272124 0.00000933
-0.04199774 -0.36856699 0.00000189
-0.26787788 -0.20055053 0.00000262
-0.18480521 0.35983151 0.01634856
-0.12150185 -0.00386168 0.00000348
-0.19616400 0.26055837 0.00000741
-0.22523314 -0.34123585 0.00000201
-0.66680044 -0.77848464 -0.00000005
-0.70681667 -0.37046692 -0.00000073
-0.06713055 0.65125191 0.03630944
-0.67811257 -0.81230885 0.06755030
-0.42702174 0.19974089 0.00000357
-0.04383720 0.06069849 0.00001096
-0.20276536 -0.04894192 0.00000329
-0.05438710 0.67502123 0.01725797
-0.68935347 -0.59757698 -0.00000041
-0.62601697 -0.57501334 0.00000032
-0.43556029 0.26756608 0.00000287
-0.68926507 -0.49822149 -0.00000046
-0.09125685 -0.06912573 0.00000320
-0.06680589 -0.08946818 0.00000311
-0.00431780 -0.16151634 0.00000279
-0.42145893 -0.28903764 0.00000224
-0.35622728 -0.16467652 0.00000278
-0.32743132 0.06452186 0.14983693
-0.49628830 -0.15036085 0.00000164
-0.28962612 0.43588781 0.00000433
-0.21665627 -0.03427085 0.00000335
-0.04755942 0.69946581 0.03893796
-0.22780067 0.53170103 0.00000476
-0.13045964 0.42035875 0.00000740
-0.41972020 -0.32804146 0.00000206
-0.25513422 -0.57982618 0.00000096
-0.45528832 -0.03086668 0.00000206
-0.16622330 -0.24643004 0.00000242
-0.23359746 0.39132801 0.00000576
-0.24033999 -0.56919980 0.00000101
-0.54030263 -0.36975217 0.00000123
-0.04077398 -0.79475015 0.00000002
-0.42464477 -0.07989111 0.39568880
-0.19819149 -0.35051653 0.00000197
-0.01590784 -0.14922130 0.00000285
-0.06329687 -0.46709722 0.00000146
-0.11692263 -0.49604735 0.00000133
-0.25081524 -0.00975344 0.00000346
-0.15078738 -0.66668856 0.00000058
-0.09829660 0.62634665 0.00000649
-0.11314439 -0.76902407 0.00000014
-0.63771015 -0.78443897 0.00000007
-0.49828711 -0.62160897 0.00000078
-0.20218214 -0.19472285 0.00000265
-0.47345442 -0.55765355 0.00000106
-0.74893826 -0.23471573 -0.00000129
-0.30612022 -0.32342318 0.00000209
-0.08868809 0.57234997 0.00000708
-0.73675293 -0.26816428 -0.00000113
-0.41038436 -0.59852242 0.00000088
-0.47318763 -0.08656462 0.00000188
-0.01549413 -0.08827851 0.00000311
-0.61999953 -0.64533514 0.14019978
-0.12678409 -0.29203427 0.00000222
-0.54871428 0.04145139 0.00000250
-0.43312857 -0.16665156 0.21519724
-0.01569482 -0.41726393 0.00000167
-0.26634413 0.49697191 0.00000430
-0.22691464 0.27957720 0.07464273
-0.26719642 0.44087377 0.00000473
-0.71260089 -0.01896537 -0.00000097
-0.38927317 -0.20478624 0.00000260
-0.21120027 0.32194617 0.08671003
-0.27766907 0.02468737 0.00000766
-0.18347599 0.41415724 0.15555027
-0.67721421 -0.12756720 -0.00000050
-0.36192694 0.01219615 0.23413059
-0.54937339 -0.16472124 0.00000102
-0.45541790 0.26704955 0.00000249
-0.61013150 -0.52841586 0.00000049
-0.40850377 0.38653392 0.00000241
-0.56410336 0.15804283 0.00000127
-0.36802691 -0.44353604 0.00000156
-0.01603596 0.59431714 0.00000804
-0.29521433 -0.47099847 0.00000144
-0.03728786 0.42613935 0.00000877
-0.42007324 -0.56431639 0.00000103
-0.53950936 0.02571366 0.00000280
-0.22783424 0.15673868 0.00000758
-0.21019949 0.50806874 0.00000529
-0.12005950 -0.24442282 0.00000243
-0.23854607 -0.61096382 0.00000083
-0.04962837 0.24097629 0.00000975
-0.40218675 -0.11587962 0.15003651
-0.53133231 -0.76068527 0.00000017
-0.26043949 -0.73897976 0.00000027
-0.37816456 -0.03882804 0.20193318
-0.05523924 -0.13829404 0.00000289
-0.22872892 0.31731921 0.18935008
-0.18427156 0.14483701 0.00000831
-0.54110217 0.14822307 0.00000179
-0.00219447 -0.11327785 0.00000300
-0.01509310 -0.70843679 0.00000033
-0.03574751 0.43828869 0.00000872
-0.36011565 0.41678724 0.00000313
-0.34057134 -0.67736685 0.00000054
-0.29291534 0.12617677 0.09081492
-0.02664033 -0.24755201 0.00000242
-0.17763443 0.21346028 0.00000799
-0.07709558 -0.52954692 0.00000118
-0.29898572 -0.39293435 0.00000178
-0.47457513 -0.24955823 0.26191062
-0.42329022 -0.09342681 0.00000247
-0.05963993 0.09568360 0.00001050
-0.01272430 0.56535274 0.00000827
-0.28480706 -0.28058285 0.00000227
-0.55437982 -0.48448944 0.14680976
-0.42540404 -0.08167086 0.39583388
-0.55722034 -0.30217502 0.00000100
-0.56550097 -0.66676092 0.00000058
-0.31639951 0.06881018 0.08898750
-0.45508307 -0.28618905 0.03400849
-0.43762773 -0.44870594 0.00000154
-0.24608019 0.26735628 0.16736439
-0.50401545 -0.30820212 0.00000162
-0.30622506 0.48430812 0.00000356
-0.29478073 0.15889028 0.19216464
-0.63458788 -0.50179487 0.00000019
-0.79225868 -0.62231976 -0.00000044
-0.18928434 -0.07600706 0.00000317
-0.14903484 0.50942576 0.00000645
-0.55799276 -0.19165850 0.00000093
-0.29297355 0.17733061 0.23050049
-0.73563886 -0.78770012 -0.00000003
-0.28884766 0.12449991 0.05950590
-0.03845173 0.51995647 0.00000817
-0.38925490 0.13319787 0.00000483
-0.53103614 -0.20140007 0.00000125
-0.12176294 0.49022889 0.00000710
-0.53127205 0.20364772 0.00000154
-0.12824447 0.36200777 0.00000780
-0.45910266 -0.64144087 0.00000069
-0.71866041 -0.21933070 -0.00000094
-0.13866805 0.54143870 0.00000639
-0.19855832 0.10748377 0.00000833
-0.26466483 -0.28152958 0.00000227
-0.27935088 0.12985514 0.01165375
-0.03552264 0.24454983 0.00000994
-0.34594199 -0.58721346 0.00000093
-0.25382957 0.27347404 0.23497181
-0.54819274 0.07429133 0.00000224
-0.24452212 0.13656802 0.00000746
-0.07316875 -0.19209169 0.00000266
-0.45384374 -0.15118118 0.39351609
-0.11991632 -0.00470837 0.00000348
-0.04000489 -0.63359088 0.00000073
-0.47911170 -0.16021071 0.00000184
-0.34205899 0.21961661 0.00000505
-0.28929210 -0.04327557 0.00000331
-0.40208724 -0.06663284 0.28349185
-0.18620896 -0.65879923 0.00000062
-0.53680825 -0.44736135 0.13239510
-0.10989454 -0.40614864 0.00000172
-0.35469437 -0.69921142 0.00000044
-0.01226484 0.35979351 0.00000957
-0.46618062 -0.26247326 0.17155139
-0.19017912 -0.38487872 0.00000182
-0.11255981 -0.54190612 0.00000113
-0.03808900 0.60847026 0.00000762
-0.41936839 -0.16053867 0.14137916
-0.40957719 -0.05408077 0.00000261
-0.30236048 0.23014039 0.00000573
-0.06125130 -0.76925683 0.00000013
-0.17814392 -0.31805897 0.00000211
-0.59040058 -0.18224543 0.00000055
-0.68075466 -0.77954555 -0.00000005
-0.02760657 0.20115991 0.00001033
-0.59895921 -0.73729420 0.00000027
-0.47591946 0.02278393 0.00000404
-0.53967881 -0.66854197 0.00000058
-0.69913936 0.06835910 -0.00000061
-0.45222074 -0.66360426 0.00000060
-0.46049422 -0.26522914 0.12666191
-0.57503486 -0.49720219 0.24798159
-0.26972452 -0.73603654 0.00000028
-0.54657561 0.20496000 0.00000124
-0.06950265 -0.52001703 0.00000122
-0.07780324 0.61472738 0.00701173
-0.60506892 0.12992609 0.00000071
-0.31214446 -0.60113180 0.00000087
-0.25701559 -0.47111169 0.00000144
-0.26893300 -0.13399671 0.00000291
-0.55493510 -0.55282062 0.00000108
-0.46841967 -0.13935083 0.00000196
-0.55358344 -0.65732992 0.00000062
-0.40449172 -0.76951522 0.00000013
-0.12791683 0.23111859 0.00000863
-0.11437806 -0.46845686 0.00000145
-0.34374425 0.08687365 0.31795323
-0.34242120 0.18604696 0.00000531
-0.19138381 0.35846490 0.05587721
-0.39791414 -0.04311759 0.32009330
-0.19262613 0.08884198 0.00000854
-0.44934639 -0.16712008 0.32054368
-0.31423253 0.18761340 0.00000584
-0.41279346 -0.07691338 0.32588264
-0.44727156 -0.19073603 0.24259160
-0.25173298 -0.33955333 0.00000201
-0.44319019 -0.24189213 0.07645004
-0.01411347 0.57619900 0.00000819
-0.46291640 -0.09811727 0.00000200
-0.30057973 0.16116771 0.23649146
-0.28678790 0.14576605 0.10387651
-0.12630884 -0.23110314 0.00000249
-0.33172351 0.33717328 0.00000431
-0.43560886 -0.61074769 0.00000083
-0.06974052 -0.38273588 0.00000183
-0.09276421 -0.72285008 0.00000034
-0.42137814 -0.12773760 0.24391638
-0.59416360 -0.46797019 0.00000064
-0.33435589 0.05732793 0.17577116
-0.47429055 -0.33881372 0.01697769
-0.06020751 0.42673060 0.00000842
-0.61862618 -0.33297905 0.00000029
-0.25585192 -0.47871310 0.00000141
-0.74405581 -0.65468609 -0.00000036
-0.05102799 0.28422859 0.00000945
-0.00487709 0.06824115 0.00001150
-0.01756310 0.63334417 0.00000778
-0.56287342 -0.70192426 0.00000043
-0.29790705 -0.29099464 0.00000223
-0.39068186 -0.10128597 0.11414051
-0.48430219 -0.24392565 0.34119886
-0.41689083 -0.39690629 0.00000176
-0.25836590 0.41028476 0.00000514
-0.00429507 -0.08893280 0.00000311
-0.34973589 -0.67648047 0.00000054
-0.44406587 -0.18503360 0.23704509
-0.12601052 0.62935048 0.00000594
-0.73595428 -0.25360757 -0.00000112
-0.53384084 -0.37241390 0.31698194
-0.02321724 -0.36628500 0.00000190
-0.05614741 -0.55915642 0.00000105
-0.13334480 0.48163512 0.00972495
-0.02404702 -0.02162551 0.00000341
-0.22135717 0.32776546 0.16933265
-0.58181518 -0.60961592 0.00000083
-0.21402840 0.02298130 0.00000863
-0.04368189 -0.36004847 0.00000192
-0.05375290 -0.36050734 0.00000192
-0.15902121 0.46314657 0.12818350
-0.03935846 -0.37610912 0.00000185
-0.22400922 0.21064417 0.00000730
-0.44674200 0.34099600 0.00000207
-0.68397570 -0.71486771 -0.00000021
-0.01964454 -0.08731862 0.00000312
-0.25518194 -0.41753480 0.00000167
-0.17705153 0.14239386 0.00000844
-0.40016490 0.32373264 0.00000310
-0.45276675 -0.27227944 0.05665897
-0.09329544 -0.68083048 0.00000052
-0.42431304 -0.13767001 0.23616353
-0.04496759 0.00184214 0.00001131
-0.65757954 -0.73803443 0.13482220
-0.22811615 0.30546629 0.00000655
-0.00796806 -0.33471796 0.00000204
-0.48084292 -0.64455682 0.00000068
-0.22203261 0.32734197 0.00000650
-0.58614260 -0.59414369 0.05701864
-0.69263631 -0.57195759 -0.00000046
-0.17459953 0.38758245 0.02482408
-0.10645774 0.41068754 0.00000783
-0.38010898 -0.11282445 0.01320846
-0.72095084 -0.02204341 -0.00000106
-0.19576409 -0.73583645 0.00000028
-0.33882704 0.07937224 0.26519769
-0.07871357 -0.62654954 0.00000076
-0.37210304 -0.29271182 0.00000222
-0.54236019 -0.58091110 0.00000096
-0.79478788 -0.62954026 -0.00000043
-0.71824557 -0.06770351 -0.00000101
-0.58910739 0.04104768 0.00000172
-0.63500464 -0.27318552 0.00000007
-0.77590066 -0.38501793 -0.00000104
-0.66465735 -0.56829834 -0.00000014
-0.19428053 0.54949182 0.00000526
-0.25011444 -0.27005705 0.00000232
-0.01466295 -0.29796240 0.00000213
-0.09665943 -0.56579417 0.00000102
-0.75753450 -0.72746700 -0.00000018
-0.54023373 -0.65313011 0.00000064
-0.41047990 0.24383971 0.00000354
-0.04360506 0.13274488 0.00001051
-0.14139786 -0.67233908 0.00000056
-0.63068861 -0.18263116 0.00000008
-0.66538340 -0.08407727 -0.00000038
-0.14985220 0.21027502 0.00000842
-0.74138892 -0.74494612 -0.00000014
-0.62489039 -0.39500400 0.00000025
-0.46444896 -0.17706610 0.00000202
-0.58973855 -0.79940158 0.00000000
-0.23014212 0.30304128 0.00000653
-0.38686475 -0.03674286 0.26481009
-0.56714141 -0.34208950 0.00000090
-0.28142375 -0.18522435 0.00000269
-0.42314625 -0.29389602 0.00000221
-0.13237026 0.13491546 0.00000916
-0.00326765 -0.43021470 0.00000160
-0.43453079 -0.76453006 0.00000016
-0.44035771 0.12790120 0.00000389
-0.20557415 -0.23969992 0.00000245
-0.36199209 -0.46550584 0.00000146
-0.70892417 -0.20363997 -0.00000083
-0.34291407 0.06283463 0.24703196
-0.10877341 -0.23444305 0.00000247
-0.09932744 0.56334323 0.00859017
-0.05820065 0.05775867 0.00001076
-0.49225029 -0.31863305 0.00000177
-0.61709309 -0.43526015 0.00000036
-0.06004383 0.52541363 0.00000781
-0.40822273 -0.45542628 0.00000151
-0.39108482 -0.73386824 0.00000029
-0.03774413 -0.13383245 0.00000291
-0.78950876 -0.14299843 -0.00000164
-0.01389248 0.70876551 0.00000736
-0.02825914 -0.10115272 0.00000306
-0.05896643 0.24776316 0.00000956
-0.14030987 -0.02318457 0.00000340
-0.11700239 0.54812020 0.08333667
-0.63806605 -0.70374286 0.09991959
-0.57388139 -0.51463759 0.19292045
-0.46801361 0.18742269 0.00000288
-0.33621642 -0.10529499 0.00000304
-0.32412118 0.41798019 0.00000381
-0.03973756 -0.21200173 0.00000257
-0.22055063 0.51353472 0.00000504
-0.20521234 -0.77261883 0.00000012
-0.74110883 -0.59005409 -0.00000052
-0.51810074 -0.07756071 0.00000135
-0.33856848 -0.28984812 0.00000223
-0.67917871 -0.27028906 -0.00000045
-0.27339146 0.04142534 0.00000762
-0.08576494 -0.25246459 0.00000240
-0.28664723 -0.10175313 0.00000305
-0.37915859 -0.11160317 0.01028603
-0.23109590 -0.02380119 0.00000340
-0.18951985 0.39719406 0.14909063
-0.30540246 -0.66579950 0.00000059
-0.46385843 0.31051511 0.00000199
-0.36467201 -0.51075983 0.00000127
-0.21948688 -0.51501435 0.00000125
-0.58873421 -0.55267745 0.18697685
-0.33138061 0.27650511 0.00000480
-0.31403744 0.09402417 0.14212148
-0.04310709 0.08671679 0.00001081
-0.59826314 -0.55097479 0.00000064
-0.53509527 0.25637975 0.00000105
-0.11420716 0.18497986 0.00000912
-0.42525283 -0.15495834 0.00000247
-0.21030319 0.09232945 0.00000825
-0.18039858 0.11192820 0.00000858
-0.55373698 -0.43025228 0.00000110
-0.07772046 -0.58245355 0.00000095
-0.41694620 -0.69979143 0.00000044
-0.05708731 0.21714135 0.00000978
-0.25973478 0.34517157 0.00000563
-0.44538918 0.04446576 0.00000446
-0.26102927 -0.48305246 0.00000139
-0.09739848 -0.30073449 0.00000218
-0.38922298 -0.03615799 0.28190666
-0.42779103 -0.10226877 0.35543433
-0.16443300 -0.68679690 0.00000050
-0.37562683 -0.16048761 0.00000280
-0.67398143 -0.15728781 -0.00000044
-0.09984400 -0.75122666 0.00000021
-0.07418870 0.49104059 0.00000781
-0.24086049 0.14924949 0.00000743
-0.33769113 0.17901979 0.00000545
-0.47610712 0.13023746 0.00000318
-0.23976837 0.27850789 0.15623619
-0.12219124 0.52866638 0.06447333
-0.45504132 -0.63496238 0.00000072
-0.12404397 -0.36634034 0.00000190
-0.34782812 0.36644432 0.00000377
-0.44781414 0.29650220 0.00000241
-0.08204845 -0.49297783 0.00000134
-0.00378187 -0.09855400 0.00000307
-0.33957109 -0.62852567 0.00000075
-0.29675278 0.43040538 0.00000424
-0.27747574 0.22414155 0.25608805
-0.29616097 0.24756262 0.00000571
-0.45959079 -0.35017398 0.00000197
-0.13289224 -0.61477321 0.00000081
-0.15775843 -0.77019811 0.00000013
-0.36620587 0.00914841 0.25396222
-0.07771525 -0.74130923 0.00000026
-0.75402725 -0.40165281 -0.00000100
-0.57698089 -0.63366532 0.00000073
-0.04448156 0.16302684 0.00001031
-0.49613613 -0.00153902 0.00000157
-0.48486862 -0.23991363 0.35584834
-0.70898831 -0.42155182 -0.00000073
-0.12854230 -0.26255584 0.00000235
-0.33769137 0.31305766 0.00000439
-0.61167520 0.12944885 0.00000059
-0.63254160 -0.63037831 0.00000027
-0.60872209 0.06307066 0.00000117
-0.63669938 -0.03913499 -0.00000006
-0.37688899 0.05061589 0.00000572
-0.28005758 -0.76484960 0.00000015
-0.54267889 0.17048399 0.00000159
-0.19085717 0.09149919 0.00000855
-0.77659422 -0.38265404 -0.00000104
-0.30986655 0.13941357 0.23830543
-0.79857075 -0.52001709 -0.00000070
-0.03853153 -0.15252069 0.00000283
-0.02918494 0.71507621 0.00000709
-0.03774314 -0.48468050 0.00000138
-0.42166859 -0.41912812 0.00000167
-0.47626722 -0.56161630 0.00000104
-0.19093768 0.34298578 0.01079122
-0.50776339 0.00622547 0.00000356
-0.06527654 -0.56770951 0.00000102
-0.41903284 -0.12406878 0.23848845
-0.49642411 -0.54497868 0.00000112
-0.59678096 -0.52636552 0.00000064
-0.54477209 -0.27938700 0.00000113
-0.10311105 0.25505435 0.00000885
-0.36096802 -0.11841482 0.00000298
-0.32971025 -0.37490663 0.00000186
-0.26571819 0.23538379 0.20940432
-0.03633653 -0.48827496 0.00000136
-0.35195059 -0.01803782 0.08620850
-0.36385661 -0.72064304 0.00000035
-0.46585992 -0.28593573 0.10554955
-0.45721513 -0.25849822 0.12343363
-0.53610879 -0.30588993 0.00000125
-0.12320914 -0.29199734 0.00000222
-0.17863679 -0.49937710 0.00000132
-0.44202077 -0.05886560 0.00000223
-0.26474532 0.42842537 0.00000487
-0.13803855 -0.66593033 0.00000059
-0.45574102 0.32375643 0.00000204
-0.69082224 -0.65122306 -0.00000037
-0.24780668 -0.32840374 0.00000206
-0.25306463 0.52403367 0.00000434
-0.52119434 -0.34855399 0.29881659
-0.07652033 -0.18013802 0.00000271
-0.30584538 0.09922061 0.10241461
-0.43357459 0.29763407 0.00000267
-0.38930655 -0.71953100 0.00000035
-0.48445573 -0.32331574 0.12601201
-0.26273608 0.30479759 0.00000589
-0.56620789 -0.70022172 0.00000044
-0.13882130 0.12798381 0.00000911
-0.15779734 -0.23240104 0.00000248
-0.28109282 0.31827149 0.00000543
-0.29820845 -0.54713380 0.00000111
-0.13253614 0.23988932 0.00000850
-0.78668267 -0.40636510 -0.00000098
-0.23565021 0.23109776 0.00005382
-0.37932906 -0.12764779 0.00000294
-0.07029366 0.16596922 0.00000990
-0.30820870 0.40792525 0.00000420
-0.73891962 -0.18357214 -0.00000119
-0.15128282 -0.77579349 0.00000011
-0.05710603 0.52479643 0.00000786
-0.08592276 0.06405603 0.00001030
-0.01667805 -0.41270658 0.00000162
-0.01753078 0.77368522 0.00000687
-0.49136373 0.20879881 0.00000227
-0.66072941 -0.48752695 -0.00000013
-0.18141262 -0.40982938 0.00000171
-0.28282642 -0.01027522 0.00000346
-0.50335681 0.13385874 0.00000263
-0.30011481 0.14060183 0.17742960
-0.58356035 -0.25145030 0.00000066
-0.02751008 -0.47045320 0.00000144
-0.76130182 -0.31272778 -0.00000122
-0.64425218 -0.71603876 0.10710434
-0.05477615 -0.36722040 0.00000189
-0.51791489 -0.37163851 0.21439233
-0.25438377 0.34274971 0.00000575
-0.57718390 -0.40998363 0.00000081
-0.32987428 0.18139704 0.00000559
-0.08844109 -0.71364826 0.00000038
-0.33804563 0.07789948 0.25604966
-0.50057250 -0.72399247 0.00000033
-0.24429277 0.46189624 0.00000500
-0.55773747 -0.32177773 0.00000100
-0.29522043 -0.40995008 0.00000171
-0.04267843 0.75698996 0.00000652
-0.43149474 -0.56688786 0.00000102
-0.19410755 0.47851610 0.00000583
-0.31684271 0.06405677 0.07895670
-0.31872848 -0.42394185 0.00000165
-0.01955291 -0.51619935 0.00000124
-0.19117928 -0.09520059 0.00000308
-0.29233214 0.22018784 0.00000600
-0.56070417 0.23766477 0.00000069
-0.12049491 -0.31176710 0.00000214
-0.11733969 0.43655413 0.00000750
-0.05615462 -0.24890764 0.00000241
-0.22255829 -0.24559528 0.00000243
-0.60575277 -0.66546285 0.00000059
-0.49651483 -0.62008429 0.00000079
-0.11635749 -0.32669643 0.00000207
-0.63086319 -0.52562869 0.00000024
-0.03438217 0.64351225 0.00000746
-0.54289788 -0.18296830 0.00000111
-0.56781274 -0.29245642 0.00000087
-0.23945872 -0.68003047 0.00000052
-0.24507056 0.01604427 0.00000820
-0.02112510 0.51836395 0.00000844
-0.39812139 -0.07754357 0.22770648
-0.19882257 0.21310078 0.00000767
-0.57895064 -0.34084037 0.00000076
-0.00537692 -0.10657551 0.00000303
-0.16639172 0.62452704 0.00000520
-0.36752480 0.07735894 0.00000569
-0.33803973 0.08596242 0.27796805
-0.34639424 -0.46565840 0.00000146
-0.58619261 -0.07404933 0.00000055
-0.58586460 0.16568799 0.00000079
-0.44370735 -0.25512072 0.04382578
-0.79134828 -0.24723367 -0.00000138
-0.05236188 -0.55974650 0.00000105
-0.37623268 -0.24405450 0.00000243
-0.77526331 -0.32611826 -0.00000118
-0.63435060 0.06763395 0.00000064
-0.10556729 0.46424937 0.00000751
-0.05237258 -0.09850721 0.00000307
-0.02320248 -0.67601597 0.00000054
-0.61198223 -0.18473735 0.00000030
-0.58218849 -0.44666606 0.00000077
-0.57905155 -0.15367709 0.00000067
-0.07149624 0.71601671 0.00000629
-0.42715466 -0.56654942 0.00000102
-0.59146267 0.18620028 0.00000052
-0.64038843 0.11353578 0.00000016
-0.50123227 0.28849044 0.00000144
-0.66150492 -0.28619108 -0.00000024
-0.48368683 -0.29216772 0.20577967
-0.21111649 0.32438621 0.09280400
-0.37716565 -0.34779486 0.00000198
-0.07982332 -0.58012706 0.00000096
-0.13573608 -0.49765098 0.00000132
-0.44048062 -0.25947112 0.01076489
-0.20565590 0.22963038 0.00000746
-0.20219123 -0.13312919 0.00000292
-0.46283194 0.28615338 0.00000220
-0.26388770 -0.11343756 0.00000300
-0.72492075 -0.29976055 -0.00000097
-0.15147150 -0.41519505 0.00000168
-0.46239597 -0.16367929 0.41570672
-0.28073567 0.14408392 0.05950594
-0.44584486 -0.14664371 0.35328478
-0.43537322 -0.20140915 0.13530207
-0.21315113 -0.24048708 0.00000245
-0.31869403 0.31648216 0.00000473
-0.27440405 0.38947785 0.00000500
-0.63696253 -0.62491959 0.00000022
-0.16497736 -0.43554232 0.00000159
-0.00251591 0.07442586 0.00001150
-0.58882862 -0.23524882 0.00000059
-0.41703957 -0.54908919 0.00000110
-0.43341750 -0.65103000 0.00000065
-0.57056296 -0.29034188 0.00000083
-0.07573749 0.63310134 0.04346695
-0.11141510 0.54596728 0.04074080
-0.39806888 -0.12443953 0.09965353
-0.55421478 -0.76830024 0.00000014
-0.13417059 0.51946151 0.11816344
-0.00929975 -0.29791451 0.00000220
-0.40546504 0.15174511 0.00000437
-0.24863899 -0.22023968 0.00000254
-0.52896178 0.03825234 0.00000290
-0.40119335 -0.11055044 0.15801801
-0.70023012 -0.43001807 -0.00000062
-0.14381793 -0.76416415 0.00000016
-0.34877852 -0.78438765 0.00000007
-0.00152547 -0.53894067 0.00000114
-0.65794557 -0.74866486 0.00000003
-0.29487094 0.09556032 0.02029658
-0.58738780 0.00377346 0.00000205
-0.23047315 0.52288735 0.00000478
-0.17584898 0.41564161 0.10944960
-0.33357689 0.09428693 0.00000621
-0.57269895 0.11021518 0.00000149
-0.51579052 -0.59718889 0.00000089
-0.71647978 -0.40115413 -0.00000082
-0.23677029 0.51016414 0.00000476
-0.38151413 -0.36466068 0.00000190
-0.17475197 0.37943754 0.00364594
-0.59147787 -0.50558555 0.00000069
-0.09082415 -0.63340282 0.00000073
-0.23246254 -0.25437191 0.00000239
-0.10464264 0.38104993 0.00000804
-0.30962139 -0.45772779 0.00000150
-0.72796947 0.00830207 -0.00000068
-0.74159801 -0.49366739 -0.00000077
-0.01898327 -0.02350966 0.00000340
-0.28075910 -0.14030679 0.00000289
-0.37267357 0.03768716 0.00000591
-0.48096928 -0.35557708 0.01523612
-0.45386878 0.10556266 0.00000381
-0.61909592 -0.63067925 0.00000043
-0.36403987 0.01072769 0.00000629
-0.39880493 -0.45481524 0.00000151
-0.13535613 0.33347076 0.00000787
-0.69559228 -0.13368058 -0.00000071
-0.23225504 -0.65072429 0.00000065
-0.79604203 -0.79051375 -0.00000002
-0.08203193 0.64250731 0.00000668
-0.23159455 0.27546006 0.09419843
-0.17820080 -0.11227158 0.00000301
-0.52149057 -0.01089355 0.00000127
-0.48866090 -0.50481069 0.00000129
-0.22634755 -0.27361652 0.00000230
-0.79032016 0.00180726 -0.00000183
-0.22608583 -0.73382914 0.00000029
-0.26789853 0.18848981 0.09603634
-0.48143578 -0.70513123 0.00000042
-0.13880345 -0.27979982 0.00000228
-0.67512685 -0.80724710 0.06170580
-0.10709562 0.38172516 0.00000800
-0.23451538 -0.46288967 0.00000147
-0.26547599 -0.71737379 0.00000036
-0.11890747 -0.33220658 0.00000205
-0.30623078 0.16647096 0.28808555
-0.43438426 -0.02858590 0.00000230
-0.53072625 -0.19629358 0.00000126
-0.15029693 0.55778944 0.00000604
-0.52990419 -0.42147949 0.15748695
-0.00149987 -0.17329887 0.00000274
-0.07644416 0.67584300 0.00000652
-0.21975644 0.50289416 0.00000514
-0.32157511 -0.72618723 0.00000032
-0.06134083 0.03158746 0.00001088
-0.55685204 -0.64954692 0.00000066
-0.02036521 -0.16808875 0.00000276
-0.00238543 0.33977729 0.00000984
-0.38221574 -0.32124820 0.00000209
-0.30262944 -0.50886804 0.00000127
-0.31360677 -0.15260740 0.00000283
-0.23168036 0.27752534 0.10038679
-0.39652789 -0.07774874 0.21667153
-0.14426737 0.11389794 0.00000911
-0.23854084 -0.32187462 0.00000209
-0.78310055 -0.36680728 -0.00000108
-0.30590472 0.11582289 0.14801633
-0.53228730 -0.46780941 0.04698814
-0.30341291 -0.10600519 0.00000304
-0.26742220 -0.52928472 0.00000118
-0.47970390 -0.31406191 0.11997177
-0.32589194 -0.07732543 0.00000316
-0.12633649 -0.36712095 0.00000189
-0.57013440 -0.77616334 0.00000010
-0.43610045 -0.15298991 0.27193919
-0.23635422 -0.38395888 0.00000182
-0.53268176 -0.00756859 0.00000114
-0.13669159 0.50519270 0.09588034
-0.20812975 -0.77510452 0.00000011
-0.07703188 0.64104766 0.00000678
