ply
format ascii 1.0
element vertex 1299
property float x
property float y
property float z
end_header
-0.35828808 -0.06500100 0.32654166
-0.08357901 -0.74254072 0.00000067
-0.03192788 -0.71755135 0.00000029
-0.62463206 -0.70800471 0.03289090
-0.28031671 0.12325256 0.12445951
-0.38535929 -0.25604498 0.00000325
-0.20821112 0.32826066 -0.06709683
-0.28034210 0.20979074 -0.18791707
-0.42341262 -0.22221762 0.08253383
-0.04001243 -0.58409899 0.00000044
-0.11896243 0.55716443 -0.09627663
-0.49089450 -0.21978223 -0.35880786
-0.18909827 0.34347838 0.03285694
-0.30838203 -0.15485810 0.00000273
-0.41687176 -0.35956356 0.00000342
-0.31813958 -0.71195978 0.00000246
-0.18876880 -0.52412760 0.00000160
-0.66607302 -0.75243199 -0.12063411
-0.18449216 0.24329302 0.00000364
-0.68237793 -0.80806977 -0.08531122
-0.52116841 -0.45822707 0.19054621
-0.42996833 -0.09122142 -0.31859782
-0.26736847 -0.08520227 0.00000246
-0.20486665 0.30541047 0.03374155
-0.24842253 0.28476366 -0.18338999
-0.41341686 -0.30736104 0.00000343
-0.47230694 -0.42476276 0.00000380
-0.10636726 -0.24803180 0.00000115
-0.47532016 -0.21605472 -0.28529361
-0.02603234 -0.05189344 0.00000066
-0.34048042 0.09426364 -0.25228462
-0.20528692 -0.39898527 0.00000180
-0.18262570 0.35910064 0.08038661
-0.59239203 -0.56452709 -0.14239305
-0.28428948 -0.08341527 0.00000259
-0.14754735 0.44378021 0.15905841
-0.30587733 -0.50525844 0.00000249
-0.04459760 0.40800402 0.00000518
-0.35866958 -0.06591467 0.23325416
-0.39127126 0.01292717 -0.34188265
-0.43693575 -0.24574725 -0.01972739
-0.51975518 -0.45480934 0.05858902
-0.45121393 -0.65535408 0.00000349
-0.11552780 -0.53310889 0.00000104
-0.39650443 -0.15726446 0.29083267
-0.46265891 -0.14758804 -0.36755174
-0.12645243 -0.17384335 0.00000135
-0.31638277 -0.18659085 0.00000277
-0.45168644 -0.53388643 0.00000357
-0.35033548 -0.04580329 0.34357327
-0.27694741 0.24711642 -0.25114393
-0.31636482 -0.45342985 0.00000260
-0.41007710 -0.19002010 0.02574191
-0.21717399 -0.20347302 0.00000201
-0.49690121 -0.39963928 0.16163568
-0.54086375 -0.79624194 0.00000408
-0.38121206 -0.07366584 -0.10123602
-0.00567936 -0.23606375 0.00000040
-0.38693923 -0.12189712 -0.02656422
-0.51214528 -0.33271286 -0.22505236
-0.01888706 0.31252995 0.00000719
-0.07207417 0.02268594 0.00000973
-0.50285196 -0.56185567 0.00000394
-0.35524037 -0.51069653 0.00000286
-0.32287961 -0.13260923 0.00000285
-0.49145579 -0.59739721 0.00000383
-0.55079663 -0.50459236 -0.05452821
-0.30252221 -0.51247078 0.00000246
-0.23984261 -0.13427362 0.00000223
-0.06182881 0.65073091 0.03359066
-0.06827431 -0.63782865 0.00000062
-0.01572387 -0.26090950 0.00000046
-0.30176267 0.10724170 -0.07757725
-0.16779079 -0.27080750 0.00000160
-0.37176523 -0.60034674 0.00000293
-0.46317914 -0.55211997 0.00000365
-0.07642292 -0.72114354 0.00000063
-0.28735745 -0.39256307 0.00000242
-0.40378514 -0.17484334 0.32699421
-0.04186218 0.08607065 0.00000968
-0.02819687 -0.59627438 0.00000034
-0.24640492 -0.37475920 0.00000212
-0.06658751 0.04271292 0.00000960
-0.50865519 -0.37767917 -0.10917115
-0.36704555 -0.68410283 0.00000284
-0.22613418 0.25405237 0.21434309
-0.18092291 0.12582196 0.00000536
-0.45243287 -0.15431270 -0.29937550
-0.05601967 0.67808008 -0.02890986
-0.21093227 0.33018306 -0.08552780
-0.17542326 -0.71859175 0.00000137
-0.43239331 -0.35138556 0.00000354
-0.26649097 0.17411815 -0.03791232
-0.02678870 -0.59722954 0.00000033
-0.42420197 -0.22412705 0.16744079
-0.62245804 -0.78698510 0.00000470
-0.02240102 0.29958320 0.00000727
-0.10083677 -0.54144394 0.00000092
-0.40326613 -0.17358622 0.23463123
-0.01270541 -0.14653777 0.00000050
-0.51653475 -0.33108497 -0.25158468
-0.31732103 -0.45736206 0.00000261
-0.03289412 0.09194358 0.00000984
-0.13834885 0.46599108 0.10934699
-0.63029790 -0.69101787 -0.06647410
-0.17874864 -0.72230190 0.00000140
-0.26673979 0.15602928 0.13130943
-0.52475119 -0.61160547 0.00000408
-0.40776843 -0.72149801 0.00000313
-0.34355947 -0.02944581 0.35718051
-0.40808475 -0.73299038 0.00000312
-0.15802568 -0.21684910 0.00000156
-0.20634826 0.08915728 0.00000517
-0.41986898 -0.12699912 -0.18803219
-0.53115600 -0.33913270 -0.31072912
-0.11176193 -0.05084701 0.00000131
-0.11937222 0.34693354 0.00000399
-0.29091513 -0.45318747 0.00000241
-0.15377565 0.42875299 0.04414475
-0.01434640 -0.48434272 0.00000031
-0.50031275 -0.79461527 0.00000378
-0.45418513 -0.11245938 -0.39939395
-0.05231920 0.33920395 0.00000591
-0.37147838 -0.09684562 0.33576825
-0.62314457 -0.69942385 -0.01074877
-0.10369955 0.58176094 -0.06968732
-0.36345330 -0.35593125 0.00000302
-0.57807988 -0.59561974 0.08937847
-0.30640841 0.18155396 -0.26321372
-0.49782559 -0.40186998 0.14047894
-0.00688444 -0.05295204 0.00000052
-0.02474260 0.70298606 0.00000166
-0.69694084 -0.83148819 -0.11079024
-0.04419994 0.69328958 0.04313355
-0.55135262 -0.61739326 0.00000427
-0.11814117 0.51478070 0.05265451
-0.24650119 0.20488407 0.19515261
-0.60785222 -0.66749698 0.14477184
-0.34391731 -0.14023262 0.00000301
-0.53715676 -0.42390582 -0.15818049
-0.22877961 -0.61703533 0.00000184
-0.10046094 -0.14676216 0.00000117
-0.24613759 0.20577024 0.08880854
-0.48810649 -0.23460098 -0.31203723
-0.04492036 0.13845471 0.00000888
-0.19699475 0.32441458 0.03532062
-0.18506232 0.35321289 0.14752831
-0.09365271 -0.24510072 0.00000105
-0.59517360 -0.54367191 -0.20223254
-0.23456892 -0.17849392 0.00000216
-0.03520220 0.71710247 -0.00452643
-0.22744314 0.25089285 0.20732298
-0.34681547 -0.03729215 0.17684506
-0.17506523 -0.50098282 0.00000151
-0.59398764 -0.61791760 -0.03487575
-0.45727935 -0.26199374 -0.09106006
-0.32423624 -0.51397747 0.00000262
-0.18857378 0.36298242 -0.03956269
-0.09863431 -0.10093351 0.00000118
-0.16976328 0.39014786 0.14478362
-0.12343669 -0.74667430 0.00000096
-0.03908507 0.42615163 0.00000508
-0.24014147 0.29714182 -0.16686472
-0.10812531 0.05197785 0.00000835
-0.47646311 -0.35030138 0.25913030
-0.14133105 -0.27469367 0.00000139
-0.31528977 0.12831141 -0.19418900
-0.23668703 -0.17674455 0.00000218
-0.56147736 -0.55553609 0.05780609
-0.07337777 -0.63506895 0.00000066
-0.17205390 -0.05210974 0.00000177
-0.16275132 0.40708628 0.01560571
-0.42803636 -0.76512122 0.00000325
-0.09485832 -0.11555781 0.00000114
-0.62744367 -0.71479374 0.14654434
-0.43296567 -0.09541726 -0.32519650
-0.12243199 -0.69263124 0.00000099
-0.31647873 0.13567820 -0.21640842
-0.17836098 0.38038853 -0.02382866
-0.39033696 -0.11851816 -0.05170077
-0.32281172 0.11799753 -0.21121693
-0.29519072 0.16245076 -0.16297138
-0.03680889 -0.08920866 0.00000072
-0.05814639 0.66984552 -0.02218064
-0.17841886 -0.31899169 0.00000165
-0.30044255 0.16624624 -0.19872822
-0.03019812 0.51336777 0.00000412
-0.48983732 -0.24684440 -0.29453334
-0.18038329 -0.44051057 0.00000159
-0.03123830 -0.01474641 0.00000073
-0.44539106 -0.27528387 0.20149128
-0.64628452 -0.76027721 0.00062195
-0.56388372 -0.51143658 -0.10824570
-0.03679683 0.34125182 0.00000631
-0.23457153 0.23966566 -0.01292820
-0.09700611 -0.13253750 0.00000115
-0.25104138 0.20091130 -0.01511244
-0.23311554 0.31021753 -0.15843046
-0.63163912 -0.71372235 -0.02422407
-0.06654120 -0.17479202 0.00000089
-0.45125514 -0.13249104 -0.34056601
-0.32464337 -0.42545122 0.00000268
-0.06246759 0.11221535 0.00000876
-0.44350544 -0.27072954 0.15682466
-0.51253980 -0.38622686 -0.11097330
-0.49678925 -0.29848638 -0.21887612
-0.49473473 -0.38479680 -0.02078433
-0.16066310 0.44259694 -0.06611616
-0.01656035 -0.65736270 0.00000021
-0.51641148 -0.32063228 -0.27362517
-0.45450297 -0.21509214 -0.17830727
-0.19158524 0.40967861 -0.15669550
-0.00853035 0.60071599 0.00000351
-0.30347627 0.06732779 0.29182476
-0.49412942 -0.72089839 0.00000378
-0.49217647 -0.36744928 -0.04503064
-0.08896216 -0.65813202 0.00000076
-0.57199395 -0.71917850 0.00000437
-0.30985570 -0.36919001 0.00000261
-0.08398022 0.39701727 0.00000426
-0.11966251 0.46199667 0.00000240
-0.31212592 0.05840166 -0.02587299
-0.18352531 0.43232894 -0.16362458
-0.14375396 0.45295009 0.00823771
-0.60571975 -0.66234887 0.15692431
-0.41939571 -0.19101700 -0.04660892
-0.08404628 0.52902293 0.00000244
-0.63566917 -0.67790753 -0.12307334
-0.66889393 -0.79166406 -0.05026486
-0.58034718 -0.60109365 0.09302568
-0.40629625 -0.33405834 0.00000336
-0.22073975 0.26708788 0.05793499
-0.57578278 -0.50766438 -0.17877994
-0.41263279 -0.19620319 0.31785417
-0.00192982 -0.21891321 0.00000038
-0.51932019 -0.41581494 -0.08228293
-0.20168509 -0.06498347 0.00000198
-0.24200951 0.21572378 0.24678189
-0.10537799 0.55858088 -0.02817023
-0.11433311 0.11632859 0.00000730
-0.25367418 -0.07133523 0.00000237
-0.00539466 0.18129645 0.00000936
-0.26467296 -0.79924971 0.00000200
-0.09135699 0.60309869 -0.05132712
-0.32911453 0.09678823 -0.19820836
-0.42371327 -0.19711022 -0.05600695
-0.20642737 -0.58042771 0.00000169
-0.18833806 0.42376083 -0.17024589
-0.05230654 -0.46066335 0.00000061
-0.15627301 0.45732585 -0.07508144
-0.00520221 0.65272146 0.00000288
-0.42216346 -0.60934663 0.00000330
-0.49313864 -0.39056081 0.28648111
-0.38844261 -0.44921491 0.00000315
-0.21418652 -0.66226232 0.00000170
-0.00686785 0.11851203 0.00001018
-0.20046476 -0.15868875 0.00000191
-0.06267028 -0.43009117 0.00000070
-0.57985598 -0.57928151 -0.04468540
-0.08849697 -0.48085487 0.00000087
-0.09228574 -0.79857570 0.00000070
-0.59664905 -0.54306203 -0.21128720
-0.23105723 0.25319037 -0.02386881
-0.37951618 0.00325051 -0.25928465
-0.04811135 0.15180729 0.00000861
-0.00621437 -0.40626109 0.00000029
-0.37591770 -0.00809257 -0.21580914
-0.38442963 -0.45254788 0.00000312
-0.06822616 -0.33721623 0.00000080
-0.06520789 -0.75532949 0.00000052
-0.41725811 -0.52012539 0.00000332
-0.05780107 -0.39589521 0.00000069
-0.52764875 -0.47386703 0.07782835
-0.12059563 0.36511606 0.00000370
-0.12765619 0.09004677 0.00000729
-0.32697931 0.01059816 0.15037213
-0.09031771 0.07998994 0.00000845
-0.21559341 0.07875344 0.00000506
-0.51817912 -0.36688331 -0.18250458
-0.02972255 0.24355812 0.00000784
-0.58595115 -0.59137976 -0.05036437
-0.29852656 -0.11734711 0.00000268
-0.54001558 -0.50048983 -0.00694298
-0.01958539 -0.28205326 0.00000047
-0.38200432 -0.37054920 0.00000315
-0.03345142 0.46462998 0.00000470
-0.19868825 0.32032257 0.08067972
-0.56793076 -0.71398443 0.00000434
-0.42593697 -0.37760302 0.00000348
-0.23493072 0.29426664 -0.13332072
-0.47336301 -0.34048578 -0.00497537
-0.08036193 0.60599101 0.00112704
-0.60628659 -0.66371733 0.20588037
-0.52059299 -0.30833840 -0.32221755
-0.13726063 -0.04730097 0.00000151
-0.17042492 0.08925649 0.00000614
-0.45786050 -0.21624170 -0.19340476
-0.37087086 -0.44411784 0.00000302
-0.56386298 -0.61499190 0.00000437
-0.06410069 -0.79622394 0.00000049
-0.48502028 -0.55272692 0.00000381
-0.27704805 -0.68103379 0.00000216
-0.38308752 -0.75167018 0.00000292
-0.31901273 0.05129723 -0.04653898
-0.21461760 0.30945423 -0.05984689
-0.33338642 -0.00487263 0.18593839
-0.04595965 0.70390338 -0.03224565
-0.31979534 0.04044457 -0.02708427
-0.65572125 -0.76308227 -0.04327716
-0.66942441 -0.77159941 -0.09659337
-0.05893326 0.66127175 -0.00769461
-0.21031976 -0.64087313 0.00000169
-0.37199536 -0.09809167 0.30967477
-0.55897158 -0.54948473 0.01692714
-0.30857494 -0.17777856 0.00000272
-0.47425285 -0.34040281 -0.00981786
-0.43214557 -0.22546896 -0.03863998
-0.00938541 -0.36712137 0.00000034
-0.29857799 0.07916977 0.08141874
-0.03330188 0.13007471 0.00000931
-0.47146794 -0.17177023 -0.36122361
-0.17037039 0.41338563 -0.05357849
-0.15915538 0.45467454 -0.08443011
-0.28485531 0.22552253 -0.24571121
-0.45302749 -0.13321181 -0.34828824
-0.21992697 0.26905364 0.01294811
-0.34930086 -0.02793725 -0.03328028
-0.37771553 -0.11189293 0.04712928
-0.40324190 -0.17353101 0.30816391
-0.12186797 -0.39264444 0.00000117
-0.01061402 -0.78851449 0.00000009
-0.13964532 -0.14215568 0.00000146
-0.18164486 0.42198330 -0.13131626
-0.64424378 -0.67058206 -0.18390208
-0.06632786 0.33367771 0.00000561
-0.44337818 -0.27041945 0.09201319
-0.29297265 0.21463694 -0.26461813
-0.27488992 0.13635321 0.13272735
-0.11346719 0.52606541 0.04228755
-0.52229214 -0.31374061 -0.31939575
-0.07434717 0.14389782 0.00000800
-0.48468080 -0.21736395 -0.33149868
-0.52713019 -0.56904244 0.00000412
-0.29460612 -0.30506170 0.00000253
-0.02395609 0.10699972 0.00000988
-0.41902286 -0.34051815 0.00000345
-0.08065662 0.33040020 0.00000527
-0.62853843 -0.62844634 -0.19306147
-0.40810126 -0.15702280 -0.06121011
-0.20802504 0.33225006 -0.07478071
-0.27924204 -0.23098449 0.00000246
-0.35242188 0.07337086 -0.26950884
-0.51962948 -0.31839687 -0.29533827
-0.15395258 -0.72861516 0.00000121
-0.66276717 -0.79122007 -0.01912549
-0.27953997 -0.52334625 0.00000228
-0.56063813 -0.46300393 -0.19635727
-0.33669865 -0.01286674 0.15785702
-0.23832683 0.25815171 -0.07272915
-0.35866570 0.03081764 -0.20986477
-0.03982236 -0.43901810 0.00000053
-0.35876170 -0.00438010 -0.13397183
-0.48992148 -0.38279089 0.21255443
-0.26858541 -0.64874220 0.00000212
-0.50644863 -0.33134183 -0.19817919
-0.09858026 -0.58616894 0.00000088
-0.41383719 -0.09648995 -0.22264409
-0.32996348 -0.10213255 0.00000293
-0.11165342 -0.23698668 0.00000119
-0.60348302 -0.75104117 0.00000458
-0.09088100 0.08805865 0.00000832
-0.31366849 -0.49989969 0.00000255
-0.41336769 -0.67489791 0.00000320
-0.17925921 -0.78379995 0.00000136
-0.12068514 0.00553020 0.00000865
-0.40076560 -0.16754457 0.12662113
-0.14180472 0.31799844 0.00000378
-0.48528051 -0.37158668 0.21551105
-0.10907610 0.41992420 0.00000326
-0.17587976 0.37538436 0.10907363
-0.63583189 -0.65790427 -0.16734155
-0.51360875 -0.75437427 0.00000390
-0.13709746 -0.25000438 0.00000138
-0.19315185 -0.16229212 0.00000186
-0.42307830 -0.22141315 0.14152054
-0.15395913 0.43080482 -0.00539356
-0.03972408 0.49191633 0.00000416
-0.09814790 0.00402893 0.00000928
-0.14964281 0.47293863 -0.07422732
-0.21468976 -0.76551324 0.00000164
-0.11837207 0.55308270 -0.08432386
-0.44746003 -0.20973064 -0.15304109
-0.30425715 0.06544220 0.29688796
-0.20666772 0.30105692 0.10244854
-0.42640293 -0.08911973 -0.30447716
-0.35116401 -0.04779496 0.12323452
-0.40711465 -0.11781907 -0.14112777
-0.28736481 -0.40819660 0.00000241
-0.27028212 -0.37042817 0.00000231
-0.29404214 -0.13867913 0.00000263
-0.09449840 -0.30622721 0.00000102
-0.50094968 -0.40941417 0.18355347
-0.49146870 -0.35066053 -0.07776018
-0.18463969 -0.66276711 0.00000148
-0.28896508 -0.39342576 0.00000243
-0.43929142 -0.46297073 0.00000352
-0.28984725 0.14974575 -0.10739625
-0.08120712 0.62744546 -0.05098728
-0.08723258 0.26598209 0.00000597
-0.22719772 0.28536245 -0.07347443
-0.43060458 -0.23958386 0.15438150
-0.54768556 -0.42140743 -0.21877059
-0.15143114 0.43440506 0.14563738
-0.19261158 0.33499885 0.00456650
-0.18980008 0.34178525 0.01797012
-0.54296345 -0.46352917 -0.10260771
-0.20434991 -0.68704796 0.00000161
-0.30191505 0.07109425 0.32538283
-0.25102383 -0.59633678 0.00000202
-0.45923781 -0.14557233 -0.35400113
-0.21750787 0.27489105 0.04771142
-0.30100664 -0.65751529 0.00000236
-0.06547809 -0.14029427 0.00000091
-0.19964546 0.32474113 -0.01457486
-0.44105777 -0.26296115 -0.00396452
-0.56285769 -0.41852134 -0.30453292
-0.16648968 0.21202245 0.00000456
-0.34104386 0.02153723 -0.09738572
-0.30655572 -0.35225227 0.00000259
-0.46438000 -0.22452618 -0.20958437
-0.22826713 0.27522442 -0.05707363
-0.41765851 -0.05371615 -0.33550030
-0.48464230 -0.56231016 0.00000380
-0.26282734 0.16546755 0.22191082
-0.24664401 0.28636000 -0.17753550
-0.12043014 -0.62406540 0.00000102
-0.44227952 -0.53511590 0.00000350
-0.38460097 -0.12851398 0.00347588
-0.21514770 -0.21270455 0.00000199
-0.66089642 -0.78647226 -0.01962797
-0.60409254 -0.65842056 0.21148147
-0.11661097 -0.68127394 0.00000095
-0.07636490 0.38788840 0.00000459
-0.05991847 0.66516626 -0.02130994
-0.18750307 0.40195516 -0.11854185
-0.58410949 -0.58971846 -0.04432045
-0.24096116 -0.24448954 0.00000217
-0.16778585 -0.02233625 0.00000175
-0.15450700 -0.48611340 0.00000136
-0.46841076 -0.30253065 -0.06140443
-0.54769599 -0.52158481 -0.00140161
-0.33717772 0.07382305 -0.19061296
-0.54897648 -0.39760584 -0.27719352
-0.33743155 -0.01464552 0.27710283
-0.54811424 -0.39498973 -0.27835360
-0.63449192 -0.69452828 -0.08083063
-0.51892775 -0.43438387 -0.03992493
-0.54188794 -0.39697716 -0.24141589
-0.41466802 -0.20112036 0.39970121
-0.18430409 0.40532827 -0.10910086
-0.48403001 -0.29535866 -0.15881024
-0.02382411 -0.67508692 0.00000026
-0.28899452 0.10228936 0.29345387
-0.15055022 -0.54350877 0.00000130
-0.09595919 -0.37244523 0.00000099
-0.45289472 -0.29339343 0.06770349
-0.33472788 0.04214077 -0.10901033
-0.65311283 -0.75588542 -0.04522987
-0.33778343 -0.46254712 0.00000276
-0.33184960 0.12606098 -0.27607572
-0.46568188 -0.40897030 0.00000376
-0.30301389 0.15548694 -0.18884885
-0.57051873 -0.48228967 -0.20627104
-0.14046505 0.15653713 0.00000603
-0.07674101 0.58487964 0.00000187
-0.49845642 -0.46897185 0.00000397
-0.65649039 -0.70390844 -0.17573947
-0.15757790 -0.05915475 0.00000165
-0.29959938 0.11910081 -0.09198193
-0.33413011 -0.46480918 0.00000273
-0.26064292 0.17074198 0.21164878
-0.23997980 -0.20707382 0.00000218
-0.40011102 -0.72321373 0.00000307
-0.35669112 -0.02774912 -0.07241117
-0.19882447 0.31999186 0.10472902
-0.52347469 -0.46379671 0.24467072
-0.23724388 0.22723332 0.19051984
-0.41765633 -0.06900348 -0.30230811
-0.42887887 -0.23542349 0.28658539
-0.08291122 -0.61681521 0.00000074
-0.36156097 -0.07289294 0.06509572
-0.08483443 -0.29250431 0.00000096
-0.06908390 -0.74556577 0.00000056
-0.51347715 -0.28602543 -0.33336046
-0.49807060 -0.25377211 -0.32263723
-0.11041432 0.53343821 0.00905432
-0.28975144 0.10047111 0.17830184
-0.29480109 0.12908472 -0.08850942
-0.09486327 0.11263452 0.00000787
-0.32134181 -0.44732168 0.00000264
-0.21223740 0.29526019 -0.01656719
-0.41716102 -0.13415834 -0.15830503
-0.11638888 -0.00351283 0.00000138
-0.06517816 -0.12134017 0.00000092
-0.66289234 -0.79897678 -0.00294608
-0.13145652 0.25446552 0.00000493
-0.46314561 -0.50254065 0.00000368
-0.29757151 -0.58542699 0.00000238
-0.21635263 -0.24793994 0.00000198
-0.15162921 0.17894997 0.00000542
-0.11346206 -0.38808063 0.00000111
-0.38280216 -0.75545579 0.00000292
-0.29965720 -0.05900821 0.00000272
-0.51430684 -0.35243106 -0.19358215
-0.31137675 -0.57842451 0.00000249
-0.31323141 -0.15647224 0.00000277
-0.29949391 -0.25634354 0.00000260
-0.38770524 -0.74064255 0.00000296
-0.05042498 -0.56616497 0.00000053
-0.14990677 0.30598426 0.00000372
-0.18688478 0.34881878 0.07617279
-0.47341564 -0.51523429 0.00000375
-0.47634152 -0.33983684 -0.02199029
-0.47896716 -0.25099191 -0.22857554
-0.50443733 -0.52784252 0.00000398
-0.36459547 -0.08021930 0.21279573
-0.47990522 -0.43920499 0.00000385
-0.44288570 -0.22227639 -0.10184405
-0.63582695 -0.73503065 0.00893279
-0.10669584 0.58071518 -0.08311770
-0.42732000 -0.49136773 0.00000342
-0.02921294 0.49255785 0.00000443
-0.32301956 0.09097571 -0.15365557
-0.05320693 0.00727018 0.00001045
-0.38419512 -0.41248018 0.00000314
-0.32265979 0.02102405 0.17900689
-0.38984776 -0.14065032 -0.00110223
-0.17024750 -0.78991371 0.00000129
-0.61094326 -0.67415696 -0.00165658
-0.41020578 -0.09978720 -0.19646046
-0.42917803 -0.16668792 -0.15066864
-0.32285017 -0.11355739 0.00000286
-0.11739310 0.54572374 -0.06322166
-0.15501861 0.06249556 0.00000693
-0.61641687 -0.68817335 0.11125018
-0.34891865 -0.25345656 0.00000297
-0.40382633 -0.10817693 -0.14482525
-0.01781461 0.17650951 0.00000909
-0.22518083 -0.66548747 0.00000178
-0.24759892 0.22161993 -0.04202208
-0.34847474 0.02768017 -0.14965570
-0.41358346 -0.19848779 0.08200056
-0.09528187 0.59253836 -0.04897193
-0.50657880 -0.37377226 -0.10677090
-0.57578468 -0.51256013 -0.16816431
-0.45802397 -0.16723229 -0.30063054
-0.17063873 -0.06542184 0.00000175
-0.55379719 -0.40575439 -0.28476730
-0.47658974 -0.35060644 0.24396962
-0.40836847 -0.18589851 0.10234829
-0.06376702 0.56868857 0.00000245
-0.48874375 -0.37994498 0.15473932
-0.36986119 0.01990897 -0.24485068
-0.40345001 -0.15324552 -0.04503716
-0.47802749 -0.29219970 -0.13421524
-0.04023976 -0.36248910 0.00000058
-0.13236807 -0.46163616 0.00000121
-0.18868211 0.34448111 0.05760635
-0.00310824 -0.64115316 0.00000012
-0.50390542 -0.53636676 0.00000397
-0.16096887 0.41138998 0.00900732
-0.22290079 0.14061259 0.00000401
-0.51214170 -0.36398998 -0.15715016
-0.06006881 0.57538497 0.00000246
-0.39413387 -0.15154479 0.36789787
-0.27132934 -0.38335076 0.00000231
-0.32717371 0.01013966 0.01316076
-0.21289626 0.28601921 0.11304664
-0.21749376 -0.05286620 0.00000211
-0.57497913 -0.51791430 -0.15232284
-0.52468765 -0.46672496 0.28094557
-0.13827838 0.37884891 0.00000304
-0.37312379 0.02188996 -0.26624596
-0.55119348 -0.64062434 0.00000426
-0.46703398 -0.32752693 0.02518947
-0.39037004 -0.71631402 0.00000300
-0.27922854 0.19581856 -0.15175575
-0.12251490 0.50421888 0.08805911
-0.38745999 -0.07537853 -0.13025612
-0.26404211 -0.51431245 0.00000217
-0.16258970 -0.50068200 0.00000141
-0.57236606 -0.57979763 -0.00432063
-0.19117419 -0.07072066 0.00000190
-0.13912472 0.12972467 0.00000644
-0.11209347 -0.64154613 0.00000094
-0.31325066 0.04373208 0.27274224
-0.19772835 0.32264251 0.04860168
-0.44705269 -0.09836606 -0.39261028
-0.22978920 0.28720564 -0.09105404
-0.16090260 0.45583165 -0.09609675
-0.00840023 0.73941743 0.00000160
-0.40713176 -0.78554928 0.00000308
-0.49400470 -0.55334485 0.00000388
-0.49408069 -0.35212055 -0.08827738
-0.49676928 -0.25644743 -0.31001234
-0.44353533 -0.76147991 0.00000337
-0.38885158 -0.00176155 -0.29732233
-0.33019733 0.11903004 -0.25215760
-0.06437320 -0.32391286 0.00000078
-0.03913692 0.11496774 0.00000936
-0.39499843 -0.49954024 0.00000317
-0.47194129 -0.30699646 -0.07021081
-0.23111510 -0.78812540 0.00000175
-0.06800590 -0.06456404 0.00000097
-0.40345633 -0.55003470 0.00000320
-0.04811883 -0.34628421 0.00000065
-0.22557853 -0.23985980 0.00000205
-0.28951201 0.16682343 -0.14270642
-0.41407725 -0.03318110 -0.36130604
-0.45455867 -0.29587963 -0.00325926
-0.05077320 0.44491589 0.00000450
-0.07787230 -0.70755213 0.00000065
-0.46729708 -0.27604070 -0.11306247
-0.18911649 -0.59389132 0.00000156
-0.14918800 -0.30675888 0.00000143
-0.28765535 0.10553680 0.11037867
-0.10790358 0.54728419 -0.01688485
-0.27298829 -0.00957908 0.00000255
-0.47088531 -0.31772846 -0.04138511
-0.37796476 -0.11249875 0.13967429
-0.08156035 -0.01021095 0.00000111
-0.20348763 -0.38349345 0.00000180
-0.23948304 0.25485650 -0.07163531
-0.54885232 -0.52506220 0.24806154
-0.51791900 -0.38864884 -0.13390200
-0.12806109 0.49082562 0.13550511
-0.62607509 -0.69272894 -0.04063420
-0.26802564 -0.15763527 0.00000242
-0.19334383 0.13930342 0.00000483
-0.29739758 -0.02829347 0.00000273
-0.50417417 -0.26629114 -0.32744700
-0.29222310 0.15959807 -0.14122960
-0.36083931 0.03432668 -0.22887047
-0.50381345 -0.59852207 0.00000393
-0.33936694 -0.73009604 0.00000260
-0.10538171 0.44776800 0.00000298
-0.03119783 0.17497426 0.00000875
-0.13081066 0.50690597 -0.04927473
-0.30495444 0.18902366 -0.27180797
-0.23695947 -0.37761739 0.00000205
-0.42763892 -0.14342937 -0.19308420
-0.34377980 -0.02997886 0.37150854
-0.19289340 -0.56774652 0.00000160
-0.47650716 -0.24981461 -0.21824105
-0.57799411 -0.54180139 -0.11627632
-0.22324099 -0.54887962 0.00000184
-0.14588103 0.50162667 -0.11678289
-0.21596479 0.36830258 -0.19463538
-0.19574402 0.03678245 0.00000618
-0.52043635 -0.31601843 -0.30472812
-0.35721031 -0.37366980 0.00000296
-0.03517985 -0.60719216 0.00000039
-0.14452569 0.45107922 0.10662804
-0.33824021 0.01320901 -0.06461879
-0.22196931 0.03617723 0.00000547
-0.11980151 -0.44853747 0.00000112
-0.05286217 -0.23152503 0.00000075
-0.58167064 -0.71447515 0.00000444
-0.22848663 0.24838229 0.09805176
-0.23029515 0.24402170 0.02799583
-0.17252539 -0.38270161 0.00000156
-0.31122291 0.12405485 -0.16364039
-0.56891292 -0.76734990 0.00000431
-0.51795512 -0.29517397 -0.33696812
-0.31956926 -0.27376661 0.00000274
-0.21668392 0.27688009 0.04958996
-0.07910031 -0.23594292 0.00000095
-0.25248104 -0.51957089 0.00000208
-0.45825806 -0.30635226 0.30298907
-0.13685265 0.09803025 0.00000694
-0.43440902 -0.11058725 -0.29983732
-0.47981670 -0.33234647 -0.05645607
-0.38149613 0.00191208 -0.26675421
-0.62107414 -0.64704275 -0.11358788
-0.33044645 0.00222365 0.20344684
-0.18137427 -0.59766436 0.00000149
-0.18673927 -0.32431790 0.00000171
-0.02572022 -0.33129400 0.00000049
-0.67128205 -0.82062632 0.10600452
-0.41763046 -0.20826133 0.15296532
-0.34727830 -0.02118749 -0.03733230
-0.20207515 0.31214526 0.08928610
-0.39055210 -0.14288577 0.10172079
-0.49034211 -0.30482420 -0.17133971
-0.60278827 -0.74853420 0.00000458
-0.19363867 -0.70741528 0.00000152
-0.61388677 -0.57921529 -0.22314174
-0.53603572 -0.49060422 -0.00754544
-0.07151691 0.49494699 0.00000325
-0.59132117 -0.62758678 0.08006679
-0.55660784 -0.51744717 -0.05707724
-0.38983071 -0.14114138 0.03984105
-0.15183102 -0.21362928 0.00000151
-0.32106787 0.02486869 0.16058975
-0.62894249 -0.62184399 -0.20950854
-0.22234178 -0.44946063 0.00000190
-0.40292689 -0.74044847 0.00000308
-0.30257201 0.17301878 -0.22458601
-0.34126869 -0.02391480 0.34953564
-0.20006374 -0.64552695 0.00000161
-0.25018489 0.23283345 -0.07991093
-0.36532825 -0.02309507 -0.12775917
-0.18420851 0.17693734 0.00000456
-0.29456505 0.08885810 0.07729518
-0.57248312 -0.51973742 -0.13528767
-0.19955269 -0.14418937 0.00000192
-0.42526826 -0.52010399 0.00000338
-0.34494406 0.02724500 -0.13021088
-0.56313777 -0.45829660 -0.21967129
-0.01003104 -0.14696345 0.00000048
-0.44482896 -0.44594237 0.00000358
-0.51935446 -0.43070346 -0.05014862
-0.15623312 0.42282316 0.00650439
-0.54856455 -0.46994141 -0.11803867
-0.06422908 -0.56950516 0.00000063
-0.46776712 -0.22699603 -0.22197123
-0.43608701 -0.22182454 -0.06720180
-0.01707512 0.68058908 0.00000218
-0.05036402 0.26843736 0.00000694
-0.40924373 -0.18802153 0.32454497
-0.64197820 -0.71219528 -0.08171251
-0.23768710 0.29175997 -0.14232305
-0.09789872 0.13161527 0.00000753
-0.35073352 0.04333239 -0.19546419
-0.31109339 0.12142998 -0.15726446
-0.17370842 0.38062862 0.08051703
-0.45119497 -0.28929025 0.07636350
-0.43531349 -0.19248699 -0.12682255
-0.56425852 -0.61894578 0.00000437
-0.47600329 -0.27764854 -0.15519065
-0.38939133 -0.64713418 0.00000303
-0.32492301 0.01557400 0.00446408
-0.27034765 0.14731245 0.21696536
-0.50854838 -0.42775854 0.16982003
-0.47778040 -0.35348201 0.26686397
-0.31968102 -0.48128939 0.00000261
-0.16561785 -0.43248847 0.00000148
-0.25169414 0.19234765 0.19079284
-0.05055286 0.51666594 0.00000352
-0.07796341 0.11758529 0.00000827
-0.55420709 -0.43417165 -0.22523779
-0.44827139 -0.14557154 -0.29654226
-0.37537953 -0.35562402 0.00000311
-0.39625537 -0.09677402 -0.12990451
-0.65779257 -0.78806067 0.12734559
-0.23927256 -0.39022607 0.00000206
-0.26363286 -0.59785920 0.00000212
-0.33482561 -0.00835047 0.22920756
-0.40016204 -0.03931104 -0.27508718
-0.02370332 -0.02440596 0.00000066
-0.38733047 -0.10789534 -0.05900345
-0.08198741 -0.33344987 0.00000091
-0.46253756 -0.24427246 -0.15707348
-0.06402835 -0.61304110 0.00000060
-0.30418250 0.06562620 0.24912857
-0.41328666 -0.10958307 -0.19134247
-0.45566064 -0.13359867 -0.36124533
-0.37627593 -0.10841666 0.03051335
-0.02456258 -0.48505986 0.00000038
-0.05553954 0.01939545 0.00001022
-0.40359697 -0.17438681 0.27686319
-0.40551928 -0.16158614 -0.03777729
-0.42218047 -0.10149930 -0.25548807
-0.61637849 -0.67557645 -0.02705457
-0.29495019 0.08793172 0.03398803
-0.05061089 -0.02324577 0.00000087
-0.26217166 0.24595727 -0.17120509
-0.36551511 -0.08244489 0.19369446
-0.02441859 -0.21924369 0.00000055
-0.14438391 0.17427413 0.00000568
-0.12783048 0.50516051 -0.02987050
-0.11372413 0.18650527 0.00000635
-0.34621659 0.09421316 -0.28223178
-0.09491066 0.24894881 0.00000600
-0.16267513 0.26406136 0.00000395
-0.23532107 -0.31450474 0.00000208
-0.19050109 0.34009266 0.02086814
-0.09934936 0.20001423 0.00000655
-0.08949955 -0.72508955 0.00000072
-0.15273724 -0.54944116 0.00000131
-0.31310990 0.06464048 -0.04457016
-0.42210194 -0.45150721 0.00000340
-0.40156958 -0.01026092 -0.34551519
-0.23925194 -0.10908801 0.00000224
-0.18829206 -0.65526587 0.00000151
-0.04283578 0.27333623 0.00000708
-0.23392560 -0.48229727 0.00000196
-0.13883612 0.47660583 -0.02556120
-0.23048379 -0.78278267 0.00000175
-0.07428320 -0.56266409 0.00000071
-0.30443585 -0.05350117 0.00000276
-0.24901129 0.19882280 0.21277820
-0.24533542 -0.03062853 0.00000233
-0.12478853 -0.52987808 0.00000111
-0.60745835 -0.62865257 -0.08215893
-0.04960196 -0.46005219 0.00000059
-0.54428697 -0.51404071 0.23907883
-0.16540349 0.40067339 0.14319161
-0.34248912 -0.73283088 0.00000263
-0.29522067 -0.75167578 0.00000226
-0.33366537 -0.31520313 0.00000282
-0.25166607 -0.54118210 0.00000206
-0.08170340 0.26753643 0.00000610
-0.36801180 0.05223382 -0.30532056
-0.43058291 -0.09307316 -0.31779897
-0.12596761 0.54623568 -0.10926216
-0.01020585 -0.08889820 0.00000052
-0.32642236 0.01239299 -0.00092355
-0.26453289 -0.17066115 0.00000239
-0.43018860 -0.62154078 0.00000336
-0.52188069 -0.45994854 0.28896129
-0.08430477 0.59646589 0.08162199
-0.29826951 -0.07384986 0.00000270
-0.00392316 0.65814793 0.00000284
-0.19130647 -0.29098997 0.00000176
-0.47548240 -0.28256339 -0.14179422
-0.20820767 -0.45465466 0.00000179
-0.23159847 0.33757776 -0.20986603
-0.57907706 -0.50997883 -0.19101796
-0.42347929 -0.22239186 0.37970343
-0.51379108 -0.36213574 -0.16981667
-0.34343407 -0.02803846 -0.00232054
-0.17371561 -0.70658499 0.00000137
-0.21568115 0.32645243 -0.10231406
-0.43195036 -0.51411003 0.00000344
-0.51981544 -0.42706835 -0.06045357
-0.18710043 -0.25260499 0.00000175
-0.56917346 -0.52341527 -0.10996381
-0.06303668 -0.39604577 0.00000073
-0.15553160 -0.46683967 0.00000138
-0.24878754 0.19937725 0.03196119
-0.41353732 -0.15660152 -0.09060768
-0.56941205 -0.54977727 -0.05399828
-0.36396602 -0.27909148 0.00000307
-0.58308446 -0.53903699 -0.14894795
-0.68258834 -0.79191470 -0.12147704
-0.11136675 -0.09950414 0.00000128
-0.22133645 -0.61048168 0.00000179
-0.33472374 0.09221373 -0.21767101
-0.34426302 -0.03113552 0.24626558
-0.08783840 -0.17619078 0.00000105
-0.08039315 0.60591018 0.07028196
-0.44317177 -0.26993313 0.36475089
-0.03282091 0.51405478 0.00000404
-0.05138492 -0.54770607 0.00000055
-0.15876631 0.41670027 0.09871256
-0.19102415 0.20244052 0.00000403
-0.55133772 -0.53106004 0.13331537
-0.47196135 -0.33048072 -0.01934593
-0.20601761 0.38655668 -0.18213353
-0.50546700 -0.42031941 0.17093714
-0.00845281 -0.71899688 0.00000011
-0.05629924 0.66408271 0.00367268
-0.11921674 -0.51184070 0.00000108
-0.12021468 0.21408820 0.00000579
-0.27577955 -0.25374436 0.00000242
-0.63054991 -0.63842654 -0.18193981
-0.21977200 -0.28266576 0.00000198
-0.02441896 -0.21368188 0.00000055
-0.43795824 -0.25220233 -0.01107486
-0.41903183 -0.08941987 -0.26520714
-0.08197557 -0.28071257 0.00000094
-0.38460761 -0.04244983 -0.18677130
-0.43734109 -0.23173143 -0.05227089
-0.47846922 -0.17897774 -0.38226494
-0.11410715 -0.59611464 0.00000099
-0.07966371 0.60767245 0.05423459
-0.60797048 -0.78483862 0.00000460
-0.60832310 -0.61145872 -0.12400719
-0.44026992 -0.63925523 0.00000342
-0.17082928 0.38757497 0.13720649
-0.67333061 -0.76590568 -0.12941876
-0.45996121 -0.49472612 0.00000366
-0.42568758 -0.22362208 -0.00881071
-0.18017128 0.37460405 -0.02075922
-0.66212529 -0.71890587 -0.17271478
-0.21988891 0.31460699 -0.09865193
-0.48201898 -0.35411444 -0.02075037
-0.05263271 0.16726294 0.00000827
-0.52518135 -0.36553654 -0.22211698
-0.51708949 -0.32325497 -0.27148545
-0.03222984 0.20337716 0.00000833
-0.61751819 -0.62425929 -0.14440496
-0.42284292 -0.22084971 0.25025582
-0.24854417 0.19996434 0.03757669
-0.00510818 -0.22291876 0.00000033
-0.09824475 -0.48236501 0.00000094
-0.28332245 0.11600115 0.06069642
-0.34259033 -0.74584436 0.00000262
-0.37757772 -0.06815441 -0.09415532
-0.43997207 -0.26220486 0.28355959
-0.45957574 -0.30952284 0.06532981
-0.37761116 -0.03571150 -0.16473635
-0.28579685 0.12470355 -0.03181919
-0.43032551 -0.58047593 0.00000338
-0.49661916 -0.25752383 -0.30688956
-0.42180458 -0.21834479 0.29185763
-0.45146349 -0.10151032 -0.40889779
-0.21963948 0.30877778 -0.08469274
-0.19518861 -0.10301979 0.00000191
-0.56378973 -0.54107773 -0.04342054
-0.32873365 -0.77951413 0.00000249
-0.46067196 -0.15080620 -0.35015604
-0.43861923 -0.08880779 -0.36916605
-0.15443751 -0.54063928 0.00000133
-0.13445731 -0.65372705 0.00000111
-0.39406058 -0.66672587 0.00000306
-0.61976826 -0.69626373 0.06228498
-0.46708378 -0.68551546 0.00000360
-0.12686940 0.49370620 0.08954254
-0.29417863 -0.72015083 0.00000227
-0.26406482 0.26664439 -0.22602595
-0.23459020 -0.23500796 0.00000212
-0.28220662 -0.11385469 0.00000256
-0.28782171 -0.60508114 0.00000229
-0.38894320 -0.13899732 0.00818151
-0.21059249 0.35424474 -0.13597284
-0.18990965 -0.44735327 0.00000165
-0.23627654 -0.34703568 0.00000207
-0.01098370 -0.15090051 0.00000049
-0.15934916 0.41690075 -0.00345820
-0.25327414 0.01155480 0.00000496
-0.52238899 -0.55661368 0.00000409
-0.25940466 0.17373753 0.13312471
-0.40497163 -0.01685866 -0.34902120
-0.41560599 -0.20338184 0.33347517
-0.00313092 0.05914905 0.00001110
-0.40731618 -0.18336371 0.22914331
-0.60196030 -0.58138812 -0.15593331
-0.16537993 -0.59580511 0.00000138
-0.14651267 0.44628692 0.04749005
-0.40440252 -0.05033501 -0.27337953
-0.30949649 0.14076293 -0.19085871
-0.28536075 -0.69205356 0.00000222
-0.31011963 0.14302266 -0.19902855
-0.59422624 -0.63460177 0.15089464
-0.38825449 -0.13734324 0.20162421
-0.35693911 -0.03274086 -0.06287670
-0.62560731 -0.65904808 -0.11128416
-0.15385582 -0.67079109 0.00000124
-0.34739831 -0.19743025 0.00000300
-0.36105856 -0.07169139 0.35046929
-0.36655521 -0.08494760 0.00678580
-0.29181305 0.12966815 -0.07411873
-0.18565074 0.08322591 0.00000581
-0.45288241 -0.28073096 -0.02735465
-0.60663730 -0.63510412 -0.06385443
-0.15840052 0.41758782 0.04231687
-0.14054523 0.07427782 0.00000716
-0.14003207 0.46192926 0.08633089
-0.33332062 0.09698824 -0.22068192
-0.55452317 -0.46160474 -0.16735367
-0.50857472 -0.36648729 -0.13304003
-0.08270643 -0.12625159 0.00000105
-0.58645070 -0.61583042 0.20632979
-0.43732658 -0.25581056 0.11598183
-0.47616175 -0.61521089 0.00000371
-0.50219983 -0.41242671 0.05869320
-0.26511863 0.22164734 -0.13388255
-0.57154393 -0.52159065 -0.12634458
-0.59569442 -0.59381533 -0.09612995
-0.21484824 0.37036800 -0.19326767
-0.11675940 0.55057931 -0.07044009
-0.09355939 -0.01038332 0.00000120
-0.03548068 -0.37147307 0.00000054
-0.02980088 -0.16391574 0.00000062
-0.02488817 -0.55714351 0.00000034
-0.38212082 -0.12252834 0.04785719
-0.41976842 -0.21342388 0.17577930
-0.30991626 0.09555553 -0.09493646
-0.65673447 -0.76053292 -0.05411939
-0.14895706 0.47417480 -0.07331717
-0.49184990 -0.21231425 -0.38002232
-0.34933320 0.00985047 -0.11545491
-0.29821551 -0.06474416 0.00000271
-0.36362898 -0.04846218 -0.06380799
-0.48480132 -0.37043324 0.29582092
-0.52049112 -0.37506771 -0.17685528
-0.30899417 -0.17772882 0.00000272
-0.35813403 -0.78996795 0.00000271
-0.16710263 0.39657280 0.12409331
-0.45896685 -0.30806318 0.29706174
-0.31390002 0.05296905 -0.02337767
-0.45543778 -0.29953268 0.06177165
-0.14970686 -0.39549118 0.00000138
-0.45900437 -0.30815071 0.22876947
-0.21691060 0.35559115 -0.17200124
-0.25263485 -0.70764381 0.00000196
-0.45312271 -0.29394159 0.01755832
-0.69557899 -0.81773776 -0.13349865
-0.31864777 0.14418218 -0.24623160
-0.24163197 0.21663959 0.19120926
-0.37521079 -0.00631090 -0.21597211
-0.13581261 -0.56990755 0.00000117
-0.62979299 -0.66983342 -0.10980748
-0.47626820 -0.28333595 -0.14423485
-0.43289018 -0.10561731 -0.30266589
-0.50146085 -0.41065192 0.28779122
-0.36553484 -0.57898676 0.00000290
-0.60608512 -0.58888215 -0.16128136
-0.30165678 0.07173152 0.15051846
-0.44219881 -0.11058431 -0.34065974
-0.40778029 -0.07797462 -0.23109339
-0.62778521 -0.71484214 -0.00160049
-0.24877803 0.19939826 0.05661362
-0.09892839 -0.51673084 0.00000092
-0.47447562 -0.50781709 0.00000376
-0.01711117 -0.22868638 0.00000049
-0.38534123 -0.12767930 -0.00564150
-0.25276271 0.18976755 0.19557068
-0.41258109 -0.10341355 -0.20103568
-0.23539759 -0.55337691 0.00000193
-0.45497355 -0.21279779 -0.18575263
-0.16726159 0.07439397 0.00000643
-0.28777337 -0.35428655 0.00000245
-0.23426059 -0.43691987 0.00000199
-0.47058091 -0.58952081 0.00000368
-0.32539916 0.02242227 -0.01733058
-0.38880107 -0.03012884 -0.23548706
-0.20191614 0.31252420 0.15229683
-0.37999314 -0.05175181 -0.14241128
-0.15956567 -0.07180552 0.00000166
-0.05430803 -0.09719561 0.00000085
-0.17463391 0.16863991 0.00000494
-0.11580307 -0.40750414 0.00000112
-0.52465099 -0.34963149 -0.25385824
-0.13569418 0.47239858 0.12680221
-0.30881715 -0.49966925 0.00000252
-0.33542061 -0.47110805 0.00000274
-0.13074079 0.22476880 0.00000536
-0.19861715 -0.72210258 0.00000155
-0.60241222 -0.72439516 0.00000459
-0.13181601 0.51844686 -0.07959198
-0.19033556 -0.35652646 0.00000171
-0.09785151 0.35155180 0.00000451
-0.03042343 -0.19856583 0.00000061
-0.23715012 0.09433776 0.00000426
-0.37487933 0.00333064 -0.23516203
-0.60523516 -0.73887807 0.00000460
-0.41860259 -0.20410854 -0.01403957
-0.15321256 0.48003957 -0.10834478
-0.12775493 0.53003716 -0.08346896
-0.56113881 -0.44837365 -0.23073426
-0.53913319 -0.50159872 0.26445302
-0.10736443 0.56034207 -0.04240157
-0.46371233 -0.28273150 -0.07975790
-0.48924333 -0.26005444 -0.26275015
-0.18861166 -0.21911848 0.00000179
-0.36221382 -0.68310374 0.00000281
-0.38246608 -0.46498144 0.00000309
-0.15880775 -0.68860793 0.00000127
-0.46448836 -0.13420939 -0.40617436
-0.37643239 -0.10880896 0.37909070
-0.32169178 -0.25814983 0.00000277
-0.49243674 -0.38886011 0.14175870
-0.13583232 0.19766594 0.00000559
-0.00184507 0.58603370 0.00000389
-0.14700578 -0.05464305 0.00000157
-0.37368816 -0.29302937 0.00000314
-0.01461566 -0.19030745 0.00000049
-0.02880777 0.24858250 0.00000780
-0.23792283 -0.34455836 0.00000208
-0.31229007 0.04605201 0.26134968
-0.39076853 -0.47944230 0.00000315
-0.27562511 0.13458493 0.04881293
-0.50457627 -0.26324999 -0.33615419
-0.44822368 -0.28212264 0.20525555
-0.05371901 0.67031091 0.01571505
-0.46234766 -0.23698001 -0.17190592
-0.45708001 -0.20875935 -0.20555481
-0.12034727 0.50945342 0.06989819
-0.06586989 0.64097440 0.04085086
-0.16334623 0.40564594 0.06759426
-0.58193308 -0.57040828 -0.07482717
-0.03516964 0.21088955 0.00000815
-0.52564949 -0.44293571 -0.05658400
-0.08226217 -0.56360376 0.00000077
-0.59662890 -0.60059851 -0.08630422
-0.20557091 0.30369580 0.21690840
-0.19288060 0.39376184 -0.12893599
-0.49050421 -0.38419509 0.15349904
-0.47257003 -0.54303652 0.00000373
-0.48111817 -0.36153892 0.23954523
-0.08908159 -0.65127480 0.00000077
-0.29891980 0.07833428 0.21188854
-0.36760324 -0.08747978 0.05167026
-0.39914069 -0.16362543 0.21112791
-0.10232131 0.50496840 0.00000228
-0.29700723 0.17555179 -0.20092508
-0.47903568 -0.29937425 -0.12392628
-0.38903993 -0.13923575 0.11805520
-0.08841286 -0.18049240 0.00000105
-0.30741987 0.17063212 -0.24480791
-0.60855556 -0.71324128 0.00000465
-0.52852803 -0.45306680 -0.04967819
-0.08053760 0.60556197 0.06368193
-0.14757495 0.45711708 -0.02905160
-0.40399688 -0.17534211 0.04823166
-0.41513553 -0.20224641 0.34134632
-0.37003866 -0.09336971 0.33374539
-0.30277687 0.12300675 -0.11710925
-0.48490387 -0.22775131 -0.31012297
-0.53022152 -0.48008457 0.24428278
-0.47065213 -0.65466249 0.00000364
-0.05614882 0.67131293 -0.01489866
-0.37907737 -0.08216885 -0.07159626
-0.31968114 -0.28229898 0.00000274
-0.46509728 -0.76162761 0.00000353
-0.59892207 -0.56035161 -0.18567160
-0.44186291 -0.12748928 -0.30220950
-0.29083115 0.17038782 -0.15735504
-0.18376844 -0.32977551 0.00000168
-0.47983089 -0.22381613 -0.29208305
-0.37467867 -0.10456763 0.18994401
-0.23281372 -0.15477280 0.00000216
-0.41568279 -0.09944000 -0.22591184
-0.53009295 -0.37655747 -0.22393268
-0.40840542 -0.06532931 -0.26180926
-0.03746635 0.22064263 0.00000795
-0.04783770 -0.60315508 0.00000048
-0.38427791 -0.78889471 0.00000291
-0.15697701 0.42102751 0.00331349
-0.28601524 0.16582102 -0.12220808
-0.32044542 0.10122859 -0.16242105
-0.56737107 -0.50051540 -0.15022156
-0.08210178 0.51934606 0.00000263
-0.04032211 -0.57398129 0.00000045
-0.02050243 0.35543758 0.00000656
-0.36051035 -0.60771739 0.00000284
-0.02572454 -0.51979327 0.00000037
-0.38698056 -0.58905399 0.00000305
-0.04427829 -0.09587100 0.00000077
-0.07048398 -0.29803616 0.00000085
-0.24141705 -0.42853713 0.00000205
-0.46816120 -0.58909637 0.00000366
-0.27296937 0.20026816 -0.12861641
-0.05795793 0.36826175 0.00000536
-0.60867763 -0.63836819 -0.06746096
-0.38394946 0.02882134 -0.33801535
-0.29317412 -0.01811243 0.00000270
-0.33473304 0.00928878 -0.03773291
-0.30017295 -0.37970930 0.00000253
-0.49545452 -0.39615175 0.32754374
-0.35638654 -0.21471953 0.00000305
-0.28048962 -0.04366054 0.00000259
-0.33523554 0.07212216 -0.17674448
-0.40459549 -0.17469804 -0.00447887
-0.62996745 -0.70840842 -0.02699850
-0.50982398 -0.33173871 -0.21500362
-0.05178784 0.41511530 0.00000489
-0.17150541 0.38595313 0.00453134
-0.30610427 0.16890571 -0.23416726
-0.53848594 -0.38432300 -0.25105485
-0.08220059 -0.21650879 0.00000098
-0.34490204 0.05199313 -0.18370607
-0.20000476 -0.30448893 0.00000182
-0.19306962 0.33388472 0.10964939
-0.51131344 -0.33351547 -0.21895166
-0.49914786 -0.40506798 0.27274394
-0.34876049 -0.23647182 0.00000298
-0.35736966 -0.61569995 0.00000281
-0.27381185 0.13895901 0.09315392
-0.42580575 -0.22800383 0.27676025
-0.37127793 -0.63394487 0.00000290
-0.48850584 -0.33843055 -0.08877956
-0.37518650 -0.10578852 0.07493996
-0.51883918 -0.36120108 -0.19829573
-0.49216056 -0.38818705 0.00021706
-0.27286685 -0.53403640 0.00000222
-0.11660266 -0.67409116 0.00000096
-0.15119290 0.43498790 0.04833730
-0.54028594 -0.50235742 -0.00430608
-0.19737716 0.36828423 -0.09719870
-0.18528754 0.35267106 0.12343546
-0.13739783 0.38094699 0.00000303
-0.30333981 0.16940171 -0.22075844
-0.34555590 -0.03426569 0.35901299
-0.56193697 -0.48698175 -0.15112171
-0.48367649 -0.29669872 -0.15404943
-0.58440971 -0.58421493 -0.05783833
-0.05089698 0.08205139 0.00000949
-0.29059589 0.18964450 -0.19791847
-0.49033806 -0.35941154 -0.05284306
-0.45025551 -0.26470032 -0.04838308
-0.35828522 -0.26710159 0.00000304
-0.51731610 -0.39606640 -0.11464421
-0.18514384 0.35301620 0.14593720
-0.21986131 0.26919606 0.21668911
-0.15178055 0.27496696 0.00000410
-0.30222771 0.07035793 0.09077762
-0.27016371 0.14775161 0.27914795
-0.09561331 -0.51402855 0.00000090
-0.26798257 0.16431476 -0.02444996
-0.01738037 -0.14131840 0.00000054
-0.56723273 -0.46112850 -0.23498164
-0.41932023 -0.30084318 0.00000348
-0.15818563 -0.52028608 0.00000137
-0.23951527 0.22773103 -0.01292890
-0.11245389 0.13704021 0.00000706
-0.10135204 -0.02606640 0.00000125
-0.48869833 -0.27989867 -0.21682493
-0.40849736 -0.40069684 0.00000333
-0.05631101 0.19979154 0.00000772
-0.48060974 -0.36030507 0.09670674
-0.49871701 -0.69624722 0.00000383
-0.12869439 0.03770085 0.00000799
-0.47609466 -0.78779042 0.00000360
-0.03270846 -0.02904652 0.00000073
-0.15032558 0.36032334 0.00000296
-0.02769553 -0.29865938 0.00000052
-0.39672285 -0.71956909 0.00000304
-0.16348398 0.40530825 0.13285312
-0.28278628 -0.69662994 0.00000220
-0.19425169 0.33102614 0.17111461
-0.20122185 0.15831672 0.00000436
-0.17395899 0.43922967 -0.12847629
-0.32899654 0.03048944 -0.05368995
-0.38659218 -0.13333890 0.40793511
-0.18149923 -0.17083204 0.00000176
-0.51902258 -0.29342154 -0.34636495
-0.49506518 -0.60325283 0.00000386
-0.28469235 0.11267729 0.27236092
-0.38031423 -0.11816613 0.03235994
-0.44622266 -0.12493144 -0.33060464
-0.03059536 0.15313391 0.00000906
-0.62062842 -0.69834065 0.09796942
-0.62046570 -0.59126997 -0.23145027
-0.24732798 0.20289461 0.11161667
-0.56781453 -0.50266713 -0.14787498
-0.00242602 -0.21738875 0.00000038
-0.07055766 -0.51898098 0.00000071
-0.17110921 0.05959151 0.00000653
-0.56428719 -0.54220349 -0.04358379
-0.29296368 -0.41231659 0.00000245
-0.02642405 0.44100526 0.00000522
-0.41403669 -0.07884398 -0.26198307
-0.33373904 -0.11841531 0.00000294
-0.62033790 -0.68434983 -0.02875903
-0.28584710 0.20320433 -0.20246685
-0.15337111 -0.12872837 0.00000158
-0.32752767 0.06618224 -0.12346381
-0.18417875 -0.28586978 0.00000171
-0.20824179 0.29725757 0.09296794
-0.06072760 0.11690755 0.00000874
-0.56715965 -0.77322447 0.00000430
-0.29326212 0.11853052 -0.05753779
-0.52003616 -0.77036673 0.00000394
-0.42084974 -0.52482164 0.00000335
-0.06593846 0.66669470 -0.05617137
-0.13419531 0.47858328 -0.00553612
-0.21806560 -0.66935116 0.00000173
-0.26739860 -0.74076480 0.00000205
-0.54669398 -0.40435046 -0.25059521
-0.37173697 -0.40418026 0.00000305
-0.21365812 -0.49172699 0.00000180
-0.31796983 0.03234765 0.16457272
-0.55760372 -0.54618859 0.15611011
-0.11230093 0.33915797 0.00000429
-0.14611380 -0.32486132 0.00000140
-0.40591794 -0.05231035 -0.27703261
-0.11489680 -0.54320526 0.00000103
-0.16490945 -0.68397814 0.00000132
-0.48073044 -0.21547967 -0.31488982
-0.20777491 0.03619453 0.00000586
-0.48708302 -0.30774289 -0.14792854
-0.15806495 -0.62290668 0.00000130
-0.32995000 -0.52660704 0.00000266
-0.22591770 0.28862542 -0.07384940
-0.27189589 0.16908196 -0.05530245
-0.23458369 0.23366334 0.09158541
-0.26589441 0.25639346 -0.21336333
-0.38253564 -0.66366303 0.00000297
-0.09598930 0.30004010 0.00000527
-0.38887146 0.01443438 -0.33257934
-0.28606352 0.21329883 -0.22551067
-0.41972357 -0.07030510 -0.31031507
-0.32046944 0.03280582 -0.01403677
-0.15246251 0.48270646 -0.11020306
-0.37141815 -0.09670478 0.39375877
-0.38975182 -0.01015378 -0.28382432
-0.42217541 -0.20808792 -0.02412320
-0.44343042 -0.23499963 -0.07708388
-0.36634231 -0.53751540 0.00000293
-0.20557643 -0.59562945 0.00000168
-0.02672284 0.30780497 0.00000704
-0.32911783 0.13793251 -0.28752860
-0.23903617 -0.28233355 0.00000213
-0.66770673 -0.73508352 -0.16684802
-0.59228963 -0.77248907 0.00000449
