ply
format ascii 1.0
element vertex 1377
property float x
property float y
property float z
end_header
-0.74178851 -0.11957053 -0.00000126
-0.55592287 -0.28435212 0.00000100
-0.24692965 0.25708729 0.13633971
-0.65440381 -0.55883402 -0.00000002
-0.50048757 -0.60738206 0.00000084
-0.17162871 -0.78662539 0.00000006
-0.49644324 -0.25212276 0.37492320
-0.37032822 -0.70476645 0.00000042
-0.11700732 -0.46547446 0.00000146
-0.32349172 -0.02970297 0.00000337
-0.59870148 -0.21544889 0.00000047
-0.03074070 0.65261716 0.00000746
-0.53954858 -0.47405791 0.07307702
-0.61772525 -0.07860794 0.00000018
-0.40506867 -0.15521660 0.05817183
-0.64745516 -0.76421446 0.00000016
-0.05512617 -0.77071899 0.00000013
-0.13176826 -0.24629024 0.00000242
-0.58703423 -0.58715028 0.07704014
-0.24582879 -0.56567669 0.00000103
-0.23642176 -0.42455915 0.00000164
-0.40564528 -0.74748701 0.00000023
-0.44361871 -0.58425057 0.00000094
-0.04118304 -0.78877848 0.00000005
-0.35214442 -0.78655064 0.00000006
-0.35372892 -0.02788937 0.06683442
-0.55815625 0.03958342 0.00000233
-0.75118119 -0.19954482 -0.00000133
-0.25891349 0.21840668 0.11137355
-0.45004284 -0.18231040 0.26683673
-0.00034494 -0.12115945 0.00000297
-0.59700459 0.03721674 0.00000160
-0.01101448 -0.02149157 0.00000341
-0.19193503 -0.30496472 0.00000217
-0.77989578 -0.30103710 -0.00000125
-0.14344862 -0.35179740 0.00000196
-0.47435576 0.19221377 0.00000272
-0.68541092 -0.61742562 -0.00000035
-0.49569479 0.12406195 0.00000286
-0.16176426 0.25104237 0.00000799
-0.24485610 0.03592321 0.00000808
-0.39234814 -0.38007617 0.00000184
-0.13290104 0.56072080 0.00000635
-0.45153108 -0.20633028 0.21452650
-0.55491430 -0.64039934 0.00000070
-0.01429007 -0.31022602 0.00000214
-0.77611965 0.00167262 -0.00000155
-0.23642907 -0.06548407 0.00000321
-0.50993836 0.03683594 0.00000328
-0.49322703 0.28825507 0.00000160
-0.07113064 -0.70358622 0.00000042
-0.23968773 -0.05105047 0.00000328
-0.29276213 0.18442093 0.23360686
-0.23196734 0.38776696 0.00000582
-0.24638958 -0.30035099 0.00000219
-0.00328311 -0.40446800 0.00000173
-0.21683197 0.04889147 0.00000842
-0.46370888 -0.30886984 0.02722695
-0.48299947 -0.29660490 0.00000186
-0.66765988 -0.41022548 -0.00000025
-0.29522789 0.09695760 0.02487155
-0.13151737 -0.22339892 0.00000252
-0.24368635 0.53869480 0.00000440
-0.08562212 0.61927080 0.06656828
-0.24270605 0.09984472 0.00000771
-0.08484848 0.21958432 0.00000935
-0.71854013 -0.25923014 -0.00000092
-0.42422572 -0.09628613 0.32751969
-0.08572456 0.10465797 0.00001005
-0.28060609 -0.50773877 0.00000128
-0.03097098 0.02267817 0.00001139
-0.00624183 0.43561810 0.00000918
-0.72995931 -0.63157535 -0.00000042
-0.50636727 -0.75518674 0.00000020
-0.10511692 0.49870154 0.00000730
-0.70986217 0.05368167 -0.00000070
-0.46978471 -0.60178524 0.00000087
-0.44184998 -0.04327946 0.00000222
-0.41917279 -0.17500533 0.09469320
-0.63109732 -0.48890933 0.00000022
-0.01149039 0.68958086 0.00000752
-0.19565275 -0.77476442 0.00000011
-0.63751870 -0.28017938 0.00000004
-0.59793067 -0.66568041 0.00000059
-0.27321485 0.48515818 0.00000426
-0.22384524 -0.36227685 0.00000192
-0.71519983 -0.17937326 -0.00000092
-0.57080120 -0.48558128 0.23678251
-0.42800039 -0.70379275 0.00000042
-0.41730079 -0.72569871 0.00000033
-0.76660728 -0.11040296 -0.00000155
-0.09817290 0.55944288 0.00000702
-0.66152596 0.04462789 0.00000030
-0.04771296 -0.62848270 0.00000075
-0.17021047 -0.59195787 0.00000091
-0.04498727 0.05359730 0.00001099
-0.00925055 0.54139507 0.00000848
-0.46719232 -0.22019263 0.27585110
-0.25745821 -0.55585033 0.00000107
-0.42901230 -0.59611714 0.00000089
-0.49646580 -0.32237190 0.19516627
-0.42109591 0.16234262 0.00000399
-0.17373453 0.01898651 0.00000926
-0.44146511 -0.13761871 0.32825413
-0.40121350 -0.10252131 0.16928191
-0.70640856 -0.72774643 -0.00000018
-0.59534192 0.02309400 0.00000175
-0.35111266 0.03066237 0.20060129
-0.31785095 -0.68775231 0.00000049
-0.17520051 0.44048554 0.16253600
-0.24720873 -0.56582844 0.00000102
-0.41827393 -0.09291460 0.29935730
-0.05859605 0.53097850 0.00000780
-0.45021528 -0.70304519 0.00000042
-0.37650633 0.39374050 0.00000300
-0.30390617 0.15167841 0.21865527
-0.41194847 -0.24416372 0.00000243
-0.26674756 -0.27230218 0.00000231
-0.35989600 -0.16893196 0.00000276
-0.54204446 0.22145496 0.00000119
-0.33698753 -0.67599463 0.00000054
-0.29824650 -0.20924954 0.00000258
-0.13773139 -0.65603393 0.00000063
-0.16370307 0.00657629 0.00000949
-0.45156869 -0.12084285 0.00000215
-0.32479188 -0.56189364 0.00000104
-0.52596033 -0.13494143 0.00000128
-0.34742695 -0.08887337 0.00000311
-0.35767010 -0.27328095 0.00000230
-0.57553679 0.14219067 0.00000118
-0.09314493 0.60276502 0.00000678
-0.25836235 0.20762436 0.08035444
-0.52771986 -0.38359630 0.00000138
-0.32203442 -0.10322269 0.00000305
-0.56006312 -0.73269135 0.00000029
-0.33227125 -0.52492791 0.00000120
-0.13381842 -0.26125380 0.00000236
-0.45175523 -0.10802303 0.00000214
-0.21397270 0.30585244 0.05746686
-0.40615597 -0.08438892 0.24627237
-0.69907230 -0.55776334 -0.00000054
-0.61432910 -0.55625796 0.00000045
-0.48615718 0.23013066 0.00000220
-0.14456908 0.45610508 0.01315992
-0.31130439 0.22564538 0.00000559
-0.02212719 -0.38687113 0.00000181
-0.08592026 0.67895740 0.00000631
-0.04062587 0.44663289 0.00000860
-0.02651653 0.40992251 0.00000904
-0.50246668 -0.49399465 0.00000134
-0.31690228 0.11125179 0.19547613
-0.47028390 -0.17504606 0.41057748
-0.39750037 0.39909840 0.00000256
-0.59534049 -0.09252191 0.00000045
-0.25443894 -0.41971669 0.00000166
-0.10762732 0.26543346 0.00000872
-0.40816128 -0.77945983 0.00000009
-0.21770255 0.12631276 0.00000793
-0.30764654 -0.38068807 0.00000183
-0.39629349 -0.05716968 0.25500280
-0.08887488 0.34828117 0.00000848
-0.18276174 0.03234619 0.00000904
-0.32213414 0.02524437 0.00757029
-0.18063632 -0.15050539 0.00000284
-0.20071283 -0.38081038 0.00000183
-0.31793556 -0.49602634 0.00000133
-0.15733679 0.21964774 0.00000825
-0.54829317 -0.51124239 0.03191600
-0.29048064 -0.55141860 0.00000109
-0.55925852 -0.13861692 0.00000089
-0.21371865 -0.41702619 0.00000168
-0.73221862 -0.11306701 -0.00000115
-0.53037393 -0.06528014 0.00000120
-0.43990201 -0.20534413 0.14515644
-0.05160622 -0.63246423 0.00000073
-0.55681217 -0.25635082 0.00000098
-0.63172960 0.06823388 0.00000069
-0.01316383 0.13863285 0.00001093
-0.22329587 -0.10736580 0.00000303
-0.56765741 -0.33764666 0.00000089
-0.04715031 0.34309408 0.00000914
-0.00204993 0.69060200 0.00000765
-0.68481117 0.05041479 -0.00000019
-0.20873752 -0.63887811 0.00000070
-0.44338056 -0.39064652 0.00000179
-0.16362897 -0.57669771 0.00000098
-0.31337351 0.39173284 0.00000423
-0.58930743 -0.23394728 0.00000059
-0.35726786 0.24261835 0.00000457
-0.61747694 -0.36758280 0.00000032
-0.16758855 -0.53467554 0.00000116
-0.64819062 -0.41051957 -0.00000002
-0.09111585 0.58218199 0.00555418
-0.62426126 -0.48286632 0.00000030
-0.12858026 -0.54996294 0.00000109
-0.04339276 -0.28590515 0.00000225
-0.07906502 -0.73163384 0.00000030
-0.18973918 0.38392296 0.10757206
-0.56070626 -0.54139876 0.03143283
-0.61314988 -0.65574980 0.06282480
-0.31718990 -0.11610084 0.00000299
-0.05256641 -0.08667305 0.00000312
-0.01409217 -0.65176767 0.00000058
-0.07560625 0.06877372 0.00001043
-0.30712637 -0.59099698 0.00000091
-0.56535226 -0.32416901 0.00000091
-0.44929013 -0.62495327 0.00000077
-0.61628622 -0.75291532 0.00000021
-0.22113615 -0.19389626 0.00000265
-0.07494505 -0.78498888 0.00000007
-0.20802155 0.31852335 0.05312273
-0.16014566 -0.73755884 0.00000027
-0.18715259 0.60370010 0.00000497
-0.16876917 0.20462683 0.00000817
-0.35255334 0.03631418 0.22398151
-0.49589321 0.12201639 0.00000287
-0.19874874 -0.69249773 0.00000047
-0.05001738 0.36275396 0.00000898
-0.41556874 -0.10780731 0.24449500
-0.79312402 -0.31177244 -0.00000122
-0.75212568 -0.49198502 -0.00000077
-0.08220061 0.41084597 0.00000819
-0.59943557 -0.23099548 0.00000047
-0.24033050 0.22826312 0.02172719
-0.05389059 -0.17753761 0.00000272
-0.72427845 -0.23455580 -0.00000100
-0.36999571 -0.46698070 0.00000146
-0.29913059 -0.42685643 0.00000163
-0.36188820 0.43805441 0.00000293
-0.32925963 0.02477304 0.05041586
-0.09377586 -0.43848354 0.00000158
-0.22683841 -0.74033225 0.00000026
-0.41885635 -0.34831366 0.00000198
-0.42866918 0.34516853 0.00000239
-0.51059097 -0.15592569 0.00000147
-0.37600818 -0.67236060 0.00000056
-0.48831481 -0.33824566 0.10412354
-0.73586464 -0.24044935 -0.00000113
-0.29518428 -0.41061562 0.00000170
-0.02073377 0.62626958 0.00000777
-0.67323315 -0.34752804 -0.00000034
-0.25995860 0.17458072 0.00560353
-0.03195834 -0.72191763 0.00000034
-0.70007545 -0.72958618 -0.00000018
-0.35469201 0.03280260 0.22821106
-0.19312815 0.44658479 0.00000610
-0.26628312 -0.37388477 0.00000186
-0.02117455 0.17484635 0.00001059
-0.11907497 -0.08981614 0.00000311
-0.09702608 0.41300619 0.00000795
-0.56642205 -0.50276887 0.16569498
-0.41267619 -0.00626016 0.00000255
-0.67239195 0.00695194 0.00000040
-0.63465190 -0.15239958 0.00000001
-0.19179024 -0.06825540 0.00000320
-0.72561967 -0.18705615 -0.00000104
-0.21215361 -0.06575944 0.00000321
-0.29931825 0.14916922 0.18386538
-0.16358504 -0.25213298 0.00000240
-0.02889833 0.46748161 0.00000864
-0.42096862 -0.16329253 0.13579039
-0.39899388 -0.62579477 0.00000076
-0.78052843 -0.04412727 -0.00000175
-0.22740759 0.26350349 0.03207764
-0.61573225 -0.53688264 0.00000042
-0.17991111 -0.55666280 0.00000106
-0.07226409 -0.72122365 0.00000034
-0.05636622 -0.68912286 0.00000049
-0.40532252 0.16431682 0.00000427
-0.29970703 0.19264933 0.00000608
-0.38511586 0.22245257 0.00000420
-0.14532053 0.03118490 0.00000961
-0.19287427 0.12804316 0.00000829
-0.21801011 -0.44339094 0.00000156
-0.19467267 0.26533952 0.00000740
-0.57575387 0.21310741 0.00000053
-0.00178784 -0.11801349 0.00000298
-0.09782954 0.15739471 0.00000954
-0.03308267 -0.77794933 0.00000010
-0.08823346 -0.68112618 0.00000052
-0.22373527 0.25809649 0.00000701
-0.56484848 -0.70823550 0.00000040
-0.39334664 -0.06915999 0.20607896
-0.43999273 -0.17914198 0.00000231
-0.46413338 -0.10904635 0.00000199
-0.54599297 -0.22972216 0.00000109
-0.38249162 -0.34193152 0.00000200
-0.58201391 0.12407202 0.00000120
-0.26626197 0.24590217 0.22721623
-0.10081921 0.60554111 0.00000661
-0.65321887 -0.12830642 -0.00000021
-0.20833626 0.47344372 0.00000560
-0.25906721 0.03477866 0.00000787
-0.66056305 -0.73377359 0.15614232
-0.78669018 -0.20497227 -0.00000149
-0.07250548 0.63225687 0.01873141
-0.02043911 -0.31323472 0.00000213
-0.27350929 -0.05983957 0.00000324
-0.19147936 0.59746611 0.00000485
-0.38135654 -0.05116705 0.17802857
-0.15136938 0.59871197 0.00000569
-0.32761902 0.06711452 0.14870261
-0.15043832 0.48965180 0.00000658
-0.17701761 -0.61545122 0.00000081
-0.00230653 -0.17565611 0.00000272
-0.44545326 -0.58996177 0.00000092
-0.48703021 0.01607717 0.00000388
-0.72036612 -0.64497787 -0.00000039
-0.34741148 0.07597837 0.29376626
-0.39386359 -0.64063579 0.00000070
-0.63796359 -0.36251631 0.00000008
-0.23340352 0.22913355 0.00000705
-0.37559283 -0.20265155 0.00000261
-0.39302000 -0.39791581 0.00000176
-0.17606643 0.17527156 0.00000825
-0.02761285 -0.74430799 0.00000024
-0.00873139 0.78139031 0.00636227
-0.23541158 0.28582183 0.13871513
-0.65298605 -0.75198650 0.06265987
-0.23335867 -0.77504689 0.00000011
-0.58259565 0.03301733 0.00000191
-0.00669435 -0.21031234 0.00000255
-0.50176865 0.09845931 0.00000294
-0.35099551 -0.03198666 0.03944290
-0.08927823 0.29687351 0.00000880
-0.57332397 -0.14099962 0.00000073
-0.42494959 -0.08847991 0.00000244
-0.26270133 0.44440043 0.00000478
-0.66135138 -0.76748592 0.07468554
-0.13779581 -0.17909414 0.00000272
-0.09489723 -0.05789429 0.00000325
-0.25312600 0.19731416 0.02157852
-0.05096282 -0.25870812 0.00000237
-0.68083090 -0.80523443 0.09844647
-0.74006063 -0.72825533 -0.00000018
-0.73637676 -0.68648481 -0.00000028
-0.61354810 -0.63743526 0.11218725
-0.46757647 -0.08853840 0.00000194
-0.26040754 0.49205384 0.00000445
-0.13451625 0.62294346 0.00000583
-0.21953829 -0.17327446 0.00000274
-0.70460659 -0.23257259 -0.00000077
-0.47020307 -0.41583702 0.00000168
-0.19432794 -0.20656402 0.00000260
-0.74978608 -0.25943053 -0.00000128
-0.11405566 0.66284335 0.00000590
-0.05438941 -0.39035565 0.00000179
-0.12119682 0.19725755 0.00000894
-0.34715524 0.21686800 0.00000497
-0.24575366 0.09321136 0.00000771
-0.01467640 0.47138947 0.00000883
-0.15217312 0.60995263 0.00000559
-0.28237042 -0.11093047 0.00000301
-0.50950992 0.19291261 0.00000204
-0.02893952 -0.56558895 0.00000103
-0.31931424 0.14036857 0.00000611
-0.48403883 0.29421636 0.00000173
-0.67654848 -0.79429656 0.09998117
-0.35222679 0.04983651 0.25659123
-0.09256237 0.53540993 0.00000726
-0.02528497 0.38554353 0.00000921
-0.25469026 0.44953483 0.00000490
-0.42504674 -0.61594164 0.00000081
-0.04763317 -0.17153998 0.00000275
-0.55747479 -0.31582460 0.00000100
-0.31127182 -0.75764161 0.00000019
-0.54662740 -0.68854630 0.00000049
-0.38378856 -0.54897666 0.00000110
-0.36581069 -0.73831558 0.00000027
-0.67346042 -0.26372454 -0.00000039
-0.07418450 0.01464381 0.00001079
-0.42997134 0.19678469 0.00000354
-0.34368318 0.19397967 0.00000522
-0.22684190 -0.55062109 0.00000109
-0.30450240 -0.13974603 0.00000289
-0.02172738 0.66749710 0.00000750
-0.22235084 0.12495244 0.00000786
-0.01368766 0.65989542 0.00000767
-0.14064446 0.49075189 0.07762130
-0.18512385 -0.28759918 0.00000224
-0.01324990 -0.52770793 0.00000119
-0.11532320 0.52844924 0.01761233
-0.22332630 -0.17517078 0.00000273
-0.22650129 -0.01704179 0.00000343
-0.59781176 -0.25831231 0.00000050
-0.04668278 0.53335392 0.00000796
-0.43098706 -0.08572802 0.00000237
-0.20702824 -0.09761461 0.00000307
-0.09038556 0.29986861 0.00000876
-0.51356971 -0.26389205 0.00000149
-0.38299534 -0.14341411 0.00000287
-0.00068809 0.08640905 0.00001145
-0.49414995 -0.69144666 0.00000047
-0.37368515 0.18014434 0.00000475
-0.50695938 -0.35085523 0.18710038
-0.02387734 0.69788849 0.00000728
-0.18856379 0.39260107 0.12252861
-0.12602359 -0.03943409 0.00000333
-0.24673787 -0.44301981 0.00000156
-0.46934390 -0.26687530 0.16960613
-0.23786540 -0.26241881 0.00000235
-0.10545688 -0.33017218 0.00000206
-0.15328948 0.29417163 0.00000785
-0.01410280 -0.17038743 0.00000269
-0.09194378 -0.40202332 0.00000174
-0.47568199 0.25727689 0.00000218
-0.76646334 -0.21351589 -0.00000147
-0.05626183 0.23850705 0.00000966
-0.27011251 0.52152520 0.00000397
-0.01531563 -0.19188748 0.00000266
-0.47233313 -0.40148649 0.00000174
-0.64944327 -0.21844776 -0.00000013
-0.28089812 0.40817934 0.00000472
-0.22518785 -0.02070072 0.00000341
-0.41955450 -0.31745195 0.00000211
-0.59925550 -0.57754380 0.17719674
-0.64316565 -0.08410825 -0.00000012
-0.27470717 -0.68240231 0.00000051
-0.16656880 -0.68646699 0.00000050
-0.46519360 -0.27794668 0.11559530
-0.24163249 -0.62212515 0.00000078
-0.62471503 -0.20575874 0.00000016
-0.18637221 0.39854410 0.12419848
-0.18639702 -0.56628805 0.00000102
-0.49087176 -0.32965699 0.14192574
-0.13697805 0.41247907 0.00000736
-0.64614034 0.15340675 -0.00000027
-0.60178131 -0.37305215 0.00000051
-0.56485254 -0.25047204 0.00000088
-0.52331990 -0.67392802 0.00000055
-0.35563847 -0.74950695 0.00000022
-0.09608477 -0.21159239 0.00000257
-0.14872244 0.23294935 0.00000830
-0.65999997 -0.08316111 -0.00000032
-0.29310337 -0.06061833 0.00000323
-0.25226614 -0.78589016 0.00000006
-0.38150501 -0.06458887 0.14457542
-0.69604772 -0.07411386 -0.00000074
-0.43433240 -0.34154260 0.00000201
-0.23631731 0.54278964 0.00000451
-0.06891281 -0.78718644 0.00000006
-0.62621325 -0.20243056 0.00000014
-0.51275396 -0.09273233 0.00000142
-0.54865801 -0.17600647 0.00000104
-0.55738205 0.13878514 0.00000156
-0.19342378 0.05947582 0.00000871
-0.44734213 -0.55542582 0.00000107
-0.03489030 -0.30482689 0.00000217
-0.37375954 0.28833231 0.00000389
-0.11151038 -0.05385591 0.00000326
-0.22291800 0.21594806 0.00000729
-0.67445683 0.00946520 0.00000034
-0.09817482 0.30327612 0.00000862
-0.45852119 -0.16860181 0.35435855
-0.21269189 0.34975111 0.16196589
-0.10333348 0.43804169 0.00000770
-0.20881855 0.33632845 0.10364611
-0.14857449 -0.76439321 0.00000016
-0.08804984 0.52665788 0.00000738
-0.01742141 -0.69896966 0.00000044
-0.21213616 0.21738170 0.00000744
-0.09228955 0.59376943 0.04248405
-0.52333260 -0.36061254 0.00000142
-0.49487907 -0.63349944 0.00000073
-0.31820834 -0.23157842 0.00000249
-0.28276819 0.21047556 0.00000626
-0.09286188 0.49905393 0.00000748
-0.30187944 -0.71224093 0.00000038
-0.52639621 -0.12036978 0.00000127
-0.45254457 -0.24330609 0.12610313
-0.32259929 -0.25264490 0.00000239
-0.09008713 -0.66900468 0.00000057
-0.21814039 0.30056959 0.06970464
-0.12953413 0.57109946 0.00000633
-0.61788374 0.08849396 0.00000079
-0.73959559 -0.72657418 -0.00000018
-0.06633161 0.50096071 0.00000787
-0.00334133 0.11107808 0.00001126
-0.00856844 -0.73212171 0.00000030
-0.47980586 -0.77249354 0.00000012
-0.37701336 0.05457214 0.00000569
-0.01972665 0.52458864 0.00000842
-0.17744438 0.48587772 0.00000609
-0.46288225 -0.30726516 0.02622573
-0.33747441 -0.00718211 0.01937067
-0.51068276 -0.25654629 0.00000152
-0.28766665 -0.39685476 0.00000176
-0.03162017 -0.08331234 0.00000314
-0.19250362 -0.68423051 0.00000051
-0.20585983 -0.48933175 0.00000136
-0.70480603 -0.03311572 -0.00000087
-0.61069995 -0.11698486 0.00000028
-0.59848601 -0.22750631 0.00000048
-0.64257324 0.06509901 0.00000051
-0.45488209 -0.24419551 0.13827695
-0.58733380 -0.44909936 0.00000071
-0.36521417 0.36520433 0.00000344
-0.55511987 -0.18373151 0.00000096
-0.02152853 0.31425822 0.00000971
-0.64241672 -0.27341023 -0.00000002
-0.64732826 -0.52350551 0.00000005
-0.45764807 0.09302915 0.00000383
-0.09728879 -0.75695157 0.00000019
-0.20599926 0.43316799 0.00000596
-0.45512041 0.03954026 0.00000431
-0.17271881 -0.47482905 0.00000142
-0.11009863 0.29505834 0.00000849
-0.40861672 -0.38775957 0.00000180
-0.24004728 0.28973916 0.17740643
-0.72131187 -0.51880103 -0.00000070
-0.06582076 0.01896328 0.00001089
-0.35824633 0.06238376 0.32593775
-0.13892876 0.51571733 0.00000659
-0.00729202 -0.07991155 0.00000312
-0.03778741 0.49356183 0.00000835
-0.15135238 0.25616789 0.00000812
-0.31131014 -0.69620556 0.00000045
-0.24142346 -0.25101942 0.00000240
-0.12965129 0.08329369 0.00000952
-0.15928879 -0.61518532 0.00000081
-0.71279782 -0.35333252 -0.00000080
-0.62502158 -0.33733034 0.00000022
-0.14770980 0.61295801 0.00000565
-0.34496751 -0.41023201 0.00000171
-0.47290784 0.02682494 0.00000407
-0.71635890 -0.05235964 -0.00000099
-0.10901256 0.56311607 0.06737379
-0.28405356 -0.48406622 0.00000138
-0.27957082 -0.44965050 0.00000153
-0.38467717 0.02091452 0.00000581
-0.05016562 -0.68142408 0.00000052
-0.45246273 0.11366527 0.00000377
-0.47141409 -0.15089191 0.00000193
-0.25828555 -0.07206607 0.00000318
-0.24086155 -0.69372779 0.00000046
-0.08277148 0.47358078 0.00000779
-0.57593375 -0.04192361 0.00000065
-0.08663093 -0.58003658 0.00000096
-0.68782318 -0.32190764 -0.00000053
-0.05206926 0.04651183 0.00001092
-0.55980462 0.09991986 0.00000182
-0.41646045 -0.15367799 0.13254045
-0.38776511 0.03217905 0.00000566
-0.27507704 0.16379561 0.07145273
-0.13248666 -0.56209242 0.00000104
-0.32248631 -0.79807496 0.00000001
-0.74795312 -0.52769059 -0.00000068
-0.60423845 -0.32473505 0.00000046
-0.03858359 -0.29296863 0.00000222
-0.59882480 -0.56012493 0.00000063
-0.45608416 -0.25670004 0.11368653
-0.41204441 -0.06114519 0.00000258
-0.42361206 -0.67322069 0.00000055
-0.02880431 -0.37861627 0.00000184
-0.00536908 -0.46250933 0.00000148
-0.03091596 0.67454046 0.00000732
-0.34750503 -0.33688679 0.00000203
-0.28312182 -0.04749694 0.00000329
-0.60749310 0.11272777 0.00000080
-0.04230884 -0.35101312 0.00000196
-0.23488061 -0.53944874 0.00000114
-0.00460611 -0.05954372 0.00000324
-0.13320687 -0.07329455 0.00000318
-0.27518225 0.01277284 0.00000777
-0.18920976 0.56811142 0.00000521
-0.47824934 -0.20807104 0.00000188
-0.30577159 -0.62717277 0.00000076
-0.68788087 -0.60680330 -0.00000039
-0.05038178 0.21505789 0.00000990
-0.30683029 -0.62013113 0.00000079
-0.37883991 -0.69721878 0.00000045
-0.44580722 -0.12506755 0.38724020
-0.01641490 -0.60652947 0.00000085
-0.12976591 -0.12467568 0.00000295
-0.44513068 -0.27370438 0.00242242
-0.37288532 -0.33238491 0.00000205
-0.22261643 -0.26189485 0.00000235
-0.74446857 -0.24719588 -0.00000123
-0.30267242 0.23574676 0.00000568
-0.41673675 -0.09520026 0.28400069
-0.06579864 0.15394111 0.00001005
-0.07343475 0.42169717 0.00000826
-0.42779011 -0.18791243 0.11491575
-0.25300545 0.24049866 0.13142180
-0.61837333 -0.15957153 0.00000021
-0.75755727 -0.59539473 -0.00000051
-0.38956824 -0.75409466 0.00000020
-0.73517257 -0.56801337 -0.00000058
-0.32424396 -0.65454412 0.00000064
-0.46722329 0.32236049 0.00000183
-0.12489180 0.08118251 0.00000961
-0.77862692 -0.75465715 -0.00000011
-0.37057686 -0.07449737 0.05163926
-0.26667884 -0.54543996 0.00000111
-0.14999792 0.50512904 0.00000646
-0.30426064 -0.28887302 0.00000224
-0.32553309 -0.43401846 0.00000160
-0.64456975 -0.41064650 0.00000002
-0.40267229 -0.26159436 0.00000236
-0.53365004 -0.27103460 0.00000126
-0.10187762 -0.36373389 0.00000191
-0.16795072 0.44817668 0.13741083
-0.08677711 -0.56045765 0.00000105
-0.42981327 -0.74319953 0.00000025
-0.32838732 -0.59437299 0.00000090
-0.35655239 -0.33695614 0.00000203
-0.53356934 0.09141712 0.00000239
-0.39547426 -0.04512179 0.28079075
-0.44753683 -0.49024585 0.00000136
-0.20952870 -0.77261716 0.00000012
-0.73038334 -0.66042686 -0.00000035
-0.11887080 0.09545832 0.00000961
-0.34225851 -0.02042369 0.01503833
-0.30050343 -0.52669781 0.00000120
-0.51364487 -0.76415098 0.00000016
-0.52842581 -0.07672810 0.00000122
-0.21225159 0.33850250 0.13043785
-0.28934905 -0.27935180 0.00000228
-0.69356114 -0.69829375 -0.00000025
-0.60318679 -0.24224380 0.00000043
-0.41995928 -0.18788417 0.06657491
-0.15513784 0.46695966 0.10629680
-0.45457312 -0.52953279 0.00000118
-0.38626355 -0.13141541 0.00286243
-0.17272483 0.41664124 0.08616901
-0.29694009 0.18420660 0.25888777
-0.57997882 -0.49728653 0.26354608
-0.75733602 -0.14865173 -0.00000143
-0.17186739 -0.48565722 0.00000138
-0.01005090 0.36631307 0.00000956
-0.62695527 -0.66659045 0.12041316
-0.67352974 -0.49902931 -0.00000027
-0.01387179 -0.60466075 0.00000085
-0.05602716 -0.34348884 0.00000200
-0.53485584 -0.18455958 0.00000120
-0.26484215 -0.12110076 0.00000297
-0.49420759 -0.30994701 0.00000174
-0.61047202 -0.65107590 0.05823841
-0.08638622 0.30535725 0.00000879
-0.29133755 0.17599601 0.20322473
-0.49883005 -0.33790296 0.00000170
-0.78185707 -0.54829794 -0.00000063
-0.70209569 0.08422490 -0.00000079
-0.22807886 0.32856664 0.20284404
-0.05807768 -0.24961899 0.00000241
-0.37464306 -0.00345937 0.25869504
-0.09647948 0.57141626 0.01114488
-0.54200345 -0.41068894 0.25053176
-0.67506170 -0.02777840 -0.00000052
-0.04696312 -0.78958064 0.00000005
-0.10672016 -0.08989682 0.00000311
-0.47032318 -0.14851218 0.00000194
-0.30241325 -0.65930384 0.00000062
-0.42905504 0.36413351 0.00000218
-0.17882903 -0.51632416 0.00000124
-0.26168257 0.31829017 0.00000581
-0.60552025 0.09869910 0.00000095
-0.41374281 -0.12307398 0.19411089
-0.20656054 0.31066185 0.02395819
-0.75938594 -0.35631967 -0.00000111
-0.72656894 -0.49256843 -0.00000077
-0.24598967 -0.09835907 0.00000307
-0.39342415 -0.15006880 0.00000284
-0.43658915 -0.79022026 0.00000004
-0.04714477 0.40636024 0.00000875
-0.17846403 -0.18818939 0.00000268
-0.61762023 -0.60775852 0.21335827
-0.19432192 -0.21757413 0.00000255
-0.11294595 0.27844602 0.00000856
-0.45426983 -0.19893035 0.25040853
-0.28545484 0.46676195 0.00000417
-0.25803798 0.20144466 0.06252388
-0.30733281 -0.41254678 0.00000170
-0.37485883 -0.05208450 0.13550773
-0.27747729 0.45207343 0.00000444
-0.25359628 -0.75309408 0.00000021
-0.38058788 -0.03093518 0.22508702
-0.46278796 -0.16020989 0.00000204
-0.71115297 -0.12220056 -0.00000090
-0.76774848 -0.25418016 -0.00000136
-0.27478486 -0.63742489 0.00000071
-0.07283828 0.22321706 0.00000951
-0.06373123 0.15088201 0.00001010
-0.16699621 -0.29117438 0.00000223
-0.73146605 -0.20066118 -0.00000110
-0.77511251 -0.76124293 -0.00000010
-0.18701795 -0.58308566 0.00000095
-0.01427157 -0.27732113 0.00000222
-0.41028699 -0.11098615 0.20370068
-0.69732553 -0.02648610 -0.00000078
-0.07648112 0.56248683 0.00000733
-0.52056050 0.22629102 0.00000157
-0.73775959 -0.74195230 -0.00000015
-0.73525769 -0.02124598 -0.00000123
-0.05680597 -0.18853077 0.00000268
-0.16380350 -0.26485658 0.00000234
-0.39404503 0.37136742 0.00000284
-0.68918437 -0.82700151 0.09434858
-0.02980047 0.76157850 0.00000673
-0.52186859 -0.50951797 0.00000127
-0.39798126 -0.05515521 0.27059600
-0.04305912 -0.55223060 0.00000108
-0.79413790 -0.75356770 -0.00000012
-0.29197931 0.18350482 0.22642121
-0.59145439 -0.31292394 0.00000060
-0.12572338 0.40015310 0.00000760
-0.79434931 -0.79079908 -0.00000002
-0.63979524 -0.59851259 0.00000017
-0.50143224 -0.28258559 0.00000164
-0.34626219 0.06596140 0.00000619
-0.43066776 -0.12346631 0.29774272
-0.04697506 -0.02654538 0.00000338
-0.59174490 0.08377167 0.00000133
-0.08410683 -0.77274150 0.00000012
-0.05021808 0.66012579 0.00000712
-0.50176674 -0.19264226 0.00000159
-0.10240652 -0.06626072 0.00000321
-0.31519988 0.01435380 0.00000715
-0.73250347 -0.68743223 -0.00000028
-0.45796776 -0.22314145 0.00000212
-0.36235553 -0.31859526 0.00000211
-0.00159857 -0.57462305 0.00000098
-0.34764105 -0.36142594 0.00000192
-0.48826212 0.03800997 0.00000368
-0.16097148 0.52887642 0.00000607
-0.52984500 0.13760258 0.00000209
-0.34223795 -0.00639262 0.05084254
-0.76675040 -0.12189967 -0.00000155
-0.64429939 -0.20890921 -0.00000007
-0.23588865 0.39264932 0.00000571
-0.04260432 -0.46051225 0.00000149
-0.05934702 -0.39615288 0.00000177
-0.33929622 0.19376688 0.00000531
-0.16547517 -0.42124066 0.00000166
-0.23605113 0.30405042 0.18934953
-0.64558476 -0.75455469 0.01032627
-0.11303010 0.41812888 0.00000768
-0.37789527 -0.00851423 0.26585668
-0.00358941 -0.65929884 0.00000062
-0.09448559 -0.25044486 0.00000240
-0.74303097 -0.05635973 -0.00000130
-0.56951135 -0.26509544 0.00000083
-0.16933426 0.16904537 0.00000839
-0.01226192 -0.72282553 0.00000028
-0.32887661 -0.21537852 0.00000256
-0.11197063 0.55714023 0.07035859
-0.60149223 -0.56121850 0.00000060
-0.72250724 -0.22354788 -0.00000098
-0.31646693 0.39658543 0.00000413
-0.44860587 -0.21098900 0.18451145
-0.70158100 -0.22465888 -0.00000074
-0.54453719 -0.22523601 0.00000111
-0.44055718 0.12015755 0.00000395
-0.42373627 -0.17789032 0.11551846
-0.68596518 -0.65996081 -0.00000034
-0.05275136 0.13648215 0.00001035
-0.21307436 -0.19768596 0.00000264
-0.17532343 -0.78980243 0.00000004
-0.77896541 -0.22091073 -0.00000145
-0.72898489 -0.36939409 -0.00000099
-0.48628253 -0.36574075 0.02114861
-0.13150033 -0.27107593 0.00000231
-0.54806525 -0.05952337 0.00000099
-0.62597245 -0.52099186 0.00000030
-0.10611119 -0.06438679 0.00000322
-0.07197707 -0.29425311 0.00000221
-0.08800367 -0.26557010 0.00000234
-0.34869108 -0.32549387 0.00000208
-0.12864570 -0.32010385 0.00000210
-0.00189291 0.19231541 0.00001077
-0.41468719 -0.36075458 0.00000192
-0.26956451 0.38290739 0.00000514
-0.38892120 0.16033407 0.00000462
-0.37570766 -0.57477832 0.00000099
-0.44642192 0.32235175 0.00000223
-0.67382336 -0.73262471 -0.00000016
-0.04493062 0.05886493 0.00001095
-0.28695041 -0.30168006 0.00000218
-0.54668629 -0.59268814 0.00000091
-0.42852408 -0.66217494 0.00000060
-0.00880423 -0.26352346 0.00000235
-0.14473562 0.45927715 0.02231267
-0.44892314 -0.50421786 0.00000129
-0.67743164 -0.77231932 -0.00000007
-0.78296030 -0.06082599 -0.00000177
-0.18225899 0.00535606 0.00000922
-0.04758159 -0.16037516 0.00000280
-0.48905411 -0.07847555 0.00000169
-0.39540491 0.13484982 0.00000470
-0.15569407 -0.24208955 0.00000244
-0.46252409 -0.16747333 0.38199595
-0.62918186 -0.78531224 0.00000006
-0.00136485 0.51148868 0.00000878
-0.17879541 0.11465950 0.00000859
-0.23495200 0.36201450 0.00000597
-0.17329808 -0.25876606 0.00000237
-0.59224021 -0.37678620 0.00000062
-0.21102113 -0.78784794 0.00000005
-0.16912349 0.28122109 0.00000769
-0.53465718 -0.22142562 0.00000122
-0.05760431 -0.65066957 0.00000065
-0.15367527 0.54188448 0.00000610
-0.08784585 0.60486960 0.04343709
-0.48824823 -0.63612384 0.00000072
-0.46446651 -0.49680653 0.00000133
-0.72163576 -0.73834747 -0.00000015
-0.44124812 -0.11352097 0.38862300
-0.71004957 -0.14766595 -0.00000087
-0.42135671 -0.14421360 0.18704776
-0.03201058 -0.48546934 0.00000138
-0.35787582 -0.78458786 0.00000007
-0.65364504 -0.19271146 -0.00000019
-0.54256195 -0.43716651 0.18617982
-0.23062828 0.25605622 0.03291796
-0.46534047 -0.29619074 0.06978316
-0.11004026 -0.19961251 0.00000263
-0.17918587 0.42111591 0.13757256
-0.02526422 -0.29796883 0.00000220
-0.32076034 -0.13485521 0.00000291
-0.06613312 0.34663039 0.00000884
-0.22281890 0.34182149 0.20426846
-0.14220403 0.30275741 0.00000796
-0.43674821 -0.10163828 0.39123252
-0.37134352 -0.08545185 0.02832638
-0.44906127 -0.15845826 0.00000220
-0.53887409 -0.45208436 0.12517779
-0.05677883 0.39634448 0.00000867
-0.75109792 -0.37808698 -0.00000105
-0.09218231 -0.50343233 0.00000130
-0.00199522 -0.27639040 0.00000228
-0.10525198 -0.25021619 0.00000241
-0.34242338 -0.63620597 0.00000072
-0.11555775 0.37419459 0.00000792
-0.26542610 0.01903633 0.00000788
-0.50357687 -0.62836689 0.00000075
-0.39019778 0.40581638 0.00000261
-0.00615730 -0.70186424 0.00000040
-0.00147152 0.53281826 0.00000865
-0.50806570 -0.59059417 0.00000092
-0.61826068 -0.31009635 0.00000028
-0.23104446 -0.19729882 0.00000264
-0.09430661 -0.19783254 0.00000263
-0.79871696 -0.24780101 -0.00000138
-0.75884718 -0.51931900 -0.00000070
-0.32953998 0.02574556 0.05463952
-0.58966321 -0.77369744 0.00000012
-0.09044375 -0.27113235 0.00000231
-0.48398748 -0.22230078 0.37428653
-0.28250152 -0.01222048 0.00000345
-0.64055645 -0.14635515 -0.00000006
-0.53066754 0.22818138 0.00000136
-0.30694595 -0.61656672 0.00000080
-0.59065241 -0.70523649 0.00000041
-0.28067908 -0.44938421 0.00000153
-0.58537149 -0.03900311 0.00000054
-0.44835350 -0.27803797 0.01124958
-0.22438186 0.07984110 0.00000812
-0.42113960 -0.13024773 0.22146988
-0.12522122 -0.09768452 0.00000307
-0.50038165 -0.14388674 0.00000159
-0.61321741 0.04198139 0.00000125
-0.07588802 0.23575860 0.00000938
-0.48505366 -0.72382838 0.00000033
-0.30485800 0.49166241 0.00000360
-0.67829210 -0.33588871 -0.00000041
-0.26502612 -0.54269773 0.00000113
-0.13507123 0.10745585 0.00000929
-0.40699607 -0.23805214 0.00000246
-0.30614698 0.15117668 0.00000628
-0.23048168 0.15988141 0.00000752
-0.19290330 0.23543452 0.00000762
-0.13598840 -0.09881142 0.00000307
-0.48545611 0.07012133 0.00000348
-0.12321112 -0.45631471 0.00000150
-0.65584445 0.02834789 0.00000054
-0.02093261 0.36041415 0.00000943
-0.59439403 -0.57172674 0.00000069
-0.52986419 0.17319714 0.00000181
-0.55647624 0.04080805 0.00000235
-0.56207401 -0.23095569 0.00000090
-0.69421065 -0.37692934 -0.00000058
-0.30711874 0.15610813 0.24986048
-0.44435826 -0.20198548 0.18130770
-0.62300408 -0.34452704 0.00000024
-0.69596106 -0.11920870 -0.00000072
-0.29650420 -0.46503001 0.00000147
-0.42111883 -0.01373953 0.00000245
-0.21343254 0.29192191 0.01845355
-0.30581999 0.12584244 0.16432548
-0.09767665 -0.42339867 0.00000165
-0.61607397 -0.63201416 0.14168511
-0.69976449 -0.79494977 -0.00000001
-0.02421541 0.76979083 0.00000678
-0.34086826 -0.17376335 0.00000274
-0.78937167 -0.62822962 -0.00000043
-0.26409319 -0.06231813 0.00000323
-0.57102418 -0.12628169 0.00000075
-0.39451289 0.16640241 0.00000446
-0.49134219 -0.50908524 0.00000127
-0.56263942 -0.20467988 0.00000089
-0.06986504 0.64064246 0.02388137
-0.38579783 -0.09209964 0.10066452
-0.71114588 -0.15268163 -0.00000088
-0.30260569 0.01311986 0.00000735
-0.63945276 -0.52945751 0.00000014
-0.26942599 -0.60350871 0.00000086
-0.50018513 0.13303135 0.00000270
-0.57387483 -0.55018342 0.09034987
-0.04568049 0.39751047 0.00000883
-0.01918793 0.75017208 0.00000702
-0.12132805 0.40169805 0.00000766
-0.19422764 -0.01651014 0.00000343
-0.16059811 -0.74393690 0.00000025
-0.38070273 -0.00459893 0.29324001
-0.57767731 0.05568996 0.00000183
-0.47156760 -0.71683908 0.00000036
-0.61626279 -0.42721373 0.00000036
-0.11611840 -0.04440960 0.00000331
-0.63301098 -0.63039619 0.00000027
-0.31030503 0.06567752 0.03798100
-0.15069573 0.03423447 0.00000951
-0.51383144 0.25195128 0.00000149
-0.08430016 0.60013372 0.00938843
-0.67841864 -0.76898342 -0.00000008
-0.24937508 0.25077203 0.13528590
-0.15388197 -0.37418863 0.00000186
-0.56046361 -0.28757599 0.00000095
-0.47320607 -0.19420329 0.37958497
-0.17133562 0.42500114 0.09898876
-0.31210190 -0.18602431 0.00000269
-0.00638993 -0.75072294 0.00000019
-0.12778063 0.49509364 0.00921068
-0.71480966 -0.53585529 -0.00000066
-0.39183205 -0.70955789 0.00000040
-0.24961579 0.22120591 0.06105996
-0.27300075 0.43424544 0.00000467
-0.25294566 -0.58270109 0.00000095
-0.01458060 -0.29959396 0.00000219
-0.22321275 -0.69236404 0.00000047
-0.14286847 0.46580297 0.02748078
-0.13613202 0.04117847 0.00000969
-0.02521208 -0.09693436 0.00000308
-0.50530893 -0.29883268 0.31011802
-0.17708032 0.29896638 0.00000746
-0.42545640 0.08779172 0.00000449
-0.38093770 -0.29259020 0.00000222
-0.15525915 -0.57643503 0.00000098
-0.09706901 0.44310102 0.00000777
-0.23102653 -0.42458662 0.00000164
-0.17785874 -0.78557926 0.00000006
-0.44881621 -0.77603495 0.00000010
-0.45572650 -0.15666562 0.00000212
-0.07091130 -0.33113486 0.00000205
-0.74920249 0.01189071 -0.00000112
-0.09421967 0.52092940 0.00000732
-0.25726533 -0.51213801 0.00000126
-0.41155395 -0.66127658 0.00000061
-0.23790856 -0.28067592 0.00000227
-0.49725530 -0.39715123 0.00854934
-0.08365835 -0.33478361 0.00000204
-0.26249442 0.17883836 0.03218408
-0.12129536 0.19720927 0.00000894
-0.05263250 -0.03147676 0.00000336
-0.42687273 0.10327293 0.00000434
-0.17167179 0.44639903 0.00000652
-0.04315883 -0.23609880 0.00000247
-0.40475455 -0.04123945 0.34810713
-0.59096807 -0.55319339 0.00000072
-0.75592238 -0.19809379 -0.00000139
-0.40945631 -0.46582228 0.00000146
-0.00599799 -0.64801455 0.00000064
-0.00259885 0.33655632 0.00000986
-0.08750615 -0.30002940 0.00000219
-0.36686277 0.33886722 0.00000362
-0.66703939 -0.78853005 0.05596049
-0.67854375 -0.12074071 -0.00000052
-0.44632140 0.07470322 0.00000420
-0.01115167 -0.59829670 0.00000083
-0.45889452 -0.28990787 0.04602131
-0.59725207 0.07810912 0.00000127
-0.61142844 -0.76751858 0.00000014
-0.01942605 0.22579269 0.00001030
-0.43227747 0.35802254 0.00000221
-0.44593751 -0.26925570 0.01880301
-0.60149944 0.14804912 0.00000063
-0.45655000 -0.68486369 0.00000050
-0.57988501 -0.53291214 0.17173614
-0.27458337 -0.06599951 0.00000321
-0.37133017 0.18640284 0.00000475
-0.14181775 -0.29067224 0.00000223
-0.19269311 0.32422474 0.00000707
-0.51965547 0.04996680 0.00000299
-0.53150743 -0.10794163 0.00000120
-0.16371319 -0.68480659 0.00000050
-0.27982980 0.14403328 0.05022790
-0.12202221 0.53366965 0.07239688
-0.42903173 -0.35912219 0.00000193
-0.79171920 -0.61246443 -0.00000047
-0.15301965 0.43467224 0.01051845
-0.20515804 0.19245423 0.00000770
-0.43445727 -0.73059797 0.00000030
-0.14738815 -0.40961272 0.00000171
-0.25759971 -0.14437991 0.00000287
-0.42325750 0.04445300 0.00000488
-0.69488913 -0.42689627 -0.00000056
-0.70722920 -0.77697802 -0.00000006
-0.43936712 -0.14265205 0.30239391
-0.19854417 0.37460363 0.13814257
-0.60682440 -0.13876022 0.00000033
-0.19772103 -0.15006304 0.00000284
-0.02916066 0.32102907 0.00000955
-0.00167906 0.63329172 0.00000802
-0.72826928 0.00832068 -0.00000069
-0.24103515 0.27435520 0.14411800
-0.34666300 0.01485515 0.13261198
-0.20052607 -0.06114900 0.00000323
-0.15080550 -0.31330562 0.00000213
-0.27242765 -0.42651653 0.00000163
-0.22230546 0.25743893 0.00000704
-0.17693330 0.58506155 0.00000531
-0.21692574 0.25102833 0.00000716
-0.63077348 -0.20446645 0.00000009
-0.41190070 -0.15716547 0.09541942
-0.00475300 -0.21470784 0.00000254
-0.00807088 -0.10077557 0.00000306
-0.00163582 -0.27286792 0.00000231
-0.33895457 0.29466367 0.00000451
-0.48611996 -0.62200058 0.00000078
-0.53178054 -0.36353439 0.30808455
-0.53549153 -0.50691831 0.00000128
-0.48442218 -0.37316543 0.00000187
-0.51386303 -0.01199943 0.00000136
-0.26062438 -0.56645542 0.00000102
-0.41480249 -0.63523608 0.00000072
-0.76179034 -0.09576075 -0.00000150
-0.31041905 0.43286780 0.00000396
-0.19559652 -0.24699697 0.00000242
-0.72607434 -0.74785811 -0.00000013
-0.06776641 -0.08776541 0.00000312
-0.03233581 0.36893079 0.00000921
-0.55182296 -0.73403633 0.00000029
-0.43923995 -0.79858780 0.00000001
-0.12545502 -0.77622324 0.00000010
-0.17057399 -0.73570311 0.00000028
-0.66491199 -0.68248266 -0.00000008
-0.17923991 -0.23208030 0.00000248
-0.08672802 0.02191632 0.00001055
-0.74925172 -0.27785543 -0.00000127
-0.54693741 0.03446333 0.00000259
-0.60082978 -0.30272254 0.00000048
-0.05930546 0.50432616 0.00000795
-0.07572676 0.71444482 0.00000615
-0.12167761 0.06369931 0.00000977
-0.15129989 -0.51193482 0.00000126
-0.17748401 -0.26951796 0.00000232
-0.35231668 -0.34497091 0.00000199
-0.70689785 -0.60552055 -0.00000049
-0.00333789 -0.62506455 0.00000075
-0.33172226 0.37846810 0.00000398
-0.17555939 0.18341532 0.00000820
-0.32332584 -0.48512390 0.00000138
-0.56554979 -0.13730314 0.00000082
-0.32089156 0.04695453 0.05548440
-0.12057114 -0.57966411 0.00000096
-0.25038412 -0.43994531 0.00000158
-0.48630360 -0.51352507 0.00000125
-0.64782894 -0.06632890 -0.00000018
-0.49793157 -0.32831973 0.00000170
-0.28627351 -0.49650979 0.00000133
-0.11293638 0.62734854 0.00000620
-0.18771045 0.39837083 0.13202830
-0.56746250 -0.15871817 0.00000081
-0.14302404 0.39229178 0.00000739
-0.26231235 -0.29670238 0.00000220
-0.06862948 0.56338227 0.00000744
-0.70884079 -0.17161426 -0.00000085
-0.58663511 -0.71035343 0.00000039
-0.06013874 0.66565013 0.02779023
-0.01691597 0.43596882 0.00000902
-0.39631566 -0.16139904 0.00000279
-0.75980467 -0.10501194 -0.00000148
-0.05363240 0.67340678 0.00742907
-0.23978896 -0.48031852 0.00000140
-0.14198902 0.47697803 0.05066125
-0.58916986 -0.52517319 0.24895526
-0.66406429 -0.24553344 -0.00000029
-0.41431969 -0.14885405 0.13165876
-0.38042182 -0.03189052 0.22161390
-0.11000565 -0.11323119 0.00000300
-0.60762000 -0.71915621 0.00000035
-0.05818807 0.29118365 0.00000930
-0.01847445 -0.42591587 0.00000164
-0.18670523 0.06705187 0.00000876
-0.57030284 -0.04171551 0.00000072
-0.50926554 -0.49484473 0.00000134
-0.10217452 -0.17571698 0.00000273
-0.34711081 -0.59327978 0.00000090
-0.30360711 -0.05640756 0.00000325
-0.39701074 -0.48409730 0.00000138
-0.74536312 -0.22408564 -0.00000125
-0.45255530 -0.16701017 0.32155114
-0.36544734 0.01854900 0.25820348
-0.09464926 0.42590559 0.00000791
-0.57547146 -0.48731697 0.26121050
-0.63881731 -0.75565541 0.00000019
-0.27766240 0.18000019 0.12893368
-0.39623332 -0.00138285 0.00000274
-0.41183558 0.28960127 0.00000315
-0.08926042 0.40911129 0.00000810
-0.00709532 -0.33790967 0.00000202
-0.46987557 -0.23524547 0.00000199
-0.07967699 0.51486498 0.00000758
-0.41971770 -0.52365565 0.00000121
-0.68080616 -0.35315418 -0.00000043
-0.07892399 -0.35157683 0.00000196
-0.24880154 0.24506725 0.11713110
-0.08221283 -0.07630489 0.00000317
-0.17901985 0.37066415 0.00734731
-0.37042615 -0.52947026 0.00000118
-0.58451265 -0.27998635 0.00000067
-0.44204387 -0.11118717 0.39951915
-0.38771096 -0.23509195 0.00000247
-0.18077269 -0.18562189 0.00000269
-0.41439378 -0.77577370 0.00000011
-0.26806507 0.19982028 0.12035533
-0.59455186 -0.52757561 0.00000067
-0.45426905 0.15679149 0.00000339
-0.52106178 -0.25580144 0.00000140
-0.14721073 -0.59109730 0.00000091
-0.73828185 -0.46111074 -0.00000085
-0.72689563 -0.77069831 -0.00000007
-0.14645228 0.52249199 0.00000639
-0.52149421 -0.41014987 0.12511615
-0.58608770 -0.40452936 0.00000071
-0.36423039 -0.02696705 0.13412049
-0.37859309 -0.09364563 0.05216297
-0.10736336 -0.65167803 0.00000065
-0.71289724 -0.70541126 -0.00000024
-0.44254312 -0.09636204 0.00000224
-0.58902800 0.18006498 0.00000062
-0.20610514 0.07656335 0.00000841
-0.42777446 -0.52167869 0.00000122
-0.05493541 0.45945725 0.00000830
-0.10764978 -0.59994668 0.00000088
-0.68925166 0.06272270 -0.00000037
-0.49532911 -0.30206755 0.00000172
-0.07323778 -0.02891995 0.00000337
-0.10624674 -0.57926118 0.00000097
-0.25355691 -0.64541858 0.00000068
-0.79489082 -0.32396951 -0.00000119
-0.46831310 0.31473276 0.00000187
-0.74073410 -0.25149038 -0.00000118
-0.44482964 -0.01497817 0.00000218
-0.04257171 -0.44203386 0.00000157
-0.48937905 -0.06342487 0.00000168
-0.09209091 -0.07505012 0.00000317
-0.38271153 -0.02296585 0.00000291
-0.28504735 0.29739293 0.00000552
-0.11998063 0.60203224 0.00000627
-0.14489183 0.49804571 0.12255844
-0.39123753 0.30885908 0.00000339
-0.10782989 -0.63731658 0.00000071
-0.40059990 0.09641328 0.00000490
-0.56231093 0.06910286 0.00000202
-0.23353642 -0.07866830 0.00000316
-0.66215831 0.13215165 -0.00000040
-0.19136935 -0.77554017 0.00000011
-0.03591858 -0.27776304 0.00000228
-0.00484005 -0.29920432 0.00000217
-0.10487042 -0.14146218 0.00000288
-0.45259711 -0.58501250 0.00000094
-0.65210408 -0.71348006 0.15581451
-0.06819372 -0.72896045 0.00000031
-0.35374880 -0.15567607 0.00000282
-0.53145081 -0.02093001 0.00000116
-0.50024152 -0.42622823 0.00000164
-0.70319098 -0.14666688 -0.00000079
-0.06396468 -0.52764738 0.00000119
-0.40247273 -0.56222069 0.00000104
-0.38997647 -0.04868714 0.23767100
-0.00092049 0.67346543 0.00000778
-0.68585938 -0.05528710 -0.00000063
-0.03789765 -0.63174492 0.00000074
-0.06181828 0.53346157 0.00000773
-0.05938265 -0.65085673 0.00000065
-0.00126954 0.39190462 0.00000953
-0.02285016 0.40200332 0.00000914
-0.60799336 -0.70838708 0.00000040
-0.57377070 -0.19571140 0.00000075
-0.34511453 -0.62509400 0.00000077
-0.39685252 -0.12653688 0.08082065
-0.67766196 0.02989379 0.00000011
-0.52168214 0.18880130 0.00000184
-0.17292659 0.21447723 0.00000805
-0.54276544 0.18457349 0.00000147
-0.28383163 0.21021529 0.24445029
-0.10854219 -0.57640094 0.00000098
-0.64721954 -0.26527601 -0.00000008
-0.43176612 -0.11676756 0.32168764
-0.13535805 -0.38140818 0.00000183
-0.19751385 -0.70408726 0.00000042
-0.44209790 -0.56716883 0.00000102
-0.72321326 -0.49903092 -0.00000075
-0.14536843 0.49672914 0.12213341
-0.29180697 -0.25526902 0.00000238
-0.01221593 -0.11327377 0.00000295
-0.17062740 -0.55615205 0.00000107
-0.53653651 0.04499081 0.00000270
-0.29162735 0.39067578 0.00000466
-0.64300913 -0.42881078 0.00000005
-0.33335185 -0.06853883 0.00000320
-0.72036982 -0.24096335 -0.00000095
-0.10166001 0.57795966 0.05992956
-0.67044026 -0.54332900 -0.00000022
-0.68165076 -0.45695892 -0.00000039
-0.42461699 0.09282234 0.00000447
-0.14832099 0.49509504 0.00000658
-0.61524558 -0.27352571 0.00000030
-0.53775340 -0.46947002 0.07372734
-0.12885214 0.50936413 0.05237963
-0.40905946 -0.29442975 0.00000221
-0.08475894 0.71205640 0.00000607
-0.16521923 -0.10322927 0.00000305
-0.62879097 -0.47582123 0.00000024
-0.72144419 -0.42908224 -0.00000087
-0.42986086 -0.19880272 0.09982972
-0.12130681 0.33595651 0.00000807
-0.31993392 0.23666361 0.00000534
-0.06030524 0.13667038 0.00001024
-0.09796454 0.49911466 0.00000740
-0.28041428 -0.19070838 0.00000267
-0.39560106 -0.70374060 0.00000042
-0.32363099 0.11570931 0.24849059
-0.25443164 -0.31517550 0.00000212
-0.23126146 -0.10340083 0.00000305
-0.71623856 -0.39877731 -0.00000082
-0.58414882 0.10508260 0.00000131
-0.62970763 -0.41885343 0.00000020
-0.18031685 0.04042939 0.00000903
-0.76325744 -0.52126545 -0.00000070
-0.38823560 0.36177585 0.00000303
-0.15714498 0.46688744 0.11852084
-0.49064586 -0.36882439 0.04022767
-0.67602718 -0.14076526 -0.00000048
-0.28591776 -0.48373559 0.00000138
-0.09480909 0.37895957 0.00000820
-0.09661287 -0.07227832 0.00000318
-0.43922639 -0.42498356 0.00000164
-0.74355531 -0.08723238 -0.00000130
-0.03815889 0.41479188 0.00000883
-0.27193594 -0.41114396 0.00000170
-0.34418744 -0.49687028 0.00000133
-0.46628106 -0.29329282 0.08301935
-0.34334210 0.29045218 0.00000446
-0.28239495 -0.72721112 0.00000032
-0.28443095 0.12660532 0.03404379
-0.49863926 -0.29272357 0.28452802
-0.37192580 -0.44195113 0.00000157
-0.61727506 -0.17308968 0.00000023
-0.49396870 -0.28998443 0.26266730
-0.21680386 0.41076341 0.00000593
-0.73972142 -0.73251891 -0.00000017
-0.28821337 0.05412817 0.00000731
-0.56545860 -0.20530924 0.00000085
-0.18575189 0.45750052 0.00000616
-0.28646648 -0.03822679 0.00000333
-0.38542351 0.16786940 0.00000463
-0.20672244 0.47893891 0.00000558
-0.11775808 -0.69840372 0.00000044
-0.44202533 -0.28314006 0.00000226
-0.34910685 0.05039198 0.23872495
-0.54118592 -0.24854812 0.00000116
-0.75339168 -0.45346346 -0.00000087
-0.26644146 -0.76169413 0.00000017
-0.32496256 0.09103848 0.19354483
-0.46914512 0.14174047 0.00000323
-0.44090587 0.11658461 0.00000397
-0.30601192 0.22663912 0.00000568
-0.59821093 -0.21055597 0.00000047
-0.61865008 0.12434148 0.00000049
-0.48124906 -0.35317692 0.02220376
-0.28770044 -0.32747012 0.00000207
-0.68534434 -0.40375876 -0.00000046
-0.26980489 0.19584610 0.12093440
-0.42751709 -0.62835056 0.00000075
-0.34173682 -0.08958731 0.00000311
-0.78633249 -0.65436804 -0.00000036
-0.15877534 -0.49883199 0.00000132
-0.49115765 -0.29436675 0.23406591
-0.68159646 0.06817842 -0.00000027
-0.62766474 0.12610520 0.00000031
-0.70692319 -0.51643318 -0.00000066
-0.42009699 -0.02829904 0.00000247
-0.31761685 0.12329939 0.23074585
-0.23457611 0.30823341 0.19094241
-0.23024938 0.26512602 0.05380171
-0.17469461 -0.33748716 0.00000202
-0.18103442 -0.67429751 0.00000055
-0.20505910 -0.05064770 0.00000328
-0.48849058 -0.38676614 0.00000181
-0.22358254 0.33225724 0.18449704
-0.37357190 -0.42401925 0.00000164
-0.17841588 0.40063673 0.08036828
-0.03444149 0.33665916 0.00000938
-0.60412598 0.01244864 0.00000166
-0.35647607 -0.30117354 0.00000218
-0.61932343 -0.14008529 0.00000019
-0.72861820 -0.78704137 -0.00000003
-0.27055436 -0.22072314 0.00000253
-0.55203438 -0.49304044 0.10165782
-0.14496244 0.08150426 0.00000930
-0.48454636 -0.31256190 0.14659750
-0.00022742 -0.28618389 0.00000225
-0.02873841 -0.45596576 0.00000151
-0.39159840 0.30217379 0.00000344
-0.13267784 -0.31229073 0.00000213
-0.43093532 0.00947066 0.00000501
-0.62362015 -0.64715195 0.14957266
-0.30391675 -0.39749151 0.00000176
-0.73393226 0.01029690 -0.00000081
-0.46493238 -0.32073253 0.00441266
-0.10984648 0.43547508 0.00000762
-0.39402232 -0.40533167 0.00000173
-0.29175463 -0.26125863 0.00000236
-0.75891012 0.03368478 -0.00000148
-0.24269274 0.29815173 0.21530500
-0.52993745 -0.53517884 0.00000116
-0.72218531 -0.00072952 -0.00000109
-0.16862519 0.40463316 0.03007271
-0.47431752 -0.19743592 0.37817815
-0.04105365 -0.45912254 0.00000149
-0.57504809 -0.27465928 0.00000077
-0.16029207 0.44702202 0.08710525
-0.14705788 0.35116458 0.00000759
-0.39944994 0.32923728 0.00000307
-0.32727152 0.01539062 0.01409766
-0.25693494 -0.40665403 0.00000172
-0.28261086 0.24318120 0.00000600
-0.30123019 -0.54326338 0.00000112
-0.64064276 -0.62193054 0.00000017
-0.47329193 -0.33703446 0.01434801
-0.09886206 0.20650737 0.00000922
-0.25754851 -0.75658065 0.00000019
-0.55630034 0.05833537 0.00000222
-0.18205006 -0.76014131 0.00000017
-0.32470509 -0.58869231 0.00000092
-0.58216113 -0.13869563 0.00000062
-0.04364655 -0.64030766 0.00000070
-0.30437118 -0.41766241 0.00000167
-0.50636315 -0.16944055 0.00000153
-0.13902617 0.47147554 0.01825270
-0.00515765 -0.31877670 0.00000208
-0.22016971 -0.63454562 0.00000072
-0.75181001 -0.56314921 -0.00000059
-0.26733413 0.49309483 0.00000431
-0.22337168 -0.38609788 0.00000181
-0.52879000 -0.64001781 0.00000070
-0.37015954 -0.15095420 0.00000284
-0.63454723 0.12212046 0.00000021
-0.05551012 0.52670288 0.00000787
-0.02678638 0.41367221 0.00000901
-0.38037229 -0.45913851 0.00000149
-0.66051513 -0.63759249 -0.00000005
-0.17366280 -0.67616630 0.00000054
-0.08196810 0.22696672 0.00000934
-0.59460354 -0.27160403 0.00000054
-0.16764244 -0.31736970 0.00000211
-0.75248975 -0.35953170 -0.00000110
-0.44645587 -0.54393047 0.00000112
-0.13487184 -0.13688874 0.00000290
-0.39278293 -0.29234040 0.00000222
-0.51416397 0.05306505 0.00000307
-0.38845804 0.04803733 0.00000552
-0.49507171 -0.35045287 0.11463652
-0.24691321 0.26088312 0.14595856
-0.01803744 0.08113419 0.00001122
-0.05741498 -0.03245024 0.00000336
