ply
format ascii 1.0
element vertex 1348
property float x
property float y
property float z
end_header
-0.09606667 0.07878637 0.00000908
-0.26055130 0.17097040 0.11118874
-0.43994725 -0.26214573 0.29760140
-0.23911718 -0.01870048 0.00000327
-0.07011502 -0.75400919 0.00000062
-0.16557914 0.17380428 0.00000655
-0.24192548 0.21592820 0.21520761
-0.25806943 -0.22557783 0.00000302
-0.07691874 0.67731225 -0.04534777
-0.33309102 0.12144733 -0.09038561
-0.02245543 0.65789104 0.00000412
-0.31546688 -0.76820552 0.00000244
-0.44249821 -0.26830164 0.23506325
-0.15152986 0.21356626 0.00000640
-0.58627498 -0.40754721 -0.14957899
-0.19963016 0.36235988 -0.03188192
-0.47156018 -0.33846712 0.33341914
-0.36795694 -0.18977971 0.00000392
-0.22835511 0.24870202 0.05943051
-0.23069951 -0.31177467 0.00000266
-0.63154680 -0.61074895 -0.08199008
-0.14306836 -0.44459274 0.00000175
-0.66599965 -0.75572950 -0.03750640
-0.51811993 -0.30900478 -0.10207901
-0.53446239 -0.05021734 -0.31673366
-0.55128568 -0.52689874 -0.00288030
-0.11009568 0.53420448 0.02640816
-0.37498984 -0.53759336 0.00000332
-0.27514333 -0.54441106 0.00000256
-0.43616104 -0.12654418 -0.09099297
-0.27240553 -0.17495306 0.00000323
-0.26532298 -0.55946559 0.00000245
-0.53313351 -0.26305202 -0.16124023
-0.41302723 -0.19715545 0.31340596
-0.32379591 0.01943257 -0.00080778
-0.37122327 -0.33085272 0.00000368
-0.02633125 0.23555218 0.00000879
-0.13512225 0.38273472 0.00000484
-0.33245254 -0.00261828 0.18621229
-0.52803636 -0.08894317 -0.27769652
-0.15448561 0.42702985 0.14173321
-0.04287507 -0.38491350 0.00000110
-0.28184971 0.11954693 0.17675690
-0.16138905 0.49671084 -0.06213446
-0.38230339 -0.12297503 0.16657633
-0.69856882 -0.71185070 -0.12567899
-0.44351637 -0.27076510 0.36820757
-0.66450465 -0.68396789 -0.08655828
-0.32733509 0.05836756 -0.03498151
-0.14710139 -0.05306152 0.00000251
-0.57066339 -0.38396984 -0.13942216
-0.49600399 -0.66087031 0.00000400
-0.18442157 -0.59580243 0.00000177
-0.36917725 -0.73971611 0.00000290
-0.20714276 -0.30321231 0.00000249
-0.23088022 0.24259219 0.23150207
-0.03373334 -0.48020113 0.00000085
-0.58992475 -0.62421376 0.03663930
-0.49076244 -0.38481417 0.04424209
-0.32775962 0.00870903 0.21445131
-0.39746246 -0.62697583 0.00000332
-0.52697086 -0.28009865 -0.13826308
-0.20051637 0.05708878 0.00000712
-0.58878219 -0.56464183 -0.04086834
-0.48403156 -0.02956334 -0.24397026
-0.02312132 -0.12504581 0.00000144
-0.19947986 -0.71856302 0.00000166
-0.02772695 0.21337464 0.00000901
-0.31366733 0.04273057 0.21234670
-0.11420040 0.03695201 0.00000917
-0.46880379 -0.33181280 0.35562900
-0.40145525 -0.06232411 -0.07691062
-0.64904392 -0.72646773 -0.02910545
-0.05948041 -0.70427489 0.00000063
-0.02553937 -0.04332468 0.00000161
-0.29247224 0.09389680 0.24438097
-0.10615024 0.09564844 0.00000868
-0.22650793 -0.60805440 0.00000207
-0.40789706 -0.65745705 0.00000334
-0.42860061 0.00463763 -0.17226920
-0.07387967 -0.15024057 0.00000178
-0.26852220 -0.60327214 0.00000239
-0.46326971 -0.10661754 -0.15243840
-0.26697931 -0.29563388 0.00000296
-0.14610413 0.44727141 0.05277908
-0.39151633 0.04429131 -0.13637224
-0.13066322 0.18093789 0.00000720
-0.35873589 -0.06607550 0.11139424
-0.49965307 -0.56443733 0.00000421
-0.08609037 0.01422543 0.00001002
-0.42058444 -0.16305518 -0.03764899
-0.35987741 -0.06883273 0.14354292
-0.34121174 -0.58349133 0.00000298
-0.40386117 -0.17501518 0.04544326
-0.59953487 -0.28051138 -0.26405174
-0.23449552 0.23387781 0.06108312
-0.27979922 -0.65210623 0.00000239
-0.23978899 -0.62485880 0.00000214
-0.57305098 -0.32030323 -0.18939406
-0.06495390 -0.66435117 0.00000074
-0.27902824 0.31687766 -0.13710883
-0.33755085 0.27018139 -0.20518836
-0.35851103 -0.06554107 0.34703097
-0.43621314 0.06742766 -0.23069084
-0.58791447 -0.40269482 -0.15592016
-0.31601319 0.03707155 0.15812609
-0.31791186 -0.55182129 0.00000286
-0.14946052 -0.13204965 0.00000238
-0.17836858 0.36937723 0.07648200
-0.18825345 0.34550563 0.17353255
-0.62890363 -0.32943299 -0.27987137
-0.11029829 0.53371572 0.02145351
-0.24156696 0.21679562 0.19197202
-0.00439980 -0.72349590 0.00000012
-0.04457626 -0.20696789 0.00000145
-0.63136160 -0.38981670 -0.24068175
-0.28189152 0.11944979 0.12910496
-0.47049201 0.01118756 -0.24977472
-0.35704318 0.17951334 -0.17379902
-0.38626501 -0.73044008 0.00000304
-0.05517875 0.15094241 0.00000914
-0.56797153 -0.79052085 0.00000430
-0.55979568 -0.64368767 0.00000452
-0.45986682 -0.31022495 0.03739054
-0.00846923 0.50026107 0.00000619
-0.01157685 -0.37237635 0.00000089
-0.58381337 -0.32503334 -0.20469011
-0.01912852 -0.64502877 0.00000043
-0.28073317 -0.31382188 0.00000303
-0.39757210 -0.15983780 0.18295936
-0.64901561 -0.65460545 -0.08077831
-0.23967896 -0.21491668 0.00000291
-0.46783483 -0.04370717 -0.20564640
-0.17784622 0.48592684 -0.08296879
-0.48860165 -0.37587333 -0.00266077
-0.25794661 -0.35578501 0.00000278
-0.22112276 -0.22311486 0.00000275
-0.36604834 0.23132165 -0.22673620
-0.40241715 -0.54733908 0.00000351
-0.44438407 0.01061179 -0.20399475
-0.18146300 0.36189720 0.19554015
-0.25362742 0.18767671 0.22643828
-0.28812888 -0.17617320 0.00000334
-0.30200610 0.19607095 -0.09008329
-0.18512215 -0.67846543 0.00000162
-0.20047122 -0.51994032 0.00000204
-0.12912694 -0.26825696 0.00000197
-0.01384392 -0.25929224 0.00000112
-0.03096158 -0.38000041 0.00000102
-0.12064372 -0.14853263 0.00000213
-0.07838706 0.05651986 0.00000971
-0.33713281 -0.15475787 0.00000375
-0.35637951 0.04743520 -0.07758084
-0.41574869 -0.68571669 0.00000335
-0.63885844 -0.70949292 -0.02362477
-0.13786203 0.11791445 0.00000776
-0.50155848 -0.33580786 -0.05401101
-0.52801561 -0.13055941 -0.24770762
-0.16423550 0.40349206 0.13919659
-0.00807299 -0.39198941 0.00000083
-0.36485413 -0.37311491 0.00000355
-0.20186564 0.12065509 0.00000638
-0.47282520 -0.34151971 0.28063139
-0.58916938 -0.32003808 -0.21759190
-0.51083815 -0.43329015 0.29907686
-0.49746728 -0.03059595 -0.26657316
-0.57519168 -0.48612091 -0.07376831
-0.57849234 -0.13946050 -0.32900843
-0.59942448 -0.47597784 -0.12317508
-0.16307244 0.07714061 0.00000769
-0.29554048 -0.27155927 0.00000322
-0.05046647 -0.49050665 0.00000096
-0.57550156 -0.23405395 -0.25572920
-0.02051391 0.41205144 0.00000693
-0.58171713 -0.51289088 -0.06583935
-0.26370615 0.06219306 0.00000573
-0.01867947 -0.00568155 0.00000163
-0.03736662 -0.12741370 0.00000154
-0.32855487 -0.51377249 0.00000302
-0.60287774 -0.37706935 -0.20036361
-0.06185228 -0.26457980 0.00000147
-0.42274374 -0.22061241 0.29276228
-0.44394371 -0.24472675 -0.01945541
-0.19359563 0.33261162 0.13588917
-0.70764810 -0.78269529 -0.09046531
-0.03381024 0.15169443 0.00000958
-0.32524157 -0.57158625 0.00000288
-0.59480554 -0.52542859 -0.07955761
-0.16970165 -0.77607417 0.00000133
-0.53109348 -0.37415490 -0.07773052
-0.05255447 -0.55833232 0.00000085
-0.21728839 -0.48453075 0.00000223
-0.14856695 0.56471890 -0.08880430
-0.10862939 -0.40870708 0.00000155
-0.57279354 -0.34868190 -0.16852158
-0.06467602 -0.77199429 0.00000054
-0.38545367 -0.53394580 0.00000341
-0.28610221 -0.37271383 0.00000296
-0.08779465 0.49207392 0.00000461
-0.57233459 -0.42736778 -0.11109081
-0.46627539 -0.32570124 0.14501975
-0.16483164 -0.73969615 0.00000136
-0.60914427 -0.31366399 -0.25688756
-0.31993741 0.28241444 -0.18338786
-0.51119691 -0.60928017 0.00000421
-0.03376764 -0.47858649 0.00000086
-0.09057443 0.41733900 0.00000539
-0.41049927 -0.19105178 0.29799899
-0.08875168 0.24919014 0.00000732
-0.14868741 -0.47907192 0.00000172
-0.14178561 0.50356293 -0.03300308
-0.05849748 -0.16124035 0.00000164
-0.10899643 0.47393775 0.00000437
-0.66508538 -0.58788484 -0.15672211
-0.44282287 -0.26907983 0.10253036
-0.00395143 -0.19311108 0.00000111
-0.25685683 0.17989300 0.06804278
-0.13220464 0.48083153 0.00015810
-0.07000974 0.29737657 0.00000718
-0.38904095 -0.13838625 -0.00059490
-0.18242882 0.12807719 0.00000671
-0.58153594 -0.34587207 -0.18573451
-0.45343810 -0.24708822 -0.03425299
-0.28155249 0.22327706 -0.07412475
-0.18437579 0.45999125 -0.07564717
-0.00462497 0.60273528 0.00000512
-0.22965632 0.24555668 0.10892203
-0.19338283 -0.23542370 0.00000252
-0.38389659 -0.12681547 0.02740064
-0.63770020 -0.73955458 0.14053839
-0.30680081 0.24697044 -0.13505022
-0.02841754 -0.45815948 0.00000086
-0.37268674 -0.09976701 0.38643527
-0.18109724 -0.18889178 0.00000251
-0.02921838 -0.17343308 0.00000140
-0.51723790 -0.08158900 -0.26422644
-0.19287521 -0.35470837 0.00000229
-0.31978732 0.22182477 -0.13951688
-0.43864861 -0.54963386 0.00000378
-0.56051207 -0.55320871 0.12413741
-0.00433108 0.65165865 0.00000458
-0.46693909 -0.43599826 0.00000421
-0.59581560 -0.47611666 -0.11680445
-0.52548617 -0.46865013 0.16550139
-0.64481080 -0.47586101 -0.20212138
-0.53707522 -0.16110581 -0.24146394
-0.02643658 0.13637441 0.00000991
-0.64736116 -0.64160883 -0.08725770
-0.14818990 0.55783808 -0.08319655
-0.12110220 0.45811328 0.00000429
-0.62697101 -0.59393382 -0.08614180
-0.34902844 -0.04263075 0.12673186
-0.52972037 -0.44271198 -0.02600142
-0.23780061 0.33611140 -0.07931482
-0.35785997 -0.43932787 0.00000338
-0.11852031 0.33355486 0.00000574
-0.20743965 0.10392388 0.00000645
-0.36120749 -0.07204226 0.24025261
-0.40319973 0.18491051 -0.25788602
-0.62480074 -0.66567904 -0.03073291
-0.21276067 0.28633681 0.22210352
-0.65854156 -0.78986877 0.04891172
-0.20167123 0.31311119 0.19187711
-0.34060687 -0.74425423 0.00000267
-0.33427447 0.09544955 -0.07372974
-0.04705232 0.39505476 0.00000656
-0.69252986 -0.66783845 -0.14686315
-0.58858967 -0.47286075 -0.10659224
-0.66106832 -0.65447992 -0.10181110
-0.16469155 -0.30995783 0.00000216
-0.55094695 -0.53011745 0.14961344
-0.47019663 -0.01504392 -0.23038103
-0.36842373 -0.62236565 0.00000311
-0.22997814 0.28339940 -0.02778221
-0.41494200 -0.20176730 0.05758679
-0.30107224 0.07313627 0.22638686
-0.40337601 -0.17385751 0.36604190
-0.46811256 -0.13140833 -0.14301033
-0.11199494 -0.51237077 0.00000138
-0.00432320 -0.55565733 0.00000049
-0.42665008 -0.04656964 -0.13202772
-0.12117310 0.38467881 0.00000511
-0.49200323 -0.26802889 -0.08619110
-0.04269236 -0.58035642 0.00000073
-0.28497845 0.11200758 0.00183593
-0.40956771 -0.69001639 0.00000330
-0.45820603 -0.58964592 0.00000385
-0.04316551 -0.18386038 0.00000148
-0.59073353 -0.49938652 -0.09122570
-0.28156921 -0.12079301 0.00000340
-0.33211583 -0.46454000 0.00000313
-0.68218535 -0.79214054 -0.03942383
-0.07190077 0.68274564 -0.04053923
-0.20434156 0.40946695 -0.07397447
-0.11549927 -0.28370991 0.00000184
-0.36974832 -0.09265782 0.01340709
-0.12602995 -0.52226353 0.00000147
-0.12901826 0.52050048 -0.02300941
-0.57229728 -0.41757327 -0.11807540
-0.68449926 -0.62160665 -0.16618422
-0.10048994 -0.53654593 0.00000125
-0.32792097 0.07658971 -0.04911515
-0.35406142 -0.77133596 0.00000272
-0.41049451 -0.19103201 0.10359228
-0.46025410 -0.21258914 -0.07092666
-0.22272068 0.26230654 0.03486499
-0.47767827 -0.06452222 -0.20777205
-0.12666886 -0.25495982 0.00000198
-0.24193636 0.43169186 -0.15529644
-0.52707183 -0.46130621 -0.00801641
-0.22194061 0.26419008 0.03110697
-0.08361267 0.01221241 0.00001010
-0.32985491 0.00366379 0.05015778
-0.30652186 0.32195887 -0.18853945
-0.50175411 -0.09953451 -0.22440600
-0.52937788 -0.40198547 -0.05471870
-0.14610416 -0.39829028 0.00000186
-0.19390380 0.48247460 -0.10838588
-0.57366717 -0.53782654 -0.03390481
-0.29718751 0.25628433 -0.12504981
-0.21430247 0.12328938 0.00000609
-0.31883609 -0.11233165 0.00000369
-0.69017273 -0.59839326 -0.19274989
-0.37302122 -0.05483051 -0.03289768
-0.44601864 -0.77226901 0.00000342
-0.48457459 -0.15912145 -0.15166821
-0.25351515 -0.07468477 0.00000327
-0.40247187 -0.17166349 0.10136337
-0.18382370 -0.03935941 0.00000281
-0.42519307 -0.61746961 0.00000355
-0.28081864 0.12203682 0.16797283
-0.59268254 -0.62205422 -0.00632348
-0.45852113 -0.30697927 0.11092127
-0.38937154 0.14176624 -0.20280430
-0.48871258 -0.05153155 -0.23629220
-0.18732677 -0.74536401 0.00000152
-0.15435921 -0.35902640 0.00000199
-0.59974462 -0.34155679 -0.22047941
-0.35116011 -0.04778117 0.17867270
-0.00264462 -0.67188793 0.00000022
-0.38625249 -0.13250247 0.01152147
-0.47380322 -0.45771277 0.00000422
-0.17303911 0.40350732 -0.01529332
-0.08186706 -0.41473711 0.00000134
-0.24949947 -0.61066526 0.00000224
-0.70046026 -0.79028350 -0.07251446
-0.65653777 -0.68197465 -0.07414990
-0.04411288 0.57827890 0.00000456
-0.15399539 -0.64638042 0.00000145
-0.56274903 -0.36063558 -0.14246489
-0.10183756 -0.45222601 0.00000142
-0.35778883 -0.33256122 0.00000358
-0.46274629 -0.25960141 -0.04142048
-0.33761299 -0.24573274 0.00000359
-0.23904558 -0.61744124 0.00000215
-0.24097236 0.21824016 0.07885433
-0.33997652 -0.02078144 0.17263819
-0.33341640 0.17971116 -0.13288714
-0.10430141 0.54818803 0.08731835
-0.44262666 -0.26861450 0.29983979
-0.49235314 -0.25075409 -0.09923246
-0.63523287 -0.77788991 0.00000483
-0.04118746 0.49905998 0.00000552
-0.19503756 0.23725308 0.00000521
-0.00039304 0.72000295 0.00000389
-0.23892485 0.41059187 -0.13487658
-0.33127686 -0.23804063 0.00000355
-0.11170760 -0.39777973 0.00000160
-0.42576787 -0.22791013 0.21705239
-0.39852932 -0.06240195 -0.07177053
-0.05530220 -0.67623287 0.00000065
-0.37052116 -0.09452743 0.10351073
-0.13043538 0.48509392 0.11149014
-0.35476080 0.07659649 -0.09575733
-0.00984462 -0.64180011 0.00000037
-0.38650745 -0.13313195 0.34047282
-0.44719896 -0.27965140 0.26057434
-0.53025973 -0.67368948 0.00000424
-0.30823937 0.23570172 -0.12943910
-0.03367780 0.00107528 0.00001128
-0.21053524 0.29172519 0.02504491
-0.56819302 -0.68444788 0.00000450
-0.35609609 0.17660742 -0.17006174
-0.12365683 -0.56326485 0.00000138
-0.69861645 -0.75765395 -0.09279537
-0.40023980 0.19296953 -0.25854340
-0.53101218 -0.79015779 0.00000402
-0.52016044 -0.40073130 -0.03960543
-0.35545987 0.14184795 -0.14393771
-0.28374931 -0.00744039 0.00000363
-0.62492537 -0.35659027 -0.25341269
-0.45594025 -0.30075780 0.33122584
-0.58865833 -0.40941668 -0.15237467
-0.12197811 -0.37879908 0.00000171
-0.58497834 -0.70892018 0.00000458
-0.46693549 -0.32729048 0.04135249
-0.37797883 -0.34019932 0.00000371
-0.16460304 0.40261328 0.03265141
-0.60157359 -0.29102173 -0.26002941
-0.15052243 -0.46181059 0.00000177
-0.18036591 -0.04508226 0.00000278
-0.46015921 -0.31094337 0.33230326
-0.32843706 -0.73235631 0.00000260
-0.36947346 0.13010459 -0.15983546
-0.46298385 -0.71623200 0.00000365
-0.21918897 0.38420433 -0.08159046
-0.40771168 -0.12231725 -0.04460225
-0.64168620 -0.64384502 -0.07578756
-0.44465992 -0.27351508 0.10721900
-0.47596201 -0.34909084 0.23821352
-0.29679278 -0.45517331 0.00000289
-0.15512189 0.18463513 0.00000665
-0.48720989 -0.12649269 -0.17973141
-0.15539120 0.55211926 -0.09159344
-0.44811094 -0.76808143 0.00000344
-0.55903125 -0.54963565 0.19871090
-0.29337808 -0.74715567 0.00000231
-0.27011713 0.14787275 0.16136460
-0.63521111 -0.62700427 -0.07665753
-0.24123257 0.21760882 0.11769285
-0.35879079 -0.06620566 0.05546504
-0.53213447 -0.12220189 -0.26087967
-0.27562973 0.00438933 0.00000613
-0.25348085 -0.63061082 0.00000223
-0.07699189 0.27112502 0.00000732
-0.43309149 -0.24559031 0.20164135
-0.19586112 0.44072425 -0.08173658
-0.48482752 -0.13693619 -0.16807528
-0.02878457 -0.63838506 0.00000052
-0.65027046 -0.41441002 -0.25583658
-0.47009516 -0.33492899 0.28604907
-0.32513469 0.17077692 -0.11206615
-0.35154045 0.23224398 -0.20219097
-0.17159450 -0.73489720 0.00000142
-0.00677361 -0.53230673 0.00000046
-0.44859761 -0.28302026 0.07676045
-0.33049062 0.00211709 0.19954109
-0.00291292 -0.21043158 0.00000113
-0.27469096 0.13683654 0.08843088
-0.65828049 -0.50043648 -0.20783801
-0.29282904 0.31000608 -0.15614341
-0.48203269 -0.26317629 -0.07235911
-0.24687444 -0.45818311 0.00000250
-0.42603463 -0.22855376 0.20764092
-0.17118461 0.52558923 -0.09994098
-0.46397081 -0.32014096 0.22737028
-0.51912338 -0.78034765 0.00000395
-0.67706364 -0.66963232 -0.11869837
-0.15046099 0.43675461 0.03436044
-0.10255748 -0.75030237 0.00000087
-0.13128780 -0.23920348 0.00000204
-0.05736265 -0.05603120 0.00000183
-0.13718875 0.46879169 0.09110537
-0.31769773 0.03299499 0.28012261
-0.05132880 0.68472952 -0.00622098
-0.07134394 0.64326078 -0.01115194
-0.60560358 -0.36743644 -0.21203320
-0.02261438 -0.54007864 0.00000066
-0.09975195 0.36803165 0.00000575
-0.01867090 0.38681141 0.00000725
-0.12120705 0.53324062 -0.01860639
-0.03334348 0.43315905 0.00000642
-0.25981960 0.28797331 -0.08292728
-0.22700100 0.16512594 0.00000535
-0.25320899 0.18869127 0.17132536
-0.38131163 -0.39986244 0.00000363
-0.31053883 -0.65871263 0.00000261
-0.28257790 -0.43411872 0.00000282
-0.02043754 -0.20345958 0.00000127
-0.40855545 -0.02276215 -0.11771705
-0.49753958 0.00800106 -0.29447949
-0.23399594 0.31293419 -0.05602163
-0.07711802 -0.22837342 0.00000165
-0.29017901 -0.16501749 0.00000338
-0.31170291 -0.45476240 0.00000300
-0.57927752 -0.07669609 -0.37554669
-0.29894197 0.24624522 -0.12087260
-0.16813478 -0.57945806 0.00000168
-0.67323321 -0.52239352 -0.21801610
-0.13999994 0.46200582 0.08031373
-0.45820689 -0.30621761 0.03885045
-0.15078908 -0.74333423 0.00000124
-0.54476118 -0.47822621 -0.02657498
-0.03487643 0.45248947 0.00000617
-0.36728308 -0.03276827 -0.03880627
-0.21337427 0.28485903 0.17771001
-0.15473922 -0.45792091 0.00000181
-0.25653994 0.18064842 0.18780500
-0.44012603 -0.26257506 0.24396905
-0.42473426 0.01680547 -0.17430893
-0.03986734 -0.32826963 0.00000119
-0.48502457 -0.07445089 -0.21339080
-0.50348496 -0.36529386 -0.03613620
-0.31380877 0.09672465 -0.03908596
-0.29381028 0.09067983 0.07832679
-0.16278769 0.40698677 0.14608958
-0.06619594 0.20096917 0.00000834
-0.02851746 0.03018168 0.00001106
-0.57062471 -0.55536151 -0.01599763
-0.55767208 -0.24589014 -0.21623002
-0.29897341 -0.57204431 0.00000268
-0.57757133 -0.27559260 -0.22942854
-0.07654775 -0.34786224 0.00000143
-0.15382552 -0.74666595 0.00000126
-0.47062308 -0.48791271 0.00000414
-0.03219185 -0.04042995 0.00000167
-0.47362936 -0.34345773 0.20079798
-0.15337725 0.48519894 -0.03992719
-0.13449539 -0.03872913 0.00000244
-0.06260939 -0.70013011 0.00000066
-0.59499747 -0.35520688 -0.20240639
-0.64974701 -0.68772298 -0.05821322
-0.06996578 -0.37341738 0.00000133
-0.03719340 -0.57197660 0.00000071
-0.48112521 -0.20899570 -0.10977817
-0.21195461 0.44766822 -0.11469888
-0.23249353 0.23870587 0.12508525
-0.06007497 0.53460348 0.00000472
-0.52477646 -0.39078298 -0.05478624
-0.39540127 -0.62685567 0.00000331
-0.44976860 -0.07615049 -0.15090749
-0.54026276 -0.50431752 0.00990138
-0.49843061 -0.40333512 0.23936222
-0.27733696 0.13044605 0.12023920
-0.10885226 -0.79358870 0.00000083
-0.00555776 0.05072440 0.00001131
-0.44672477 -0.11986811 -0.11415329
-0.38513562 0.08001666 -0.15099883
-0.04169084 -0.42242920 0.00000102
-0.27461588 0.34401560 -0.14897475
-0.59141374 -0.50401860 -0.08907377
-0.57690531 -0.66687733 0.00000460
-0.30580539 -0.63106585 0.00000262
-0.51179284 -0.24890584 -0.13434072
-0.67611283 -0.75792629 -0.05349774
-0.47664934 -0.54116541 0.00000408
-0.18431495 0.35501182 0.19870435
-0.59066129 -0.19905752 -0.30725864
-0.10959474 -0.05704501 0.00000222
-0.44943166 -0.11039637 -0.12567391
-0.27353027 0.13962348 0.27768096
-0.14958757 -0.44368967 0.00000180
-0.58669388 -0.75115877 0.00000452
-0.02262729 0.55582875 0.00000527
-0.55723059 -0.09883434 -0.32130474
-0.57460511 -0.09198970 -0.35642064
-0.10492949 -0.76761091 0.00000085
-0.21851379 0.27245179 0.17141099
-0.05165219 -0.17888163 0.00000155
-0.32579476 0.30439717 -0.20938803
-0.28870627 0.10299648 0.14496167
-0.14237884 0.29421556 0.00000568
-0.00121514 -0.03612627 0.00000142
-0.60835361 -0.58170384 -0.06259495
-0.37243348 0.16207950 -0.18799321
-0.20304689 -0.29340428 0.00000248
-0.00714714 -0.52469122 0.00000057
-0.13503462 -0.43331060 0.00000171
-0.57305622 -0.58349413 0.22489172
-0.34470108 0.16180716 -0.13960893
-0.10381328 0.12437660 0.00000841
-0.16121447 -0.35349998 0.00000205
-0.06981921 0.63143790 0.04278242
-0.18638383 0.42499703 -0.05394880
-0.34104022 -0.02335856 0.28684860
-0.26130524 0.16914891 0.12819701
-0.41684946 0.09007324 -0.21334365
-0.43806177 -0.25237790 -0.00372821
-0.55856770 -0.21827306 -0.23766334
-0.22361980 0.35058799 -0.06509373
-0.36910900 -0.09111608 0.05392605
-0.08496705 -0.15910167 0.00000184
-0.57305908 -0.58349955 0.11382298
-0.04192982 0.01904233 0.00001090
-0.10029926 -0.01494826 0.00000223
-0.26156649 0.16851395 0.18118799
-0.11472742 0.24599689 0.00000681
-0.44114652 -0.62578470 0.00000365
-0.27113900 -0.73740101 0.00000216
-0.34945169 -0.04365286 0.13045652
-0.30861998 0.31460431 -0.18689162
-0.68013310 -0.56441945 -0.19975749
-0.31228229 0.31879491 -0.19627152
-0.63324720 -0.65032941 -0.05645712
-0.16450411 -0.66997695 0.00000148
-0.18209542 0.46148059 -0.07275674
-0.39858276 -0.16228519 0.35846847
-0.00143835 -0.63670945 0.00000032
-0.07990173 0.54246157 0.00000421
-0.23429964 0.44079044 -0.14857559
-0.26113483 0.33024347 -0.11563719
-0.37789345 -0.36188835 0.00000367
-0.49005026 -0.78173608 0.00000373
-0.07658442 0.67249602 -0.04130034
-0.44868651 -0.28324476 0.31014419
-0.06739505 -0.42115760 0.00000122
-0.28387463 -0.10032153 0.00000345
-0.54959232 -0.49626267 -0.02198796
-0.29623932 0.08481294 0.11227501
-0.37026390 -0.06563102 -0.02033308
-0.65970725 -0.70925087 -0.06002535
-0.05929181 0.57950836 0.00000423
-0.44745210 -0.28025466 0.07513738
-0.59987563 -0.64221090 -0.00431454
-0.01831589 -0.64252353 0.00000043
-0.49510422 -0.25424454 -0.10150047
-0.13694373 -0.04769335 0.00000244
-0.66994643 -0.70251977 -0.08266131
-0.17454451 -0.08418170 0.00000266
-0.11733609 0.51672113 0.07244319
-0.53819907 -0.17356376 -0.23445030
-0.12831251 -0.20792066 0.00000208
-0.13972932 -0.20633142 0.00000217
-0.36444509 0.05933709 -0.10016227
-0.25846788 -0.66262943 0.00000221
-0.34733108 0.10555284 -0.10368907
-0.02124149 -0.42560220 0.00000086
-0.63549423 -0.51972950 -0.15435930
-0.35746121 -0.06300556 0.33361173
-0.16318841 0.27766329 0.00000543
-0.11187428 0.56406462 -0.02457559
-0.03659785 0.57155067 0.00000480
-0.18858622 -0.50743848 0.00000197
-0.31573698 -0.06586160 0.00000376
-0.63814765 -0.57312220 -0.12054100
-0.61125487 -0.49966186 -0.12668496
-0.17526695 -0.03093007 0.00000276
-0.58055139 -0.19428450 -0.29312727
-0.38846910 -0.79143786 0.00000295
-0.51645947 -0.08122476 -0.26313603
-0.27687395 -0.50197440 0.00000265
-0.03986018 -0.53416437 0.00000080
-0.24425808 -0.03609307 0.00000328
-0.41520900 -0.20241722 0.18404517
-0.39049065 -0.42676625 0.00000365
-0.70350885 -0.78159690 -0.08406365
-0.23027956 -0.23706540 0.00000279
-0.44921163 -0.04423549 -0.17291015
-0.60809851 -0.58957678 -0.05648533
-0.49917835 -0.40513262 0.05789090
-0.06171557 0.29016358 0.00000743
-0.55992645 -0.39487851 -0.11291446
-0.44479281 -0.00249882 -0.19526845
-0.67288673 -0.76285046 -0.04434794
-0.30467057 0.12320717 -0.04226846
-0.59170836 -0.38395113 -0.17600286
-0.51287705 -0.58835900 0.00000427
-0.30316162 -0.44732180 0.00000295
-0.27310365 0.16922751 -0.02054104
-0.71072793 -0.73690039 -0.12877706
-0.41992208 -0.73783201 0.00000328
-0.16142803 0.23106200 0.00000599
-0.12725505 -0.10649756 0.00000226
-0.36844224 -0.75025493 0.00000287
-0.59022129 -0.12809265 -0.35757029
-0.26454443 0.24134573 -0.05757643
-0.60429251 -0.46119326 -0.14227474
-0.58525455 -0.40645301 -0.14859344
-0.23241629 -0.01434588 0.00000323
-0.65280712 -0.51932967 -0.18472953
-0.00636271 -0.08066819 0.00000140
-0.46885327 -0.25510460 -0.05526836
-0.38406938 -0.12724538 0.36919144
-0.15240547 0.50029278 -0.04910261
-0.65198547 -0.56299859 -0.15187158
-0.64879256 -0.76633322 0.02404018
-0.20093343 0.31489632 0.14250316
-0.31666690 0.22029324 -0.13299242
-0.51502991 -0.10939465 -0.24037701
-0.08022814 0.60630536 0.08620492
-0.12018379 -0.58293176 0.00000131
-0.06895575 -0.63229048 0.00000083
-0.54776543 -0.71239668 0.00000430
-0.19011948 -0.52312189 0.00000195
-0.44101641 -0.26472655 0.28920397
-0.41122702 -0.46377835 0.00000373
-0.57773221 -0.13568726 -0.33040339
-0.24635744 0.25200269 -0.03364492
-0.32273519 0.02085082 0.06550281
-0.04795023 -0.03048659 0.00000180
-0.38897839 -0.61919868 0.00000327
-0.15593752 -0.40888783 0.00000191
-0.12873869 0.19136404 0.00000713
-0.02133780 -0.57554209 0.00000058
-0.24320096 0.38028049 -0.12048982
-0.60965699 -0.62725133 -0.03207742
-0.20503509 -0.39139467 0.00000231
-0.49884263 -0.10192910 -0.21762362
-0.03435853 0.45596781 0.00000614
-0.24580209 -0.01695240 0.00000332
-0.69044250 -0.75093776 -0.08342650
-0.00386104 -0.19524358 0.00000111
-0.49856180 -0.68446875 0.00000398
-0.42606959 -0.22863083 0.03554700
-0.37490371 -0.10511111 0.17909817
-0.06999979 -0.08975663 0.00000186
-0.54643053 -0.16219807 -0.25693345
-0.37767795 0.21480988 -0.23505946
-0.61195153 -0.77857399 0.00000466
-0.61831099 -0.40532783 -0.20684145
-0.09396448 0.62972891 -0.04071801
-0.47075009 -0.33650759 0.22545645
-0.54574245 -0.39138007 -0.09078655
-0.17727003 0.28886560 0.00000501
-0.44823736 -0.06732473 -0.15459909
-0.11903605 0.17294469 0.00000754
-0.61634064 -0.60631299 -0.05876088
-0.65568876 -0.63044769 -0.10976069
-0.09494256 -0.47744355 0.00000132
-0.32568505 0.01373207 0.03110130
-0.39253557 -0.52300406 0.00000348
-0.28122085 0.26163033 -0.10115377
-0.50344574 -0.00512111 -0.29529724
-0.52194995 -0.38318789 -0.05534149
-0.19162315 0.42473146 -0.06286159
-0.02772271 -0.77516276 0.00000026
-0.41239801 0.00514595 -0.14448120
-0.49402550 -0.19792220 -0.14016350
-0.33622223 -0.30673042 0.00000346
-0.00297627 0.23236221 0.00000932
-0.61210370 -0.42686003 -0.18055816
-0.28684577 -0.12086724 0.00000344
-0.29325777 -0.09669470 0.00000353
-0.52717656 -0.61047769 0.00000433
-0.46132687 -0.23287261 -0.05819188
-0.17629355 -0.20387521 0.00000245
-0.59404379 -0.58972692 -0.03195602
-0.61041027 -0.79692447 0.00000461
-0.41126636 0.03078384 -0.16096804
-0.42605317 -0.00768984 -0.15896989
-0.24010645 0.22032452 0.15470687
-0.62251788 -0.55003172 -0.11000216
-0.40540963 -0.17876840 0.39582956
-0.31677556 0.03522484 0.23584715
-0.19701493 -0.16549560 0.00000268
-0.62152517 -0.38816360 -0.22478007
-0.55738705 -0.54566634 0.22115988
-0.29923716 0.21794534 -0.10101631
-0.01024324 0.64868408 0.00000449
-0.48177099 -0.36311173 0.16067667
-0.40470567 -0.63706326 0.00000336
-0.40477166 -0.17721508 0.08787936
-0.41264635 -0.64047903 0.00000341
-0.04260398 0.54313868 0.00000499
-0.25967172 -0.11687135 0.00000324
-0.63282812 -0.46810684 -0.18688150
-0.37084493 -0.09531273 0.18941735
-0.49104759 -0.25324652 -0.09517006
-0.51634246 -0.44656935 0.02818900
-0.05646939 0.24785006 0.00000802
-0.33902508 -0.23558383 0.00000362
-0.31531799 0.17883699 -0.10080987
-0.12173249 0.58574927 -0.05731317
-0.24679045 -0.78837031 0.00000188
-0.00309354 -0.19952239 0.00000111
-0.23296453 -0.55170828 0.00000222
-0.29546395 0.30609357 -0.15790579
-0.16326042 0.52971345 -0.08914023
-0.13378678 -0.53662109 0.00000150
-0.34442788 -0.23695716 0.00000365
-0.04847071 -0.64194095 0.00000066
-0.13764767 0.46768564 0.06770106
-0.59323734 -0.16790074 -0.33415946
-0.47750387 -0.26235530 -0.06508086
-0.28938642 0.30846724 -0.14905384
-0.23097675 0.24237137 0.07867177
-0.55313987 -0.46688879 -0.04929360
-0.18942270 0.11580242 0.00000670
-0.37077183 0.11147496 -0.14868262
-0.01152049 -0.63502914 0.00000040
-0.08192713 0.60220790 0.03349454
-0.20870553 0.46300465 -0.12009184
-0.38590458 -0.10065376 -0.02230274
-0.03488037 0.74608976 -0.02180478
-0.09779179 0.60986716 -0.03307264
-0.38695517 -0.13419871 0.00686612
-0.62667418 -0.27920416 -0.31214914
-0.60194153 -0.39050075 -0.18906984
-0.13879962 -0.22723250 0.00000212
-0.52128243 -0.45775384 -0.00051358
-0.38225403 -0.12285989 0.26112518
-0.10155745 0.64622259 -0.06578319
-0.30864802 0.25538471 -0.14431624
-0.33758989 -0.51583272 0.00000308
-0.43226561 -0.23808692 -0.00394271
-0.46423766 -0.32078943 0.35454288
-0.41129634 0.04728225 -0.17289507
-0.11564101 -0.70750779 0.00000105
-0.36161470 -0.66752094 0.00000298
-0.51767111 -0.12110713 -0.23653641
-0.61977673 -0.54271418 -0.11050592
-0.51210368 -0.42386892 -0.00895313
-0.33365533 -0.56042647 0.00000297
-0.02003386 0.58075446 0.00000504
-0.17530631 0.31305042 0.00000478
-0.36883008 -0.01832270 -0.05189132
-0.24677508 -0.10426007 0.00000317
-0.27052009 0.16563050 -0.01346279
-0.20604217 0.30256939 0.06108952
-0.65062803 -0.53899723 -0.16678761
-0.23002969 -0.72079003 0.00000188
-0.18977059 -0.04219803 0.00000285
-0.07865836 0.41880077 0.00000563
-0.63851613 -0.72010237 -0.01539392
-0.42290717 -0.22100841 0.32624227
-0.35282052 0.18903068 -0.17331190
-0.51096147 -0.12348733 -0.22316480
-0.69270039 -0.62066776 -0.18111004
-0.63807505 -0.61764389 -0.08837089
-0.32616615 -0.70693487 0.00000264
-0.25166211 -0.17886491 0.00000306
-0.39608151 -0.08872581 -0.04857098
-0.34730154 0.24045260 -0.20073363
-0.50543547 -0.14610393 -0.19728483
-0.19120425 -0.41645715 0.00000216
-0.38832366 -0.13751666 0.37768427
-0.09745845 -0.21527460 0.00000183
-0.52902240 -0.28938290 -0.13514553
-0.43833166 -0.06981492 -0.13559487
-0.22243768 0.30251864 -0.02844111
-0.45237330 0.00659833 -0.21498822
-0.30612287 -0.12689415 0.00000357
-0.54556459 -0.50191504 -0.01092124
-0.09034572 -0.00091737 0.00000218
-0.24629216 -0.26358491 0.00000286
-0.36276835 -0.07580798 0.20902187
-0.35224694 -0.48016670 0.00000326
-0.59134567 -0.51625335 -0.08014963
-0.54460233 -0.21680793 -0.21445195
-0.30017930 -0.41762516 0.00000298
-0.51009834 -0.30829915 -0.08864869
-0.12304934 -0.66601527 0.00000118
-0.59814721 -0.64406621 0.07400305
-0.19941968 -0.24260175 0.00000255
-0.33270398 0.00331684 -0.00468709
-0.35360548 -0.48149803 0.00000326
-0.39901847 -0.16332857 0.15738858
-0.49972549 -0.40645370 0.06164324
-0.12566487 0.16977718 0.00000744
-0.10651368 0.17366464 0.00000780
-0.55607229 -0.10959901 -0.31154436
-0.12232587 -0.07015446 0.00000229
-0.01183548 0.66538113 0.00000426
-0.56465471 -0.56320989 0.12227608
-0.00551860 0.42459115 0.00000711
-0.48447219 -0.63093549 0.00000397
-0.19178139 0.33698720 0.19019075
-0.02347696 -0.29364583 0.00000113
-0.28181702 0.32766140 -0.14971642
-0.22408871 0.27621466 -0.01237732
-0.25290561 0.01761403 0.00000646
-0.32573092 0.01359793 0.32391328
-0.66240960 -0.74340940 -0.04013572
-0.41872394 0.14913486 -0.25911114
-0.30588126 -0.06925433 0.00000368
-0.41800070 -0.34346831 0.00000401
-0.13720851 -0.51901871 0.00000156
-0.03846623 0.09907190 0.00001007
-0.17422804 0.03986844 0.00000787
-0.43147242 -0.72255260 0.00000340
-0.50154406 -0.14468981 -0.19154100
-0.23005709 0.44227901 -0.14227509
-0.50051433 -0.40836009 0.10825246
-0.01704107 -0.24300556 0.00000117
-0.63617879 -0.69045562 -0.03267060
-0.06649238 -0.57080609 0.00000093
-0.32058638 0.19402842 -0.12089850
-0.21663736 0.27698359 0.14965156
-0.22451063 0.36988011 -0.08052738
-0.12442868 0.00204071 0.00000935
-0.37890863 -0.11478024 0.18776473
-0.13534407 -0.54102248 0.00000151
-0.00314554 0.56358492 0.00000559
-0.29305321 -0.19387572 0.00000335
-0.02214674 0.16504425 0.00000968
-0.25476307 0.37861469 -0.13938136
-0.28273869 0.15943788 -0.03023683
-0.27698749 0.27040178 -0.10011117
-0.21787044 -0.23611502 0.00000270
-0.08290616 -0.35399863 0.00000146
-0.35302311 -0.05228601 0.26922420
-0.45488584 -0.71544749 0.00000359
-0.15640420 0.24432825 0.00000595
-0.69321734 -0.66312087 -0.15145314
-0.02177616 0.40464306 0.00000699
-0.64382792 -0.63708812 -0.08437217
-0.01404311 -0.41351950 0.00000083
-0.29757580 -0.39160505 0.00000301
-0.03883476 0.35289660 0.00000721
-0.21419331 0.28289375 0.02710197
-0.21857262 0.44066653 -0.12115889
-0.46099311 -0.73541117 0.00000360
-0.08968821 -0.63841242 0.00000098
-0.27695867 0.13136064 0.10371792
-0.08665696 -0.16463128 0.00000185
-0.26695523 -0.01174599 0.00000349
-0.43559170 -0.65205264 0.00000356
-0.15568136 -0.45882314 0.00000181
-0.42236227 -0.02282461 -0.14166304
-0.24146415 -0.16374764 0.00000301
-0.04715781 -0.53024942 0.00000086
-0.47330117 -0.33478400 -0.00564856
-0.55064958 -0.52515799 -0.00302794
-0.08110503 -0.22905326 0.00000168
-0.05576452 0.02918235 0.00001049
-0.33330610 -0.45623386 0.00000316
-0.11307292 0.52700937 0.12034080
-0.49147740 -0.38653973 0.03255382
-0.19042479 0.34026268 0.18482967
-0.43130890 -0.24128737 0.21661840
-0.31007054 0.18147118 -0.09358783
-0.54586303 -0.14070456 -0.27141705
-0.34782049 -0.38605109 0.00000340
-0.14934821 0.01949057 0.00000863
-0.39053380 -0.60829604 0.00000331
-0.06484712 -0.74499148 0.00000059
-0.33030114 -0.52177143 0.00000301
-0.47929463 -0.29636428 -0.04371485
-0.53086609 -0.07246365 -0.29447433
-0.61339080 -0.40821686 -0.19621284
-0.34381345 -0.03005360 0.28665155
-0.55795741 -0.23086029 -0.22754340
-0.71611780 -0.80579507 -0.08855621
-0.03057888 -0.73276430 0.00000036
-0.01574634 0.77549154 -0.00971953
-0.17225020 0.38414893 0.06681342
-0.54370397 -0.51262760 0.06214009
-0.02829117 0.14519297 0.00000977
-0.49652955 -0.39874333 0.18768607
-0.34900743 0.20833942 -0.18058389
-0.36216712 -0.07435914 0.10835205
-0.62536532 -0.70977533 0.04008202
-0.07974612 0.50373608 0.00000465
-0.47941813 0.06659645 -0.30516621
-0.21117321 0.29017037 0.20825255
-0.38601527 -0.13193493 0.13309056
-0.01777150 -0.76827598 0.00000019
-0.25754297 -0.01809021 0.00000341
-0.56110477 -0.44893783 -0.07605331
-0.34651464 -0.03657909 0.34032655
-0.62609351 -0.77747655 0.00000477
-0.21095721 0.29069573 0.15922351
-0.33847412 -0.28251415 0.00000352
-0.13393183 0.35960436 0.00000513
-0.33649111 0.20558114 -0.15685005
-0.51037914 -0.67023695 0.00000409
-0.09770739 -0.24128547 0.00000178
-0.36277401 -0.49842951 0.00000330
-0.43420300 0.11767665 -0.26336530
-0.38384521 -0.54110181 0.00000338
-0.71886986 -0.76777917 -0.12069966
-0.47267413 -0.01434316 -0.23519038
-0.63458318 -0.40600529 -0.23462795
-0.57684726 -0.50342768 -0.06418868
-0.10269580 0.63915694 -0.06267563
-0.47059429 -0.71307153 0.00000371
-0.28122324 0.12105986 0.17032358
-0.43063852 -0.23966563 0.13867842
-0.32532993 -0.65916246 0.00000272
-0.14145970 0.02728715 0.00000870
-0.44921738 -0.77161419 0.00000344
-0.17919742 0.48912725 -0.08762017
-0.00001838 -0.65986037 0.00000026
-0.06957783 -0.29972738 0.00000146
-0.43266821 -0.47642648 0.00000387
-0.06682586 0.65831071 -0.01413362
-0.23791084 0.29889667 -0.05272053
-0.54907870 -0.43535781 -0.06493117
-0.20259014 -0.36560878 0.00000234
-0.30821052 -0.22029757 0.00000341
-0.14865857 0.23619851 0.00000620
-0.61121833 -0.24577142 -0.30935630
-0.63696843 -0.38602296 -0.25315455
-0.23148967 0.24112305 0.20387641
-0.46528655 0.02034770 -0.24732281
-0.26856360 0.33979601 -0.13542110
-0.14466508 -0.15400045 0.00000230
-0.10099545 0.44752678 0.00000483
-0.42265677 -0.15131091 -0.04970266
-0.00388765 0.31079045 0.00000842
-0.33259341 -0.49360165 0.00000308
-0.42466006 -0.17262086 -0.03784594
-0.42445904 -0.22475216 0.26045936
-0.23653550 -0.50305879 0.00000234
-0.53997952 -0.59286517 0.00000446
-0.15115586 0.43507084 0.11241624
-0.15854494 0.41722947 0.14692169
-0.12257839 -0.29293275 0.00000188
-0.19591652 -0.40255794 0.00000222
-0.51091802 -0.77973509 0.00000389
-0.22361310 0.45727834 -0.14187387
-0.01430868 -0.22888996 0.00000118
-0.01937329 0.03970825 0.00001114
-0.39471579 -0.27316490 0.00000397
-0.34325695 -0.02870534 0.22676602
-0.57249880 -0.11685843 -0.33486176
-0.54003918 -0.16803011 -0.24163042
-0.22423847 0.00761938 0.00000718
-0.47103187 0.00706013 -0.24774206
-0.65830648 -0.64086837 -0.10680901
-0.63538873 -0.43621656 -0.21428342
-0.31463304 0.04040290 0.16563243
-0.42763484 -0.55950475 0.00000368
-0.26482835 -0.58326769 0.00000240
-0.06550490 0.64185143 0.06782416
-0.32003596 0.27251080 -0.17643087
-0.12348211 -0.30275148 0.00000186
-0.31445345 -0.07760987 0.00000373
-0.61598086 -0.24339320 -0.31934321
-0.63954538 -0.74400914 0.11154943
-0.15111101 -0.61985523 0.00000148
-0.45811123 -0.11016116 -0.14092465
-0.26006564 0.35072699 -0.12852263
-0.16611698 0.52430183 -0.09020875
-0.08339730 0.66907912 -0.05067915
-0.00961081 0.48614076 0.00000633
-0.06468277 0.04564946 0.00001012
-0.43384022 -0.07302327 -0.12548144
-0.45882282 0.00315927 -0.22371972
-0.09156355 0.57894343 0.03857822
-0.17000031 0.38958347 0.03019832
-0.25056431 -0.42501897 0.00000259
-0.13314565 -0.26693216 0.00000200
-0.62064767 -0.45554134 -0.17476092
-0.29306588 0.13378441 -0.02971708
-0.00774051 0.06973313 0.00001105
-0.40520173 -0.41910735 0.00000377
-0.08160142 0.45397326 0.00000517
-0.03018762 -0.24616686 0.00000127
-0.22191204 0.26425231 0.11522581
-0.32747278 0.00939050 0.35228878
-0.19509172 -0.04860288 0.00000288
-0.15145320 -0.50793189 0.00000169
-0.41639090 -0.02805078 -0.12752549
-0.46215618 -0.28291398 -0.02361613
-0.37539956 -0.04783618 -0.04206431
-0.06055733 -0.07333625 0.00000182
-0.16506384 0.19353107 0.00000634
-0.35626718 -0.06011930 0.28789940
-0.40794969 0.00706319 -0.13813169
-0.05147184 -0.40117297 0.00000114
-0.46745098 0.02251236 -0.25264180
-0.60141021 -0.16265303 -0.35213745
-0.51362348 -0.19687651 -0.17496911
-0.23339333 0.23652907 0.18174341
-0.43753138 -0.25631204 0.26869595
-0.13995796 0.12796316 0.00000760
-0.41930911 -0.13677245 -0.05434972
-0.48205477 -0.36379910 0.21334405
-0.36924958 0.09598691 -0.13488977
-0.04932305 0.37790060 0.00000671
-0.08626328 0.64216310 -0.03628595
-0.44916928 -0.12436921 -0.11516124
-0.45705366 -0.05884447 -0.17602170
-0.65004194 -0.69306022 -0.05488424
-0.28313544 -0.30534792 0.00000306
-0.64647007 -0.43914062 -0.23143348
-0.41043231 0.03905951 -0.16547529
-0.10485066 0.15850122 0.00000800
-0.02771136 -0.70619267 0.00000038
-0.48731905 -0.07917222 -0.21397953
-0.32269874 0.02094250 0.01945319
-0.57788664 -0.26498988 -0.23760758
-0.07474471 -0.23643894 0.00000162
-0.40941456 -0.62206078 0.00000342
-0.44455913 -0.27328220 0.35369200
-0.50415695 -0.24011949 -0.12739667
-0.48666099 -0.49046245 0.00000425
-0.17325889 -0.76154172 0.00000138
-0.09228180 0.57720834 0.05242090
-0.01375299 -0.59155661 0.00000049
-0.12457519 0.43985707 0.00000442
-0.00372978 -0.17959376 0.00000119
-0.32907087 -0.65435731 0.00000276
-0.30354196 0.31220883 -0.17634381
-0.58932585 -0.40899876 -0.15383534
-0.17769130 0.37100497 0.16857868
-0.20149155 -0.01251945 0.00000300
-0.06395503 0.26735786 0.00000764
-0.40255973 -0.60738242 0.00000340
-0.20113029 -0.14341418 0.00000275
-0.14027727 0.46133220 0.13166983
-0.00143696 -0.12594299 0.00000126
-0.40407982 -0.03276199 -0.10274801
-0.18349360 -0.03615438 0.00000282
-0.56076193 -0.77822632 0.00000427
-0.15176722 0.08042527 0.00000789
-0.31323197 0.04378504 0.16913931
-0.05499423 0.25288966 0.00000799
-0.10383293 -0.00327223 0.00000228
-0.49564955 -0.34270751 -0.03877776
-0.27639186 0.36021495 -0.16372041
-0.01877483 0.25271735 0.00000876
-0.43445164 -0.24887200 0.15429807
-0.00484965 -0.65568101 0.00000031
-0.01345838 0.40131208 0.00000720
-0.35180551 -0.04934077 0.03436957
-0.46350613 -0.13722771 -0.13081785
-0.06192458 -0.33547693 0.00000134
-0.06210237 0.31637201 0.00000713
-0.29073799 -0.53298497 0.00000269
-0.52327484 -0.39461213 -0.04942115
-0.37150711 -0.09690986 0.27039188
-0.64407885 -0.38498822 -0.26625422
-0.39299518 -0.14878459 0.10043346
-0.07433061 -0.77321267 0.00000061
-0.48103204 -0.36132479 0.09073680
-0.40199864 -0.17053060 0.32762361
-0.24738179 0.30432606 -0.07308528
-0.00369197 -0.22235103 0.00000106
-0.23072231 -0.46211803 0.00000237
-0.08707553 -0.60602134 0.00000102
-0.34775573 0.23545088 -0.19792277
-0.37886885 -0.74050844 0.00000297
-0.39198497 -0.14635864 0.41427940
-0.60966581 -0.53999728 -0.09489290
-0.40402579 -0.17542784 0.40427113
-0.06426068 -0.45102233 0.00000114
-0.45716828 -0.71888191 0.00000360
-0.22222617 0.26348448 0.23349383
-0.44013074 0.13454482 -0.28580657
-0.20936441 -0.57583529 0.00000200
-0.33158609 0.16517229 -0.11924220
-0.56346530 -0.72226769 0.00000440
-0.10735722 -0.32840571 0.00000169
-0.29364875 0.09106520 0.13528112
-0.24139857 0.21721236 0.06381297
-0.33088726 -0.54175335 0.00000298
-0.33479241 -0.48961374 0.00000311
-0.42579365 -0.09623193 -0.09479573
-0.10504588 0.38365331 0.00000546
-0.27587557 -0.05593086 0.00000348
-0.53378212 -0.76067287 0.00000410
-0.62273079 -0.39003876 -0.22552529
-0.29087520 0.09775635 0.19422810
-0.19917007 0.31915426 0.13143489
-0.67003769 -0.58326358 -0.16865318
-0.39492527 -0.15345030 0.24250183
-0.20588247 0.36750689 -0.04645069
-0.08992814 0.58289170 0.03744592
-0.02614272 0.12086513 0.00001009
-0.07577964 -0.30882955 0.00000149
-0.37353057 0.23557208 -0.24279676
-0.33713582 -0.01392796 0.22850774
-0.18054885 0.23406874 0.00000555
-0.13775544 0.48655894 -0.01376137
-0.04673992 0.03872497 0.00001058
-0.01295813 0.68257010 0.00000405
-0.49889991 -0.40445849 0.01281630
-0.53471226 -0.23073746 -0.18724154
-0.42948434 -0.14281607 -0.06768019
-0.07405132 -0.42033786 0.00000127
-0.45487550 -0.20051108 -0.07027396
-0.22491542 0.40893245 -0.10933920
-0.35548612 -0.01092307 -0.03403094
-0.44800097 -0.71040893 0.00000355
-0.37487885 -0.10504947 0.14103325
-0.30814296 0.24499349 -0.13595945
-0.26814377 0.17410575 -0.01543385
-0.39240789 -0.11927113 -0.02020314
-0.43686274 -0.25470203 0.36836445
-0.43679723 -0.75012243 0.00000339
-0.13589554 -0.77556092 0.00000107
-0.45944223 -0.30921227 0.32922611
-0.35235548 -0.05066921 0.05057616
-0.41161618 0.00912642 -0.14598764
-0.12300505 0.29545495 0.00000608
-0.48677692 -0.37519121 0.02057182
-0.23213850 -0.68887186 0.00000196
-0.16217387 -0.66934097 0.00000147
-0.34530798 -0.03365131 0.15729627
-0.03447606 -0.41906410 0.00000097
-0.33439511 0.01921823 -0.01907084
-0.12460591 -0.04289191 0.00000236
-0.16887458 0.03553913 0.00000803
-0.06359103 -0.44105232 0.00000115
-0.42447561 -0.02566025 -0.14329426
-0.53151017 -0.48319116 0.11255748
-0.30345899 -0.50309402 0.00000285
-0.46829578 0.05478502 -0.27733836
-0.42050305 -0.08837582 -0.09125723
-0.56629187 -0.16100512 -0.29230267
-0.04611722 -0.63415235 0.00000066
-0.15257096 0.46657830 -0.02512373
-0.28585550 0.10987891 0.14318034
-0.22317153 0.37307119 -0.08049739
-0.39645249 0.14153358 -0.21494079
-0.63393247 -0.56329668 -0.12028863
-0.50969589 -0.16304627 -0.19249357
-0.52593005 -0.46971795 0.07623945
-0.29671359 -0.46571127 0.00000287
-0.03476181 -0.23827580 0.00000132
-0.30857560 0.05501811 0.27247182
-0.60041517 -0.36614814 -0.20394512
-0.53820866 -0.25958925 -0.17255108
-0.32497829 -0.25972360 0.00000346
-0.04787339 0.68441945 0.03818407
-0.42608666 -0.52049530 0.00000374
-0.60961843 -0.47871286 -0.13891934
-0.26988813 -0.65509206 0.00000231
-0.23424783 0.04324496 0.00000657
-0.63550055 -0.45030972 -0.20433436
-0.43785805 -0.05861080 -0.14283597
-0.14789271 0.07409496 0.00000804
-0.23767941 -0.03175853 0.00000323
-0.58761549 -0.26741365 -0.25276777
-0.28284940 0.31934536 -0.14552468
-0.51815081 -0.27063251 -0.12975071
-0.44595993 -0.27666155 0.29499987
-0.41895941 -0.01383299 -0.14222202
-0.34008893 0.19964232 -0.15882716
-0.63506788 -0.47769740 -0.18387060
-0.57000798 -0.76763511 0.00000436
-0.37495920 0.10551938 -0.15167202
-0.25057328 0.41897696 -0.16115241
-0.10812183 -0.77311069 0.00000087
-0.09300108 -0.00823742 0.00000219
-0.38337243 0.09168235 -0.15633160
-0.31849763 0.14853963 -0.08452791
-0.25597638 0.36019951 -0.12823503
-0.26040113 0.17132960 0.15325697
-0.31533760 -0.38841996 0.00000315
-0.19115382 0.18282679 0.00000591
-0.00629006 -0.07543026 0.00000141
-0.49436367 -0.30664575 -0.06249850
-0.40070009 -0.00716179 -0.11529606
-0.04747529 0.17700531 0.00000901
-0.17210335 0.38449430 0.18101269
-0.31926337 -0.70696169 0.00000258
-0.27586183 0.13401501 0.02391691
-0.03501189 -0.00108476 0.00000176
-0.25360450 0.37111264 -0.13196848
-0.23225453 0.23927295 0.24889514
-0.17766197 -0.17285912 0.00000252
-0.50225282 -0.21003133 -0.14574367
-0.17275976 -0.57252276 0.00000173
-0.41887072 -0.19498546 -0.01168983
-0.14286581 0.45508355 0.12452086
-0.42542419 -0.22707497 0.08862237
-0.03583003 0.05502344 0.00001062
-0.41914257 -0.18942370 -0.01616520
-0.53703582 -0.31880939 -0.12789011
-0.05262869 -0.68764549 0.00000061
-0.25567284 0.18273775 0.23783205
-0.68819386 -0.63364863 -0.16393679
-0.28773093 0.27920127 -0.12511267
-0.51857060 -0.24671450 -0.14769486
-0.60087186 -0.65064532 0.17942081
-0.13268694 -0.50382167 0.00000156
-0.33083430 -0.31284118 0.00000341
-0.56813890 -0.28821838 -0.20395166
-0.09834362 0.56257069 0.09393304
-0.41632685 0.09645319 -0.21702757
-0.19478635 0.02301177 0.00000763
-0.15885215 0.52759904 -0.07995851
-0.48375359 -0.36789995 0.20265013
-0.61501396 -0.73320073 0.00000477
-0.04160223 0.69955879 0.04309473
-0.50122213 -0.41007298 0.20441975
-0.39555952 0.12409814 -0.20083977
-0.53534710 -0.49245486 0.12417634
-0.50977045 -0.38497061 -0.03289552
-0.27464527 0.23377728 -0.06968032
-0.25883633 -0.13660073 0.00000320
-0.31065309 -0.68653905 0.00000256
-0.04146481 -0.20903985 0.00000142
-0.65603137 -0.54338574 -0.17301778
-0.16739511 0.39586228 0.16295514
-0.43972728 -0.26160714 0.12018561
-0.43036702 -0.19240803 -0.03352062
-0.00699128 0.35135543 0.00000790
-0.27476546 0.03012233 0.00000586
-0.59679133 -0.47002822 -0.12288191
-0.54410064 -0.51358807 0.12878571
-0.33845553 -0.01712241 0.33411628
-0.24502994 -0.16089392 0.00000305
-0.30536544 -0.61815137 0.00000264
-0.45010778 -0.19712080 -0.06442979
-0.22526816 -0.27916062 0.00000268
-0.47338453 -0.34286222 0.09590733
-0.00541015 -0.68790644 0.00000025
-0.58906645 -0.35120758 -0.19497919
-0.50840318 -0.00240504 -0.30586639
-0.35947388 -0.06786833 0.38098660
-0.15099613 -0.08979621 0.00000247
-0.14432834 -0.15914614 0.00000229
-0.39302820 -0.07102757 -0.05600372
-0.20952129 0.29958770 -0.00388780
-0.14086108 0.38508347 0.00000469
-0.34716102 -0.03813302 0.25839961
-0.06061244 0.65366465 0.04359936
-0.63290596 -0.55584818 -0.12386592
-0.51867127 -0.05244723 -0.28768981
-0.44650084 -0.52259403 0.00000389
-0.01536431 0.02442294 0.00001140
-0.54684305 -0.02925553 -0.35333410
-0.30554309 -0.19512907 0.00000344
-0.32707024 0.01036859 0.27376503
-0.55760223 -0.18058591 -0.26311067
-0.12939806 0.59397542 -0.07655390
-0.65951836 -0.77743095 -0.01062532
-0.55154383 -0.43775007 -0.06749268
-0.08997199 0.00004541 0.00001010
-0.29464632 0.13042979 -0.03004872
-0.44210207 -0.26735073 0.38731641
-0.00068957 -0.39623806 0.00000076
-0.55339801 -0.53603619 0.20122924
-0.58751595 -0.32111600 -0.21394318
-0.26164469 -0.10241974 0.00000328
-0.35156775 -0.45965642 0.00000329
-0.26697075 0.31552887 -0.11518671
-0.49045381 0.03673110 -0.30284598
-0.52136540 -0.41605818 -0.03066779
-0.12543228 0.49717298 0.10291547
-0.32354942 0.01886392 0.33052370
-0.53323013 -0.20584606 -0.20258151
-0.06050441 -0.56274760 0.00000090
-0.28921294 0.10177358 0.14121820
-0.30580330 -0.40172771 0.00000305
-0.53842098 -0.47721609 -0.01628546
-0.06121145 0.60284752 0.00000392
-0.26942208 -0.07458829 0.00000339
-0.26259404 0.16603787 0.12358193
-0.56960016 -0.57514566 0.03575146
-0.00230222 0.23216262 0.00000934
-0.48311111 -0.33317158 -0.02385462
-0.14617489 -0.05749103 0.00000250
-0.35930091 -0.04776146 -0.01414542
-0.20786932 -0.57575691 0.00000199
-0.35505122 -0.05718302 0.27876234
-0.45874977 -0.39577743 0.00000422
-0.29434592 0.08937486 0.22616889
-0.37016052 0.16905329 -0.18906316
-0.38717523 -0.13473834 0.20445801
-0.02544528 0.75803673 -0.01400930
-0.63129020 -0.56485033 -0.11457926
-0.57453889 -0.31841150 -0.19334096
-0.40635073 -0.18102978 0.14525062
-0.20429032 0.42415759 -0.08445921
-0.24971627 0.19712861 0.10570796
-0.13967425 -0.52764297 0.00000156
-0.62529528 -0.68392366 -0.01846090
-0.66134316 -0.49269849 -0.21872891
-0.47502187 -0.01689712 -0.23743159
-0.27605498 0.13353337 0.21552292
-0.38943619 -0.14020246 0.33795005
-0.48695531 -0.24012242 -0.09750532
-0.39700785 -0.56182194 0.00000344
