ply
format ascii 1.0
element vertex 1370
property float x
property float y
property float z
end_header
0.00824733 0.59889841 0.02527641
-0.48148620 -0.00828173 -0.00000034
-0.01670410 -0.55953515 -0.00000015
0.76110983 -0.67950493 -0.00000030
0.38792130 -0.73170036 -0.00000004
0.19841614 -0.71996742 -0.00000005
0.58370042 -0.05675716 -0.00000120
-0.02416929 -0.01430697 -0.00000049
0.28676459 -0.21747920 -0.00000036
0.13200383 0.05791978 0.07996229
0.40521309 -0.09047564 -0.00000056
-0.19309603 -0.28892544 -0.00000032
0.15142353 0.01426262 -0.00000051
-0.59288573 0.12161390 -0.00000024
0.27563015 -0.47395390 -0.00000020
0.01120091 -0.07698851 -0.00000045
-0.27519068 -0.11317731 -0.00000043
-0.04198551 -0.25653404 -0.00000034
0.36903310 -0.37579650 -0.00000027
-0.27059111 -0.64626318 -0.00000010
-0.67438996 -0.04949195 -0.00000012
-0.11660531 -0.74338138 -0.00000004
0.33461413 -0.08910194 -0.00000044
-0.10416165 -0.62246388 -0.00000011
0.57190049 -0.74431121 -0.00000003
0.55937004 -0.55672514 -0.00000015
-0.15543135 0.19732292 -0.00000062
-0.62874699 -0.20873828 -0.00000014
-0.74492270 0.57500577 -0.00000007
-0.18515265 0.66150963 -0.00000077
-0.71663368 -0.30952194 -0.00000003
0.59061277 -0.16235822 -0.00000101
-0.18792008 -0.29494083 -0.00000032
-0.21087335 0.55448073 -0.00000073
-0.00361328 -0.77874416 -0.00000001
-0.30799428 0.07750513 -0.00000054
-0.47122368 -0.63936484 -0.00000010
-0.04970956 -0.38838929 -0.00000026
-0.71201187 0.76925921 -0.00000011
0.69527376 -0.02878318 -0.00000161
-0.25521460 -0.70311582 -0.00000006
-0.56875741 0.14380112 -0.00000027
0.28580043 -0.01654150 -0.00000049
-0.03280660 -0.12485287 -0.00000042
0.04847902 -0.64577079 -0.00000010
-0.65942359 -0.11002384 -0.00000013
0.57090777 -0.77828735 -0.00000001
0.58249557 -0.69896835 -0.00000006
0.26437306 -0.62636536 -0.00000011
0.14403301 -0.75700808 -0.00000003
0.50705826 -0.15680347 -0.00000076
0.64460868 -0.54218048 -0.00000044
0.07132562 0.00900766 -0.00000051
0.55720675 0.15858889 0.01103513
0.30376980 -0.01596406 -0.00000049
0.35139376 -0.26282454 -0.00000034
0.29390335 0.08447529 0.05526182
-0.57530516 -0.27386191 -0.00000019
0.15049534 -0.73245013 -0.00000004
-0.40887737 0.19187477 -0.00000045
0.54700071 -0.65210927 -0.00000009
-0.24350265 0.31927153 -0.00000065
0.24189925 -0.22353221 -0.00000036
-0.39969140 0.30297449 -0.00000048
-0.12176172 -0.71943200 -0.00000005
-0.66077471 0.31483981 -0.00000017
-0.78341073 0.16379558 -0.00000002
0.50104469 -0.67671216 -0.00000008
-0.06358109 0.46482593 -0.00000079
-0.16082878 0.17107698 -0.00000061
-0.28760955 -0.06566960 -0.00000046
0.47218668 -0.65569842 -0.00000009
-0.33060932 -0.55483770 -0.00000015
-0.21149659 0.76969564 -0.00000074
0.45198515 -0.77683395 -0.00000001
-0.31232989 0.26770723 -0.00000057
0.47721064 0.00483673 -0.00000098
0.13148637 -0.54603040 -0.00000016
0.44582522 -0.71445400 -0.00000005
-0.01139277 0.49392429 -0.00000081
-0.62129885 0.53936774 -0.00000022
-0.34251377 0.42301843 -0.00000057
-0.41334841 -0.17134733 -0.00000038
-0.46072158 0.61165792 -0.00000042
-0.09765430 -0.07626362 -0.00000045
0.22656272 -0.36788261 -0.00000027
-0.59845579 -0.30664665 -0.00000016
0.52148587 0.06873358 0.02749488
0.69647026 -0.01883237 -0.00000163
-0.34695199 0.60419589 -0.00000057
-0.37489724 0.42062202 -0.00000053
-0.59325081 -0.44936043 -0.00000014
-0.11791867 -0.15283012 -0.00000040
0.25572968 -0.15492155 -0.00000040
-0.54763740 0.63356507 -0.00000032
-0.37572041 0.32699755 -0.00000051
0.00007610 0.46237892 -0.00000079
-0.60914057 0.44768691 -0.00000024
-0.79491210 0.66073799 -0.00000001
-0.79727900 -0.74161911 0.00000000
-0.58867788 -0.12896264 -0.00000020
-0.32604146 0.39429197 -0.00000058
0.08913053 0.57564777 0.01772270
-0.41113779 0.56816930 -0.00000049
-0.05646276 0.78053719 -0.00000093
0.15750374 -0.66928089 -0.00000008
0.65659052 -0.66525054 -0.00000024
0.15907395 -0.56436557 -0.00000015
0.50487196 -0.39308482 -0.00000029
-0.54493308 -0.31027514 -0.00000022
0.37972388 0.15756544 0.03443279
-0.47224081 -0.48862255 -0.00000019
-0.58309722 0.60737205 -0.00000027
0.01053349 0.45191947 -0.00000078
0.61857980 -0.65199906 -0.00000015
0.51491624 -0.37361261 -0.00000036
0.30732727 0.04676962 0.05844447
-0.73636907 0.46078584 -0.00000008
0.09316161 -0.54655361 -0.00000016
0.06873737 -0.11076404 -0.00000043
-0.73260212 0.75643259 -0.00000008
-0.75778657 -0.46174869 0.00000000
0.73720688 -0.75799984 -0.00000011
-0.61163050 -0.54965764 -0.00000010
0.13271856 0.34857377 0.04177243
0.79735017 -0.71019739 -0.00000022
0.21156764 -0.23047490 -0.00000036
-0.73643613 0.04936293 -0.00000008
-0.43503055 0.31853101 -0.00000045
-0.67267984 -0.75063980 0.00000000
0.75858021 -0.30218044 -0.00000124
-0.63363105 0.76641279 -0.00000021
-0.78887904 0.33233690 -0.00000001
0.24960230 -0.46731475 -0.00000021
0.04179129 -0.24374527 -0.00000035
0.59371358 -0.50806636 -0.00000035
-0.47745636 -0.21633577 -0.00000030
0.52834266 0.26486537 0.00088846
-0.79530662 -0.69637233 0.00000000
-0.35013610 -0.66328532 -0.00000009
-0.39286169 -0.74718535 -0.00000003
-0.45069873 0.20785382 -0.00000041
0.53133196 -0.56320494 -0.00000015
-0.26414979 -0.28339657 -0.00000032
0.73010349 -0.69490302 -0.00000026
-0.61809856 0.69150549 -0.00000023
-0.21732208 -0.06805280 -0.00000046
0.23405442 0.48135248 0.01108649
0.41121420 -0.29314008 -0.00000032
-0.37502265 -0.54100657 -0.00000016
0.10556307 -0.19057003 -0.00000038
-0.33394676 0.08945600 -0.00000051
0.07587445 0.56536746 0.02080759
0.38595808 0.22759961 0.02443602
0.07455136 -0.20592664 -0.00000037
0.29795736 0.48519403 0.00220690
-0.09455020 -0.02576722 -0.00000048
0.29186538 0.07007781 0.05741601
-0.06084868 -0.64419305 -0.00000010
-0.45386529 -0.39858481 -0.00000025
0.06406140 -0.72914791 -0.00000004
-0.34067392 -0.10755923 -0.00000043
-0.49676153 0.47992617 -0.00000038
-0.22072099 -0.70620346 -0.00000006
-0.03807572 -0.11991517 -0.00000043
0.16579176 0.27467841 0.04712310
0.16447939 0.51102197 0.01631713
-0.10185898 -0.60169894 -0.00000012
0.61058807 -0.33003557 -0.00000075
-0.00396989 -0.34295899 -0.00000029
0.34421146 0.05689575 0.05228269
0.11981906 0.27801004 0.05271196
0.30748552 0.06927368 0.05547411
0.23892149 -0.40367326 -0.00000025
0.71154964 -0.26763129 -0.00000119
-0.75451440 0.41213566 -0.00000006
0.55207449 -0.41573191 -0.00000040
-0.47751263 0.02532407 -0.00000035
-0.72048163 0.04222224 -0.00000009
0.09565976 -0.60374039 -0.00000012
0.33640155 -0.75800234 -0.00000003
0.38174447 -0.64219737 -0.00000010
0.41954058 -0.09849527 -0.00000059
0.23940679 -0.07269151 -0.00000045
0.02692383 0.37364367 0.05235279
-0.44861981 0.05162829 -0.00000038
-0.25945717 0.43733203 -0.00000066
-0.54117495 -0.65184784 -0.00000009
-0.18217970 -0.62727690 -0.00000011
0.54811645 0.23657557 0.00200465
-0.68718076 -0.19463356 -0.00000008
0.78931475 -0.06140201 -0.00000185
0.40261045 0.15034908 0.03237881
-0.24429886 -0.72317666 -0.00000005
0.61607236 -0.16986388 -0.00000108
0.70936698 0.02911523 0.00806134
-0.22933869 0.52264106 -0.00000070
-0.30369398 0.71592969 -0.00000062
-0.58357191 -0.42849979 -0.00000015
0.37353796 0.21392475 0.02785640
0.47261250 -0.02371438 -0.00000091
0.51633281 -0.24987222 -0.00000060
0.29439557 -0.39887947 -0.00000025
-0.29261079 -0.01847400 -0.00000049
0.17462307 -0.36964124 -0.00000027
0.08284543 0.06020313 0.08610610
0.13722716 -0.28381184 -0.00000032
-0.60678357 -0.39505476 -0.00000013
-0.33830118 0.10536130 -0.00000051
0.03823391 -0.39075977 -0.00000026
0.38595423 -0.48908767 -0.00000019
-0.26407000 0.15104771 -0.00000059
-0.79704547 -0.55207264 0.00000000
-0.09224600 0.22159243 -0.00000064
0.69176513 -0.30996817 -0.00000105
-0.76289099 0.76036233 -0.00000005
0.34449655 0.30542052 0.01967033
0.68079495 -0.19385728 -0.00000124
0.65225667 -0.15968199 -0.00000122
-0.64539278 0.59523404 -0.00000019
-0.61054736 -0.45159808 -0.00000012
-0.69328558 -0.36018476 -0.00000005
-0.24980155 -0.28590366 -0.00000032
-0.27355647 0.45580837 -0.00000065
-0.68622452 0.31722856 -0.00000014
-0.51039535 -0.55752522 -0.00000015
0.21986210 0.00937109 0.07481020
-0.11084931 0.26227728 -0.00000066
-0.17110942 0.09377050 -0.00000056
0.18908989 -0.67994887 -0.00000008
0.75150120 -0.46337473 -0.00000084
-0.34952602 -0.63675022 -0.00000010
-0.56997323 0.28945979 -0.00000029
-0.51980644 0.38516527 -0.00000035
-0.31760731 -0.25271368 -0.00000034
0.13037293 0.21338567 0.05979904
-0.61784720 0.32015747 -0.00000023
0.01233917 0.46728009 0.04199139
0.75552732 -0.20308979 -0.00000146
-0.18906888 -0.04689293 -0.00000047
0.16568851 0.31373960 0.04201686
-0.68905228 0.40282997 -0.00000014
-0.75763440 0.75630724 -0.00000005
0.63301200 -0.41867626 -0.00000065
-0.34056428 -0.43750381 -0.00000023
0.13061368 0.16538116 0.06605947
0.44171175 -0.04448191 -0.00000077
-0.34793663 0.32000664 -0.00000054
-0.21582931 0.05798217 -0.00000054
-0.29981756 -0.38281941 -0.00000026
0.15213858 0.62978613 0.00236787
0.00432812 0.34101698 -0.00000071
-0.05158431 0.25867704 -0.00000066
0.27233171 -0.06192683 -0.00000046
-0.51241982 0.40942851 -0.00000036
-0.32023743 0.37555382 -0.00000058
0.67946601 -0.12209257 -0.00000138
-0.00717999 0.75988233 -0.00000097
-0.74730265 0.00130373 -0.00000006
0.02605296 -0.60891128 -0.00000012
0.59190500 -0.27337071 -0.00000080
0.62674648 -0.67767543 -0.00000012
0.09160731 0.22211500 0.06373582
-0.18776251 -0.61490154 -0.00000012
0.30559626 0.38544455 0.01428015
-0.64404047 -0.47015047 -0.00000008
-0.44946358 0.75180060 -0.00000044
0.41632482 0.10037944 0.03713090
-0.06627283 0.56377125 -0.00000085
-0.54627657 0.39527589 -0.00000032
0.11168861 0.50078535 0.02457832
0.14096723 0.51597083 0.01875032
-0.06037802 -0.61920202 -0.00000011
0.04457560 -0.68176073 -0.00000007
-0.00319483 -0.75559592 -0.00000003
-0.17996515 0.66449100 -0.00000078
-0.27461511 -0.13613778 -0.00000041
-0.32107058 0.63160795 -0.00000060
-0.61599177 0.36614230 -0.00000023
-0.34804428 -0.77337724 -0.00000002
0.01793997 0.03454637 -0.00000052
-0.26991710 -0.77827567 -0.00000001
0.46799028 0.29548487 0.00478572
-0.72178853 0.53132641 -0.00000010
0.34698769 0.20462389 0.03255556
-0.36202481 -0.25668758 -0.00000034
-0.38893196 0.30185828 -0.00000049
-0.52705401 0.58434635 -0.00000034
-0.67379528 0.10873337 -0.00000015
-0.13865978 -0.22188240 -0.00000036
-0.48707074 -0.23993023 -0.00000029
-0.36785874 -0.33067501 -0.00000029
-0.55471337 -0.08179305 -0.00000025
0.40000963 0.15885390 0.03160496
-0.79870582 -0.70952952 0.00000000
-0.61977434 -0.17748304 -0.00000016
-0.75772244 -0.47980195 0.00000000
-0.35310701 0.55547649 -0.00000056
-0.39747623 0.79786205 -0.00000050
-0.51705968 0.54967380 -0.00000035
-0.27287909 0.26660916 -0.00000061
0.54719239 -0.69984549 -0.00000006
0.10079731 -0.48427990 -0.00000020
0.40708873 -0.41409925 -0.00000024
0.68310833 0.10928100 0.00099558
-0.16729453 -0.69953239 -0.00000006
-0.72090918 0.25717545 -0.00000010
-0.58047456 0.34546220 -0.00000027
0.78121251 -0.39424321 -0.00000101
0.32233185 0.40363434 0.00970233
-0.79545099 0.40528774 -0.00000001
0.42922372 -0.37376496 -0.00000027
0.28437772 -0.65797746 -0.00000009
-0.02348751 0.27465796 -0.00000067
-0.64817458 0.62480783 -0.00000019
-0.71944296 -0.08650733 -0.00000007
0.76341265 -0.55899477 -0.00000060
0.29041177 -0.44875738 -0.00000022
-0.04023779 0.10264827 -0.00000056
-0.43343219 -0.64681852 -0.00000010
-0.05301504 -0.03762574 -0.00000048
0.35068205 0.12948503 0.04192004
0.18572375 -0.21335793 -0.00000037
-0.42876929 -0.58904326 -0.00000013
-0.01515883 0.30638516 -0.00000069
0.02541044 0.19274642 0.07626146
-0.57404751 -0.15747008 -0.00000021
-0.69284368 -0.77516997 0.00000000
-0.72267592 -0.44318271 -0.00000000
-0.26814213 -0.65304798 -0.00000009
-0.67587656 0.50249821 -0.00000016
0.50263238 -0.08051169 -0.00000089
-0.45655072 0.36888790 -0.00000043
-0.33721900 0.06107696 -0.00000050
0.62666011 -0.17665489 -0.00000110
-0.11990476 -0.39592785 -0.00000025
-0.14879674 0.45046654 -0.00000078
-0.62857014 0.43062469 -0.00000021
-0.39368546 -0.05124879 -0.00000042
-0.16258782 0.07089829 -0.00000054
-0.11400032 0.21787971 -0.00000064
0.34601703 0.36984691 0.01102644
-0.09465199 0.78656501 -0.00000088
-0.18194939 0.35953993 -0.00000072
-0.70650327 0.24070808 -0.00000012
-0.08943318 -0.16932251 -0.00000039
-0.32893538 0.28635594 -0.00000056
0.29239839 -0.72596598 -0.00000005
-0.08130310 0.49496526 -0.00000081
-0.22676814 0.16856857 -0.00000061
-0.24432275 0.71691823 -0.00000069
-0.58983094 -0.76811951 -0.00000002
-0.13366757 0.33247319 -0.00000071
0.53964043 -0.76228070 -0.00000002
-0.32039678 0.58145511 -0.00000060
-0.56096894 -0.55401421 -0.00000015
0.36214611 -0.36066779 -0.00000027
-0.25293806 0.35823497 -0.00000065
-0.37061390 0.34397188 -0.00000052
-0.12829547 0.35460383 -0.00000072
0.38064981 -0.60716444 -0.00000012
-0.50094849 -0.51015389 -0.00000018
-0.64280027 0.01845074 -0.00000017
0.10245794 0.42133299 0.03620203
-0.44383335 0.25153339 -0.00000043
-0.30393046 0.57547277 -0.00000062
0.48845518 -0.39192799 -0.00000026
-0.76802951 -0.10172069 -0.00000002
-0.51848716 0.70732301 -0.00000035
-0.74482596 0.22590995 -0.00000007
0.28719774 -0.09688563 -0.00000044
-0.37631738 -0.23341075 -0.00000035
0.74753118 -0.19707316 -0.00000145
-0.51570708 0.20893566 -0.00000034
0.28047681 -0.07255424 -0.00000045
-0.53711867 -0.04693907 -0.00000027
0.74455273 -0.04025452 -0.00000174
0.54417765 -0.33041087 -0.00000054
-0.53223407 0.15043072 -0.00000031
-0.13819568 0.19514492 -0.00000062
-0.09648608 -0.08194623 -0.00000045
0.32610670 0.41561791 0.00763682
-0.14846250 -0.09769676 -0.00000044
0.54634398 -0.59019506 -0.00000013
-0.22475600 0.12864000 -0.00000058
0.08141399 -0.28403088 -0.00000032
-0.19998170 0.07593260 -0.00000055
0.58368838 0.18998723 0.00344857
0.09036688 -0.06888993 -0.00000046
-0.35488617 -0.72078115 -0.00000005
-0.05808049 0.47271425 -0.00000080
0.13945161 -0.67698324 -0.00000008
0.31452361 -0.31401038 -0.00000030
0.69129175 -0.12958018 -0.00000140
0.06151148 -0.08561221 -0.00000045
-0.50034612 -0.52059197 -0.00000017
-0.55786508 -0.33284855 -0.00000020
0.38062605 0.36355656 0.00731457
0.37909874 0.01645129 0.05301105
-0.73923117 0.17405811 -0.00000008
-0.09582910 -0.63420933 -0.00000010
-0.43329874 -0.04194781 -0.00000038
0.03587149 0.37294745 0.05127130
-0.75072145 -0.68291843 0.00000000
-0.67788953 0.23960865 -0.00000015
-0.13506614 -0.74218833 -0.00000004
0.45209804 0.31676364 0.00407971
0.54600286 0.01245053 0.03165853
0.60042614 -0.77814460 -0.00000001
-0.08019254 -0.46795094 -0.00000021
0.27563241 0.01146562 -0.00000051
-0.67780286 0.40785614 -0.00000015
-0.03103774 -0.75120717 -0.00000003
-0.22620746 -0.29202762 -0.00000032
-0.36654535 0.40931520 -0.00000054
-0.43396258 0.01587941 -0.00000039
0.36724836 0.12002982 0.04098794
0.20560642 0.09626687 0.06528918
-0.75047123 0.38271409 -0.00000006
-0.68812531 -0.44534642 -0.00000004
0.09834996 -0.55474412 -0.00000015
0.77835798 -0.17031537 -0.00000157
-0.05392090 -0.44796979 -0.00000022
-0.20677124 0.73443574 -0.00000074
-0.65979815 0.68994570 -0.00000018
-0.29929298 -0.34215006 -0.00000029
0.36019418 -0.75633979 -0.00000003
0.05526692 -0.52875471 -0.00000017
-0.39898565 0.60199606 -0.00000050
0.65315342 -0.34529081 -0.00000086
-0.71226650 -0.67438543 0.00000000
-0.06238701 -0.79099131 -0.00000001
0.23233099 0.02568704 0.07103739
0.51726717 -0.24114977 -0.00000062
0.08995662 0.43048033 0.03664160
-0.10755603 -0.21190481 -0.00000037
-0.53352624 0.23103237 -0.00000033
0.04888216 0.75075597 0.00004624
-0.48547062 0.12478176 -0.00000036
0.25288308 -0.53245032 -0.00000017
-0.58707255 -0.72683424 -0.00000005
0.50108409 0.06624348 0.03049542
-0.50814039 0.46690035 -0.00000036
0.47372782 -0.50800651 -0.00000018
0.13029046 0.21586753 0.05948455
0.03016439 0.27366754 0.06503199
0.30797112 0.32511246 0.02187680
-0.01723072 0.46048939 -0.00000079
0.32120588 0.19792670 0.03681273
-0.18044756 -0.34844506 -0.00000028
0.41167554 0.07540273 0.04101408
0.10578849 -0.49324447 -0.00000019
0.54593688 -0.34337720 -0.00000052
0.21801054 0.01761496 -0.00000051
0.43439627 0.20982534 0.02041674
-0.48763391 -0.43083185 -0.00000023
-0.37860802 -0.34652686 -0.00000028
0.73983043 -0.24698311 -0.00000133
-0.27106875 -0.05944309 -0.00000046
-0.74308324 -0.52035743 0.00000000
0.67750233 -0.01256673 -0.00000158
-0.12869868 -0.31743065 -0.00000030
-0.16203494 0.03200113 -0.00000052
0.75642455 -0.50034964 -0.00000075
0.15623046 -0.72304040 -0.00000005
0.77559841 -0.16544595 -0.00000159
-0.58553350 0.22412255 -0.00000027
-0.14578138 -0.23691867 -0.00000035
-0.08807425 -0.46719030 -0.00000021
-0.60184491 -0.42162201 -0.00000013
0.34652054 0.19410084 0.03399609
0.25550294 0.03019435 0.06740951
-0.76168770 -0.27132776 0.00000000
-0.67884254 -0.70864534 0.00000000
0.32085589 0.09195969 0.05074807
0.13018063 0.48400748 0.02435369
-0.60594010 0.66511565 -0.00000024
-0.28772905 -0.09917669 -0.00000044
-0.69415414 0.58949083 -0.00000013
-0.14285326 -0.23121420 -0.00000036
-0.12165264 0.41088015 -0.00000076
-0.39289269 -0.22987236 -0.00000036
-0.45022091 -0.40442136 -0.00000025
-0.29793918 -0.79608160 -0.00000000
-0.39507520 0.38292369 -0.00000050
-0.57319075 0.11016877 -0.00000026
-0.16214055 0.77908230 -0.00000080
-0.61797071 -0.09204132 -0.00000018
0.59028322 -0.27255967 -0.00000080
0.00621354 0.71172059 0.01075531
0.79190099 -0.68341535 -0.00000029
0.13402443 0.24555565 0.05510391
0.73956823 -0.47548708 -0.00000081
-0.49620262 -0.28254864 -0.00000027
-0.57338172 -0.40555251 -0.00000017
-0.17024042 0.13017274 -0.00000058
0.00482623 -0.54900879 -0.00000016
0.72186428 -0.79673517 -0.00000001
0.47788760 0.24223031 0.01046870
0.26928535 0.01598830 0.06746508
-0.19167715 -0.51922792 -0.00000018
-0.39020488 -0.77128941 -0.00000002
0.52989793 0.19384137 0.00999396
0.28107509 -0.14987260 -0.00000041
-0.61984938 0.08924181 -0.00000021
0.79069293 -0.15482865 -0.00000161
-0.50666934 0.45320135 -0.00000037
0.60169804 -0.49001563 -0.00000041
-0.63392955 0.50790530 -0.00000021
-0.54734069 -0.48413998 -0.00000018
-0.38990933 0.59271020 -0.00000051
-0.62717927 -0.35150090 -0.00000012
0.14891446 -0.50434494 -0.00000018
-0.65297365 0.03250758 -0.00000016
-0.12920174 -0.29109326 -0.00000032
-0.23496011 -0.29712418 -0.00000031
0.31638360 0.26525497 0.02861986
-0.36655813 -0.32654965 -0.00000030
-0.34758404 -0.39619759 -0.00000025
0.09011778 -0.70670390 -0.00000006
-0.16899106 -0.29784271 -0.00000031
-0.22526871 0.44126463 -0.00000069
-0.60874254 -0.51838595 -0.00000011
-0.00821342 0.21068430 -0.00000063
0.72486085 -0.50056696 -0.00000075
-0.57439899 -0.08135119 -0.00000023
-0.18683386 0.45879927 -0.00000074
-0.74794173 0.01863872 -0.00000006
-0.25883123 0.54283607 -0.00000068
-0.14904775 0.74192935 -0.00000081
0.15146244 0.48387372 0.02158174
0.66301113 -0.18311416 -0.00000120
0.19906785 0.26600522 0.04389848
-0.49578589 -0.54180253 -0.00000016
0.32212994 -0.68166322 -0.00000007
-0.25074029 -0.66215378 -0.00000009
-0.54884768 -0.55616856 -0.00000015
-0.30982855 -0.38178226 -0.00000026
0.70660365 0.06512685 0.00370337
-0.56292319 -0.02510691 -0.00000025
-0.50646490 -0.40532288 -0.00000024
0.62995899 -0.63266408 -0.00000022
0.16388237 -0.16240522 -0.00000040
-0.47985342 -0.79458845 -0.00000000
0.72551262 -0.39936206 -0.00000098
-0.21982019 -0.10855890 -0.00000043
0.25920102 0.14302474 0.05213607
-0.44341999 -0.46466035 -0.00000021
-0.49691609 -0.63066280 -0.00000011
-0.76210487 0.76346952 -0.00000005
0.03622025 -0.19482388 -0.00000038
-0.41201991 -0.59552413 -0.00000013
-0.13713838 -0.12355957 -0.00000042
0.16368020 0.25266597 0.05028504
-0.40891117 0.27083588 -0.00000047
-0.28579000 -0.11060337 -0.00000043
0.03478075 0.67836756 0.01138267
0.64433116 -0.29130688 -0.00000093
-0.14165446 -0.07827761 -0.00000045
-0.58084899 0.04440429 -0.00000024
0.01398141 0.13441224 0.08540533
-0.22876023 0.17402305 -0.00000061
0.35389271 -0.73756003 -0.00000004
-0.58212382 0.26791555 -0.00000027
-0.43032417 0.36418146 -0.00000046
-0.02849283 0.23577330 -0.00000065
0.69750309 -0.53391075 -0.00000063
-0.38078824 -0.15125176 -0.00000041
0.72338396 -0.57329643 -0.00000057
0.51444554 0.07106405 0.02811223
-0.16471797 -0.00067364 -0.00000050
0.33601466 0.07159104 0.05143092
0.31267902 0.00582051 0.06311026
-0.69076341 -0.26339039 -0.00000007
-0.01735274 0.29471523 -0.00000068
-0.00073194 -0.09563130 -0.00000044
-0.69107980 0.28637010 -0.00000014
-0.69624197 0.40458313 -0.00000013
-0.48757812 0.02529691 -0.00000034
0.60404944 -0.78010201 -0.00000001
-0.52331477 -0.76080149 -0.00000002
0.15023141 -0.27161562 -0.00000033
0.31055361 -0.09471485 -0.00000044
0.35673687 0.12986960 0.04107600
-0.40875089 0.53757775 -0.00000049
-0.26559666 -0.22094248 -0.00000036
-0.68751240 0.33612993 -0.00000014
0.76866353 -0.31654650 -0.00000121
0.26523265 0.01935524 0.06755495
0.00665288 0.41857117 0.04912099
0.58414668 -0.11855012 -0.00000108
-0.37332752 -0.44625038 -0.00000022
-0.78214300 -0.54061675 0.00000000
-0.61732495 -0.14287198 -0.00000017
-0.39269423 0.62179178 -0.00000051
-0.03852832 -0.35941043 -0.00000028
0.30185115 -0.44056135 -0.00000022
0.52640861 -0.48467907 -0.00000020
0.34362388 -0.05247245 -0.00000047
-0.22765887 0.33099768 -0.00000067
0.23475434 0.47111225 0.01233697
0.23376366 -0.05152079 -0.00000047
0.30170080 0.22658189 0.03561342
-0.74560034 -0.16315188 -0.00000003
-0.55990964 0.74283868 -0.00000030
0.74021649 -0.20352092 -0.00000141
0.28099692 0.39385170 0.01640254
-0.54435235 0.49369955 -0.00000032
0.22469158 -0.79918826 -0.00000000
0.00823279 0.51642227 0.03608851
-0.22252341 -0.51536936 -0.00000018
-0.43181789 0.35508758 -0.00000046
-0.62339318 0.28831384 -0.00000022
-0.36031964 -0.13652170 -0.00000041
-0.38153607 0.10049831 -0.00000046
-0.70078146 0.26698512 -0.00000012
0.44834241 -0.78987259 -0.00000001
0.62001526 -0.46915248 -0.00000051
-0.21708238 0.21483259 -0.00000063
-0.43110293 -0.28925791 -0.00000032
-0.35753953 -0.46124992 -0.00000021
-0.78062207 0.51162940 -0.00000002
0.11894417 0.27979580 0.05259257
-0.48915297 -0.24637692 -0.00000029
-0.51781219 -0.46603501 -0.00000021
-0.74445349 -0.05223214 -0.00000005
-0.03483799 -0.02407624 -0.00000048
-0.22740127 -0.07213556 -0.00000045
0.61298031 -0.57900131 -0.00000027
0.22155072 -0.72510964 -0.00000005
-0.68206936 -0.60216218 -0.00000002
-0.45913827 0.73089749 -0.00000043
-0.78370827 0.75030750 -0.00000002
0.24825263 0.51748073 0.00449000
-0.26687017 0.65416771 -0.00000067
-0.59577048 -0.74291134 -0.00000004
0.62291920 -0.12068555 -0.00000120
0.05348501 -0.00782057 -0.00000050
-0.72444534 -0.65228367 0.00000000
-0.50307322 0.06001021 -0.00000033
0.34790319 -0.22388776 -0.00000036
-0.45125112 -0.68602121 -0.00000007
0.14513151 0.51459461 0.01838487
-0.50088036 0.66324121 -0.00000037
-0.38592806 -0.55391431 -0.00000015
0.32012492 -0.42527869 -0.00000023
0.38777220 0.12233106 0.03799615
0.04685840 -0.72631133 -0.00000005
-0.61926049 -0.27131367 -0.00000014
0.03749541 -0.30276889 -0.00000031
-0.71407163 -0.05438636 -0.00000008
0.13599163 0.63622957 0.00363976
-0.01657216 0.45183882 -0.00000078
-0.32613331 -0.41795859 -0.00000024
0.51090419 -0.20706712 -0.00000067
-0.37589481 -0.06098358 -0.00000044
0.71833313 -0.49117163 -0.00000077
0.31413847 -0.06786696 -0.00000046
0.42955306 0.35344887 0.00222633
-0.62641901 -0.71171951 -0.00000005
-0.48877871 -0.19898795 -0.00000030
-0.77442950 0.19761755 -0.00000003
-0.50630534 0.45272863 -0.00000037
-0.70781243 0.54269236 -0.00000012
-0.45361254 0.20077316 -0.00000041
-0.64123642 -0.55303669 -0.00000007
0.55215180 0.24525271 0.00033838
-0.67629647 -0.35385182 -0.00000007
0.18361032 0.29448467 0.04219164
-0.10791363 0.50404471 -0.00000082
-0.77671200 -0.36592445 0.00000000
-0.39047974 -0.41603747 -0.00000024
0.70270425 -0.48375550 -0.00000074
0.74239790 -0.26784793 -0.00000129
0.06302455 0.34377679 0.05153582
0.72867447 -0.77057493 -0.00000007
-0.25514317 0.01996078 -0.00000051
0.28429362 -0.28254440 -0.00000032
-0.64342338 -0.54443377 -0.00000007
0.04019349 0.35221130 0.05342272
0.01949661 0.29183799 -0.00000068
-0.28599453 -0.72023338 -0.00000005
-0.11126925 0.73822922 -0.00000086
-0.76065916 -0.10290975 -0.00000002
-0.44678637 -0.42637128 -0.00000023
0.73555505 -0.70446450 -0.00000024
-0.61007869 0.35779297 -0.00000024
-0.24336319 -0.46825564 -0.00000021
0.31777355 -0.73435950 -0.00000004
-0.11927217 -0.52821785 -0.00000017
-0.39418533 0.66255331 -0.00000051
0.70529526 -0.32548404 -0.00000106
0.75230736 -0.30311930 -0.00000124
-0.56572187 -0.62733036 -0.00000011
0.62985110 -0.18796268 -0.00000109
-0.50506216 -0.58769959 -0.00000013
0.20232055 -0.27234501 -0.00000033
-0.78121698 0.53903413 -0.00000002
-0.18709555 -0.69863153 -0.00000006
-0.31779394 0.71606976 -0.00000060
-0.62679261 0.08312999 -0.00000020
0.02128592 0.24050643 -0.00000065
0.06472301 -0.74183029 -0.00000004
-0.18322511 -0.44382384 -0.00000022
0.02660074 -0.40514010 -0.00000025
-0.73787594 0.62230963 -0.00000008
-0.32310557 0.63721788 -0.00000060
-0.71816427 -0.21534920 -0.00000005
0.15844291 0.54131079 0.01313830
0.26087391 0.23219341 0.04022927
0.48651567 -0.73534447 -0.00000004
0.11947975 -0.42238450 -0.00000024
-0.06660304 0.00324590 -0.00000050
0.48836258 -0.19103117 -0.00000063
0.58066928 -0.16112824 -0.00000098
0.18284726 -0.42137894 -0.00000024
0.19368500 -0.41538256 -0.00000024
-0.23542249 -0.02590920 -0.00000048
-0.26904127 -0.74211890 -0.00000004
-0.34406415 -0.50712198 -0.00000018
0.16472568 0.49287596 0.01866331
-0.53260422 0.64197397 -0.00000033
-0.40029246 0.65612030 -0.00000050
0.65503794 -0.47099346 -0.00000062
-0.03090869 -0.06190585 -0.00000046
0.29942510 -0.44461298 -0.00000022
-0.69975924 0.01119696 -0.00000011
0.38984877 0.02604901 0.05034399
-0.60697311 -0.57946712 -0.00000010
0.09295355 0.37012869 0.04415913
-0.27299741 -0.09907882 -0.00000044
0.62461656 -0.09834443 -0.00000125
-0.21599211 0.57838023 -0.00000073
-0.13511238 0.67912984 -0.00000083
-0.20251162 0.08742403 -0.00000055
-0.34119251 -0.71459150 -0.00000005
-0.39727512 0.17733797 -0.00000046
0.70444453 -0.19860849 -0.00000131
0.55655205 -0.33825701 -0.00000056
0.12980051 0.56224680 0.01414844
-0.64512289 -0.03690573 -0.00000016
-0.55296379 -0.21519168 -0.00000022
-0.05436751 -0.67626435 -0.00000008
0.23905802 -0.78279257 -0.00000001
-0.29433903 0.37539411 -0.00000061
-0.43714398 -0.09296382 -0.00000037
-0.41797414 0.75732189 -0.00000048
-0.11746480 0.52190328 -0.00000082
-0.75142622 -0.16281860 -0.00000002
0.62755913 -0.26710549 -0.00000093
0.40290359 0.37965783 0.00228410
-0.56595331 0.40897682 -0.00000029
-0.04738498 0.65080225 -0.00000091
-0.68039417 0.31987354 -0.00000015
0.03766910 0.54419351 0.02859036
-0.51212370 0.61230624 -0.00000036
-0.19137321 -0.18220313 -0.00000039
-0.54169607 0.78930056 -0.00000032
-0.40564549 0.17964622 -0.00000045
0.72152638 -0.76089442 -0.00000010
-0.72377706 -0.58082098 0.00000000
-0.21891294 0.25424141 -0.00000066
0.37112603 -0.49350226 -0.00000019
-0.60883486 -0.36737418 -0.00000014
0.00792970 0.29747668 0.06482556
0.01084679 0.48396477 0.04000012
-0.00169320 -0.73277897 -0.00000004
-0.33823535 -0.67603058 -0.00000008
-0.09248756 -0.40039617 -0.00000025
0.58799702 0.01142441 -0.00000134
-0.64262354 -0.30449817 -0.00000011
0.56179512 -0.37599921 -0.00000050
-0.50654238 -0.30821022 -0.00000026
-0.11536410 0.30304611 -0.00000069
0.42382482 -0.46828026 -0.00000021
0.08493920 0.53066170 0.02416840
0.40547970 -0.16487846 -0.00000042
0.03390339 -0.62275422 -0.00000011
-0.29982880 -0.33147380 -0.00000029
0.30496487 0.32670534 0.02206205
-0.63837963 0.14397030 -0.00000020
-0.10380703 0.15836313 -0.00000060
-0.36341724 0.10851855 -0.00000049
-0.08142207 0.00142546 -0.00000050
0.01186830 -0.45569250 -0.00000022
-0.63467211 -0.24772277 -0.00000013
-0.30853349 0.38326591 -0.00000059
-0.78813958 -0.51027328 0.00000000
-0.31591836 -0.78841615 -0.00000001
0.66182488 -0.38613582 -0.00000080
0.68354732 -0.11555637 -0.00000140
-0.77517968 -0.50096762 0.00000000
0.06406781 -0.19940162 -0.00000038
-0.04968451 -0.63607121 -0.00000010
-0.16094044 0.58703059 -0.00000079
0.24850377 0.08772353 0.06078649
0.40213358 0.17633487 0.02903527
-0.61726922 -0.73328316 -0.00000004
-0.40777779 -0.63052601 -0.00000011
-0.48573220 0.18847829 -0.00000037
-0.09068240 -0.30165499 -0.00000031
-0.17645036 0.32209554 -0.00000070
0.46572915 -0.01430204 -0.00000090
-0.00889930 -0.52552980 -0.00000017
-0.70731640 -0.06040217 -0.00000009
0.38208401 -0.65336066 -0.00000009
0.44809017 -0.59207118 -0.00000013
0.14004210 0.56418926 0.01255142
0.44849050 -0.35603037 -0.00000028
-0.43431026 -0.24611221 -0.00000035
-0.79801047 0.73696524 -0.00000000
-0.24673527 -0.45154604 -0.00000022
-0.72968465 0.31256226 -0.00000009
-0.51595050 -0.06410827 -0.00000029
0.79561156 -0.21772432 -0.00000146
-0.78153831 -0.49921718 0.00000000
0.25605103 0.19470720 0.04577487
-0.33326203 0.01087031 -0.00000050
-0.34832993 -0.72937936 -0.00000004
0.52636284 0.18845938 0.01116276
-0.06274871 0.22135773 -0.00000064
0.56481844 -0.45224768 -0.00000036
0.55604374 -0.72247434 -0.00000005
0.38909817 0.05593235 0.04652546
-0.17840777 0.61788595 -0.00000078
0.31535858 0.28195354 0.02656548
-0.28620088 -0.34307516 -0.00000029
0.39530042 -0.69384730 -0.00000007
0.46156621 -0.58882171 -0.00000013
0.04324829 0.25183064 0.06617928
-0.78166848 0.26328233 -0.00000002
-0.00342877 -0.18980365 -0.00000038
0.03411959 -0.39486831 -0.00000025
-0.31544814 -0.62179655 -0.00000011
0.55534822 -0.23167136 -0.00000076
-0.38350245 -0.51761621 -0.00000018
0.19295453 0.01615040 -0.00000051
0.03204605 0.11242445 -0.00000057
-0.46104848 -0.51813638 -0.00000018
-0.67888600 0.21241541 -0.00000015
-0.09026342 0.06084361 -0.00000054
0.08026519 -0.43518910 -0.00000023
-0.10845597 -0.61055911 -0.00000012
-0.08455132 0.05159774 -0.00000053
-0.75470448 0.03930301 -0.00000006
0.50377619 0.12568606 0.02235121
0.74400920 -0.13438083 -0.00000156
0.62311190 0.12022959 0.00742452
-0.66109693 0.43485808 -0.00000017
0.37524930 -0.71492642 -0.00000005
0.30987266 -0.62221485 -0.00000011
0.13439883 0.37190667 0.03849394
0.39428663 -0.08462565 -0.00000054
0.52544528 -0.59387928 -0.00000013
0.02862375 0.15645242 -0.00000060
0.08060578 -0.35699764 -0.00000028
-0.02029890 -0.74378490 -0.00000004
-0.25776729 -0.61013871 -0.00000012
0.09621173 0.28218639 0.05525873
-0.18180166 0.53664565 -0.00000076
0.02627181 0.71313941 0.00794034
-0.24608333 -0.71743727 -0.00000005
-0.15442167 0.60616416 -0.00000080
-0.44416395 -0.52190840 -0.00000017
-0.18371560 0.57651734 -0.00000076
0.49407390 0.03740440 0.03519432
0.10131715 0.28110585 0.05473120
-0.05484132 -0.10831795 -0.00000043
-0.77272314 -0.12296830 -0.00000001
-0.44935760 -0.12975366 -0.00000035
-0.73959434 -0.13062239 -0.00000004
0.30933094 -0.10970000 -0.00000043
-0.72264248 -0.01850996 -0.00000008
0.08972150 0.42863023 0.03691492
-0.73815405 0.10260969 -0.00000008
-0.10515370 0.36239925 -0.00000073
0.37712425 -0.11215622 -0.00000043
-0.66258109 0.55856824 -0.00000017
-0.73578507 -0.73306167 0.00000000
0.47656682 -0.02538680 -0.00000092
-0.46071169 -0.73058689 -0.00000004
-0.68565977 -0.63162547 -0.00000001
-0.57519454 0.78731751 -0.00000028
0.30600664 -0.07189958 -0.00000046
-0.79905158 -0.10578898 0.00000000
0.40895301 0.02456325 0.04803465
-0.69765949 0.47274593 -0.00000013
-0.29795560 -0.31920752 -0.00000030
-0.67824799 0.48369968 -0.00000015
-0.07753833 -0.35971043 -0.00000028
-0.26165062 0.35836500 -0.00000064
0.07421184 0.20275421 0.06855343
-0.09773841 -0.66297930 -0.00000009
-0.61717218 -0.62340158 -0.00000008
0.78658229 -0.35995242 -0.00000110
-0.68644619 0.06895616 -0.00000013
-0.43063426 0.46674007 -0.00000046
0.46462268 0.30435845 0.00406404
0.34128666 0.10106335 0.04687686
-0.53774214 0.38335937 -0.00000033
-0.60620224 -0.40868759 -0.00000013
-0.44944102 0.71984923 -0.00000044
-0.67941362 -0.04085468 -0.00000012
-0.60443550 0.73513359 -0.00000024
-0.48806500 -0.66258544 -0.00000009
-0.44855064 0.45535058 -0.00000044
-0.14060183 -0.42851654 -0.00000023
0.23803855 0.10384722 0.06004481
0.70434135 0.03447710 0.00801727
0.68854296 -0.76370752 -0.00000009
-0.01057417 0.18275189 -0.00000061
0.10518609 -0.57186037 -0.00000014
0.22428925 -0.46114591 -0.00000021
-0.76757008 0.13232659 -0.00000004
-0.35799426 0.01426277 -0.00000047
-0.40182835 0.19503948 -0.00000046
-0.44614354 0.27035829 -0.00000043
-0.44242734 0.77757531 -0.00000045
-0.08745783 0.31595573 -0.00000070
-0.19427149 -0.17494349 -0.00000039
0.01817007 0.54907292 0.03050651
-0.31488973 0.63489336 -0.00000061
0.32870150 -0.40049896 -0.00000025
-0.74915230 0.64735591 -0.00000006
0.58957517 -0.15653256 -0.00000102
0.15140846 -0.04293109 -0.00000047
-0.67426056 -0.50172722 -0.00000004
0.03532389 -0.28335911 -0.00000032
-0.64156264 -0.25424668 -0.00000012
0.76920503 -0.78980613 -0.00000003
0.76003528 -0.29900190 -0.00000125
0.32407969 0.02066375 0.05967048
-0.18366680 0.61462802 -0.00000077
-0.64658964 0.67399037 -0.00000019
0.06845241 0.61769927 0.01492122
0.63462913 0.13189147 0.00438634
-0.01557814 0.73015767 -0.00000096
-0.30354840 0.11318138 -0.00000055
0.28708866 -0.04453064 -0.00000047
0.27429947 -0.60554993 -0.00000012
0.54885018 0.00076137 -0.00000120
-0.38688245 0.09036589 -0.00000046
-0.24500337 0.03403345 -0.00000052
0.05152138 -0.15554520 -0.00000040
-0.68042439 -0.44263572 -0.00000005
-0.59017879 -0.59235829 -0.00000012
0.41141161 -0.60569221 -0.00000012
-0.54088253 0.19491827 -0.00000031
0.58244359 -0.75207722 -0.00000003
-0.17882545 0.05711432 -0.00000054
0.11814444 -0.19729318 -0.00000038
0.63289785 -0.79484463 -0.00000000
-0.15191384 0.09789618 -0.00000056
-0.60385019 -0.62699014 -0.00000009
0.53559417 -0.62564820 -0.00000011
-0.07096068 -0.30165759 -0.00000031
-0.27602676 -0.47905004 -0.00000020
-0.28393647 -0.71066642 -0.00000006
-0.29639521 -0.43294665 -0.00000023
0.33743358 -0.55054992 -0.00000016
0.59075046 -0.73773873 -0.00000004
0.54864544 -0.11632470 -0.00000097
-0.69244671 0.60383874 -0.00000013
0.23138212 0.01573489 0.07246618
0.58378601 0.07916258 0.01796194
-0.36068106 0.50199765 -0.00000055
0.34427214 -0.26240367 -0.00000034
-0.01109090 0.59075487 -0.00000087
-0.61395717 -0.17230974 -0.00000017
0.14033286 0.03429105 0.08196765
0.17000102 -0.00430362 -0.00000050
-0.20824859 0.08538658 -0.00000055
-0.32542849 0.74753702 -0.00000059
-0.69261056 0.29004985 -0.00000013
0.46007073 -0.09160268 -0.00000073
-0.72276634 -0.68342692 0.00000000
0.77651280 -0.47702965 -0.00000081
0.04053587 0.75941902 0.00000473
-0.78609228 0.38664439 -0.00000002
-0.60299855 -0.04054464 -0.00000020
-0.58720469 0.72045231 -0.00000027
0.63518530 -0.33265442 -0.00000082
-0.36650524 0.23133072 -0.00000050
0.56622803 -0.62529284 -0.00000011
0.12717956 -0.46151677 -0.00000021
-0.57206851 0.26216480 -0.00000028
-0.73521030 -0.69768381 0.00000000
0.53904784 -0.13836867 -0.00000089
-0.13662033 0.40735975 -0.00000075
0.02055072 -0.33899358 -0.00000029
-0.76207650 0.50309628 -0.00000005
0.19885421 0.15294310 0.05874559
-0.03362592 0.39066598 -0.00000074
-0.56769371 0.64346784 -0.00000029
0.33346546 0.00573130 -0.00000052
0.22178327 0.07348258 0.06615526
0.58596265 -0.50587386 -0.00000033
-0.39239132 0.25313792 -0.00000048
-0.49212977 0.20975928 -0.00000037
-0.12359012 0.57843131 -0.00000083
-0.35861313 0.46553886 -0.00000055
-0.16789158 -0.46598753 -0.00000021
-0.66928577 -0.06626621 -0.00000013
0.61579388 -0.46026316 -0.00000051
-0.08239831 -0.12694962 -0.00000042
-0.29032677 0.67562979 -0.00000064
-0.06028701 0.76786488 -0.00000092
0.54120713 -0.08113222 -0.00000101
0.43673572 -0.51957762 -0.00000018
0.69791132 -0.46258092 -0.00000077
0.01872649 0.09486716 0.08996660
0.65416765 -0.22760458 -0.00000109
0.54266042 -0.46582443 -0.00000027
-0.23135462 0.70425159 -0.00000071
-0.67235142 -0.47297892 -0.00000005
0.63203496 -0.41518286 -0.00000065
-0.41985297 -0.19385505 -0.00000037
-0.27583629 -0.26640329 -0.00000033
-0.16744024 0.57621431 -0.00000078
-0.62910205 -0.33428061 -0.00000012
0.26297626 0.50778723 0.00383068
-0.47398826 -0.00071257 -0.00000035
0.35692281 0.07967855 0.04763034
-0.75907177 0.39724842 -0.00000005
0.53088683 0.26741523 0.00022076
0.32773927 -0.35705760 -0.00000028
-0.10694581 -0.34104264 -0.00000029
-0.53582019 0.09956477 -0.00000030
0.47789431 -0.58578384 -0.00000013
-0.76839381 -0.63944733 0.00000000
0.51055205 -0.76027066 -0.00000002
-0.39185834 0.36238596 -0.00000050
0.54313779 -0.01043253 -0.00000116
0.37942165 -0.48962435 -0.00000019
-0.15972765 0.04002784 -0.00000053
0.56855208 0.03703830 0.02548010
-0.37712103 -0.18432911 -0.00000038
-0.04186997 0.02523295 -0.00000052
0.69827873 -0.02633557 -0.00000162
0.32983908 0.19916020 0.03551945
0.72779453 -0.44032726 -0.00000090
0.61255544 -0.68857348 -0.00000007
-0.22366308 -0.19228846 -0.00000038
-0.54197246 0.60241109 -0.00000032
-0.44635633 0.28835228 -0.00000043
-0.58499426 -0.01504958 -0.00000023
-0.25120783 -0.29514256 -0.00000032
0.39360893 -0.46226427 -0.00000021
0.27087727 0.44172588 0.01145394
-0.61872089 -0.04405792 -0.00000019
-0.31953815 -0.07662844 -0.00000045
0.66614431 0.09769163 0.00473819
-0.32324752 0.40456399 -0.00000058
-0.45701188 0.63065976 -0.00000043
-0.78812397 -0.40953133 0.00000000
-0.23969404 -0.11118153 -0.00000043
-0.74365991 -0.09355988 -0.00000004
0.60628903 0.00782806 0.02436242
-0.69851446 0.27154428 -0.00000013
0.32369637 -0.64456707 -0.00000010
-0.43111271 -0.43371791 -0.00000023
-0.07124069 0.37833706 -0.00000074
0.06205517 -0.56083882 -0.00000015
0.61844295 -0.23783974 -0.00000095
-0.46326149 0.26207510 -0.00000041
0.23097506 -0.02180025 -0.00000049
-0.33629328 -0.70445395 -0.00000006
-0.11181517 0.38813049 -0.00000074
0.11360710 0.27505672 0.05391325
0.09584083 -0.63117522 -0.00000011
-0.46874565 0.61732894 -0.00000041
-0.49505964 0.11425173 -0.00000035
-0.55709934 -0.02126441 -0.00000026
-0.14624467 0.61376834 -0.00000081
0.08924609 0.28859991 0.05533108
-0.61234796 -0.38481450 -0.00000013
-0.06056891 0.43662521 -0.00000077
-0.69453758 -0.06643621 -0.00000010
0.03842098 0.06045528 0.09189567
-0.35205764 -0.76166201 -0.00000002
-0.20470902 -0.14800505 -0.00000041
-0.54490304 0.54529643 -0.00000032
-0.15648130 -0.02472112 -0.00000048
-0.32500508 0.05659719 -0.00000052
0.60542208 -0.27669069 -0.00000084
-0.72186804 0.09608395 -0.00000010
-0.72367555 0.45289662 -0.00000010
-0.32346568 -0.67093432 -0.00000008
-0.79408699 0.43353346 -0.00000001
0.39538437 0.12871894 0.03616111
-0.12509367 0.14469716 -0.00000059
0.07941972 -0.76609743 -0.00000002
0.59962511 -0.64294642 -0.00000010
0.18143503 -0.53475225 -0.00000017
0.24980552 -0.30380329 -0.00000031
-0.79345882 0.10050479 -0.00000001
0.35812116 -0.29761180 -0.00000031
-0.65653211 0.49777818 -0.00000018
-0.70775783 -0.49317247 -0.00000001
0.57869309 -0.65653801 -0.00000009
-0.23338068 -0.67401296 -0.00000008
-0.49044910 0.66702694 -0.00000039
0.36790699 0.36176229 0.00921690
-0.04608426 0.56254798 -0.00000085
-0.19932485 0.49881765 -0.00000073
-0.27632955 0.09951747 -0.00000056
0.39940298 -0.43131423 -0.00000023
0.24827307 0.01950164 0.06975861
-0.36495915 -0.17235278 -0.00000039
-0.27012596 0.24755394 -0.00000061
-0.13699369 0.69293648 -0.00000083
-0.39616656 0.40371919 -0.00000050
-0.30659708 -0.03323266 -0.00000048
-0.28204843 0.05197726 -0.00000053
0.10839224 -0.58756858 -0.00000013
-0.18396676 0.56027615 -0.00000076
-0.70812637 -0.25781471 -0.00000005
-0.16844556 0.45598173 -0.00000076
-0.02932076 -0.11293031 -0.00000043
-0.79775852 0.49358651 -0.00000000
-0.63434279 0.03270069 -0.00000018
0.25690460 -0.50878149 -0.00000018
0.61131656 -0.52047366 -0.00000038
-0.67850876 -0.10106885 -0.00000011
-0.77338403 -0.71575528 0.00000000
-0.50362021 0.03408668 -0.00000032
0.37528741 -0.45993236 -0.00000021
-0.40829614 -0.29660535 -0.00000031
-0.00447260 -0.57440448 -0.00000014
-0.12385207 0.16087171 -0.00000060
-0.09146419 0.56454927 -0.00000085
-0.29101816 -0.57661289 -0.00000014
0.08104969 -0.60373282 -0.00000012
-0.08453980 -0.24166735 -0.00000035
0.67037481 0.12794605 0.00021812
0.13684660 -0.52429324 -0.00000017
-0.09059125 0.72008407 -0.00000089
0.17772844 -0.33745590 -0.00000029
-0.17892414 -0.66167784 -0.00000009
-0.75388449 -0.58090055 0.00000000
-0.58867103 0.26426500 -0.00000026
-0.07788699 -0.14538723 -0.00000041
0.32722768 0.25968426 0.02792865
0.13947292 -0.11515852 -0.00000043
-0.04533173 -0.56930023 -0.00000014
0.32601592 0.38630581 0.01149076
0.05347914 -0.48902440 -0.00000019
0.52296203 -0.69642591 -0.00000006
-0.76882476 -0.71868986 0.00000000
0.25605023 -0.00917473 -0.00000049
-0.41276118 0.33283806 -0.00000047
-0.01561196 0.63057017 -0.00000089
0.74385232 -0.56594902 -0.00000059
0.39873874 -0.11542376 -0.00000049
-0.72665942 -0.72602713 0.00000000
-0.42987487 -0.27303594 -0.00000033
0.10013028 -0.09937762 -0.00000044
0.42088258 0.07190869 0.04026525
-0.20271280 -0.34895787 -0.00000028
0.65225685 -0.23135471 -0.00000108
-0.03799536 0.15646432 -0.00000060
-0.39152747 -0.70109975 -0.00000006
-0.75031626 0.31033587 -0.00000006
-0.71662223 -0.10907890 -0.00000007
0.05144053 0.63571197 0.01479000
0.23945767 -0.18348975 -0.00000039
-0.06038148 0.56161320 -0.00000085
0.39848647 -0.69443697 -0.00000007
-0.69051176 -0.58151454 -0.00000001
-0.20874713 -0.09032778 -0.00000044
-0.25202689 0.74435949 -0.00000068
-0.21325956 0.36065137 -0.00000069
0.23801389 0.02969418 0.06976732
-0.59469604 0.22250745 -0.00000026
-0.52113271 -0.04547859 -0.00000029
0.23709874 0.00824208 0.07269901
-0.48911721 0.79890239 -0.00000039
0.60367227 -0.00546166 -0.00000136
-0.16505122 -0.76782912 -0.00000002
0.01259476 0.07418381 0.09348125
0.10538659 -0.66019428 -0.00000009
-0.33721268 -0.70734048 -0.00000006
0.74204683 -0.63013864 -0.00000042
-0.63277286 -0.31321311 -0.00000012
-0.67154431 -0.11466869 -0.00000012
-0.05146365 -0.37267223 -0.00000027
-0.06233236 -0.43494147 -0.00000023
0.16618869 -0.39418587 -0.00000025
0.61136627 -0.21056518 -0.00000099
0.29802120 -0.40141389 -0.00000025
0.01333412 0.32601860 0.06037621
0.15043284 0.10693942 0.07112181
0.19938493 0.31928763 0.03687316
-0.56334680 0.23370957 -0.00000030
0.14512035 -0.46644628 -0.00000021
0.77072036 -0.13121124 -0.00000165
0.24431390 0.05729207 0.06532432
0.51039493 0.23725057 0.00686051
0.64939529 -0.44396067 -0.00000065
0.41244751 0.16825452 0.02874250
0.32953054 -0.29370120 -0.00000032
0.15117687 0.33894989 0.04061454
0.56187618 -0.28554663 -0.00000068
0.15613858 0.14005119 0.06603399
0.36473048 0.01398898 -0.00000063
-0.30803916 0.07307039 -0.00000054
-0.45567477 0.77752095 -0.00000043
-0.07768974 0.16866168 -0.00000061
-0.65780449 -0.01817962 -0.00000015
0.27386385 0.21961702 0.04017505
0.05070979 -0.01766026 -0.00000049
-0.51502460 -0.41999331 -0.00000023
-0.24597336 -0.77206099 -0.00000002
-0.76933926 0.75508767 -0.00000004
-0.00680577 -0.39532280 -0.00000025
0.18407510 0.61098421 0.00064624
0.45647532 -0.41432253 -0.00000024
-0.16505431 -0.39401525 -0.00000025
-0.29606146 -0.13718519 -0.00000041
-0.59584475 0.26834518 -0.00000026
-0.09406868 0.77424324 -0.00000088
0.77494645 -0.02938785 -0.00000186
-0.49101809 0.43051159 -0.00000039
0.68365389 0.05962723 0.00743235
-0.46283418 -0.18273777 -0.00000033
0.45078918 -0.72834110 -0.00000004
0.39323503 -0.79211491 -0.00000000
0.11302949 0.39854953 0.03780268
0.21604127 -0.58653456 -0.00000013
0.15372948 0.57114917 0.00984509
0.64121801 0.03611678 0.01607622
-0.04389806 0.08451473 -0.00000055
-0.25058749 0.57816643 -0.00000069
0.35695335 0.43687937 0.00080679
0.02708956 0.53338546 0.03139362
-0.67223114 0.00861402 -0.00000014
-0.74178803 -0.25605577 -0.00000002
-0.19200630 0.09337396 -0.00000056
-0.40832198 0.06661402 -0.00000043
0.07728028 -0.64891285 -0.00000009
0.37207824 0.15150896 0.03622878
-0.78056788 0.38558805 -0.00000002
-0.72724366 0.74052352 -0.00000009
-0.19372211 0.63382256 -0.00000076
-0.04157076 0.52109468 -0.00000083
0.08952226 0.19890860 0.06705077
-0.05054207 0.58062422 -0.00000086
-0.72309798 -0.42184773 -0.00000000
-0.12434875 0.11716720 -0.00000057
0.13898700 -0.09369807 -0.00000044
-0.26910213 0.07817288 -0.00000055
0.06923083 0.69910944 0.00414853
0.11333177 0.18551008 0.06568626
0.36324081 -0.32589182 -0.00000030
0.61105108 -0.32362220 -0.00000076
-0.40135410 0.03553910 -0.00000043
0.10942493 0.33123422 0.04709818
-0.58521104 0.56300253 -0.00000027
-0.77689934 0.64705580 -0.00000003
0.37884295 -0.60023540 -0.00000012
-0.17567945 0.53263646 -0.00000076
-0.54284811 0.12706956 -0.00000030
-0.70302039 -0.03453176 -0.00000010
0.66290116 0.06148554 0.00990894
-0.54611975 -0.64486122 -0.00000010
0.35822311 0.03181210 0.05373392
-0.43657619 0.10946604 -0.00000041
0.52314633 -0.15118752 -0.00000082
0.11934265 0.57599920 0.01371663
-0.39294794 -0.46392691 -0.00000021
-0.13859177 -0.70854044 -0.00000006
-0.75713909 0.18218479 -0.00000005
-0.10807736 -0.17978315 -0.00000039
-0.58198678 0.55378938 -0.00000027
-0.03293290 -0.20558809 -0.00000037
0.00522833 -0.44422382 -0.00000022
-0.59900552 0.17451088 -0.00000025
-0.26082548 -0.31370112 -0.00000030
-0.77860904 -0.38720316 0.00000000
0.12160491 -0.58797413 -0.00000013
-0.50039876 0.09730269 -0.00000034
-0.38020059 0.40093282 -0.00000052
-0.41796958 -0.45144582 -0.00000022
-0.00790807 0.06441848 -0.00000054
-0.03017975 0.40380856 -0.00000075
0.43111295 -0.67430180 -0.00000008
0.55594027 -0.51577896 -0.00000021
0.24008223 -0.42866620 -0.00000023
-0.72661543 0.16733065 -0.00000009
0.27531451 -0.69170243 -0.00000007
-0.62669307 0.52002609 -0.00000022
0.58189726 -0.16695356 -0.00000098
0.36991748 0.28413397 0.01912839
-0.30074582 0.43474060 -0.00000061
0.11751733 -0.26639676 -0.00000033
0.07488347 -0.61787719 -0.00000011
-0.73024291 -0.54621530 0.00000000
-0.41312289 0.45728862 -0.00000048
-0.39993426 -0.43618912 -0.00000023
-0.27604654 -0.73815376 -0.00000004
-0.30678293 0.32609963 -0.00000059
0.00837600 0.34735397 0.05822962
0.73634905 -0.03799182 -0.00000172
0.37331572 0.39246511 0.00448363
0.67720884 -0.17201445 -0.00000127
-0.55691183 -0.04841836 -0.00000025
-0.08331314 0.58476323 -0.00000087
-0.27630207 0.43550697 -0.00000064
0.17224611 0.19942093 0.05614118
-0.00359636 -0.20345847 -0.00000037
-0.69237804 0.27993506 -0.00000013
0.78053212 -0.77025771 -0.00000007
0.20467021 0.30179393 0.03847334
0.16791840 -0.67486209 -0.00000008
0.10575432 0.01754717 -0.00000051
-0.35670412 0.27473494 -0.00000052
0.26360664 -0.54591727 -0.00000016
0.06671598 0.57881194 0.02024579
-0.43623245 0.06040061 -0.00000040
-0.27882081 -0.23136546 -0.00000036
0.66007388 -0.77120912 -0.00000005
0.57062304 -0.56859308 -0.00000016
-0.10945398 -0.55991328 -0.00000015
-0.23386544 -0.74924016 -0.00000003
0.16105133 0.16632836 0.06194592
-0.39498112 -0.44356030 -0.00000022
0.22042090 -0.61082959 -0.00000012
-0.29541877 -0.65202725 -0.00000009
0.22809212 0.22533888 0.04542448
-0.02951863 0.40316841 -0.00000075
0.65545654 -0.07354145 -0.00000139
-0.48134395 0.47990194 -0.00000040
-0.28806609 -0.49281877 -0.00000019
0.61951190 -0.04459818 -0.00000134
-0.76906031 0.49844933 -0.00000004
0.03864131 -0.03390919 -0.00000048
0.19736575 0.30308482 0.03926152
-0.27300185 -0.16079992 -0.00000040
0.37387574 -0.31474304 -0.00000030
-0.21924274 0.29839808 -0.00000067
-0.29916629 0.56572688 -0.00000063
-0.07099856 -0.09842827 -0.00000044
-0.13560557 -0.57030112 -0.00000014
0.04875388 -0.60617095 -0.00000012
-0.33051950 0.34726831 -0.00000056
-0.30600840 -0.01713760 -0.00000049
-0.51459706 0.50655121 -0.00000036
-0.46369851 0.72162318 -0.00000042
-0.19233409 0.51821154 -0.00000074
-0.00332559 -0.07578061 -0.00000045
0.39341503 -0.35171545 -0.00000028
-0.69464034 0.11191624 -0.00000013
0.69659513 -0.55251431 -0.00000059
-0.34152332 -0.10855926 -0.00000043
-0.09867944 -0.15606669 -0.00000040
0.10221412 0.43886983 0.03393542
-0.11659593 0.68988663 -0.00000085
0.51521295 -0.19030888 -0.00000072
-0.37022248 0.79656976 -0.00000054
-0.58528006 -0.46321595 -0.00000014
0.64887959 -0.56896812 -0.00000041
0.79996771 -0.12642603 -0.00000168
0.76644182 -0.77748400 -0.00000006
0.59498125 0.12521638 0.01045810
0.08123792 0.03880039 -0.00000052
-0.46348292 -0.66665339 -0.00000008
-0.12139602 0.61474127 -0.00000084
-0.11374841 0.77639270 -0.00000086
-0.13633624 -0.61713254 -0.00000011
0.32750726 -0.48524788 -0.00000020
