ply
format ascii 1.0
element vertex 1373
property float x
property float y
property float z
end_header
-0.55604845 0.10637549 0.00000091
-0.52540284 -0.02471061 0.43312225
-0.56571949 -0.67133731 0.00000000
-0.27953160 -0.02556092 0.23043425
-0.23023409 0.44642073 0.18979630
-0.48370752 0.07404412 0.39875031
-0.47648877 -0.30478615 0.39279836
-0.19288222 -0.34162000 0.15900400
-0.05842107 -0.12377085 0.04815988
-0.45942619 -0.08126195 0.37873316
-0.57373869 -0.30222565 -0.00000050
-0.14727394 -0.72321540 0.12140646
-0.34061259 0.11205815 0.28078774
-0.37362686 0.02716517 0.30800337
-0.64781111 -0.00018105 -0.00000135
-0.53183585 -0.68051797 0.43842363
-0.20547903 -0.76231718 0.16938828
-0.07655382 0.32557166 0.06310776
-0.49746862 -0.26919192 0.41009355
-0.06435941 0.68818986 0.05305543
-0.74207991 -0.13111258 -0.00000152
-0.12276837 0.30260369 0.10120509
-0.00973413 0.45898852 0.00802441
-0.71545500 -0.56261390 -0.00000059
-0.46825811 -0.59078556 0.38601252
-0.09147954 0.02865779 0.07541189
-0.27725494 -0.27798021 0.22855733
-0.69063103 -0.22302175 -0.00000114
-0.29323488 -0.57979840 0.24173053
-0.60955238 -0.12768766 0.50249207
-0.22634135 -0.78107065 0.18658631
-0.69760340 -0.00008603 -0.00000156
-0.01018865 -0.25637349 0.00839909
-0.07340706 0.47980428 0.06051370
-0.19396862 -0.30913076 0.15989959
-0.21325050 0.20114046 0.17579494
-0.30193123 -0.64633566 0.24889944
-0.00219165 0.43148333 0.00180671
-0.41317964 0.01872127 0.34060931
-0.13592212 -0.20236126 0.11204849
-0.02669239 -0.46220210 0.02200409
-0.65103495 0.06719373 -0.00000026
-0.03662090 -0.26708850 0.03018873
-0.05425373 -0.77334321 0.04472450
-0.34830582 0.34535798 0.28713039
-0.31826624 -0.40392232 0.26236531
-0.57629454 -0.00751876 0.47507569
-0.16856182 -0.77995503 0.13895530
-0.20407327 -0.66451263 0.16822943
-0.63149685 -0.69095612 -0.00000006
-0.79927140 -0.19925836 -0.00000150
-0.47345126 -0.22570190 0.39029458
-0.55229795 -0.67267627 0.00000000
-0.46795601 -0.29586628 0.38576427
-0.34126699 -0.18122417 0.28132641
-0.77165687 -0.35690382 -0.00000111
-0.65020025 -0.12983039 -0.00000113
-0.10953739 0.17813902 0.09029802
-0.06857962 0.08510959 0.05653416
-0.43074501 -0.53804100 0.35508814
-0.26814851 -0.22771809 0.22105037
-0.48663872 0.02207408 0.40116653
-0.05045694 0.73316395 0.04159480
-0.03523978 -0.45588976 0.02905019
-0.13935643 0.27795541 0.11487960
-0.54301411 0.20138426 -0.00000043
-0.37625763 -0.25728300 0.31017134
-0.07425136 -0.05623585 0.06120971
-0.16115871 0.58155006 0.13285324
-0.41403618 -0.54918706 0.34131405
-0.52362019 -0.18184412 0.43165228
-0.71126074 -0.50678593 -0.00000073
-0.20569175 0.37652105 0.16956425
-0.54525292 -0.40854546 0.44948497
-0.59761095 -0.77714461 0.00000000
-0.29027203 0.10519437 0.23928864
-0.51611346 -0.60316414 0.42546284
-0.53146207 -0.52680451 0.43811592
-0.30958781 0.03262245 0.25521174
-0.23469011 -0.63424146 0.19346868
-0.03481130 0.71542269 0.02869704
-0.12259198 -0.14475685 0.10105968
-0.48486599 -0.62870640 0.39970341
-0.03080467 -0.28104633 0.02539407
-0.65767801 -0.09971142 -0.00000122
-0.01835036 0.23371454 0.01512727
-0.55415469 -0.61560643 0.45682278
-0.23456386 0.10739805 0.19336471
-0.17976762 -0.59624088 0.14819288
-0.79486018 -0.17823468 -0.00000155
-0.11076641 -0.51236683 0.09131118
-0.10201465 0.57791615 0.08409686
-0.31007329 -0.35318804 0.25561142
-0.40269482 -0.70741904 0.33196470
-0.19230568 -0.29996693 0.15852875
-0.06668046 -0.04768003 0.05496857
-0.56049979 -0.32609653 0.46205416
-0.01234264 0.58728570 0.01017476
-0.73622084 -0.57879710 -0.00000055
-0.01572330 0.19619621 0.01296163
-0.23027711 -0.73347700 0.18983078
-0.16314881 -0.17633174 0.13449302
-0.59670687 0.07935567 0.00000058
-0.11643658 0.44124314 0.09598544
-0.10310119 0.11194117 0.08499229
-0.51610267 0.01350076 0.42545560
-0.07116289 0.72366464 -0.00000009
-0.52969778 -0.76893663 0.00000000
-0.72839189 -0.62690628 -0.00000043
-0.53124446 -0.31862122 0.43793711
-0.09703411 0.62599432 0.07999119
-0.03950680 0.38999066 0.03256775
-0.24516328 -0.07598113 0.20210230
-0.79849374 -0.29697812 -0.00000126
-0.61626673 -0.74885887 0.00000000
-0.36008099 -0.16515598 0.29683608
-0.15676408 0.63615978 -0.00000027
-0.57699078 0.03872727 0.00000164
-0.12527010 -0.50643510 0.10326741
-0.19496907 0.54324019 0.16072521
-0.17421103 -0.65040749 0.14361225
-0.30133691 -0.39592540 0.24840949
-0.11337076 0.00007024 0.09345810
-0.54918748 -0.06801549 0.45272940
-0.05470077 0.35865068 0.04509302
-0.33954927 -0.26673907 0.27991015
-0.35263291 0.03082341 0.29069665
-0.73838162 -0.12441407 -0.00000152
-0.09835154 0.55814141 0.08107706
-0.50081009 -0.15117556 0.41284847
-0.55266553 -0.77347267 0.45559484
-0.37497166 -0.46954525 0.30911091
-0.63276356 -0.68044508 -0.00000008
-0.11511357 -0.09588701 0.09489479
-0.44801444 -0.76763237 0.36932430
-0.66034836 0.07326674 -0.00000054
-0.58728987 -0.53195906 -0.00000015
-0.13931943 -0.24835162 0.11484910
-0.21671493 0.10503956 0.17865071
-0.19071865 -0.41839254 0.15722045
-0.11836196 -0.74058658 0.09757263
-0.39018863 0.27313313 0.32165700
-0.14417703 -0.11087057 0.11885350
-0.72392350 -0.38803664 -0.00000099
-0.31916898 -0.66851711 0.26310951
-0.77763987 -0.14697567 -0.00000163
-0.42231220 -0.49983436 0.34813651
-0.56238532 -0.15152788 -0.00000072
-0.46914414 -0.22879888 0.38674390
-0.13577585 0.66360265 -0.00000034
-0.33740449 -0.23896390 0.27814212
-0.22535324 -0.75954199 0.18577175
-0.10704248 0.03313983 0.08824133
-0.35883459 -0.39815009 0.29580817
-0.59349793 -0.58271599 0.48925623
-0.45899290 0.14622878 0.37837657
-0.10339446 0.00527603 0.08523405
-0.16796391 0.37277621 0.13846265
-0.41922867 -0.43372047 0.34559473
-0.59732783 0.11364344 -0.00000001
-0.01364404 0.06324641 0.01124757
-0.24110563 -0.41639155 0.19875737
-0.71910381 -0.00293768 -0.00000165
-0.03231646 -0.35091093 0.02664033
-0.33704016 0.22822759 0.27784306
-0.34714994 -0.60849804 0.28617585
-0.75205547 -0.74326450 -0.00000014
-0.11026043 -0.77477992 0.09089407
-0.79778159 -0.69699895 -0.00000026
-0.15343370 -0.51997375 0.12648430
-0.10691876 0.47686744 0.08813936
-0.58896643 -0.76843792 0.48552018
-0.19618747 -0.26991615 0.16172872
-0.18734382 -0.27016938 0.15443838
-0.41846976 -0.00564214 0.34497026
-0.45528248 0.19599123 0.37531799
-0.55108881 -0.02579857 -0.00000089
-0.24177942 0.41707888 0.19931380
-0.33862072 -0.17243955 0.27914494
-0.56958449 0.04220773 0.46954432
-0.09189082 -0.26588339 0.07575094
-0.49096954 -0.51344103 0.40473527
-0.26091614 0.23264261 0.21508899
-0.75924671 -0.26037568 -0.00000135
-0.37297881 -0.71004003 0.30746809
-0.74580932 -0.78657728 -0.00000003
-0.46162388 -0.38992608 0.38054404
-0.44488591 0.11673458 0.36674717
-0.77002048 -0.71215105 -0.00000022
-0.18119052 -0.08056090 0.14936586
-0.33102423 0.10149196 0.27288339
-0.15461010 -0.41601843 0.12745409
-0.12400326 0.05970025 0.10222308
-0.10799980 -0.04127552 0.08903050
-0.56587094 -0.79283512 0.46648091
-0.12999354 -0.16073260 0.10716122
-0.34944838 -0.32747808 0.28807056
-0.47833675 -0.62708777 0.39432094
-0.25180098 0.33955523 0.20757502
-0.70790249 -0.49246570 -0.00000074
-0.07697948 -0.07271058 0.06345865
-0.40136907 -0.24901506 0.33087236
-0.60554564 -0.47116697 0.49918824
-0.14575498 -0.65115637 0.12015429
-0.65809304 -0.79522055 0.00000000
-0.30056232 -0.70670414 0.24777097
-0.20475896 0.24564926 0.16879492
-0.18459357 -0.64975083 0.15217119
-0.66048104 0.13183209 -0.00000152
-0.32890376 0.18521293 0.27113557
-0.26560077 -0.38065782 0.21895012
-0.32216641 -0.37868288 0.26558045
-0.79899484 -0.61394292 -0.00000047
-0.00265602 -0.03975796 0.00218951
-0.23998652 0.08928422 0.19783492
-0.49724981 -0.24899007 0.40991321
-0.03111447 0.14541709 0.02564946
-0.30334371 0.08324964 0.25006443
-0.38784492 -0.54877442 0.31972307
-0.63636100 -0.14200161 -0.00000105
-0.59769565 -0.65981126 0.00000000
-0.77430451 -0.11739888 -0.00000168
-0.33099529 -0.45766112 0.27285862
-0.76432216 -0.61059272 -0.00000047
-0.27965793 -0.36334360 0.23053825
-0.31081733 -0.39039752 0.25622478
-0.59099120 -0.48231125 0.48718998
-0.14037804 -0.28826705 0.11572176
-0.35044408 0.05034759 0.28889233
-0.36796227 -0.10958407 0.30333328
-0.72080505 -0.27691585 -0.00000117
-0.07421218 0.03784165 0.06117741
-0.03945194 -0.19396736 0.03252252
-0.40777096 -0.79044354 0.00000000
-0.28232664 -0.48244944 0.23273824
-0.07394944 0.14194165 0.06096082
-0.02884592 -0.24374028 0.02377936
-0.29928160 -0.03597246 0.24671546
-0.25701001 -0.18020052 0.21186826
-0.17184494 -0.44774207 0.14166175
-0.39942008 0.23210897 0.32926697
-0.79454368 -0.76923937 -0.00000008
-0.12269587 0.15180361 0.10114532
-0.08735882 0.60220730 0.07201514
-0.13960680 -0.43406892 0.11508599
-0.64693785 -0.56132364 -0.00000035
-0.15565954 -0.04424211 0.12831919
-0.59942585 -0.24412411 0.49414378
-0.76554030 -0.23058997 -0.00000142
-0.28574678 -0.57024598 0.23555766
-0.27688274 0.52090377 -0.00000069
-0.21373132 -0.18656114 0.17619114
-0.56698966 -0.79841167 0.00000000
-0.53932196 -0.31401587 0.44459593
-0.62912357 0.12798406 -0.00000086
-0.45511341 0.16198026 0.37517852
-0.21975064 0.28902197 0.18115368
-0.56324595 -0.14121450 -0.00000074
-0.13826311 -0.21152814 0.11397829
-0.30483776 -0.57900709 0.25129545
-0.33067346 0.21626998 0.27259451
-0.01995167 0.30080566 0.01644732
-0.05292328 -0.09716563 0.04362773
-0.12052931 -0.57695258 0.09935930
-0.42826197 0.06730335 0.35304284
-0.12792785 -0.73664838 0.10545836
-0.17130996 0.36711147 0.14122102
-0.19933599 -0.39114314 0.16432422
-0.51244903 -0.16896585 0.42244318
-0.11107647 0.38488737 0.09156677
-0.18052280 0.52566719 0.14881620
-0.63041043 -0.54819536 -0.00000031
-0.20691764 0.08977534 0.17057422
-0.58191037 -0.67031240 0.00000000
-0.17850132 0.53812295 0.14714979
-0.75274134 -0.00417570 -0.00000179
-0.29586118 0.08419188 0.24389611
-0.28047135 -0.65901119 0.23120880
-0.16496272 -0.05854238 0.13598834
-0.10452016 -0.29947695 0.08616203
-0.60845906 -0.78159982 0.50158930
-0.56766713 -0.59783155 0.46796203
-0.11321908 0.19619867 0.09333306
-0.08702884 -0.33650073 0.07174293
-0.58406472 -0.20185959 0.48148066
-0.06509180 0.33917612 0.05365895
-0.08526670 0.28735375 0.07029029
-0.02772610 0.41801783 0.02285623
-0.34667945 -0.26746055 0.28578803
-0.21549387 -0.14948069 0.17764410
-0.75010836 -0.54660308 -0.00000063
-0.19334197 0.14875185 0.15938301
-0.77714366 -0.14010878 -0.00000165
-0.30496886 -0.13636403 0.25140357
-0.61497676 -0.37588421 -0.00000055
-0.28774339 0.06684877 0.23720402
-0.33564049 0.19262615 0.27668911
-0.29328176 0.02532169 0.24176957
-0.22082196 -0.07544486 0.18203636
-0.31460080 -0.24527669 0.25934368
-0.18467619 0.01603453 0.15223929
-0.13543375 -0.38034844 0.11164589
-0.47224340 -0.64840782 0.38929769
-0.78543180 -0.22637923 -0.00000143
-0.15479341 0.34764725 0.12760527
-0.18618774 0.28357753 0.15348554
-0.54607135 -0.10429450 -0.00000073
-0.01786344 -0.62817144 0.01472587
-0.14150886 -0.28802934 0.11665396
-0.29628193 0.02205119 0.24424280
-0.67673767 -0.69375205 -0.00000025
-0.77487010 -0.31377545 -0.00000122
-0.69455868 -0.20530909 -0.00000119
-0.11900639 0.09334278 0.09810387
-0.46857333 -0.22018427 0.38627338
-0.42434070 0.13090320 0.34981045
-0.13193692 0.22410122 0.10876326
-0.14087275 -0.75323051 0.11612958
-0.38544521 0.20261627 0.31774649
-0.57856572 -0.52216911 -0.00000013
-0.03053063 0.32911563 0.02516817
-0.11833206 0.34906551 0.09754798
-0.36694047 0.17826885 0.30249175
-0.79236364 -0.62288189 -0.00000044
-0.75863689 -0.66449744 -0.00000034
-0.45187062 -0.06979571 0.37250462
-0.31983986 -0.51360357 0.26366255
-0.35842076 -0.78554964 0.00000000
-0.03447690 -0.20462836 0.02842131
-0.47009602 -0.19691315 0.38752869
-0.60259259 -0.38550320 0.49675402
-0.76844478 -0.02125670 -0.00000183
-0.57344377 -0.32612282 -0.00000046
-0.39814627 -0.50992900 0.32821506
-0.17635876 0.31176427 0.14538293
-0.04491066 0.62014949 0.03702246
-0.52594936 -0.06131424 0.43357268
-0.65825868 0.03611246 0.00000012
-0.57234943 -0.16008849 0.47182310
-0.02696011 -0.66479582 0.02222478
-0.24962775 -0.20818630 0.20578264
-0.00812994 0.76826704 0.00670198
-0.30962989 0.32701343 0.25524721
-0.01204305 -0.51741952 0.00992779
-0.02687531 0.31727040 0.02215487
-0.40473637 -0.52630699 0.33364767
-0.33083630 -0.73011041 0.27272755
-0.72608322 -0.27182761 -0.00000120
-0.38486117 -0.40142196 0.31726339
-0.20319176 -0.19376045 0.16750275
-0.05571839 0.34024349 0.04593190
-0.32779840 -0.15995660 0.27022341
-0.43090603 -0.61972296 0.35522082
-0.40051979 -0.65606189 0.33017170
-0.39112461 -0.68026006 0.32242671
-0.72059768 -0.76236719 -0.00000009
-0.39935306 -0.26078886 0.32921040
-0.48506442 0.03324491 0.39986876
-0.59558636 0.13051468 -0.00000025
-0.01357701 0.66697913 0.01119232
-0.24168029 -0.20066352 0.19923109
-0.56960040 -0.57549316 0.00000000
-0.14912473 0.08419277 0.12293216
-0.55133921 0.22970107 -0.00000106
-0.11082606 -0.54029387 0.09136035
-0.64767992 -0.07374071 -0.00000122
-0.46395761 -0.57767326 0.38246736
-0.64151126 0.09245615 -0.00000050
-0.43934947 -0.58466184 0.36218125
-0.56667775 -0.23799199 0.46714732
-0.12564363 -0.13595240 0.10357533
-0.44944003 0.08729213 0.37050137
-0.09106413 -0.52125162 0.07506945
-0.21973534 0.15829442 0.18114071
-0.61885595 0.17367962 -0.00000142
-0.52145064 -0.35363317 0.42986330
-0.06998008 -0.06083963 0.05768864
-0.57870466 -0.78073347 0.47706068
-0.26907647 0.22740364 0.22181606
-0.53702128 0.04942177 0.44270030
-0.39161897 -0.09641069 0.32283512
-0.51500547 -0.74950182 0.42454907
-0.06816548 -0.57509530 0.05619276
-0.30146018 -0.13214633 0.24851115
-0.36359483 -0.07707013 0.29973301
-0.69801921 -0.48963615 -0.00000070
-0.40794143 -0.23767418 0.33629042
-0.36916777 -0.63204020 0.30432642
-0.24211489 -0.27696198 0.19958934
-0.20394178 -0.24166489 0.16812102
-0.54291791 -0.11190535 0.44756082
-0.15887442 -0.17106763 0.13096941
-0.66427374 -0.15213583 -0.00000115
-0.59105718 0.10568200 0.00000025
-0.55297065 -0.20312341 0.45584774
-0.55768865 -0.39117396 0.45973659
-0.29597563 0.38527039 0.24399126
-0.03533346 0.59855342 0.02912742
-0.57031655 0.05887443 0.47014785
-0.28404555 -0.60750717 0.23415522
-0.57920688 -0.50316763 0.47747529
-0.22139709 0.34258926 0.18251111
-0.32165286 -0.03113167 0.26515758
-0.03410282 0.22605991 0.02811293
-0.34964252 0.25148514 0.28823209
-0.20058651 -0.44230306 0.16535510
-0.52414829 -0.33684281 0.43208718
-0.55588722 -0.79119092 0.00000000
-0.04900588 -0.79583609 0.04039839
-0.36812118 -0.47682217 0.30346364
-0.73823172 -0.33891338 -0.00000114
-0.79961520 -0.33348951 -0.00000117
-0.54507369 -0.54631388 0.00000000
-0.31460297 -0.33871639 0.25934547
-0.11556667 -0.47444490 0.09526831
-0.50278884 -0.55359036 0.41447860
-0.38827944 -0.63799053 0.32008126
-0.43714458 -0.06665032 0.36036500
-0.20303962 -0.19203383 0.16737734
-0.68809617 0.02608791 -0.00000029
-0.42922190 0.17639749 0.35383445
-0.40175089 -0.07569602 0.33118761
-0.07668072 -0.35056818 0.06321237
-0.10475871 0.22472370 0.08635869
-0.55081540 0.24810249 -0.00000136
-0.13024646 0.61597490 0.10737031
-0.16110383 -0.10675623 0.13280724
-0.45260769 -0.59011298 0.37311086
-0.51753819 -0.20246448 0.42663842
-0.24671704 0.32194671 0.20338397
-0.09690055 0.29290035 0.07988075
-0.58467275 -0.49528033 -0.00000021
-0.13715115 0.18479554 0.11306165
-0.27736881 0.23796611 0.22865203
-0.03387901 0.38299295 0.02792844
-0.61787349 -0.43579733 -0.00000045
-0.00956339 -0.74467355 0.00788366
-0.50119925 -0.74342269 0.41316769
-0.28823960 -0.27146709 0.23761262
-0.78220052 -0.48308721 -0.00000079
-0.35554796 0.31538647 0.29310051
-0.57050145 -0.00835214 0.47030005
-0.71424139 -0.12112068 -0.00000142
-0.48229292 -0.37111852 0.39758295
-0.06801406 0.37081870 0.05606794
-0.56906623 -0.07104840 0.46911675
-0.21677779 0.07584801 0.17870250
-0.00991939 -0.34488463 0.00817713
-0.59678918 -0.20269220 -0.00000077
-0.56560582 -0.08175526 -0.00000086
-0.14663734 -0.79779238 0.12088166
-0.02095200 -0.44360554 0.01727195
-0.31226310 -0.73446745 0.25741658
-0.42399776 -0.04815210 0.34952724
-0.47347054 -0.45483515 0.39030984
-0.10216034 0.32768652 0.08421669
-0.19077992 -0.39108315 0.15727097
-0.35307610 0.44299591 -0.00000082
-0.77788013 -0.04022739 -0.00000183
-0.77491063 0.01294886 -0.00000173
-0.15662493 -0.72288632 0.12911502
-0.26074809 0.28265658 0.21495059
-0.19893166 -0.18922082 0.16399091
-0.60383809 -0.68019533 0.49778014
-0.35590217 0.43718138 -0.00000077
-0.36348489 0.05277754 0.29964271
-0.68359721 -0.29841596 -0.00000098
-0.78102911 -0.15261868 -0.00000162
-0.56677943 -0.72083777 0.00000000
-0.25383961 0.11091896 0.20925499
-0.35937989 -0.34242833 0.29625770
-0.22809187 0.07742247 0.18802935
-0.29839218 0.37726894 0.24598338
-0.75080681 -0.23333162 -0.00000138
-0.17673995 -0.01642368 0.14569700
-0.26565814 0.00675808 0.21899751
-0.59404576 -0.59982425 0.48970783
-0.52341741 -0.74229759 0.43148363
-0.58164746 -0.56833202 0.47948709
-0.04091927 0.24656218 0.03373213
-0.16362725 0.55961448 0.13488817
-0.17652729 -0.70699102 0.14552169
-0.01951959 -0.27467126 0.01609113
-0.51551121 0.04598008 0.42496809
-0.40929604 -0.36296037 0.33740681
-0.42399096 0.13390781 0.34952211
-0.34975520 -0.71797156 0.28832349
-0.57664210 -0.26443017 -0.00000058
-0.37767443 -0.13902119 0.31133959
-0.08989728 -0.01915273 0.07410754
-0.14587142 -0.45837095 0.12025026
-0.07119338 -0.16763820 0.05868883
-0.06201459 -0.01508110 0.05112222
-0.45145458 -0.66732103 0.37216020
-0.72482359 -0.02338530 -0.00000164
-0.61304551 -0.40293968 0.50537109
-0.25845623 -0.05812110 0.21306045
-0.31686297 -0.15965037 0.26120862
-0.20025691 -0.49162418 0.16508339
-0.03212048 -0.54074425 0.02647877
-0.64076322 -0.11057313 -0.00000112
-0.31776354 0.01955219 0.26195148
-0.33375889 -0.74956888 0.27513683
-0.14986554 0.55996072 0.12354347
-0.74303120 -0.15267865 -0.00000149
-0.09404728 -0.49215019 0.07752863
-0.73788089 -0.21943486 -0.00000135
-0.54291016 -0.35010341 -0.00000028
-0.70186079 -0.22031996 -0.00000119
-0.57320499 -0.15006404 0.47252843
-0.34047991 -0.65653265 0.28067735
-0.04085704 0.06902083 0.03368083
-0.46205363 -0.36478209 0.38089836
-0.56127828 -0.02975965 0.46269673
-0.16703682 0.29989693 0.13769820
-0.30276713 -0.39188081 0.24958850
-0.42583981 0.34361580 -0.00000055
-0.26674041 0.31663537 0.21989053
-0.43452868 -0.72344613 0.35820720
-0.48980477 -0.37807131 0.40377545
-0.18352015 0.37389213 0.15128671
-0.08325844 0.56951630 0.06863484
-0.00016065 -0.37962797 0.00013244
-0.59386235 0.02898720 0.00000147
-0.20518865 -0.18736376 0.16914891
-0.69218457 -0.58450639 -0.00000051
-0.09872273 -0.55354106 0.08138287
-0.51099902 -0.72926301 0.42124635
-0.36580780 -0.52062398 0.30155659
-0.06514509 -0.14814098 0.05370288
-0.44100645 0.03857147 0.36354887
-0.39641753 -0.66871023 0.32678998
-0.75454390 -0.70118266 -0.00000025
-0.26969925 -0.13676056 0.22232874
-0.01212849 0.65276515 0.00999822
-0.43718493 0.06276347 0.36039859
-0.02753974 -0.23897085 0.02270261
-0.19196570 -0.72379792 0.15824845
-0.77445304 -0.23709121 -0.00000141
-0.68630642 -0.15515946 -0.00000124
-0.33712652 -0.53700328 0.27791297
-0.78166467 -0.72675169 -0.00000018
-0.42373765 -0.20547146 0.34931239
-0.39688420 0.39405885 -0.00000084
-0.16454151 -0.52013147 0.13564111
-0.34094572 -0.74212891 0.28106135
-0.33994347 -0.13140845 0.28023550
-0.32360688 -0.38998586 0.26676792
-0.32131159 0.16336031 0.26487678
-0.17484878 -0.45122808 0.14413799
-0.51600873 -0.09335743 0.42537788
-0.30598655 -0.24841136 0.25224248
-0.12551668 0.19125362 0.10347069
-0.14790110 -0.02378457 0.12192347
-0.34431061 -0.52217340 0.28383520
-0.50858897 -0.18667303 0.41926101
-0.54491258 0.20612217 -0.00000054
-0.48715374 0.30825335 -0.00000121
-0.20539691 -0.12938403 0.16932058
-0.19178607 0.30915502 0.15810066
-0.19694515 -0.56487328 0.16235331
-0.73903054 -0.41375154 -0.00000097
-0.11307684 0.47878611 0.09321589
-0.37069798 -0.13592371 0.30558848
-0.00203399 0.38682401 0.00167673
-0.03207942 -0.22368494 0.02644493
-0.28842506 0.09262055 0.23776603
-0.58446157 -0.68414104 0.00000000
-0.03985351 -0.03223856 0.03285356
-0.37515348 -0.35387254 0.30926082
-0.42233279 -0.45790353 0.34815359
-0.79677719 -0.51391405 -0.00000072
-0.43154696 -0.51053965 0.35574928
-0.35484490 0.10748320 0.29252037
-0.44522130 0.34121406 -0.00000089
-0.17053050 0.43890393 0.14057866
-0.27786529 -0.37014014 0.22906049
-0.13994934 0.04122106 0.11536836
-0.13557190 0.34616745 0.11175978
-0.59431696 0.00907632 0.48993281
-0.06162447 0.67664367 0.05080081
-0.15001813 -0.50313145 0.12366864
-0.72627753 -0.13446341 -0.00000145
-0.59104377 -0.49961272 -0.00000023
-0.20358507 -0.27288738 0.16782700
-0.11173473 -0.28555974 0.09210942
-0.67259848 -0.18614221 -0.00000113
-0.19390500 -0.32007605 0.15984714
-0.18646094 0.43373135 0.15371116
-0.58578455 -0.48909420 -0.00000022
-0.10595196 0.37471753 0.08734234
-0.44443345 0.20470858 0.36637440
-0.61843723 -0.22667550 -0.00000082
-0.26450518 0.00791942 0.21804707
-0.16638294 0.15168709 0.13715911
-0.61455262 -0.30474904 -0.00000067
-0.36812651 -0.60660505 0.30346805
-0.20020109 -0.01152378 0.16503736
-0.00266013 -0.11803165 0.00219290
-0.28710988 -0.11745782 0.23668133
-0.34996122 0.41609418 -0.00000031
-0.54134518 -0.77049857 0.00000000
-0.39450717 0.40023732 -0.00000098
-0.23332682 0.27445120 0.19234538
-0.78271472 -0.05828469 -0.00000182
-0.31751204 -0.40425953 0.26174361
-0.69119066 -0.14230898 -0.00000128
-0.26745123 0.44477248 0.22047687
-0.62925696 -0.72126997 0.00000000
-0.55058515 -0.02369847 0.45388171
-0.34686425 -0.64138085 0.28594035
-0.79407382 -0.15185651 -0.00000162
-0.61185080 -0.43284893 0.50438613
-0.16363724 0.46444201 0.13489614
-0.07678556 -0.28782579 0.06329880
-0.30550560 -0.77818084 0.25184599
-0.11044755 -0.58524674 0.09104833
-0.19207454 -0.10225938 0.15833817
-0.38845205 -0.16945389 0.32022423
-0.14213586 -0.75102502 0.11717083
-0.04193698 -0.43406302 0.03457108
-0.48605871 -0.44789803 0.40068713
-0.38883021 -0.41762018 0.32053530
-0.38573536 -0.18955505 0.31798461
-0.31968045 -0.00280253 0.26353168
-0.38535640 -0.58081281 0.31767163
-0.01347891 -0.54934955 0.01111145
-0.37975213 -0.11412658 0.31305245
-0.19312099 -0.49309430 0.15920085
-0.33090946 0.12663476 0.27278885
-0.00023897 -0.32569420 0.00019700
-0.21790908 0.02206719 0.17963511
-0.20743676 -0.54065078 0.17100215
-0.59886968 -0.74758643 0.49368420
-0.15535574 -0.18374786 0.12806875
-0.41728020 -0.17618874 0.34398916
-0.40312290 0.21316025 0.33231941
-0.18059126 -0.41669565 0.14887185
-0.07208347 0.38117108 0.05942258
-0.32899299 -0.37143904 0.27120799
-0.28067890 0.25798976 0.23138081
-0.46573925 -0.55483371 0.38393614
-0.01678951 -0.79573852 0.01384056
-0.23226739 -0.21279694 0.19147149
-0.54529876 -0.34145883 -0.00000031
-0.56318676 -0.01278485 0.46427006
-0.31116131 -0.64104009 0.25650832
-0.22259367 -0.11670182 0.18349686
-0.64703286 0.05995852 -0.00000006
-0.21633381 0.06616759 0.17833650
-0.05642844 -0.42814213 0.04651724
-0.29510802 0.50162178 -0.00000073
-0.30109000 -0.54391426 0.24820594
-0.00488877 -0.61548251 0.00403010
-0.09580460 -0.16442059 0.07897729
-0.11954287 -0.20984638 0.09854612
-0.32445067 -0.53445292 0.26746351
-0.52543080 0.07515935 0.43314555
-0.07693150 0.52428955 0.06341910
-0.20808230 0.19386163 0.17153443
-0.14427866 -0.71682841 0.11893727
-0.29039446 0.12562498 0.23938963
-0.25191575 0.45335168 0.20766997
-0.06723575 0.43561918 0.05542633
-0.25675368 -0.72915095 0.21165694
-0.12595837 -0.75922203 0.10383479
-0.22556759 -0.43385819 0.18594846
-0.13111104 0.59728175 0.10808300
-0.37484640 0.14989820 0.30900905
-0.09305779 0.28976816 0.07671293
-0.39639920 -0.27097028 0.32677531
-0.38566965 -0.12390894 0.31793061
-0.23897406 0.33520162 0.19700094
-0.20177092 0.33896351 0.16633193
-0.73353994 -0.06297977 -0.00000161
-0.00793012 0.68866175 0.00653726
-0.59280068 -0.53550315 0.48868155
-0.60665298 -0.49792486 -0.00000029
-0.74759239 -0.13545489 -0.00000154
-0.23955491 0.41712806 0.19747999
-0.60962903 -0.78974277 0.00000000
-0.10723030 0.57213479 0.08839645
-0.38524970 -0.13456690 0.31758440
-0.27718407 0.38479805 0.22850013
-0.00257289 0.04132603 0.00212098
-0.56272084 0.22714920 -0.00000124
-0.21486171 -0.49468428 0.17712297
-0.71235114 -0.17899118 -0.00000131
-0.56714493 -0.65916175 0.00000000
-0.64178437 -0.47486663 -0.00000049
-0.53331631 -0.79008460 0.00000000
-0.72593719 -0.38754284 -0.00000100
-0.09199457 0.08941217 0.07583646
-0.60411924 -0.13040826 0.49801314
-0.61018372 -0.27014196 0.50301218
-0.77366215 -0.55649692 -0.00000061
-0.58046335 0.14459464 -0.00000020
-0.20073088 -0.24439803 0.16547412
-0.51785779 0.07833304 0.42690265
-0.13782626 -0.27937621 0.11361819
-0.74890363 0.03564572 -0.00000161
-0.45642596 -0.20625386 0.37625954
-0.48015937 0.27290744 -0.00000042
-0.59894824 -0.29835960 -0.00000061
-0.24073637 0.25071663 0.19845350
-0.62270880 -0.79531819 0.00000000
-0.26821920 -0.26199219 0.22110865
-0.34251162 -0.36432359 0.28235221
-0.40364599 0.13721423 0.33275044
-0.65538579 -0.12296542 -0.00000117
-0.02528952 0.34828469 0.02084762
-0.35486042 0.28232121 0.29253364
-0.30916017 -0.44219625 0.25485867
-0.44627562 -0.48500982 0.36789116
-0.08930634 0.70801204 -0.00000022
-0.49349034 -0.33887795 0.40681380
-0.31562370 0.29832631 0.26018825
-0.66590691 -0.06590533 -0.00000131
-0.10702177 0.01611731 0.08822426
-0.00796921 -0.54840314 0.00656948
-0.61122954 -0.24570212 0.50387436
-0.24746668 0.37069148 0.20400207
-0.38445523 -0.02070206 0.31692979
-0.12471162 0.00312609 0.10280702
-0.21033733 0.06285131 0.17339326
-0.54793191 -0.07168873 -0.00000080
-0.03429356 -0.33486122 0.02827017
-0.56303966 0.05185596 0.46414897
-0.39289254 -0.38434291 0.32388422
-0.47532564 0.08845863 0.39184058
-0.63937062 -0.79534656 0.00000000
-0.40701985 -0.48636660 0.33553007
-0.15079232 -0.74473608 0.12430686
-0.06566809 0.36206496 0.05413402
-0.68742931 -0.56587297 -0.00000052
-0.07524848 0.58871496 0.06203175
-0.66958797 -0.52875155 -0.00000051
-0.49400768 -0.32743481 0.40724030
-0.67407006 -0.01398501 -0.00000144
-0.28572085 -0.36814108 0.23553628
-0.72843993 0.05031265 -0.00000147
-0.01280219 -0.32723179 0.01055359
-0.27501342 0.25236428 0.22671036
-0.33147845 -0.48382041 0.27325693
-0.61805874 -0.59664774 -0.00000017
-0.05268029 0.53677273 0.04342742
-0.42830980 -0.37415385 0.35308108
-0.32969201 -0.73709887 0.27178425
-0.60125655 0.08575997 0.00000038
-0.58435535 0.14147110 -0.00000022
-0.33792937 -0.58263129 0.27857479
-0.27327049 -0.53862011 0.22527273
-0.18486866 -0.23090635 0.15239798
-0.49683419 -0.21728429 0.40957069
-0.40986875 -0.57224232 0.33787858
-0.39564395 -0.24623895 0.32615277
-0.03047120 -0.07756573 0.02511918
-0.09495239 -0.03086250 0.07827476
-0.19188163 -0.28871024 0.15817916
-0.10566307 0.53403902 0.08710437
-0.06475268 0.31193861 0.05337939
-0.31290692 -0.12557653 0.25794747
-0.11625362 -0.72640729 0.09583461
-0.23334166 -0.34213984 0.19235708
-0.60116452 -0.70025665 0.49557608
-0.65619022 0.04970804 -0.00000007
-0.36496219 -0.07437256 0.30086023
-0.32646638 0.23409204 0.26912639
-0.61821729 -0.50082654 -0.00000034
-0.61566103 -0.66583878 0.50752664
-0.26939520 -0.59732318 0.22207808
-0.49726379 0.12672810 0.40992576
-0.56703007 -0.73584878 0.00000000
-0.40685615 -0.59451663 0.33539513
-0.01476107 0.40981114 0.01216841
-0.24844643 -0.51128358 0.20480882
-0.08431782 0.47666484 0.06950807
-0.29640663 -0.61091018 0.24434517
-0.23815273 -0.03306564 0.19632311
-0.50332171 -0.69523716 0.41491747
-0.49775213 -0.48403376 0.41032669
-0.57037240 -0.40023154 0.47019264
-0.20394507 0.58292907 -0.00000029
-0.38361317 -0.05326046 0.31623551
-0.12331701 0.32681674 0.10165736
-0.02345977 0.05884090 0.01933925
-0.57657546 -0.60788119 0.00000000
-0.22753966 -0.74963856 0.18757413
-0.59628046 0.17114283 -0.00000095
-0.70495433 -0.55838889 -0.00000060
-0.51119787 0.08983083 0.42141244
-0.64317870 -0.31117275 -0.00000078
-0.26988745 0.00643226 0.22248402
-0.49735457 0.12200946 0.41000059
-0.13471457 0.41990769 0.11105316
-0.07664043 -0.52814209 0.06317916
-0.15992448 0.15910316 0.13183503
-0.70767546 -0.32676417 -0.00000103
-0.06654626 0.54691052 0.05485794
-0.71048766 -0.56813759 -0.00000058
-0.22417349 0.14775071 0.18479934
-0.55271035 0.08208256 0.45563391
-0.32337749 -0.20621023 0.26657882
-0.18863425 -0.40512377 0.15550216
-0.59153748 -0.25405228 0.48764083
-0.57047302 -0.54420632 -0.00000006
-0.58365846 -0.20644806 -0.00000071
-0.08257982 -0.32629952 0.06807533
-0.23950481 0.24987085 0.19743825
-0.33069211 0.08908427 0.27260956
-0.68706399 -0.36095959 -0.00000088
-0.31091696 -0.05829697 0.25630718
-0.00166614 -0.11925677 0.00137349
-0.19030571 -0.60924262 0.15688004
-0.54166627 -0.10134917 0.44652906
-0.05692976 0.15080012 0.04693050
-0.08285998 -0.56878215 0.06830629
-0.29833141 0.24278428 0.24593291
-0.04936300 -0.53791654 0.04069278
-0.46930346 0.15013972 0.38687626
-0.47874135 0.15629104 0.39465654
-0.76867568 -0.61457777 -0.00000046
-0.16493270 -0.79819602 0.13596359
-0.28575641 0.31783849 0.23556668
-0.51305032 -0.76466119 0.00000000
-0.02365448 0.58302480 0.01949976
-0.58487087 -0.16849069 0.48214531
-0.42590213 -0.34214449 0.35109636
-0.63918084 -0.15939489 -0.00000103
-0.56628519 -0.63335848 0.46682277
-0.12299033 -0.74612433 0.10138806
-0.42062700 -0.29475236 0.34674782
-0.03141467 -0.33441260 0.02589694
-0.06471035 -0.45356247 0.05334450
-0.33130398 0.28767052 0.27311450
-0.04162349 0.03073391 0.03431266
-0.46913514 -0.52669185 0.38673571
-0.75323290 -0.29239625 -0.00000127
-0.45316029 -0.51562309 0.37356660
-0.56729728 0.09897513 0.00000082
-0.32118914 -0.58401167 0.26477483
-0.52923709 -0.04427585 0.43628305
-0.33552256 0.17491400 0.27659184
-0.25534356 -0.52974182 0.21049450
-0.00724418 -0.32528591 0.00597180
-0.04269859 0.45618072 0.03519892
-0.53579152 -0.38942268 0.44168535
-0.09830368 -0.76713318 0.08103743
-0.56772280 0.07691835 0.00000118
-0.40017039 -0.52539551 0.32988366
-0.35607433 0.27407056 0.29353431
-0.24791019 -0.14390010 0.20436674
-0.63934553 -0.12221869 -0.00000110
-0.05973023 -0.04115846 0.04923909
-0.54783493 -0.26263165 0.45161387
-0.62621766 0.13463254 -0.00000091
-0.61447525 -0.02425125 -0.00000117
-0.56363136 -0.53991646 -0.00000004
-0.15042514 -0.35355037 0.12400417
-0.04363574 0.40469089 0.03597147
-0.13422263 -0.06118436 0.11064750
-0.59739608 -0.35801417 -0.00000050
-0.35992560 -0.15660331 0.29670802
-0.54405880 -0.78212309 0.44849968
-0.57044971 -0.58844864 0.00000000
-0.64039683 -0.43100822 -0.00000056
-0.38096407 -0.33813027 0.31405094
-0.19935635 -0.48658979 0.16434100
-0.32330191 0.06875522 0.26651728
-0.20539051 0.20471281 0.16931544
-0.20404844 0.05958612 0.16820897
-0.26252130 -0.57952613 0.21641153
-0.26596287 0.16919361 0.21924917
-0.59877110 -0.06951921 0.49360442
-0.11414113 0.12172097 0.09409315
-0.61470520 -0.17694929 0.50673980
-0.57678127 -0.01168478 -0.00000103
-0.50514096 -0.34450933 0.41641816
-0.02142432 0.14817852 0.01766131
-0.57688904 -0.65307832 0.47556418
-0.04361902 0.43423519 0.03595769
-0.57643288 -0.51006192 -0.00000014
-0.59592193 0.06014786 0.00000091
-0.41762125 -0.04297974 0.34427068
-0.69641012 -0.02617155 -0.00000151
-0.43155938 -0.73960382 0.35575944
-0.72108835 -0.05756433 -0.00000156
-0.37064037 -0.44709167 0.30554035
-0.46990496 0.07847199 0.38737193
-0.10286377 0.33598253 0.08479657
-0.46159273 -0.25677168 0.38051870
-0.42475834 -0.19836795 0.35015383
-0.63555682 -0.38440222 -0.00000062
-0.53325588 -0.09960382 0.43959582
-0.72470391 -0.55852312 -0.00000060
-0.54186916 -0.59561121 0.44669503
-0.50682640 -0.15112936 0.41780812
-0.48194802 -0.78998947 0.00000000
-0.26815704 0.39996651 0.22105859
-0.45617950 0.20487130 0.37605745
-0.53271782 -0.37389797 0.43915153
-0.49379659 0.11393048 0.40706748
-0.19919664 -0.57493353 0.16420934
-0.25140950 -0.14175642 0.20725143
-0.22009891 -0.72897947 0.18144029
-0.34847257 0.31341714 0.28726780
-0.76302230 -0.54261494 -0.00000064
-0.28747413 -0.67905551 0.23698160
-0.41275078 -0.14743906 0.34025535
-0.54790902 -0.14312959 -0.00000067
-0.04648792 -0.65704089 0.03832269
-0.05435912 0.48173964 0.04481138
-0.13139880 -0.16910723 0.10831966
-0.61783540 0.15917695 -0.00000116
-0.50321847 0.11669048 0.41483459
-0.41348228 -0.78737217 0.34085742
-0.36399531 0.04965536 0.30006349
-0.13438672 0.33529332 0.11078277
-0.51012528 -0.73901224 0.42052603
-0.40605503 0.13094971 0.33473632
-0.06330814 -0.60323370 0.05218857
-0.38347906 -0.21096422 0.31612456
-0.07426202 0.16141555 0.06121849
-0.54186320 -0.02096140 -0.00000086
-0.26897559 0.41490576 0.22173341
-0.34340113 -0.76729834 0.28308547
-0.28465554 -0.44832584 0.23465808
-0.30338556 0.14057384 0.25009909
-0.72051650 -0.23377530 -0.00000125
-0.60098654 -0.55955976 -0.00000016
-0.18695059 -0.44542146 0.15411422
-0.29574552 -0.73145473 0.24380019
-0.28703466 -0.32224917 0.23661931
-0.55938351 0.03388386 0.00000205
-0.26191542 -0.74362397 0.21591209
-0.37527296 -0.45392111 0.30935928
-0.02147554 0.31121278 0.01770354
-0.06393390 0.49186367 0.05270443
-0.36602464 -0.43284202 0.30173534
-0.03097391 0.45268530 0.02553359
-0.54632753 -0.63965261 0.45037025
-0.55869883 -0.34228402 -0.00000037
-0.29909432 -0.52631187 0.24656080
-0.35532638 -0.59104854 0.29291615
-0.45666590 -0.23925799 0.37645724
-0.58927029 -0.67111915 0.48577088
-0.02788663 0.32232079 0.02298857
-0.07953999 0.66484261 0.06556973
-0.14554365 -0.43372548 0.11998008
-0.10126448 -0.20707792 0.08347819
-0.75862330 -0.34715763 -0.00000113
-0.06506665 0.07870304 0.05363822
-0.66164052 0.10993604 -0.00000118
-0.27725646 -0.50295448 0.22855857
-0.56042308 -0.27772969 -0.00000049
-0.36938545 -0.24933885 0.30450615
-0.39215994 -0.46725312 0.32328019
-0.11614239 0.06405998 0.09574291
-0.15717185 -0.23243333 0.12956588
-0.13002190 -0.22150858 0.10718459
-0.30948511 -0.59552479 0.25512654
-0.01470718 -0.65351385 0.01212398
-0.35200718 0.32290450 0.29018164
-0.06965744 0.07681139 0.05742267
-0.40010619 -0.24345329 0.32983130
-0.46905676 0.30368382 -0.00000072
-0.39478195 0.23592310 0.32544348
-0.19530147 -0.73640722 0.16099833
-0.27636558 -0.13043360 0.22782418
-0.51973218 -0.71650976 0.42844570
-0.07546342 0.69222981 0.06220922
-0.28053516 -0.61407250 0.23126142
-0.45385602 0.00426760 0.37414154
-0.02349824 -0.47829816 0.01937097
-0.34341452 -0.16877502 0.28309679
-0.20995191 -0.52771425 0.17307554
-0.55089885 -0.23718588 0.45413974
-0.43751615 -0.12720709 0.36067113
-0.21771529 -0.34757388 0.17947535
-0.43693408 -0.68790066 0.36019009
-0.11511985 0.56204808 0.09490030
-0.54824072 -0.27434266 0.45194834
-0.01634640 0.01479088 0.01347528
-0.39518720 -0.33452401 0.32577601
-0.33524376 -0.45087922 0.27636087
-0.66812068 0.08985498 -0.00000097
-0.18375258 0.37823966 0.15147834
-0.30592543 -0.10455230 0.25219223
-0.17973387 -0.78075767 0.14816506
-0.56747085 -0.71040159 0.46780002
-0.29183269 0.49087226 -0.00000044
-0.24929450 -0.40318760 0.20550793
-0.17125599 0.12364571 0.14117625
-0.39077497 -0.74533939 0.32213849
-0.57972968 -0.02812224 0.47790745
-0.26335919 -0.79759175 0.00000000
-0.03538253 0.36665738 0.02916788
-0.37252140 -0.09680230 0.30709174
-0.35642946 0.19531605 0.29382685
-0.04402313 -0.23073842 0.03629082
-0.64720625 -0.24709013 -0.00000091
-0.49055791 -0.11293085 0.40439701
-0.39591494 0.04904383 0.32637697
-0.60400522 -0.24637976 0.49791887
-0.72520894 -0.44969395 -0.00000088
-0.08899168 -0.66552669 0.07336100
-0.26489198 -0.65900147 0.21836583
-0.06992768 -0.12869136 0.05764544
-0.61339390 -0.36981732 -0.00000055
-0.41153443 -0.55231768 0.33925170
-0.49644116 -0.58958614 0.40924567
-0.33490649 -0.14402656 0.27608311
-0.65473247 -0.78047794 -0.00000000
-0.46669391 -0.72418827 0.38472286
-0.33170399 -0.23302269 0.27344286
-0.27857429 0.08505303 0.22964539
-0.20526221 0.08846101 0.16920955
-0.16519400 0.22553690 0.13617899
-0.42637083 -0.69959253 0.35148221
-0.15400763 0.55909699 0.12695809
-0.46058729 0.04973688 0.37969068
-0.54167593 -0.36079785 0.44653633
-0.24574433 0.29290813 0.20258202
-0.28896052 -0.58492678 0.23820692
-0.25990185 -0.12560990 0.21425217
-0.32361975 -0.35168129 0.26677853
-0.38733959 -0.23152792 0.31930700
-0.46848562 -0.46081376 0.38620043
-0.27987158 -0.69651955 0.23071437
-0.22196832 0.50980705 0.18298246
-0.15031978 0.57371873 0.12391798
-0.02799078 -0.73776525 0.02307443
-0.21517549 -0.45596024 0.17738165
-0.03508331 -0.17768969 0.02892121
-0.09150805 0.42795360 0.07543540
-0.33631140 -0.40472865 0.27724102
-0.02814430 -0.75985831 0.02320098
-0.40390694 0.03782104 0.33296525
-0.57160288 -0.31972796 0.47120723
-0.19260848 0.15834683 0.15877835
-0.59546518 -0.13007480 -0.00000090
-0.17930268 -0.79605228 0.14780959
-0.36071393 -0.76731288 0.29735744
-0.38511628 -0.38206995 0.31747374
-0.09304674 -0.49872997 0.07670383
-0.48978630 -0.13780189 0.40376088
-0.07986890 0.21212777 0.06584057
-0.48140511 -0.79754865 0.00000000
-0.41265014 -0.45524532 0.34017155
-0.79631430 -0.00553080 -0.00000197
-0.04672494 -0.60759652 0.03851808
-0.74594694 -0.39813569 -0.00000100
-0.46210957 -0.74329990 0.38094375
-0.60603857 -0.51160383 -0.00000027
-0.52495605 -0.60282797 0.43275240
-0.50813156 -0.76301217 0.00000000
-0.14948834 -0.46089858 0.12323191
-0.14878298 -0.75474566 0.12265045
-0.43267727 -0.46663097 0.35668123
-0.37171334 -0.21087734 0.30642527
-0.26654732 -0.64026409 0.21973041
-0.00037152 -0.29020008 0.00030627
-0.00105545 -0.14408308 0.00087007
-0.67662203 -0.71372741 -0.00000021
-0.29355094 -0.11945325 0.24199106
-0.10032837 -0.59049636 0.08270650
-0.79788142 -0.33522397 -0.00000116
-0.18290497 -0.14293361 0.15077919
-0.05098351 0.32254246 0.04202867
-0.27331179 0.33146828 0.22530781
-0.02793461 -0.59378761 0.02302812
-0.02860351 -0.75204879 0.02357954
-0.14648473 0.55662912 0.12075645
-0.11906926 -0.34634545 0.09815570
-0.24247710 -0.79631817 0.00000000
-0.15869749 -0.55837691 0.13082355
-0.24538752 0.55416262 -0.00000061
-0.08085065 -0.43467388 0.06664988
-0.38330975 0.01584810 0.31598559
-0.11440836 0.48605502 0.09431356
-0.36356071 -0.59304619 0.29970419
-0.02424433 0.05628163 0.01998601
-0.23986089 -0.73804921 0.19773126
-0.10521755 0.35919377 0.08673693
-0.43374139 -0.26614544 0.35755897
-0.34980977 -0.54831463 0.28836849
-0.10385106 -0.11762708 0.08561046
-0.68695116 -0.36758691 -0.00000087
-0.53610903 -0.47139278 0.44194686
-0.58672279 -0.29356211 -0.00000057
-0.32328498 -0.16598956 0.26650271
-0.55270594 -0.56769627 0.00000000
-0.03747940 -0.71239191 0.03089644
-0.36887366 0.03037609 0.30408499
-0.47669855 -0.72459984 0.39297029
-0.20597079 0.16191588 0.16979370
-0.49334538 -0.62788773 0.40669355
-0.50614315 -0.01933943 0.41724521
-0.14518571 0.44751787 0.11968528
-0.66613495 -0.03379413 -0.00000137
-0.22437093 -0.79603457 0.00000000
-0.36858505 -0.57707894 0.30384603
-0.61337286 -0.49784675 0.50564069
-0.75173873 -0.73859930 -0.00000015
-0.39072329 -0.56615198 0.32209587
-0.39745861 -0.31292847 0.32764855
-0.28318322 0.03570362 0.23344469
-0.19239584 0.18883947 0.15860306
-0.10152035 -0.51578343 0.08368911
-0.38001168 0.41624522 -0.00000094
-0.00200030 -0.72367775 0.00164896
-0.59304821 -0.30368561 0.48888612
-0.43964970 0.14957446 0.36243069
-0.49096915 -0.75104964 0.40473434
-0.65591097 -0.00990363 -0.00000137
-0.23555365 0.48116732 0.19418167
-0.32194686 -0.22538716 0.26539946
-0.57092619 -0.24978253 -0.00000058
-0.45399067 -0.61444968 0.37425089
-0.06671541 -0.11527438 0.05499738
-0.08832553 0.01039000 0.07281186
-0.26742908 -0.58644283 0.22045732
-0.62457001 -0.01049052 -0.00000123
-0.04886591 -0.14830171 0.04028300
-0.77816027 -0.60054362 -0.00000050
-0.59439689 -0.46959624 0.48999757
-0.68436986 0.02173827 -0.00000014
-0.12127895 0.57181770 0.09997768
-0.79077041 -0.29520148 -0.00000126
-0.02904508 -0.36672989 0.02394354
-0.58709157 -0.17879991 -0.00000078
-0.02230065 0.36012453 0.01838372
-0.00205692 -0.04363920 0.00169563
-0.18383563 -0.30865476 0.15154637
-0.22802052 0.31047627 0.18797114
-0.28657007 0.48983410 -0.00000032
-0.07065931 0.44494820 0.05824857
-0.59745103 -0.23349515 -0.00000072
-0.66477591 -0.41922522 -0.00000068
-0.39925280 -0.19723566 0.32912791
-0.36982906 -0.24247734 0.30487186
-0.78628731 -0.67362195 -0.00000032
-0.05059687 -0.33835956 0.04170993
-0.22167377 -0.20203602 0.18273854
-0.26467308 -0.78398854 0.21818537
-0.61845571 -0.49498966 -0.00000035
-0.13089757 -0.79167330 0.10790645
-0.11274585 -0.62145525 0.09294294
-0.38922831 -0.77212894 0.00000000
-0.34795526 0.16807920 0.28684092
-0.09338302 0.43725905 0.07698104
-0.17191935 -0.57182682 0.14172310
-0.03294308 -0.30165145 0.02715689
-0.14609818 -0.63190120 0.12043721
-0.40813237 0.14485139 0.33644888
-0.03581891 0.13370289 0.02952760
-0.54188007 -0.79483545 0.44670355
-0.54605091 -0.59637702 0.00000000
-0.52026731 -0.36438650 0.42888778
-0.40321139 -0.48562652 0.33239055
-0.23976479 -0.31079715 0.19765203
-0.67474145 0.00210847 0.00000037
-0.29456884 0.13835521 0.24283087
-0.11165162 -0.37190828 0.09204091
-0.25028276 -0.21518800 0.20632260
-0.74340141 -0.26272911 -0.00000129
-0.23090038 0.34497529 0.19034529
-0.45086816 -0.57709759 0.37167689
-0.25793701 0.10565104 0.21263275
-0.19907597 -0.70998085 0.16410987
-0.56829977 -0.35961273 0.46848413
-0.20478617 0.08022069 0.16881712
-0.05021175 -0.10840411 0.04139246
-0.54085541 -0.64771301 0.44585916
-0.57386845 -0.43738997 0.47307462
-0.35573846 0.29230037 0.29325747
-0.56564218 -0.11468143 0.46629393
-0.34503719 -0.17356420 0.28443447
-0.14121217 0.52684069 0.11640983
-0.00605154 -0.25816929 0.00498864
-0.38250631 -0.05087679 0.31532308
-0.50674933 0.06060542 0.41774514
-0.22747321 -0.72275746 0.18751936
-0.34347552 -0.20130171 0.28314698
-0.55256128 0.04500946 0.45551091
-0.14497840 -0.34338883 0.11951411
-0.32188830 0.14291058 0.26535213
-0.05590415 0.72067130 0.04608529
-0.50926870 -0.64993751 0.41982013
-0.05962259 -0.73238760 0.04915036
-0.41607514 -0.67325044 0.34299487
-0.44667515 -0.78084594 0.36822024
-0.54453081 -0.69918656 0.44888893
-0.37161279 -0.38291046 0.30634198
-0.38458505 0.15046141 0.31703725
-0.03513005 0.38175592 0.02895973
-0.37262982 -0.33232781 0.30718046
-0.54765731 -0.38409904 -0.00000024
-0.41346622 -0.69031310 0.34084421
-0.23582955 -0.65322137 0.19440798
-0.78704995 -0.25547007 -0.00000136
-0.56586081 -0.24518561 -0.00000057
-0.21588387 -0.04931276 0.17796560
-0.14887685 -0.20423919 0.12272783
-0.22321466 -0.56003213 0.18400878
-0.23796675 -0.01751846 0.19616979
-0.76326120 -0.49218956 -0.00000077
-0.63061309 0.03954823 0.00000059
-0.52635586 -0.38445345 0.43390691
-0.55375111 -0.79296619 0.45648968
-0.08251596 0.27143988 0.06802270
-0.50966787 -0.12535325 0.42015061
-0.45276925 -0.47317511 0.37324435
-0.62317646 -0.16905662 -0.00000095
-0.62372398 -0.63262111 -0.00000013
-0.51428860 0.25143534 -0.00000071
-0.18850587 0.14570089 0.15539633
-0.74763662 -0.26509637 -0.00000131
-0.28066814 -0.79423064 0.23137105
-0.56205964 -0.69160092 0.00000000
-0.53480864 -0.71247536 0.44087428
-0.74718279 -0.10082142 -0.00000160
-0.21984874 0.48654100 0.18123507
-0.50923568 -0.01048029 0.41979462
-0.26422858 -0.68257517 0.21781896
-0.47362956 -0.77298057 0.00000000
-0.06876548 0.24409305 0.05668737
-0.46004826 0.09306326 0.37924644
-0.37690955 -0.68109190 0.31070843
-0.26140136 0.16319323 0.21548878
-0.42688841 0.05523043 0.35191047
-0.63827711 0.10099794 -0.00000058
-0.08087925 -0.53908795 0.06667345
-0.05182964 0.65959144 0.04272624
-0.03619954 0.17487784 0.02984138
-0.15232956 -0.65486330 0.12557410
-0.05008490 -0.36690879 0.04128789
-0.12863471 -0.00660740 0.10604105
-0.00639780 -0.54094487 0.00527408
-0.42625102 -0.00589204 0.35138488
-0.13122831 0.01320340 0.10817911
-0.66024834 0.12870100 -0.00000147
-0.29794738 -0.03370462 0.24561559
-0.16552213 0.01972988 0.13644949
-0.61033583 -0.38526577 -0.00000051
-0.63454252 -0.69319487 -0.00000007
-0.77836925 -0.10664342 -0.00000172
-0.09514698 -0.25845665 0.07843518
-0.57569015 -0.77541590 0.47457561
-0.36876917 0.14202955 0.30399916
-0.58351791 -0.63155752 0.48102891
-0.24073201 -0.69031274 0.19844937
-0.09541699 -0.16130848 0.07865776
-0.71377128 -0.18572938 -0.00000130
-0.68545628 -0.78798819 -0.00000003
-0.01842259 -0.76850402 0.01518681
-0.45521742 -0.76823735 0.37526211
-0.34607854 0.12490108 0.28529373
-0.44591650 0.31612217 -0.00000048
-0.12552463 -0.14962880 0.10347724
-0.24968097 -0.65431911 0.20582651
-0.20860866 -0.57037848 0.17196821
-0.00279514 0.79361564 0.00230420
-0.00069282 0.76904964 0.00057113
-0.21001571 0.27354619 0.17312849
-0.31614193 -0.10440107 0.26061437
-0.08928017 0.49929801 0.07359882
-0.31352890 -0.47533539 0.25846007
-0.58916306 -0.34854442 0.48568323
-0.02229155 -0.10775144 0.01837622
-0.14440244 0.56449419 0.11903990
-0.51124239 -0.79904824 0.42144674
-0.27049601 -0.39224634 0.22298557
-0.16844434 0.24212030 0.13885842
-0.22839800 0.45384526 0.18828270
-0.39229009 -0.64094621 0.32338747
-0.27532181 -0.32643539 0.22696374
-0.40153873 0.11905700 0.33101323
-0.59225714 -0.61731797 -0.00000002
-0.31603634 -0.24678732 0.26052707
-0.20473240 -0.01851062 0.16877280
-0.65161711 -0.00825791 -0.00000135
-0.07283315 -0.65438581 0.06004059
-0.79532373 -0.68202060 -0.00000029
-0.53979546 -0.75790834 0.44498512
-0.15371883 0.16066922 0.12671936
-0.48475233 -0.15523744 0.39961097
-0.03602146 0.76072341 -0.00000008
-0.58220971 -0.09145142 0.47995171
-0.20000903 -0.41948450 0.16487905
-0.15494943 0.03865773 0.12773380
-0.24105757 -0.32398507 0.19871774
-0.45763689 -0.50266486 0.37725699
-0.42094901 -0.34062046 0.34701318
-0.16458248 0.24809030 0.13567488
-0.71537787 0.07642620 -0.00000165
-0.01930854 -0.49363130 0.01591715
-0.28291696 -0.55901968 0.23322485
-0.13392749 0.60266936 0.11040480
-0.30938652 -0.67249233 0.25504526
-0.61085606 -0.71178132 0.00000000
-0.17910026 -0.66090721 0.14764275
-0.55152118 0.10499230 0.00000102
-0.19692066 0.47839865 0.16233392
-0.26117945 -0.14628528 0.21530537
-0.08767557 0.24455146 0.07227606
-0.15110569 -0.18704654 0.12456518
-0.25888675 0.35271496 0.21341632
-0.22103164 -0.57438284 0.18220919
-0.51182967 -0.59871185 0.42193142
-0.59294134 -0.78427935 0.48879692
-0.53706819 0.03471671 0.44273895
-0.07263642 0.22757696 0.05987841
-0.35902062 -0.17490810 0.29596192
-0.00702678 0.53145981 0.00579258
-0.37492195 -0.00047916 0.30907094
-0.14555281 -0.16572300 0.11998763
-0.61337101 -0.40009615 0.50563943
-0.33909398 -0.16262265 0.27953511
-0.43798313 -0.76899099 0.00000000
-0.62716985 -0.22373222 -0.00000087
-0.28775150 -0.14377242 0.23721024
-0.11843127 0.06609438 0.09762977
-0.18169025 -0.61047751 0.14977781
-0.55451578 -0.08110506 -0.00000081
-0.61220229 -0.07437147 -0.00000107
-0.29939523 0.22185859 0.24680981
-0.00315101 -0.16249195 0.00259756
-0.52138287 -0.36431405 0.42980739
-0.13025020 0.36164489 0.10737280
-0.19119333 -0.09249095 0.15761174
-0.60574394 -0.17367561 0.49935237
-0.72957653 -0.54298526 -0.00000064
-0.56355238 -0.33152431 0.46457061
-0.58332288 -0.58869976 -0.00000003
-0.79650974 -0.51062512 -0.00000072
-0.56179178 0.02527865 0.00000215
-0.01961308 -0.61885804 0.01616820
-0.38982031 -0.61063504 0.32135150
-0.36666092 -0.67245781 0.30225989
-0.15877376 -0.20202690 0.13088644
-0.40623546 -0.44284895 0.33488354
-0.21676013 -0.69367248 0.17868795
-0.26663452 0.53054202 -0.00000062
-0.16382490 0.23174645 0.13505037
-0.47876459 0.07984333 0.39467552
-0.29593918 0.04923089 0.24396031
-0.10050799 -0.51736766 0.08285457
-0.19721226 -0.51324397 0.16257350
-0.72246963 -0.53914016 -0.00000065
-0.55417240 -0.10352011 -0.00000077
-0.04506045 0.19773717 0.03714594
-0.28215697 0.39460582 0.23259965
-0.04271812 -0.38634783 0.03521503
-0.54678148 -0.44821900 -0.00000013
-0.13075785 -0.19756880 0.10779129
-0.33154055 -0.56798881 0.27330810
-0.56282878 -0.62038261 0.46397343
-0.57753646 -0.55211228 0.47609815
-0.19620812 0.03074036 0.16174573
-0.09708187 -0.68015093 0.08003022
-0.48849711 0.26086405 -0.00000038
-0.54607499 -0.75251514 0.00000000
-0.38108552 -0.74255097 0.31415090
-0.56093067 -0.41209465 0.46240914
-0.15917489 -0.79455066 0.00000000
-0.68634272 -0.05157859 -0.00000142
-0.07609151 -0.02707000 0.06272665
-0.59224021 -0.12257389 0.48822045
-0.42928094 -0.64756113 0.35388118
-0.74263859 -0.68303233 -0.00000029
-0.01896736 -0.26192531 0.01563589
-0.18648531 0.07262471 0.15373065
