ply
format ascii 1.0
element vertex 1387
property float x
property float y
property float z
end_header
-0.41063324 -0.71055633 0.00000000
-0.20528658 -0.30147642 0.00000000
-0.21195002 -0.46752253 0.00000000
-0.22817238 0.23134810 0.00000000
-0.57037359 0.05917197 -0.00000056
-0.43737414 0.14787655 -0.00000036
0.56388873 -0.24112567 -0.00000057
0.26038134 0.48204258 0.00000031
0.36924204 0.05850970 0.00000530
0.13732915 0.07467005 0.00000881
-0.03258219 0.02150500 0.00000000
0.05899260 -0.24913074 0.00000000
0.63650191 -0.76677001 0.00000000
0.22800130 -0.35982832 0.00000000
0.61100155 0.06236119 0.00000059
-0.00002234 -0.32221344 0.00000000
0.37189016 -0.02639382 -0.00000013
0.79539376 -0.04865620 -0.00000188
0.05070450 0.35019463 0.00000598
-0.33022851 0.21801963 -0.00000019
-0.12567912 -0.39458030 0.00000000
-0.23618340 0.05875209 0.00000000
-0.34248179 -0.67619932 0.00000000
-0.54434603 -0.38987944 -0.00000011
-0.03440267 0.62055844 0.00000000
0.46278426 0.05646967 0.00000353
-0.12736419 0.24963571 0.00000000
-0.20057386 -0.37030372 0.00000000
0.23988336 -0.51816201 0.00000000
-0.34932396 0.34877771 -0.00000035
0.60057664 -0.79778165 0.00000000
-0.11174309 0.08940805 0.00000000
0.43447572 0.28511214 0.00000026
0.18682803 -0.20790380 0.00000000
0.44756049 -0.51710945 0.00000000
-0.47682220 0.01860253 -0.00000033
0.19303066 -0.58954209 0.00000000
-0.22134361 -0.07104333 0.00000000
0.74422681 -0.13071692 -0.00000153
-0.45060286 -0.65081716 0.00000000
-0.42827770 -0.36647505 0.00000000
-0.28688288 0.37829831 -0.00000024
0.25519586 -0.47507092 0.00000000
0.15494400 0.28447565 0.00000539
0.35051176 -0.48477462 0.00000000
-0.68621218 -0.53921247 -0.00000028
0.30241689 -0.08771529 0.00000000
0.17443316 -0.67845947 0.00000000
-0.60888010 -0.55260712 -0.00000010
-0.04825446 0.01039552 0.00000000
-0.36668432 0.31816915 -0.00000036
-0.53326494 -0.74875104 0.00000000
-0.05709349 0.68996012 -0.00000002
-0.70533907 -0.57147503 -0.00000029
0.25648791 0.03769209 0.00000756
-0.42568901 0.07247963 -0.00000027
0.30827567 0.37852654 0.00000112
0.01530701 0.17462490 0.00000915
0.77053487 -0.75535583 -0.00000011
-0.15383913 0.39358878 0.00000000
-0.07664141 -0.48804229 0.00000000
-0.38526586 -0.79636019 0.00000000
0.39332584 -0.76305389 0.00000000
-0.29012340 0.21965215 -0.00000011
-0.19280659 -0.33160496 0.00000000
-0.04912713 -0.77841598 0.00000000
0.01040594 0.19490850 0.00000892
0.35315815 0.18650167 0.00000347
0.73474038 -0.33859971 -0.00000112
-0.14732376 0.42262208 0.00000000
-0.33217078 0.44561273 0.08910046
0.17530385 -0.51606780 0.00000000
0.06441091 -0.57787800 0.00000000
0.45369396 -0.48868191 0.00000000
0.37024596 0.42800385 -0.00000092
-0.19837248 0.04195044 0.00000000
-0.29116550 0.36618832 -0.00000024
-0.10752312 0.32734770 0.00000000
0.58058739 -0.07795285 -0.00000093
-0.34333760 -0.64882147 0.00000000
0.25964710 0.16595978 0.00000559
0.70346129 -0.04945186 -0.00000150
-0.36849728 0.06078299 -0.00000013
0.61200553 -0.47306520 -0.00000036
0.71886069 -0.47820252 -0.00000080
-0.40855962 -0.15693155 -0.00000003
0.57509619 -0.25863197 -0.00000058
-0.09373981 -0.53441679 0.00000000
-0.01853010 0.42120644 0.00000000
-0.65495205 0.00632560 -0.00000070
0.01232988 0.07017812 0.00001076
-0.65306073 0.01379454 -0.00000070
-0.26349074 -0.12248801 0.00000000
0.42675015 -0.32940716 0.00000000
0.60923994 0.18735513 -0.00000152
0.43033913 -0.70363992 0.00000000
-0.33198881 0.40493068 -0.00000036
0.04220964 -0.66825551 0.00000000
-0.67247319 -0.16311185 -0.00000058
-0.07478604 0.58015090 0.00000000
-0.16912483 -0.20715055 0.00000000
-0.36391282 -0.28827140 0.00000000
-0.68822676 -0.58217549 -0.00000025
0.62832528 -0.37275648 -0.00000061
-0.53564197 -0.38283458 -0.00000010
0.58253473 -0.17198212 -0.00000077
0.29475746 -0.39640546 0.00000000
-0.10734487 0.29572117 0.00000000
0.25819299 0.04316658 0.00000746
0.03979020 -0.57461035 0.00000000
-0.40899858 -0.33449972 0.00000000
-0.13073070 -0.34677577 0.00000000
0.02750033 0.72660702 0.00000069
0.49717239 0.19353771 0.00000058
0.66504353 -0.42524290 -0.00000067
-0.23657547 0.03216032 0.00000000
0.64987332 -0.18083982 -0.00000104
0.00740107 -0.07050373 0.00000000
-0.58577561 -0.51326889 -0.00000009
-0.68937552 0.09077213 -0.00000084
-0.13851169 -0.46203524 0.00000000
0.46435899 -0.43556565 0.00000000
0.56347299 -0.68514216 0.00000000
-0.03611773 0.35190457 0.00000000
0.41466466 -0.73093855 0.00000000
0.28490701 -0.15985994 0.00000000
0.62029928 -0.34503627 -0.00000062
0.00632380 0.40430233 0.00000584
-0.60004199 -0.01419677 -0.00000056
-0.53415668 -0.39536718 -0.00000008
0.55903959 0.20328449 -0.00000077
0.34601843 -0.73656517 0.00000000
-0.41910431 0.08034226 -0.00000026
-0.58662075 -0.20488320 -0.00000036
0.11921799 0.48266077 0.00000296
0.37135452 -0.43787226 0.00000000
0.65473515 0.10806378 -0.00000102
-0.23096120 0.17034380 0.00000000
-0.06840468 -0.64055806 0.00000000
0.01786081 0.55977714 0.00000333
-0.23127890 0.29564166 -0.00000005
-0.10221212 -0.17563605 0.00000000
-0.56496829 -0.44538555 -0.00000010
0.61974841 0.01721111 0.00000117
0.09836813 0.57973337 0.00000179
0.56078196 -0.14148615 -0.00000073
0.46971387 -0.54332179 0.00000000
0.22137506 -0.03373061 0.00000000
-0.37388045 0.05316685 -0.00000014
0.58919948 0.02560325 0.00000162
-0.19853322 -0.55606836 0.00000000
0.32392994 -0.53198606 0.00000000
0.62338644 0.15358827 -0.00000117
0.39350405 -0.30193645 0.00000000
-0.70355582 -0.44250482 -0.00000040
0.61764008 -0.70917851 0.00000000
-0.54931879 -0.53790826 0.00000000
-0.15197466 0.44683346 -0.00000001
0.42312789 -0.58252472 0.00000000
-0.00262842 0.22625035 0.00000000
0.41072163 -0.02452835 -0.00000030
0.24804695 -0.04313527 0.00000000
-0.14855205 0.13368303 0.00000000
0.20688386 -0.45458803 0.00000000
0.39045107 0.27892503 0.00000121
-0.34320745 -0.60912097 0.00000000
0.49927881 -0.75079554 0.00000000
-0.56763303 -0.43304414 -0.00000012
0.02844984 0.05913365 0.00001068
0.22230238 0.57370728 -0.00000055
0.53446466 -0.30786246 -0.00000032
0.40510470 0.36207822 -0.00000046
0.17053469 -0.10556709 0.00000000
-0.03373327 0.04718728 0.00000000
0.72352701 -0.32537425 -0.00000110
-0.33184114 -0.22296962 0.00000000
0.26371023 -0.69501716 0.00000000
-0.03347069 -0.74544656 0.00000000
0.09950576 -0.27321151 0.00000000
-0.19516177 0.13277400 0.00000000
0.02304492 0.45833391 0.00000478
-0.60384738 -0.32120565 -0.00000030
-0.74271035 -0.15870851 -0.00000074
0.70194763 0.04128827 -0.00000081
-0.39148429 0.08320381 -0.00000020
-0.01981299 -0.46392566 0.00000000
-0.61089885 0.18483567 -0.00000076
-0.12197185 -0.33931866 0.00000000
0.23574947 0.16096476 0.00000603
0.42389232 -0.12692682 -0.00000017
0.11372779 -0.02575012 0.00000000
0.30527025 -0.64065528 0.00000000
0.07134945 -0.19837321 0.00000000
-0.43757999 -0.40261865 0.00000000
0.77468926 -0.20327537 -0.00000149
0.13037156 0.23693755 0.00000648
-0.23569812 0.41924033 -0.00000017
0.38755950 -0.31055745 0.00000000
0.50556767 -0.72549075 0.00000000
0.55686241 -0.14634836 -0.00000070
-0.67884272 -0.17456695 -0.00000059
0.63623625 -0.07577570 -0.00000117
0.22922947 0.28245875 0.00000424
-0.35902861 0.43422174 -0.00000044
0.33577105 -0.30440634 0.00000000
-0.75075245 0.03716094 0.04846945
0.64157403 -0.19330949 -0.00000098
-0.11196562 -0.00418359 0.00000000
0.41051933 -0.41329440 0.00000000
0.48469698 -0.57644868 0.00000000
-0.14478844 0.33221334 0.00000000
-0.19051750 -0.45953619 0.00000000
-0.29481691 0.07998223 0.00000000
0.27729636 0.44081473 0.00000067
-0.51964438 -0.22456802 -0.00000020
-0.23609360 0.13072002 0.00000000
-0.06273743 0.01473760 0.00000000
0.57494044 -0.33633846 -0.00000044
-0.01854760 0.30721873 0.00000000
-0.63604009 -0.41656309 -0.00000028
0.15782005 0.37411332 0.00000401
-0.50802314 -0.54138470 0.00000000
-0.69169116 -0.19935919 -0.00000059
0.53863549 -0.52191818 0.00000000
0.09026115 -0.63142341 0.00000000
-0.47859412 -0.78246266 0.00000000
-0.24913430 -0.76249897 0.00000000
-0.43495193 0.10001724 -0.00000031
-0.07507229 0.49212757 0.00000000
0.27650583 -0.66708100 0.00000000
-0.05245169 0.16900341 0.00000000
0.41067231 0.16448282 0.00000273
-0.21977986 -0.36594191 0.00000000
-0.13096847 -0.69197720 0.00000000
-0.21712700 0.39433640 -0.00000010
0.22410321 -0.49338683 0.00000000
-0.12780683 -0.28534874 0.00000000
0.23560730 -0.18153635 0.00000000
-0.15145510 -0.25340420 0.00000000
-0.23602736 0.07198273 0.00000000
0.17706971 -0.11481488 0.00000000
-0.69951993 -0.19237877 -0.00000062
0.46667916 0.04211613 0.00000370
0.28973719 -0.36306617 0.00000000
0.63041133 -0.62832481 -0.00000017
0.32920596 -0.33113360 0.00000000
-0.03522063 0.53095889 0.00000000
0.51837534 0.05357100 0.00000251
-0.21615931 -0.31320828 0.00000000
0.24263674 0.39487261 0.00000211
0.33557597 -0.54876983 0.00000000
0.59180868 -0.13795242 -0.00000087
0.08502021 0.47223091 0.00000363
-0.05051357 -0.76417357 0.00000000
0.32283604 0.00005462 0.00000713
-0.40160340 0.22580354 -0.00000035
0.44175631 -0.59980750 0.00000000
-0.67590344 -0.20726667 -0.00000055
-0.40225109 -0.05209700 -0.00000011
-0.75536370 -0.48642078 -0.00000039
0.16652767 0.27985954 0.00000529
0.27004582 0.36028665 0.00000216
-0.40289170 -0.65842378 0.00000000
0.41454598 0.18616679 0.00000229
-0.74587494 -0.41574088 -0.00000048
0.25999740 0.26288214 0.00000398
0.11575757 -0.11681946 0.00000000
-0.31672576 0.34765998 -0.00000028
-0.65457660 -0.38048130 -0.00000035
0.67316151 -0.67751026 -0.00000026
-0.04322978 -0.57851416 0.00000000
-0.42245623 0.04262133 -0.00000023
-0.70634502 -0.23382381 -0.00000059
-0.10797599 -0.50340623 0.00000000
-0.24188876 0.06654390 0.00000000
-0.41529426 -0.67415524 0.00000000
-0.31126046 -0.24602734 0.00000000
-0.73359680 -0.32966217 -0.00000057
0.58338231 -0.79763424 0.00000000
-0.67524332 -0.12548973 -0.00000062
0.66064829 -0.56957603 -0.00000040
0.22023760 0.13851102 0.00000660
0.13824153 -0.59488839 0.00000000
0.63870877 -0.73847610 -0.00000001
-0.16465387 0.17630224 0.00000000
0.35533610 -0.07386197 0.00000000
0.45028767 -0.67759943 0.00000000
-0.44738105 -0.67612219 0.00000000
-0.48495188 -0.76450139 0.00000000
-0.52552050 0.15479308 -0.00000055
-0.68455446 -0.24210614 -0.00000054
-0.17548569 -0.26593575 0.00000000
0.52713799 -0.03661236 -0.00000077
-0.06325669 -0.28400114 0.00000000
-0.08756023 0.56228119 0.00000000
-0.10732312 0.06375799 0.00000000
0.05683007 0.73881948 -0.00000007
0.66131192 -0.54276478 -0.00000045
0.27292487 -0.27707899 0.00000000
0.03741084 -0.19400568 0.00000000
0.09995491 0.10740226 0.00000888
0.22234970 0.56036949 -0.00000027
0.67296177 -0.07582679 -0.00000132
-0.20492823 -0.63220119 0.00000000
-0.12405437 0.43225273 0.00000000
0.29749697 0.10019207 0.00000598
0.65963280 -0.32788697 -0.00000082
-0.36352456 -0.31526807 0.00000000
-0.72284830 -0.29194635 -0.00000058
0.48916787 0.13409665 0.00000173
0.01600371 -0.31476876 0.00000000
0.39506751 0.34917367 -0.00000006
-0.60172617 -0.14617305 -0.00000045
-0.54674935 -0.76420194 0.00000000
-0.74042284 -0.33742854 -0.00000057
0.06611002 -0.64063048 0.00000000
-0.21512362 -0.22323453 0.00000000
0.58934820 -0.31665841 -0.00000054
0.48071539 -0.63489187 0.00000000
-0.74970585 -0.48302469 -0.00000040
0.08410901 -0.42401963 0.00000000
-0.41221839 -0.79889792 0.00000000
0.37797201 0.21422966 0.00000253
0.35471860 -0.76691055 0.00000000
-0.38005444 -0.23497993 0.00000000
0.21890150 -0.31507421 0.00000000
-0.72140914 -0.42940089 -0.00000045
-0.08214216 0.32118860 0.00000000
-0.18385661 0.59442127 -0.00000021
-0.30743593 -0.27924973 0.00000000
0.55235529 -0.41609526 -0.00000021
-0.76208019 -0.64537907 -0.00000019
-0.15616675 -0.67248660 0.00000000
-0.63601983 -0.30673167 -0.00000038
0.68547165 -0.00719684 -0.00000150
-0.14200602 -0.15332282 0.00000000
0.20331919 -0.03083973 0.00000000
-0.39175317 0.31080595 -0.00000040
-0.59724778 0.14741354 -0.00000070
0.49117580 -0.33701381 -0.00000009
-0.44733825 0.27128413 -0.00000049
0.39701036 0.40057397 -0.00000099
0.03551763 -0.75544786 0.00000000
-0.25064194 0.12257522 0.00000000
-0.14921261 -0.32679978 0.00000000
0.52918762 -0.32855505 -0.00000026
0.15940996 0.30991518 0.00000495
-0.18543141 -0.49206206 0.00000000
-0.75847518 -0.01960021 -0.00000089
0.48515084 -0.28211164 -0.00000016
0.21184447 -0.33647069 0.00000000
0.38712463 -0.60237247 0.00000000
-0.41653383 -0.41226983 0.00000000
0.72937137 -0.10240716 -0.00000152
-0.41279104 -0.35676301 0.00000000
0.67234546 -0.36147591 -0.00000082
0.52342129 -0.46826008 0.00000000
-0.10241986 -0.36019281 0.00000000
-0.27244398 0.47589260 0.20719846
-0.52839869 -0.33123663 -0.00000013
0.62207085 -0.53541511 -0.00000029
0.68939823 -0.35207212 -0.00000091
0.14663325 -0.42026767 0.00000000
-0.63473272 -0.74200284 0.00000000
0.20904656 -0.18052201 0.00000000
0.46161485 -0.11614572 -0.00000035
0.13553990 0.65703189 -0.00000021
-0.31840643 0.32113773 -0.00000026
0.56167758 -0.72060066 0.00000000
0.40500098 -0.53365660 0.00000000
-0.28049448 -0.41664207 0.00000000
0.12390232 -0.10040971 0.00000000
0.14213973 -0.01250416 0.00000000
0.00068760 0.38662487 0.00000619
-0.15159313 -0.19089642 0.00000000
0.59476763 -0.42965457 -0.00000036
-0.71840572 -0.28774169 -0.00000057
0.06029095 0.43485022 0.00000457
0.25955400 0.45657089 0.00000075
0.46667916 -0.04601579 -0.00000050
0.17864710 -0.14178371 0.00000000
-0.14665814 0.06218644 0.00000000
0.64117610 -0.43892103 -0.00000055
0.58589250 -0.49717262 -0.00000021
0.33748749 0.37262902 0.00000066
0.26111326 -0.23245887 0.00000000
0.07858265 -0.56011951 0.00000000
-0.53872108 0.16707788 -0.00000059
0.06501379 0.00486927 0.00001095
0.06564945 -0.06318757 0.00000000
0.32442063 -0.72806716 0.00000000
0.69739634 0.08400311 -0.00000143
-0.25770634 0.38316870 -0.00000018
0.00426055 0.19076507 0.00000907
0.44724384 -0.60183942 0.00000000
0.13672039 -0.72667313 0.00000000
-0.16527547 0.14238831 0.00000000
0.10216398 -0.68510783 0.00000000
-0.18224727 0.44023243 -0.00000007
0.20798668 -0.08338745 0.00000000
-0.59048921 -0.76400810 0.00000000
0.66906935 -0.44931230 -0.00000065
-0.21105708 -0.55320561 0.00000000
0.38619086 0.32987741 0.00000044
0.49225086 -0.57690513 0.00000000
0.46429232 -0.45131496 0.00000000
0.02126586 -0.35440421 0.00000000
-0.45848399 -0.50116676 0.00000000
0.47940043 -0.72170240 0.00000000
0.24211092 0.13197871 0.00000637
0.48018047 -0.79225177 0.00000000
-0.24243911 -0.09748151 0.00000000
0.52458435 0.25423682 -0.00000096
0.09399483 -0.79349232 0.00000000
-0.61857033 -0.31770337 -0.00000033
-0.66656625 -0.41509223 -0.00000035
0.33350348 0.19411092 0.00000372
0.19132666 0.55806154 0.00000037
0.22761379 -0.74529630 0.00000000
0.75047922 -0.30075455 -0.00000125
-0.10279633 0.67339778 -0.00000011
-0.49668908 -0.13638596 -0.00000023
0.56723410 0.07563631 0.00000121
0.62497252 -0.43837062 -0.00000048
-0.35415965 -0.68981373 0.00000000
0.31312314 -0.00724815 0.00000000
-0.06958252 -0.65202600 0.00000000
0.20572186 -0.30269903 0.00000000
-0.73351771 -0.23360629 -0.00000065
0.34077570 -0.48633593 0.00000000
0.37520322 -0.28311458 0.00000000
0.62564182 -0.72832656 0.00000000
0.34174022 -0.70418745 0.00000000
-0.25581509 0.18454072 -0.00000000
-0.15174170 0.30578104 0.00000000
0.52581614 -0.28271455 -0.00000033
0.03845697 -0.26296645 0.00000000
-0.71613497 -0.52163130 -0.00000035
0.48775414 -0.65454334 0.00000000
-0.20219295 -0.05195278 0.00000000
0.63620049 -0.17190258 -0.00000100
-0.19477247 0.29824102 0.00000000
0.29960856 0.01593530 0.00000724
0.46443680 -0.45836344 0.00000000
0.08375186 -0.78751016 0.00000000
-0.28046426 -0.07045216 0.00000000
-0.55472755 0.05854152 -0.00000053
-0.72834140 -0.69024026 -0.00000014
-0.55045658 -0.47417298 -0.00000005
-0.09542441 -0.09295190 0.00000000
-0.58836651 -0.36019027 -0.00000023
-0.06197104 -0.47261509 0.00000000
-0.01745108 -0.56221884 0.00000000
0.78433645 -0.57604080 -0.00000056
-0.08940380 0.44806445 0.00000000
-0.59651941 0.15301557 -0.00000070
0.65213144 -0.19277114 -0.00000103
0.58845669 -0.14161298 -0.00000085
0.34285432 -0.20760480 0.00000000
-0.11842300 -0.35186100 0.00000000
0.34210667 0.34229606 0.00000108
0.12986337 0.04689457 0.00000934
-0.14338765 -0.55366057 0.00000000
-0.79637712 -0.62957692 -0.00000021
-0.37487581 0.18924052 -0.00000026
-0.65160990 -0.68071520 -0.00000008
-0.32068783 -0.35474664 0.00000000
0.23193359 -0.13731645 0.00000000
0.13933215 -0.56171936 0.00000000
0.12719773 0.45576313 0.00000324
-0.27186930 -0.43444988 0.00000000
-0.77803707 -0.37379178 -0.00000053
0.32522625 -0.57613146 0.00000000
0.29561552 0.13022132 0.00000551
0.74962789 0.00478322 -0.00000111
0.15706304 -0.39393702 0.00000000
0.04772600 -0.66299897 0.00000000
-0.16951743 -0.51068193 0.00000000
0.51897979 -0.20603473 -0.00000044
-0.34207517 -0.79130763 0.00000000
0.08756173 0.47229072 0.00000359
-0.06945233 0.59846330 0.00000000
0.06779659 -0.19868067 0.00000000
-0.41383713 0.15289098 -0.00000031
0.05937088 0.36164373 0.00000568
-0.51181602 -0.33942312 -0.00000009
-0.54023987 -0.69718516 0.00000000
-0.55689007 -0.42946833 -0.00000010
-0.40047178 -0.40559006 0.00000000
-0.20819959 -0.71569252 0.00000000
0.56388992 -0.12097988 -0.00000078
-0.22096135 -0.53818434 0.00000000
-0.31667024 -0.44211549 0.00000000
0.50735801 -0.07174181 -0.00000062
-0.19438557 -0.18064980 0.00000000
0.35484165 -0.38476348 0.00000000
-0.64395261 0.08629436 -0.00000074
-0.23143123 0.44974840 -0.00000018
0.02287285 0.41276285 0.00000546
0.20156135 -0.77028418 0.00000000
0.17312077 0.24897794 0.00000565
-0.31798941 -0.68245733 0.00000000
-0.75761133 -0.58379495 -0.00000027
0.32339051 0.08172218 0.00000579
-0.01866600 0.75458747 0.00000000
-0.43027413 -0.41326427 0.00000000
0.34004644 -0.42560837 0.00000000
0.28023046 -0.02407862 0.00000000
0.37478158 -0.09566508 -0.00000002
0.60528672 -0.39097762 -0.00000048
-0.13379206 0.46341205 0.00000000
-0.21621715 0.21462442 0.00000000
0.30254322 -0.23458771 0.00000000
0.63367838 -0.56637371 -0.00000029
0.72518271 -0.18459189 -0.00000135
0.10936356 -0.35498631 0.00000000
0.63589269 -0.19804512 -0.00000095
-0.04167874 -0.05644542 0.00000000
-0.75973451 -0.50605869 -0.00000037
-0.20555206 -0.61151856 0.00000000
0.73747730 -0.53405452 -0.00000066
-0.21746147 0.53750819 -0.00000023
0.51753384 -0.17366555 -0.00000049
-0.50382411 -0.04305405 -0.00000033
0.08802178 -0.34476551 0.00000000
-0.10430315 0.38180366 0.00000000
0.39815250 -0.43045834 0.00000000
0.30010459 -0.67773658 0.00000000
0.37096328 -0.10494103 0.00000000
0.78586113 -0.00395914 -0.00000193
-0.32726905 -0.02303809 0.00000000
-0.30103126 0.01838489 0.00000000
0.16314237 0.21607155 0.00000630
-0.07549461 0.70618135 -0.00000008
-0.17485286 -0.03090629 0.00000000
0.76912546 0.00585726 -0.00000150
0.01899196 -0.10667289 0.00000000
-0.17715679 -0.16216494 0.00000000
0.22950748 0.07376496 0.00000743
0.43221036 0.02635344 0.00000462
-0.07332979 -0.39998361 0.00000000
-0.13146020 0.64507443 0.09411115
0.76924008 0.01708391 -0.00000169
0.03061188 -0.72266388 0.00000000
-0.72709185 -0.13694063 -0.00000072
-0.68313646 -0.18331070 -0.00000059
0.13289352 0.31002221 0.00000534
0.09505063 -0.51147258 0.00000000
0.58581746 -0.49028108 -0.00000022
0.57152402 -0.40506104 -0.00000031
0.02439330 0.73524296 0.00000060
-0.63611156 -0.57148427 -0.00000015
-0.61231285 0.11252780 -0.00000070
-0.40181094 0.36828104 -0.00000048
-0.02142778 -0.72357476 0.00000000
-0.32118586 -0.12822549 0.00000000
0.14846568 0.18919644 0.00000692
-0.02235412 0.50370038 0.00000000
0.60886222 0.08864783 0.00000019
0.20226836 -0.37880197 0.00000000
0.19140878 -0.46375114 0.00000000
0.73573434 -0.32767126 -0.00000115
0.63260430 -0.42158601 -0.00000054
-0.08449628 -0.69457799 0.00000000
0.42900011 -0.18185180 -0.00000010
-0.68223846 -0.13217039 -0.00000063
-0.20962109 0.07527130 0.00000000
0.17622665 -0.27450708 0.00000000
-0.09697106 -0.72915179 0.00000000
-0.15438898 0.07190657 0.00000000
-0.19445531 0.21015784 0.00000000
-0.60379642 -0.71260279 0.00000000
0.17300339 -0.39008066 0.00000000
-0.72844642 -0.48965278 -0.00000039
-0.72132361 -0.25150454 -0.00000061
-0.02254968 -0.42202434 0.00000000
-0.11453779 -0.11747139 0.00000000
-0.34148324 0.40464574 -0.00000038
-0.01387122 -0.40755913 0.00000000
-0.71702147 -0.77754015 -0.00000003
-0.78025037 -0.72406441 -0.00000009
0.21021125 -0.10512127 0.00000000
0.78677100 -0.77473897 -0.00000006
-0.57146585 -0.79064149 0.00000000
-0.08002498 0.61999559 -0.00000001
-0.06642678 -0.00101964 0.00000000
-0.53678292 -0.13921621 -0.00000032
0.68523401 -0.50540757 -0.00000062
0.22612827 0.08281174 0.00000735
-0.06463212 -0.03144146 0.00000000
-0.73858422 0.04688460 -0.00000091
-0.00557210 -0.27682480 0.00000000
-0.58445019 -0.47550258 -0.00000012
-0.19546653 -0.28632730 0.00000000
-0.63171738 0.03247901 -0.00000067
-0.75505322 -0.34188432 -0.00000057
0.49101043 -0.20862386 -0.00000031
0.05725181 -0.54283261 0.00000000
0.05673999 -0.44137067 0.00000000
-0.75861502 -0.60778111 -0.00000024
0.72268271 0.05905587 -0.00000150
-0.74463654 -0.33346522 -0.00000058
-0.65425330 -0.36590013 -0.00000037
0.01063283 0.42001480 0.00000554
0.70040065 -0.48843992 -0.00000071
0.67979914 -0.56465703 -0.00000049
-0.27612534 -0.57060200 0.00000000
-0.66746420 -0.50533104 -0.00000027
-0.05940844 0.59793162 0.00000000
-0.21865439 0.15065736 0.00000000
0.27794331 -0.56611282 0.00000000
0.56840628 -0.19912225 -0.00000066
0.71910644 -0.63185459 -0.00000042
-0.20389070 0.08728657 0.00000000
-0.08629176 -0.49734586 0.00000000
-0.69258386 -0.10273658 -0.00000068
0.65872175 -0.77496189 -0.00000003
-0.00557048 -0.63413739 0.00000000
0.61218572 0.00624240 0.00000150
0.15336475 -0.25081158 0.00000000
-0.54934198 -0.05643979 -0.00000042
-0.06375671 -0.31344834 0.00000000
0.40250769 -0.79151666 0.00000000
0.44745091 -0.24996053 -0.00000005
0.11726210 0.48327288 0.00000298
-0.31811315 0.27419806 -0.00000021
0.11063685 0.45739040 0.00000347
-0.22488230 -0.76787019 0.00000000
-0.42613956 0.20167241 -0.00000038
0.42367649 -0.58487684 0.00000000
0.28964812 -0.02632911 0.00000000
-0.78845388 -0.03761489 -0.00000094
-0.34862015 -0.04478376 0.00000000
-0.02694416 0.41716078 0.00000000
0.72215617 -0.28220454 -0.00000117
0.68923688 -0.56904417 -0.00000052
0.69314253 0.01563125 -0.00000021
0.27282181 0.40637797 0.00000134
-0.77950394 -0.56880534 -0.00000029
-0.34682220 -0.76091135 0.00000000
-0.52234572 -0.65751213 0.00000000
0.24640723 -0.01836802 0.00000000
0.01775982 0.30015448 0.00000723
-0.04012713 -0.71259367 0.00000000
-0.57079458 -0.52190065 -0.00000005
-0.02787789 -0.43494892 0.00000000
-0.15083206 -0.62154520 0.00000000
-0.24048595 0.04076717 0.00000000
0.52169663 0.04411185 0.00000261
0.05844271 -0.47401896 0.00000000
-0.11769417 0.42664534 0.00000000
-0.53706580 0.06840282 -0.00000050
0.17078105 -0.36948568 0.00000000
-0.73032993 0.05082939 -0.00000090
-0.14235108 -0.47018239 0.00000000
-0.52673024 0.08355762 -0.00000049
-0.30026755 -0.42564744 0.00000000
0.43022841 0.19753188 0.00000180
0.07846030 -0.76699376 0.00000000
-0.15199691 -0.16977145 0.00000000
0.64110422 0.06533396 -0.00000004
0.32340243 0.18817092 0.00000401
-0.35402036 -0.02468296 -0.00000003
-0.23527984 0.22592761 0.00000000
0.46049228 -0.79807407 0.00000000
0.41578332 -0.05134551 -0.00000027
-0.55198157 -0.68048000 0.00000000
0.25715074 0.46218523 0.00000070
-0.34258077 0.45402879 -0.00000043
0.22801854 -0.41556680 0.00000000
-0.78277218 -0.36334392 -0.00000055
0.35426012 -0.03367354 -0.00000004
-0.52590555 -0.31550860 -0.00000014
0.74266356 -0.32124764 -0.00000119
0.79846889 -0.31228557 -0.00000122
-0.37414697 -0.57132179 0.00000000
-0.17912783 0.09161473 0.00000000
-0.22163269 0.08810025 0.00000000
-0.29320979 -0.57689369 0.00000000
-0.18635537 0.39806011 -0.00000004
-0.54322773 -0.38652724 -0.00000011
-0.06073902 -0.08261896 0.00000000
0.56041068 -0.48043784 -0.00000013
0.59134465 -0.62417006 -0.00000001
0.49102369 -0.36710173 -0.00000003
-0.25128281 -0.12855068 0.00000000
0.08447433 0.43676379 0.00000417
-0.48091680 0.04792791 -0.00000036
0.29214984 -0.32352936 0.00000000
0.63665450 -0.16074848 -0.00000102
0.49466768 -0.56708103 0.00000000
-0.22121362 0.54220665 0.14670591
-0.05599277 -0.67126083 0.00000000
-0.29724315 -0.38099140 0.00000000
-0.11786110 0.49379084 0.00000000
-0.19661735 -0.34230459 0.00000000
0.43840969 -0.34088010 0.00000000
0.10000564 -0.72203237 0.00000000
-0.78659284 -0.21867605 -0.00000073
0.16281828 0.38086882 0.00000383
-0.63964897 -0.48548171 -0.00000023
-0.74607176 -0.29323038 -0.00000063
-0.01937092 0.12583014 0.00000000
-0.52853233 -0.69960147 0.00000000
0.46010441 -0.07346125 -0.00000042
0.27769035 -0.29667386 0.00000000
-0.54735494 -0.26865962 -0.00000022
0.51568872 -0.10533029 -0.00000060
0.60053790 -0.31936178 -0.00000058
-0.15656269 -0.77337247 0.00000000
0.30130538 0.20176312 0.00000421
-0.16612659 -0.64967388 0.00000000
-0.36519027 -0.39862540 0.00000000
0.09356870 0.23704334 0.00000703
-0.41793072 -0.05224814 -0.00000014
-0.79096806 -0.65458584 -0.00000018
0.46224827 -0.28795248 -0.00000005
0.75400877 -0.08408881 -0.00000166
-0.32374117 0.44861093 0.11088347
-0.41676730 -0.31043047 0.00000000
-0.03299692 -0.09861443 0.00000000
-0.14599641 -0.14803007 0.00000000
-0.43130651 -0.23837812 -0.00000000
0.00373086 -0.76274121 0.00000000
-0.49598581 0.23824336 -0.00000056
-0.27372375 -0.27914160 0.00000000
-0.56295878 -0.19863804 -0.00000032
0.79429895 -0.08594194 -0.00000179
-0.58881027 0.06842997 -0.00000061
-0.26583427 0.29363075 -0.00000012
-0.02637600 0.47264162 0.00000000
0.20664935 0.27708974 0.00000473
-0.17957237 0.39336500 -0.00000002
0.55547541 -0.39440119 -0.00000026
0.04371040 -0.25351617 0.00000000
-0.22728619 0.02948876 0.00000000
-0.33178601 0.19974938 -0.00000018
0.45896256 0.26474324 0.00000013
-0.43674371 0.01971765 -0.00000024
0.69268316 0.08040628 -0.00000128
0.10798019 -0.17895836 0.00000000
-0.52737963 -0.54810667 0.00000000
0.25413269 -0.56690127 0.00000000
-0.13670282 0.34516537 0.00000000
0.77318662 0.02383947 -0.00000193
0.63983291 -0.55820131 -0.00000033
0.07443473 -0.41356507 0.00000000
-0.75125098 -0.50374156 -0.00000037
0.16240454 0.18967704 0.00000670
0.02959131 0.13660334 0.00000950
-0.52718925 -0.76098347 0.00000000
0.13195720 -0.35328361 0.00000000
0.32086188 0.36948946 0.00000103
0.38943678 -0.28062102 0.00000000
-0.12533423 0.31663185 0.00000000
-0.79309738 -0.31139588 -0.00000061
-0.41641846 -0.04034653 -0.00000015
-0.08995643 -0.61646473 0.00000000
-0.00606782 0.69933152 0.00000000
-0.03535000 -0.35334429 0.00000000
-0.58373487 -0.76103210 0.00000000
-0.14468800 0.00795632 0.00000000
0.19660395 0.58841342 -0.00000024
0.23220702 0.10239034 0.00000696
0.12713528 0.58322471 0.00000118
-0.42096975 -0.25945401 0.00000000
-0.36031237 -0.24880664 0.00000000
-0.05578678 0.67796439 -0.00000001
-0.50146115 -0.16235910 -0.00000022
0.10733188 -0.04063871 0.00000000
0.40993240 -0.44449657 0.00000000
0.08051130 -0.50566018 0.00000000
0.29447028 0.11062437 0.00000586
0.31240600 -0.58872312 0.00000000
0.63419157 -0.55924898 -0.00000030
-0.08259883 -0.13505830 0.00000000
-0.20300607 -0.01222419 0.00000000
-0.42352450 -0.70298302 0.00000000
0.43352944 0.20801736 0.00000156
0.03974301 -0.21631010 0.00000000
0.48123583 -0.45681214 0.00000000
-0.75896102 -0.67487484 -0.00000016
0.53616577 0.05156537 0.00000221
-0.09336083 0.12698007 0.00000000
-0.31435758 -0.48591676 0.00000000
0.37599665 -0.59062207 0.00000000
-0.57261109 0.18589333 0.16641736
0.15333411 -0.38452327 0.00000000
0.15509582 -0.50688696 0.00000000
0.16632269 0.49286848 0.00000194
-0.02226883 0.35705292 0.00000000
0.16483071 -0.29197970 0.00000000
-0.54900670 -0.13920286 -0.00000034
0.11727413 0.11500815 0.00000851
-0.05443555 0.52738452 0.00000000
0.31448910 0.09700222 0.00000570
-0.67150944 -0.32569754 -0.00000044
-0.08433830 -0.41860852 0.00000000
-0.21852522 0.04491901 0.00000000
0.67648131 -0.63134480 -0.00000036
-0.16758431 -0.43728411 0.00000000
0.31589308 -0.30187234 0.00000000
-0.53550428 -0.29904273 -0.00000017
-0.66599375 -0.42922559 -0.00000033
-0.17704472 -0.64721018 0.00000000
0.15188134 -0.05290645 0.00000000
0.75580263 -0.01417980 -0.00000179
-0.52215141 -0.08600415 -0.00000033
-0.71844703 -0.61729443 -0.00000023
-0.58536834 -0.51411504 -0.00000009
0.19129190 -0.49654594 0.00000000
-0.11891104 -0.59510720 0.00000000
-0.77703959 -0.64662135 -0.00000019
-0.65727025 -0.20013028 -0.00000052
-0.10265972 0.56650984 -0.00000001
-0.76228064 -0.18004267 -0.00000076
0.46280867 -0.07139010 -0.00000043
0.50247562 -0.10224223 -0.00000055
-0.23725601 -0.20451961 0.00000000
0.67701215 0.04535478 -0.00000040
0.27633902 0.35703108 0.00000209
-0.36804062 0.39639977 0.14261322
0.31246135 -0.04153155 0.00000000
0.12735675 -0.34434792 0.00000000
-0.21954408 0.56918716 -0.00000026
0.57754946 -0.79279709 0.00000000
-0.42623264 0.16654988 -0.00000035
-0.30228019 -0.38750309 0.00000000
-0.44525978 -0.07739672 -0.00000017
-0.28715169 0.44113758 0.28759730
0.24867250 -0.13665046 0.00000000
0.13391247 0.56293613 0.00000139
-0.41331983 -0.58202690 0.00000000
0.71620953 -0.54336601 -0.00000064
0.49103710 -0.78720528 0.00000000
-0.57380968 -0.49444655 -0.00000008
-0.57430565 -0.78035408 0.00000000
-0.04120670 -0.10102825 0.00000000
-0.10699505 0.06262431 0.00000000
0.32933772 0.43114486 -0.00000016
-0.55897236 -0.17690116 -0.00000033
0.09282015 -0.65698391 0.00000000
-0.55552077 0.07216512 -0.00000054
-0.41263941 0.24923803 -0.00000039
-0.54476219 -0.63882655 0.00000000
-0.67574805 -0.04592861 -0.00000069
-0.21963423 0.09285415 0.00000000
-0.29645482 -0.53235126 0.00000000
0.45312473 -0.65556461 0.00000000
0.76093566 -0.73004156 -0.00000017
-0.06986663 0.17052090 0.00000000
-0.27154887 -0.46636361 0.00000000
0.61742061 -0.59731030 -0.00000016
-0.59784108 0.04903570 -0.00000061
0.22420985 0.33800772 0.00000341
-0.77934098 -0.34653604 -0.00000057
-0.44086272 0.26764616 -0.00000047
-0.56742722 0.08511067 -0.00000058
0.62173593 -0.23026156 -0.00000083
0.68804234 -0.35860604 -0.00000089
0.38384473 0.27590406 0.00000138
-0.40265879 -0.05957210 -0.00000010
0.71398950 -0.76019722 -0.00000010
-0.76458055 -0.45274156 -0.00000043
0.05141716 0.27900839 0.00000704
0.52164292 0.09452193 0.00000177
0.10139346 -0.07834946 0.00000000
-0.34438160 -0.05638626 0.00000000
0.03564217 -0.69871116 0.00000000
0.42524782 -0.06264029 -0.00000029
-0.74757177 -0.71800357 -0.00000010
0.60149509 -0.37586007 -0.00000049
0.63743460 -0.30051330 -0.00000077
0.69268656 -0.05781157 -0.00000144
0.02378767 -0.44940090 0.00000000
0.45586479 -0.70361269 0.00000000
-0.61335588 -0.39657277 -0.00000025
0.27840739 0.12740701 0.00000589
0.43466380 0.18072531 0.00000200
-0.05501300 -0.10751720 0.00000000
-0.31210065 0.13698186 -0.00000008
-0.47893548 -0.12616538 -0.00000020
0.13681191 0.06101386 0.00000902
0.49481860 -0.20193130 -0.00000034
-0.21811967 -0.20719114 0.00000000
0.26376420 -0.51065356 0.00000000
0.10614231 0.67782861 0.00000000
0.50220913 -0.63320243 0.00000000
-0.39191365 -0.44651914 0.00000000
0.33741146 -0.13737549 0.00000000
0.36910933 -0.15890945 0.00000000
0.23671286 -0.66283441 0.00000000
0.28759459 -0.22400112 0.00000000
0.21704710 -0.27081048 0.00000000
-0.54624957 0.15392928 -0.00000059
-0.22993805 0.20914100 0.00000000
0.19706164 -0.38429925 0.00000000
-0.28390282 -0.12951431 0.00000000
0.71568567 -0.55456764 -0.00000061
0.05355389 -0.60575831 0.00000000
0.53366750 -0.75185716 0.00000000
0.36454666 -0.74153745 0.00000000
0.01567970 0.37818572 0.00000609
0.44693628 0.30531126 -0.00000032
-0.57711595 0.04096330 -0.00000056
-0.20956495 -0.33216375 0.00000000
-0.25891331 -0.71113259 0.00000000
-0.37370858 -0.53102714 0.00000000
-0.52158499 -0.34141842 -0.00000010
0.20205548 -0.65893352 0.00000000
-0.63554674 -0.77879763 0.00000000
0.46157551 -0.46465150 0.00000000
-0.22824308 -0.73867381 0.00000000
0.04199609 -0.72722232 0.00000000
0.19339351 -0.56121075 0.00000000
-0.54104209 -0.26672700 -0.00000021
0.18731010 -0.00599736 0.00000000
0.63056272 -0.75225163 0.00000000
0.21211796 0.56100583 -0.00000008
-0.45302260 0.11441407 -0.00000036
0.09059067 0.33938241 0.00000554
0.24769615 -0.27948898 0.00000000
0.43069893 -0.29959550 0.00000000
-0.33934820 -0.28208113 0.00000000
-0.46769083 -0.54499316 0.00000000
-0.27945483 0.10165142 0.00000000
0.01842406 -0.73905116 0.00000000
0.23953380 0.41491607 0.00000183
-0.41434395 -0.00781932 -0.00000017
0.44374141 -0.71677333 0.00000000
0.12840138 -0.25857151 0.00000000
0.38586253 -0.58514303 0.00000000
0.03084542 0.42657274 0.00000514
0.66142577 0.07757298 -0.00000063
-0.52605999 0.03879768 -0.00000045
0.41345593 -0.47541153 0.00000000
-0.60944086 0.09754823 -0.00000068
0.79921138 -0.29355264 -0.00000127
0.07250006 -0.32159722 0.00000000
0.29883158 0.49164456 -0.00000059
0.22417264 0.36116093 0.00000303
-0.61514443 -0.65914577 -0.00000002
0.54883194 -0.61284167 0.00000000
-0.75697410 -0.32033852 -0.00000060
-0.59293777 0.08409025 -0.00000063
0.33842137 0.00890710 0.00000672
-0.49581233 -0.38526931 -0.00000001
0.52433497 -0.44875225 -0.00000003
-0.65046978 -0.71573365 -0.00000005
0.21022339 0.14271115 0.00000669
-0.11212478 -0.11151994 0.00000000
0.37910244 -0.73557729 0.00000000
-0.37363213 0.03560735 -0.00000012
0.29176900 0.13278046 0.00000554
0.03460405 -0.05127692 0.00000000
-0.09972889 -0.33742306 0.00000000
0.42865705 -0.41551059 0.00000000
-0.50024807 -0.54226142 0.00000000
0.33241507 -0.53631312 0.00000000
-0.63516319 0.10274294 -0.00000074
0.17044166 0.44424736 0.00000267
0.41585076 0.08152152 0.00000402
0.17067645 0.44736207 0.00000261
0.38841078 0.20828459 0.00000243
-0.37823066 0.37983778 -0.00000044
-0.30232471 0.48635495 -0.00000037
0.37698108 0.05729473 0.00000517
-0.13682139 -0.58523965 0.00000000
0.64932114 -0.06583090 -0.00000124
-0.79525077 -0.54138017 -0.00000032
0.53730893 -0.65456456 0.00000000
-0.10668750 -0.75454283 0.00000000
0.48652112 -0.67948377 0.00000000
-0.29303104 -0.52524072 0.00000000
0.33385289 -0.16648939 0.00000000
0.44013044 0.17544737 0.00000198
0.16296159 -0.44711396 0.00000000
0.59903693 -0.07059147 -0.00000102
0.16655502 -0.76546860 0.00000000
-0.24432591 -0.16565704 0.00000000
0.14970949 0.57734919 0.00000084
0.48950443 -0.42106333 0.00000000
-0.11713419 -0.44885382 0.00000000
0.00816889 -0.22380923 0.00000000
0.24175203 -0.11961490 0.00000000
-0.59046525 -0.67006934 0.00000000
0.47905123 0.17021282 0.00000132
0.10611224 0.36647916 0.00000490
-0.09973584 0.51710355 0.00000000
-0.00541104 0.35169244 0.00000000
0.20562847 0.51975960 0.00000073
-0.00019589 -0.32705560 0.00000000
-0.07910408 0.36022568 0.00000000
-0.49224108 -0.52540284 0.00000000
-0.11048107 -0.02845139 0.00000000
-0.13961750 -0.03817239 0.00000000
0.47960222 -0.14391568 -0.00000038
-0.01977764 0.01841447 0.00000000
0.03794722 0.35560754 0.00000609
-0.64228117 -0.08649325 -0.00000059
0.18961602 0.28103495 0.00000492
-0.72374576 -0.29851711 -0.00000057
0.66598952 -0.65895218 -0.00000026
-0.35933185 -0.49075741 0.00000000
0.03855426 -0.30265072 0.00000000
0.01598049 -0.74218130 0.00000000
-0.34608200 -0.67253757 0.00000000
0.05735159 -0.09401623 0.00000000
-0.44305146 0.33300525 0.09602464
0.58312041 0.10005019 0.00000049
0.08580313 0.00979219 0.00001056
-0.32694453 -0.21243624 0.00000000
0.22137167 0.25274771 0.00000487
-0.03317454 0.38687003 0.00000000
-0.46907064 0.30178475 -0.00000056
-0.32571059 0.04095447 -0.00000002
0.35253492 0.06132350 0.00000557
0.78143388 -0.00695436 -0.00000191
0.32048514 -0.04817648 0.00000000
-0.41336015 -0.15259734 -0.00000004
0.10348493 -0.64546847 0.00000000
-0.23210581 -0.52135026 0.00000000
0.40246227 -0.65091336 0.00000000
-0.00638467 -0.37972316 0.00000000
-0.29724070 -0.30608922 0.00000000
-0.53770649 -0.00953056 -0.00000043
-0.25318751 -0.20602570 0.00000000
0.26968840 -0.10892124 0.00000000
-0.32300374 -0.46862051 0.00000000
0.46308672 -0.48138630 0.00000000
-0.06403934 0.02249073 0.00000000
-0.33620352 -0.12485292 0.00000000
0.04832600 0.22838502 0.00000785
-0.49130788 0.15886927 -0.00000048
0.44444910 -0.21220770 -0.00000011
-0.67782837 -0.53131199 -0.00000027
0.52460587 -0.60383564 0.00000000
-0.67661983 0.07927888 -0.00000081
0.19075660 0.31310496 0.00000443
-0.54434848 0.17471817 -0.00000061
-0.20598912 -0.30304796 0.00000000
0.08874102 -0.43338120 0.00000000
-0.09670864 -0.51188999 0.00000000
-0.05459094 -0.19807896 0.00000000
0.26353875 -0.14416355 0.00000000
0.51360607 0.02031765 0.00000316
0.45163167 -0.22333647 -0.00000012
0.46173757 0.24324471 0.00000043
-0.28604785 -0.32774469 0.00000000
0.22718954 0.56849456 -0.00000050
-0.40470994 -0.09888058 -0.00000007
0.15752761 0.53798133 0.00000135
-0.34270832 0.20563693 -0.00000021
0.13063508 0.54318523 0.00000178
-0.31573841 0.41229281 0.28863230
0.55458528 -0.57329178 0.00000000
-0.04000718 -0.22048295 0.00000000
-0.30096707 -0.10210057 0.00000000
0.22383112 0.01033548 0.00000847
-0.42137802 0.00209879 -0.00000019
-0.31540892 -0.51428789 0.00000000
0.25822079 -0.73836643 0.00000000
-0.04708862 -0.50506300 0.00000000
-0.60456717 -0.59864312 -0.00000005
-0.30425936 0.02437959 0.00000000
-0.10797278 -0.38498294 0.00000000
-0.69867373 -0.47658357 -0.00000036
0.47519013 -0.00927823 -0.00000060
0.41116375 -0.67198753 0.00000000
-0.47025225 0.14361642 -0.00000042
-0.10029337 0.23834309 0.00000000
-0.78135270 -0.63674659 -0.00000020
0.27265263 -0.69337595 0.00000000
-0.02493899 -0.01348893 0.00000000
-0.46053371 0.14462630 -0.00000040
0.53945750 0.06783134 0.00000187
-0.68285912 -0.34852141 -0.00000044
-0.15573683 0.61713171 -0.00000017
0.64324117 -0.10189516 -0.00000115
-0.11969316 0.05143299 0.00000000
0.08038674 -0.36622843 0.00000000
-0.67785990 -0.10380862 -0.00000065
-0.26290244 -0.19080935 0.00000000
-0.75242805 -0.27573019 -0.00000065
0.20370829 0.16622932 0.00000643
0.18732792 0.35082999 0.00000391
-0.11006567 -0.01103634 0.00000000
-0.55055773 -0.36693922 -0.00000014
-0.28046659 -0.10104104 0.00000000
-0.20824376 -0.15677711 0.00000000
0.38140240 -0.54832631 0.00000000
-0.08739948 0.65696424 -0.00000006
0.57468122 -0.74918586 0.00000000
-0.21640059 -0.57638907 0.00000000
0.70247513 -0.54218668 -0.00000063
-0.44918203 -0.44708884 0.00000000
0.05742729 -0.76239258 0.00000000
-0.07444652 0.11087565 0.00000000
0.46372122 0.13361377 0.00000223
0.32410035 -0.04898858 0.00000000
0.11957923 0.48755684 0.00000288
-0.33653814 -0.15735230 0.00000000
0.15468518 -0.51298720 0.00000000
-0.64055979 -0.71594912 -0.00000003
0.67488015 -0.38293219 -0.00000079
-0.47631279 0.24807575 -0.00000053
0.03223856 -0.75476903 0.00000000
0.12747908 0.37823045 0.00000440
0.17353892 0.27501115 0.00000526
-0.36747676 -0.27356017 0.00000000
-0.79949957 -0.37771553 -0.00000053
0.10650804 -0.48866388 0.00000000
-0.37574846 -0.07795780 -0.00000003
-0.05377332 -0.32189378 0.00000000
-0.50787210 0.06026575 -0.00000043
-0.21138670 -0.65830606 0.00000000
-0.46645376 -0.73064953 0.00000000
0.53148770 0.02997804 0.00000266
-0.00829431 0.03486192 0.00000000
0.74769050 -0.09247798 -0.00000161
0.03711846 0.24445505 0.00000777
0.78951418 -0.52078480 -0.00000070
-0.75490654 -0.42127210 -0.00000047
0.24331260 0.15928234 0.00000594
0.43208987 -0.24719667 0.00000000
-0.06516968 -0.21504943 0.00000000
0.01686798 0.57965320 0.00000305
-0.41800150 -0.05821831 -0.00000013
-0.57775736 -0.64610696 0.00000000
0.21832784 0.30777973 0.00000403
0.71392423 -0.28685775 -0.00000113
0.70800066 -0.26792184 -0.00000113
-0.35333279 -0.02417754 -0.00000003
-0.28839028 -0.53554130 0.00000000
0.14034663 -0.64826208 0.00000000
-0.13798957 0.35923392 0.00000000
-0.34861439 -0.32054126 0.00000000
0.10252517 -0.17875941 0.00000000
-0.14480817 0.15562180 0.00000000
-0.01940083 -0.70269442 0.00000000
-0.60992241 -0.35355189 -0.00000028
0.57412958 -0.42946035 -0.00000028
-0.07428214 -0.65534657 0.00000000
0.76009053 -0.15066779 -0.00000156
-0.28900638 -0.16536216 0.00000000
-0.39486879 -0.14217035 -0.00000001
-0.26071939 -0.45061129 0.00000000
0.13915542 -0.55802310 0.00000000
0.19306032 -0.43165827 0.00000000
-0.16951139 -0.15663262 0.00000000
0.04634566 0.10067450 0.00000979
-0.28260556 -0.47471341 0.00000000
-0.41385114 -0.62597787 0.00000000
0.38888171 0.03568587 0.00000530
-0.56064641 -0.14065681 -0.00000036
-0.00918904 -0.66622210 0.00000000
0.26897469 0.12971523 0.00000600
-0.55764914 -0.13453391 -0.00000036
-0.14762515 0.55904824 -0.00000010
0.38732633 -0.34204814 0.00000000
-0.68735021 -0.26847714 -0.00000052
-0.12578125 -0.44671392 0.00000000
-0.20671983 -0.41365024 0.00000000
0.73059797 -0.44035754 -0.00000090
-0.07542310 0.26338860 0.00000000
0.22694723 0.50810826 0.00000052
0.75949782 -0.09139814 -0.00000167
-0.05130089 -0.10228653 0.00000000
0.61652577 -0.15230410 -0.00000095
0.12519380 0.48708746 0.00000280
0.66168880 -0.57270205 -0.00000040
-0.59105438 -0.56784344 -0.00000005
0.62081116 -0.03724350 -0.00000117
-0.11556445 -0.19073358 0.00000000
-0.10889662 0.39932570 0.00000000
-0.01700264 0.25609019 0.00000000
-0.57823622 -0.00930971 -0.00000052
0.67283207 -0.24997568 -0.00000102
-0.49000236 -0.46135116 0.00000000
-0.51268685 -0.76375359 0.00000000
0.57004720 -0.36422032 -0.00000037
-0.21303931 0.00859068 0.00000000
-0.50706005 0.12751162 -0.00000049
0.52667713 -0.78474408 0.00000000
0.62396568 0.07611404 0.00000011
-0.03771267 0.16536956 0.00000000
-0.08462209 0.43281275 0.00000000
0.40098631 -0.00921854 -0.00000028
0.25433120 -0.30653089 0.00000000
-0.61546195 -0.47342452 -0.00000019
0.03247595 0.57619590 0.00000287
-0.64991206 -0.01302948 -0.00000067
-0.78583145 -0.27996778 -0.00000065
0.72146279 -0.25517079 -0.00000121
0.55688745 0.01721382 0.00000238
0.64570475 -0.67499065 -0.00000015
0.17704096 0.52394450 0.00000121
0.20705129 0.47304541 0.00000149
-0.30971372 -0.42979062 0.00000000
0.55294627 0.20183700 -0.00000063
0.45998085 -0.73696876 0.00000000
0.78170604 -0.23372781 -0.00000142
-0.67736357 -0.33385572 -0.00000044
0.11665189 -0.76903665 0.00000000
0.30584052 -0.72020715 0.00000000
-0.68049216 -0.19472305 -0.00000057
-0.03339125 -0.34302866 0.00000000
0.50613171 0.04204921 0.00000294
-0.32909930 -0.30549932 0.00000000
-0.09671304 -0.75728196 0.00000000
0.06005672 0.08835322 0.00000977
0.47132111 0.05006485 0.00000348
-0.44068319 -0.43279541 0.00000000
-0.08967476 -0.09719837 0.00000000
0.15782289 0.57398897 0.00000074
-0.55232483 0.09210605 -0.00000055
0.18539971 0.09910220 0.00000772
-0.45210221 -0.78811532 0.00000000
0.05498467 0.62289006 0.00000183
-0.30244851 -0.50760883 0.00000000
0.77086353 -0.30741468 -0.00000123
-0.26713818 -0.60020620 0.00000000
-0.06030465 -0.06228022 0.00000000
-0.71742237 -0.38760981 -0.00000048
0.19766787 -0.53771931 0.00000000
-0.22798407 0.35961413 -0.00000010
-0.48083830 -0.57540315 0.00000000
-0.42670348 -0.50048643 0.00000000
-0.58583915 -0.75434154 0.00000000
0.50811785 0.09990881 0.00000194
0.32227528 -0.04546769 0.00000000
-0.51993185 -0.21828462 -0.00000021
-0.16255198 0.30102292 0.00000000
-0.56009001 -0.77539116 0.00000000
0.78686064 -0.45687658 -0.00000086
0.45822778 0.01176511 0.00000437
0.42449602 -0.23740663 0.00000000
-0.54215133 -0.28877425 -0.00000019
-0.30050781 0.23995079 -0.00000015
-0.60431808 -0.39632252 -0.00000023
-0.59982377 0.17984350 -0.00000073
-0.07673142 0.53159148 0.00000000
-0.63976598 -0.43648180 -0.00000027
-0.23927899 -0.48934713 0.00000000
0.42259106 0.23535331 0.00000132
0.68281698 -0.36795834 -0.00000085
-0.37602758 -0.26500124 0.00000000
0.69577342 -0.35530034 -0.00000093
0.52036315 0.19475150 0.00000012
0.46689308 -0.72703868 0.00000000
-0.09069641 0.68740356 -0.00000009
-0.61292160 -0.06870874 -0.00000054
0.00889558 -0.10849164 0.00000000
-0.60505444 -0.67711729 0.00000000
-0.34016940 0.24644119 -0.00000024
0.76821429 -0.40141454 -0.00000100
-0.68598485 -0.76810199 -0.00000004
-0.00759996 0.63526499 0.00000000
0.13732594 0.60336208 0.00000065
0.14640404 -0.44018906 0.00000000
0.11998047 -0.72457618 0.00000000
0.75019324 -0.59368563 -0.00000052
0.06753543 0.03773341 0.00001041
-0.35805321 0.36683139 0.30125177
0.59359580 -0.47198117 -0.00000028
0.05896292 -0.12648660 0.00000000
0.18260185 -0.13201146 0.00000000
0.34059301 -0.78658623 0.00000000
0.47630790 0.01218712 0.00000401
0.59687781 0.18867423 -0.00000125
0.34892309 -0.75064486 0.00000000
0.07760394 0.43012992 0.00000438
-0.72526264 -0.19241507 -0.00000067
0.15105055 0.27081606 0.00000566
0.19126295 0.37748250 0.00000338
-0.26573759 -0.27010453 0.00000000
0.33922353 -0.09419664 0.00000000
-0.22823302 0.45228821 -0.00000018
0.74746370 0.00630326 -0.00000110
0.21287969 -0.58362973 0.00000000
-0.11560005 -0.62564009 0.00000000
-0.57640046 -0.17128456 -0.00000037
-0.59843326 -0.56903142 -0.00000007
0.67055035 -0.01921090 -0.00000141
0.45134953 0.15318193 0.00000214
-0.19185643 -0.17547001 0.00000000
0.56863141 0.11804349 0.00000047
0.72850895 -0.72153884 -0.00000020
-0.68293059 -0.73325723 -0.00000008
0.78719586 -0.45248958 -0.00000087
0.54413939 -0.06955420 -0.00000079
-0.79449415 -0.74124742 -0.00000007
0.18151434 -0.52338517 0.00000000
-0.27074611 0.32847887 -0.00000016
-0.55058050 0.12923206 -0.00000058
-0.32749388 0.33666977 0.54477030
0.37202132 0.21962310 0.00000255
-0.32629159 0.01677074 -0.00000000
-0.21276920 -0.49235645 0.00000000
-0.12662797 -0.52908880 0.00000000
-0.78661150 -0.51474804 -0.00000036
-0.23868246 -0.05509169 0.00000000
0.26769444 0.23678870 0.00000427
0.44080731 -0.24296598 -0.00000004
-0.45058385 -0.21488996 -0.00000006
0.47924748 -0.17762510 -0.00000032
0.77339768 -0.12587769 -0.00000166
-0.35915691 -0.07290535 0.00000000
0.21656121 -0.26815733 0.00000000
0.66854531 -0.04335537 -0.00000136
0.22266956 -0.27972999 0.00000000
0.26671380 0.43118626 0.00000104
-0.23492166 0.44944775 -0.00000019
-0.48133388 -0.23698562 -0.00000011
0.21332525 -0.07988390 0.00000000
0.59877908 -0.46222341 -0.00000032
0.33253911 -0.31739101 0.00000000
0.15604378 0.17548370 0.00000701
-0.75072688 -0.32040477 -0.00000060
-0.32594573 0.00724815 0.00000000
0.11818502 0.01007759 0.00001007
0.22349399 -0.60407251 0.00000000
-0.41973242 0.17506601 -0.00000034
-0.45393023 -0.30233288 0.00000000
-0.27879465 -0.74301016 0.00000000
0.28223854 -0.40664282 0.00000000
0.63437337 -0.44992906 -0.00000050
0.50969899 -0.07360010 -0.00000063
0.34078223 0.31211439 0.00000161
0.14411996 -0.07975123 0.00000000
0.33266854 0.02434000 0.00000657
0.08578681 0.12895843 0.00000877
0.65288407 -0.27906930 -0.00000088
-0.13768502 -0.13259432 0.00000000
0.23172326 -0.61559308 0.00000000
-0.11908222 0.08772529 0.00000000
-0.40510860 0.29489940 0.40101832
-0.09320257 0.39803699 0.00000000
0.00961159 -0.48830122 0.00000000
0.17261761 0.46609256 0.00000226
0.15475968 -0.70639026 0.00000000
-0.19236355 0.44440311 -0.00000010
-0.39203569 -0.19263861 0.00000000
0.63816112 -0.07854608 -0.00000117
-0.76719075 -0.02218020 -0.00000091
-0.43189254 -0.73672736 0.00000000
0.16108513 -0.57264787 0.00000000
-0.69158983 -0.36839038 -0.00000044
0.53781015 -0.26814726 -0.00000041
-0.09412937 0.51833028 0.00000000
0.42217803 -0.56728321 0.00000000
-0.40364197 -0.32131726 0.00000000
0.05735273 -0.39566088 0.00000000
-0.61817127 0.11443313 -0.00000071
0.42155972 -0.58588278 0.00000000
0.08053226 -0.42401692 0.00000000
-0.31135660 -0.73753124 0.00000000
0.71443486 0.03882829 -0.00000101
-0.05621126 0.50630420 0.00000000
-0.15610310 0.60307175 -0.00000016
0.41475123 -0.77571303 0.00000000
-0.39053947 -0.10391495 -0.00000003
-0.09324099 -0.23818374 0.00000000
-0.33826917 -0.09170856 0.00000000
0.54361933 -0.72969496 0.00000000
0.04676025 0.17691660 0.00000864
0.77606702 -0.44474369 -0.00000089
-0.10223977 -0.58501971 0.00000000
-0.32154757 -0.45635045 0.00000000
0.31054270 -0.79320043 0.00000000
0.36377108 -0.20614798 0.00000000
0.27784902 -0.62867498 0.00000000
-0.02845862 0.27761063 0.00000000
0.19795902 -0.73279059 0.00000000
0.10647850 0.58487481 0.00000155
-0.49203154 -0.18738939 -0.00000018
0.55974895 0.23021643 -0.00000123
0.13310879 -0.58805537 0.00000000
0.44968531 -0.43686593 0.00000000
-0.66524529 0.09672614 -0.00000080
-0.76426291 -0.39981255 -0.00000050
0.72273791 -0.10056275 -0.00000149
0.06114620 0.64708805 0.00000137
-0.30580372 0.47363704 -0.00000036
0.39838696 -0.66875911 0.00000000
0.17606878 -0.25329289 0.00000000
0.72569996 -0.62535787 -0.00000044
