ply
format ascii 1.0
element vertex 1247
property float x
property float y
property float z
end_header
-0.47304809 -0.76176989 0.00000226
-0.72388959 -0.03067510 -0.00000124
-0.77918994 -0.42107922 -0.00000095
-0.34391999 -0.41776210 0.00000275
-0.17068414 0.15175758 0.00000810
-0.03834820 0.04957130 0.00001099
-0.08126338 0.04604968 0.00001037
-0.49190882 0.15776691 0.00000227
-0.14380810 -0.16826351 0.00000263
-0.72975361 0.06961230 -0.00000138
-0.28374654 0.24364008 0.00000537
-0.28793418 -0.41683525 0.00000250
-0.76109767 -0.33969104 -0.00000115
-0.08124167 -0.04346579 0.00000273
-0.31575963 0.18446925 0.00000537
-0.29463562 0.00573431 0.00000750
-0.48764312 -0.67629975 0.00000259
-0.23291793 0.21704040 0.00000659
-0.46022177 0.02422320 0.13761000
-0.36692655 0.36608097 0.00000249
-0.31957266 -0.15178974 0.00000347
-0.52824539 0.03972093 0.00000280
-0.46424967 -0.73184389 0.00000231
-0.47842881 -0.41255689 0.00000338
-0.42310762 -0.60723293 0.00000252
-0.46126390 -0.18709354 0.05191968
-0.58260041 -0.19693261 0.00000026
-0.34240371 0.41424352 0.00000246
-0.33440915 0.14092958 0.06085347
-0.07919278 -0.44108620 0.00000148
-0.47150391 -0.64365530 0.00000262
-0.47945195 -0.20967282 0.00000126
-0.67234439 -0.64870977 -0.00000022
-0.03996922 -0.62083691 0.00000074
-0.53240764 -0.48736244 0.00000339
-0.29596129 -0.33490953 0.00000279
-0.16617893 -0.23553465 0.00000252
-0.72921890 -0.14992866 -0.00000119
-0.37568372 -0.77937490 0.00000177
-0.02114035 -0.60017800 0.00000072
-0.00531521 -0.71859193 0.00000025
-0.09384721 0.17064053 0.00000909
-0.19169576 -0.68548012 0.00000123
-0.40139097 -0.43996835 0.00000294
-0.20723766 0.44386756 0.00000474
-0.08963625 -0.09812401 0.00000260
-0.44101962 -0.53291297 0.00000283
-0.42760649 0.29210562 0.00000210
-0.00862345 0.55208004 0.00000704
-0.42469376 -0.51766837 0.00000280
-0.20993206 0.46894023 0.00000443
-0.08802746 -0.65417022 0.00000085
-0.08299414 -0.52909571 0.00000122
-0.36585832 -0.31552327 0.00000317
-0.03812803 -0.21810606 0.00000199
-0.06330300 0.28246897 0.00000857
-0.19319531 0.04455467 0.00000870
-0.08539711 0.20221473 0.00000894
-0.77743477 -0.08776469 -0.00000171
-0.35650796 0.16181569 0.09131992
-0.39407220 -0.37522969 0.00000311
-0.26472360 0.49818289 0.00000307
-0.65574342 0.09786703 -0.00000025
-0.13569123 0.38267365 0.00000660
-0.53448367 -0.33171222 0.00000083
-0.01540184 0.11766314 0.00001074
-0.29451513 0.48476478 0.00000264
-0.40967032 -0.07803274 0.00000181
-0.48643148 -0.50436401 0.00000313
-0.55043930 -0.30914932 0.00000066
-0.40169927 0.06905532 0.00000493
-0.66346407 0.06249237 -0.00000003
-0.52313542 -0.15272273 0.00000079
-0.16985790 0.20455712 0.00000765
-0.16886857 0.29820108 0.00000684
-0.73280448 -0.16585723 -0.00000121
-0.78985488 -0.01455069 -0.00000189
-0.28278413 0.32946119 0.00000449
-0.32859626 -0.33171034 0.00000295
-0.70887887 0.00581317 -0.00000031
-0.28131440 0.34225687 0.00000438
-0.10449854 0.27400935 0.00000803
-0.00007823 0.09729701 0.00001115
-0.55953264 -0.46733671 0.00000071
-0.27008849 0.25326416 0.04322748
-0.23726027 -0.38989210 0.00000236
-0.28961980 0.30801496 0.00000458
-0.72626090 0.05094946 -0.00000112
-0.25685900 -0.39505720 0.00000243
-0.79672164 -0.24436256 -0.00000139
-0.22843818 0.56313902 0.00000309
-0.40716398 -0.77840078 0.00000191
-0.31136331 0.14105904 0.00000591
-0.37199649 -0.46707910 0.00000272
-0.06730054 -0.49549088 0.00000126
-0.72482139 -0.39840382 -0.00000094
-0.29965821 -0.60753644 0.00000196
-0.64470422 -0.42696339 -0.00000014
-0.09931374 -0.46500781 0.00000150
-0.14374743 0.54452115 0.03758167
-0.36721948 0.14069928 0.00000484
-0.30930474 0.05448391 0.00050400
-0.49155182 -0.09385347 0.00000104
-0.40232253 0.11206952 0.00000447
-0.39552879 -0.49650377 0.00000274
-0.24999727 -0.70416868 0.00000143
-0.60460001 -0.75554591 0.00000288
-0.77861631 -0.62352145 -0.00000044
-0.38695249 -0.29025906 0.00000334
-0.47728050 0.27239269 0.00000135
-0.04594820 -0.39605862 0.00000147
-0.04644045 -0.28464195 0.00000182
-0.33059350 0.37440103 0.00000310
-0.09243648 -0.75261712 0.00000057
-0.37548843 -0.42982227 0.00000286
-0.41442338 0.19013801 0.00000342
-0.22221319 -0.01503717 0.00000346
-0.46343166 0.01014147 0.00000436
-0.34105366 -0.36090612 0.00000292
-0.31020573 -0.42107490 0.00000259
-0.09461197 -0.70590317 0.00000072
-0.63710415 -0.54097295 0.00000003
-0.16203247 0.29583463 0.00000697
-0.27959946 0.27975881 0.00000507
-0.73436439 -0.78382188 -0.00000004
-0.47840995 -0.46055368 0.00000323
-0.46476051 -0.46880415 0.00000314
-0.14832450 -0.14560129 0.00000272
-0.20721790 -0.70298052 0.00000124
-0.07116546 0.72701854 0.00000440
-0.55453807 -0.13558152 0.16547354
-0.21476018 0.27289230 0.00000637
-0.40476146 -0.60013127 0.00000246
-0.54538399 -0.30866098 0.00000071
-0.13817944 -0.54915500 0.00000141
-0.75499481 -0.14513496 -0.00000144
-0.51941597 -0.37414545 0.03277057
-0.15169521 0.41743541 0.00000606
-0.64322507 -0.66067475 0.00000007
-0.35633016 0.24058229 0.00000401
-0.20345055 0.00369849 0.00000890
-0.74382418 -0.79020751 -0.00000002
-0.23721610 -0.78700471 0.00000111
-0.44835469 0.03895302 0.00000435
-0.04833053 -0.47809830 0.00000122
-0.12299434 0.36607653 0.00000694
-0.71956307 -0.68847382 0.10207337
-0.43945596 0.29450282 0.00000185
-0.34205082 -0.41477907 0.00000275
-0.17110157 0.19717513 0.00000769
-0.40167895 -0.10280994 0.00000191
-0.37850600 -0.45254064 0.00000280
-0.50200230 -0.09206731 0.13128033
-0.50365472 -0.69130635 0.00000262
-0.26504153 -0.14125408 0.00000326
-0.53079897 -0.78126431 0.00000246
-0.31035674 0.35000446 0.12282575
-0.22093603 0.39214948 0.05152597
-0.65907347 -0.34341788 0.18375006
-0.20220225 0.39676335 0.03485851
-0.00293247 0.58001715 0.00000688
-0.09535742 0.48199156 0.00000634
-0.13070133 0.33563796 0.00000709
-0.27215287 0.29500097 0.06240129
-0.08423115 -0.52422071 0.00000124
-0.75222707 -0.66252869 -0.00000034
-0.48330617 0.17500904 0.00000225
-0.45219609 -0.08491766 0.08486776
-0.68491977 -0.76353323 -0.00000009
-0.56101197 -0.32332924 0.00000057
-0.03223874 0.68914920 0.00000548
-0.14628313 -0.48186776 0.00000166
-0.17955773 0.20090295 0.00000753
-0.03324307 -0.48760501 0.00000113
-0.59724182 -0.32070944 0.00000022
-0.08861031 -0.77069205 0.00000049
-0.01623135 0.62400645 0.00000630
-0.17443383 -0.67971218 0.00000117
-0.00384157 -0.59489316 0.00000064
-0.07057237 0.07171434 0.00001031
-0.54022378 0.21184377 0.00000077
-0.64782357 -0.54412872 -0.00000007
-0.41767287 -0.05497405 0.00000172
-0.10002162 -0.43364090 0.00000160
-0.55061656 -0.11164909 0.17140990
-0.02770367 0.27469036 0.00000918
-0.17659596 0.53431350 0.06593801
-0.65351486 -0.42891553 -0.00000023
-0.21374451 0.26878911 0.00000642
-0.59372652 -0.14468120 0.00000010
-0.76476836 -0.46715516 -0.00000083
-0.19638206 0.37537846 0.02031581
-0.43098405 -0.72518760 0.00000218
-0.74193132 -0.40923807 -0.00000098
-0.35918167 -0.50893402 0.00000254
-0.00769233 0.50541514 0.00000746
-0.19135685 -0.46767467 0.00000190
-0.76319945 -0.49014875 -0.00000077
-0.50148010 -0.37231284 0.01575225
-0.68484640 -0.64425081 -0.00000035
-0.02326202 0.28565446 0.00000915
-0.22465578 -0.04456368 0.00000338
-0.21002427 0.42440870 0.00000489
-0.61061567 0.11014097 0.00000049
-0.56649733 0.03262239 0.00000214
-0.49427158 -0.26273435 0.00000116
-0.11554957 -0.29595175 0.00000210
-0.44329989 -0.71744609 0.00000226
-0.15493178 -0.76690161 0.00000080
-0.68927079 -0.53098536 -0.00000048
-0.21437873 0.20504640 0.00000697
-0.64335161 -0.02659375 -0.00000047
-0.33859152 0.14690085 0.00000533
-0.65054500 0.11951094 -0.00000038
-0.40396714 0.36090600 0.00000183
-0.65956450 -0.12192306 -0.00000055
-0.37624919 -0.46861187 0.00000274
-0.37865272 -0.09388724 0.00832180
-0.06833039 0.20759368 0.00000915
-0.39447302 0.02188506 0.00000556
-0.20957924 0.56090093 0.00000347
-0.56985319 -0.36521342 0.00000052
-0.60226750 -0.16947123 0.00000004
-0.49170294 -0.70523405 0.00000252
-0.70024908 -0.05419012 -0.00000100
-0.66515595 -0.12021512 -0.00000060
-0.49249327 -0.02193282 0.15064171
-0.00098604 -0.62828934 0.00000054
-0.02989889 -0.63700181 0.00000064
-0.17410512 -0.27279168 0.00000244
-0.30147052 0.38874876 0.00000351
-0.12832589 0.63423651 0.05912092
-0.09031280 -0.36138991 0.00000178
-0.58626848 -0.44208720 0.00000043
-0.11794850 -0.55059046 0.00000131
-0.23220518 0.16798975 0.00000703
-0.01032613 -0.72451305 0.00000028
-0.61679775 0.03196860 0.00000118
-0.12493863 -0.36520284 0.00000192
-0.16928837 0.45768169 0.02724870
-0.00586251 -0.08575503 0.00000226
-0.60432255 -0.33998942 0.00000017
-0.45421398 0.05832403 0.14565237
-0.32683501 -0.12142316 0.00000360
-0.01323973 0.67001903 0.00000594
-0.44103140 0.33478212 0.00000139
-0.02074231 0.21332410 0.00000982
-0.67393446 -0.79229575 -0.00000002
-0.56723034 -0.13888159 0.00000035
-0.06672339 0.58918881 0.00000584
-0.55393338 -0.25134671 0.11736524
-0.57488841 -0.68947178 0.00000295
-0.13558429 0.38572255 0.00000658
-0.51237482 -0.72238648 0.00000256
-0.66114968 -0.66892582 -0.00000010
-0.49616092 -0.74462664 0.00000242
-0.11732753 0.36523294 0.00000703
-0.52210933 -0.51636583 0.00000325
-0.00026306 0.05873599 0.00001148
-0.42754933 -0.56864285 0.00000266
-0.29696545 -0.22079068 0.00000315
-0.23795383 -0.71198177 0.00000135
-0.50269228 0.19615629 0.00000166
-0.49963984 -0.09466589 0.00000096
-0.21324719 0.44139838 0.00000465
-0.37879720 -0.35625982 0.00000310
-0.07068294 0.07897771 0.00001024
-0.04811157 -0.72266281 0.00000046
-0.75420582 -0.77085507 0.10258798
-0.10267202 -0.14729257 0.00000250
-0.43083289 -0.24022210 0.00000370
-0.19623086 -0.62201470 0.00000144
-0.63857782 -0.18281861 -0.00000029
-0.18117583 -0.09626688 0.00000302
-0.72944146 -0.40857857 -0.00000097
-0.76112401 -0.79738367 -0.00000001
-0.46911559 0.21148193 0.00000214
-0.24632379 0.01787545 0.00000813
-0.12296472 -0.30794379 0.00000209
-0.79905117 -0.61697519 -0.00000046
-0.34548244 -0.06818483 0.00000385
-0.54512286 -0.00870371 0.00000045
-0.26486701 0.43469465 0.11251190
-0.19385403 0.10855143 0.00000813
-0.40540335 -0.35239172 0.00000323
-0.12209813 -0.74315995 0.00000073
-0.24227490 -0.23136331 0.00000287
-0.48638159 -0.74150223 0.00000238
-0.10122706 0.30295083 0.00000782
-0.16694073 -0.03103941 0.00000316
-0.44469240 0.02746657 0.12355495
-0.63144618 -0.28781313 -0.00000014
-0.44833657 -0.27395219 0.00346547
-0.02771135 0.13623212 0.00001039
-0.55956292 -0.57598341 0.00000323
-0.41749874 -0.78145289 0.00000195
-0.01883266 -0.20271258 0.00000195
-0.17592506 -0.10109789 0.00000298
-0.37030441 -0.09541968 0.00000388
-0.69786566 -0.54769313 -0.00000055
-0.19759494 0.32270330 0.00000619
-0.54769027 -0.42728195 0.00000079
-0.06994531 0.12297180 0.00000987
-0.21159440 0.49745539 0.00000410
-0.50924826 -0.28937894 0.00000104
-0.78385752 -0.27548423 -0.00000131
-0.58422315 -0.66453904 0.00000307
-0.22874647 0.33572713 0.00000546
-0.35983995 -0.19580363 0.00000352
-0.06301165 0.46721897 0.00000696
-0.69241685 0.01744696 -0.00000012
-0.77909476 -0.58512402 -0.00000054
-0.43394324 -0.18252036 0.00000167
-0.26014388 -0.56655413 0.00000191
-0.75124627 -0.27376431 -0.00000130
-0.64556020 -0.02351029 0.30164918
-0.79328460 -0.40482852 -0.00000099
-0.19012596 0.52457839 0.07534798
-0.61890143 -0.51140302 0.00000017
-0.38897455 -0.19025373 0.00000367
-0.05536696 -0.00394022 0.00000274
-0.30123299 0.47847480 0.00000258
-0.05648669 -0.24340963 0.00000200
-0.70687377 -0.65475434 -0.00000036
-0.45215619 0.13857067 0.17654619
-0.62116605 -0.53069615 0.00000017
-0.60867828 -0.26580051 0.00000006
-0.10966409 0.44326711 0.00000647
-0.39140680 -0.20044428 0.00000365
-0.47825325 -0.59784329 0.00000280
-0.14985503 -0.36245856 0.00000205
-0.23783760 0.38306788 0.00000479
-0.71021450 -0.40913671 -0.00000079
-0.14332010 0.30480412 0.00000717
-0.70544195 -0.78418362 -0.00000004
-0.50052488 0.04938234 0.00000324
-0.46087262 0.02782604 0.00000422
-0.53586584 -0.14927500 0.00000066
-0.21832082 -0.40361032 0.00000223
-0.09365930 -0.32365602 0.00000191
-0.33802944 0.14802913 0.00000532
-0.10253573 0.17492425 0.00000892
-0.25028110 -0.60721380 0.00000174
-0.15636595 0.03242785 0.00000936
-0.69678909 -0.74806780 0.05505249
-0.46733928 -0.19941060 0.00000136
-0.52317470 -0.17329715 0.00000081
-0.54998964 -0.71886033 0.00000274
-0.05831261 0.36408725 0.00000793
-0.32085454 0.14733100 0.00000566
-0.14715567 -0.49470928 0.00000162
-0.63871378 -0.70050246 0.00000015
-0.18249016 0.48272690 0.00000481
-0.60863197 -0.35448769 0.00000014
-0.05006075 0.44547680 0.00000735
-0.08339161 -0.37534034 0.00000170
-0.48901156 -0.61434227 0.00000279
-0.64819938 -0.79250097 0.00000296
-0.45277730 0.20799240 0.20565175
-0.59755653 -0.30166054 0.00000020
-0.18626481 0.20119962 0.00000743
-0.61311525 -0.45334095 0.09310420
-0.69463199 -0.77430809 -0.00000006
-0.52322704 -0.58317935 0.00000305
-0.54739481 -0.01184368 0.00000044
-0.41640189 -0.38820615 0.00000317
-0.20603317 0.24207391 0.00000677
-0.46262118 0.02742240 0.00000419
-0.54511744 -0.20228042 0.00000062
-0.08496498 -0.50829452 0.00000130
-0.41927430 0.23010461 0.00000291
-0.02578372 0.67212808 0.00000573
-0.04473396 -0.79806161 0.00000021
-0.43183368 0.23737974 0.19696169
-0.52457625 -0.40166825 0.00000099
-0.74090981 -0.61277068 -0.00000047
-0.05795286 -0.02534458 0.00000268
-0.21865973 -0.08914945 0.00000321
-0.63115543 -0.43826091 -0.00000001
-0.01106266 0.66539502 0.00000601
-0.01135209 -0.67496580 0.00000044
-0.01463933 0.58306837 0.00000668
-0.14587268 -0.63689500 0.00000117
-0.39489612 -0.01052341 0.00000190
-0.44583762 -0.59302276 0.00000266
-0.42176136 0.20824406 0.00000309
-0.15620559 -0.27028373 0.00000236
-0.08486681 0.25550324 0.00000848
-0.09203845 0.49867916 0.00000625
-0.00478608 -0.74826211 0.00000016
-0.63573605 -0.18721718 -0.00000026
-0.72848815 -0.39089373 -0.00000098
-0.46972159 -0.01312973 0.00000118
-0.14510819 0.53412610 0.00000499
-0.36468580 0.30098349 0.00000321
-0.05498101 0.34714609 0.00000813
-0.31863725 0.32226840 0.11964719
-0.69658041 0.07399339 -0.00000079
-0.51350677 -0.72044480 0.00000257
-0.57566160 -0.57410479 0.00643548
-0.34710377 -0.21858960 0.00000339
-0.10401674 0.34311154 0.00000743
-0.25112042 -0.35930121 0.00000251
-0.25126782 -0.12595253 0.00000324
-0.74033481 0.01226745 -0.00000098
-0.13942818 0.61532789 0.00000425
-0.29819968 -0.01604799 0.00000380
-0.10373672 0.21969783 0.00000851
-0.57132477 -0.66799027 0.00000300
-0.45497397 -0.41194558 0.00000327
-0.63183713 -0.43063766 -0.00000002
-0.56081706 -0.01742160 0.00000031
-0.00361542 -0.68203467 0.00000039
-0.23827404 0.01131028 0.00000831
-0.26905385 0.32693684 0.00000478
-0.40389779 -0.40285954 0.00000307
-0.14998117 0.52510864 0.00000499
-0.52469271 0.04995168 0.00000276
-0.27329865 -0.62971836 0.00000177
-0.17743969 -0.58508301 0.00000147
-0.11791819 -0.61664987 0.00000111
-0.52580810 -0.28421122 0.00000088
-0.12908602 0.20347892 0.00000827
-0.10927061 0.45422396 0.00000638
-0.36180699 0.05057216 0.00000589
-0.11134259 0.52080363 0.00000576
-0.45171791 -0.08985449 0.00000142
-0.66882271 -0.06540981 0.30750182
-0.46089378 0.28245690 0.00000156
-0.50238955 -0.25519946 0.06471578
-0.48433840 -0.29438809 0.00000128
-0.13291503 -0.67546695 0.00000099
-0.32850838 -0.47978067 0.00000249
-0.15803592 -0.32011643 0.00000222
-0.28590742 0.02327679 0.00000748
-0.25567985 -0.25361180 0.00000286
-0.46822074 -0.62382150 0.00000267
-0.52975237 0.05713936 0.00000259
-0.55242282 -0.26034030 0.00000060
-0.24756517 -0.48842233 0.00000209
-0.40895697 -0.10107066 0.03539846
-0.10532903 0.08806602 0.00000964
-0.50209540 -0.43318537 0.00000342
-0.53128839 -0.28641337 0.00000082
-0.56480187 0.16657358 0.00000078
-0.16808827 -0.14404576 0.00000281
-0.17052770 -0.09187579 0.00000298
-0.48980892 0.30843207 0.00000072
-0.22389758 -0.21217433 0.00000285
-0.43420163 -0.30787501 0.00000350
-0.04948476 0.36062363 0.00000810
-0.03212723 -0.10699657 0.00000231
-0.05847900 0.41843796 0.00000746
-0.11836484 -0.51182169 0.00000144
-0.75770032 -0.69523954 -0.00000026
-0.27120468 -0.10062654 0.00000341
-0.16714674 -0.64224857 0.00000125
-0.32536325 -0.02516126 0.00000389
-0.18259741 0.37985054 0.00849364
-0.20693593 -0.71823734 0.00000119
-0.46670830 0.14303032 0.19279426
-0.71824080 -0.54492724 -0.00000064
-0.38415810 -0.00719537 0.00000200
-0.65511286 0.10624019 -0.00000033
-0.22600214 0.41554534 0.00000468
-0.78403574 -0.49449763 -0.00000076
-0.52527082 0.23369727 0.00000083
-0.29406831 0.26261950 0.00000497
-0.03453937 -0.53475809 0.00000099
-0.49586067 0.12439318 0.00000254
-0.06989623 -0.24537560 0.00000205
-0.24649397 0.38379943 0.00000462
-0.27416945 -0.21525575 0.00000307
-0.30222169 -0.50005972 0.00000231
-0.25185707 0.11342459 0.00000721
-0.75308824 0.04518444 -0.00000157
-0.12520418 -0.33051619 0.00000203
-0.02833639 -0.31056410 0.00000166
-0.03283512 -0.44867206 0.00000125
-0.24654029 0.46668345 0.00000375
-0.08320341 0.25798047 0.00000849
-0.54094964 -0.13571347 0.00000060
-0.38374135 -0.23692299 0.00000350
-0.36906350 -0.12235343 0.00000379
-0.35253429 -0.21016569 0.00000344
-0.73008406 -0.73616844 -0.00000016
-0.54162294 -0.05171913 0.00000053
-0.21930239 0.31919509 0.01996745
-0.31010285 0.25250560 0.08256139
-0.10171776 0.54779249 0.00000567
-0.01826077 -0.53348887 0.00000092
-0.34921205 0.24733444 0.00000407
-0.66675156 -0.47799268 -0.00000031
-0.53975600 0.02130640 0.00000278
-0.32079390 0.12355634 0.00000591
-0.21667437 -0.29640234 0.00000255
-0.30564061 -0.15719552 0.00000339
-0.19678402 0.46282110 0.05659988
-0.09994562 -0.36585385 0.00000181
-0.00224997 0.53079224 0.00000732
-0.58032757 -0.62053984 0.00000319
-0.11771127 0.45345077 0.00000626
-0.71465534 -0.53202015 0.16141833
-0.56098181 -0.49446362 0.00000072
-0.15480576 0.03428065 0.00000936
-0.71687633 -0.74010819 -0.00000015
-0.47443858 0.22256979 0.00000193
-0.63573635 -0.06805015 -0.00000036
-0.29164019 -0.42717758 0.00000249
-0.11209624 -0.09728602 0.00000270
-0.29469058 -0.41046825 0.00000255
-0.56353915 -0.56919944 0.00000327
-0.63208282 -0.00322981 -0.00000038
-0.58681875 -0.26109555 0.00000027
-0.66914684 -0.60262918 -0.00000023
-0.61234307 -0.47683895 0.08269574
-0.53085333 0.18716671 0.00000121
-0.64902502 -0.23353058 -0.00000035
-0.48780093 0.27644682 0.00000111
-0.61741984 -0.10335869 -0.00000016
-0.34097967 -0.42612448 0.00000271
-0.52202708 -0.15341008 0.00000080
-0.25150979 0.50128061 0.00000329
-0.22747889 -0.48659286 0.00000201
-0.36897907 -0.42400888 0.00000285
-0.32605958 0.09531694 0.00000611
-0.11110963 0.49291053 0.00000601
-0.28493056 0.43947378 0.00000330
-0.29295000 -0.40164158 0.00000257
-0.13181937 0.25951266 0.00000774
-0.71592927 -0.59305286 -0.00000052
-0.67247462 0.12467923 -0.00000088
-0.46950206 -0.08251139 0.00000124
-0.00309892 -0.65547866 0.00000047
-0.38219824 0.12475307 0.00000472
-0.68748134 -0.38063249 0.19662333
-0.05027508 0.71996993 0.00000487
-0.67816830 -0.16002993 -0.00000069
-0.35621771 0.19888161 0.10624394
-0.63703018 -0.18434457 -0.00000028
-0.35615152 -0.74007863 0.00000180
-0.67024219 -0.12898055 -0.00000064
-0.57800788 -0.38149703 0.00000046
-0.49262819 0.17585003 0.00000206
-0.19646637 0.43358967 0.04428880
-0.21353507 0.42604724 0.00000481
-0.63385010 -0.53796852 0.00000005
-0.52647460 0.20238821 0.00000114
-0.00690940 0.24049994 0.00000979
-0.30442211 0.20967010 0.00000533
-0.27319083 -0.02731087 0.00000365
-0.58901769 0.06432203 0.00000138
-0.32264930 -0.79500329 0.00000148
-0.01167939 0.29082707 0.00000928
-0.00417131 -0.60130006 0.00000064
-0.33968157 0.08259962 0.00000598
-0.04074964 0.58089811 0.00000630
-0.27573481 0.30899641 0.00000484
-0.20229118 0.44443858 0.00000483
-0.73338825 -0.72904342 0.09912158
-0.42609173 0.09064454 0.00000423
-0.20335576 -0.66980666 0.00000133
-0.12606670 0.43571725 0.00000629
-0.40950096 -0.31623954 0.00000337
-0.52120125 0.06608721 0.00000266
-0.68877125 -0.17026620 -0.00000079
-0.23142099 0.41714880 0.00000456
-0.42820209 -0.27251214 0.00000359
-0.22872467 0.45490342 0.00000422
-0.58625168 -0.38403437 0.00000038
-0.13726851 -0.36388326 0.00000198
-0.14757757 0.15723255 0.00000840
-0.33843002 -0.58047754 0.00000222
-0.02624822 0.77060986 0.00000477
-0.63786715 -0.10919549 0.25886253
-0.55450881 -0.43162602 0.00000073
-0.50566322 -0.00986480 0.00000083
-0.32633495 0.08657454 0.03054686
-0.79352897 -0.29180530 -0.00000127
-0.04954999 0.40776879 0.00000768
-0.56370580 -0.05765961 0.00000032
-0.17568342 0.46380109 0.03609612
-0.69307572 -0.51867712 -0.00000053
-0.19450787 0.37210384 0.01711503
-0.68228483 -0.37861404 -0.00000055
-0.56192088 0.16317439 0.00000087
-0.00822248 -0.48893440 0.00000097
-0.15961470 0.60032350 0.00000402
-0.04458860 0.04643754 0.00001092
-0.29180807 -0.32255468 0.00000281
-0.71545446 -0.77479774 0.06257595
-0.33700696 -0.52447474 0.00000239
-0.76689500 -0.35160381 -0.00000112
-0.65857929 -0.48989448 0.12314752
-0.53632224 -0.41780049 0.00000089
-0.06038090 -0.53363693 0.00000111
-0.22704209 -0.31005821 0.00000256
-0.08637252 0.01676906 0.00001055
-0.02622449 0.45539200 0.00000762
-0.46031338 -0.59800500 0.00000271
-0.29908839 -0.25508776 0.00000306
-0.50112391 -0.15732785 0.10362760
-0.26125059 -0.49673462 0.00000213
-0.49220595 -0.15799966 0.00000109
-0.66909993 0.06081820 -0.00000012
-0.40682477 -0.19221202 0.00000374
-0.38572961 0.04088851 0.07064438
-0.18342119 -0.68811691 0.00000118
-0.22868077 0.01064685 0.00000846
-0.30564991 -0.58496428 0.00000206
-0.08476853 -0.68456155 0.00000074
-0.39381641 -0.73015201 0.00000200
-0.50813365 -0.53037536 0.00000314
-0.17598222 -0.25983030 0.00000248
-0.78859752 -0.31868595 -0.00000120
-0.16499075 0.51344389 0.00000483
-0.11270883 0.43341446 0.00000651
-0.02705691 0.05023523 0.00001115
-0.73813385 -0.07782757 -0.00000134
-0.14384992 -0.16621795 0.00000263
-0.27488834 0.25937441 0.05049064
-0.67276460 -0.22589555 -0.00000059
-0.25925705 0.36961576 0.00000452
-0.40584043 0.17589498 0.00000373
-0.12134321 0.02221109 0.00000997
-0.02557911 0.49018413 0.00000732
-0.50213647 0.08850997 0.00000280
-0.28573492 -0.74159390 0.00000148
-0.05836989 0.36704141 0.00000791
-0.07946654 0.23740231 0.00000872
-0.18334447 -0.62886482 0.00000136
-0.13697176 0.63677651 0.00000408
-0.53052431 -0.62196946 0.00000296
-0.48606136 -0.27746755 0.03939956
-0.36188719 -0.17144133 0.00000360
-0.49358097 0.10558723 0.00000278
-0.38936660 -0.15960813 0.00000376
-0.03776645 0.07223322 0.00001080
-0.46304178 -0.03084036 0.00000126
-0.02586678 0.70251209 0.00000546
-0.47183195 -0.30377239 0.01450610
-0.05979434 0.43655834 0.00000728
-0.55979019 0.18240780 0.00000071
-0.45297781 0.20876643 0.00000248
-0.65280002 -0.59096360 -0.00000008
-0.34921703 0.30459338 0.00000347
-0.03548599 0.31784657 0.00000868
-0.05144226 0.43442681 0.00000742
-0.45270082 0.09202476 0.00000371
-0.36196470 0.12948430 0.08345776
-0.46598437 0.02108465 0.00000419
-0.61504596 -0.02898423 -0.00000020
-0.37181589 -0.44166470 0.00000280
-0.36690494 -0.16125783 0.00000366
-0.02038289 -0.02367837 0.00000252
-0.66487354 -0.76889259 -0.00000005
-0.58404398 -0.63980907 0.00000314
-0.19900092 0.39632380 0.00000540
-0.60545677 -0.28956968 0.00000011
-0.50329280 -0.16762114 0.00000099
-0.62800890 -0.03583514 -0.00000032
-0.55169970 -0.72832179 0.00000272
-0.36501703 -0.57260793 0.00000236
-0.15466136 -0.52490091 0.00000156
-0.18780629 -0.63424718 0.00000137
-0.19237059 -0.24749774 0.00000260
-0.16083731 -0.50066394 0.00000166
-0.07092087 -0.19417842 0.00000221
-0.77747613 -0.28497139 -0.00000129
-0.55783218 -0.03179887 0.21132889
-0.60924047 -0.73838365 0.00000295
-0.32147014 -0.64113146 0.00000195
-0.04872781 0.69082236 0.00347956
-0.57398081 -0.45909187 0.00000056
-0.78308171 -0.51015753 -0.00000072
-0.62706810 -0.01962496 -0.00000032
-0.65831620 -0.23141238 -0.00000044
-0.08638559 -0.33506188 0.00000184
-0.75243771 -0.06350221 -0.00000149
-0.08518845 0.33093661 0.00000782
-0.01779661 -0.69861335 0.00000040
-0.64349037 -0.12605715 -0.00000039
-0.01135121 -0.30765787 0.00000154
-0.71486044 -0.13652895 -0.00000107
-0.21576317 0.43359563 0.00000469
-0.30253372 -0.24266297 0.00000311
-0.68292457 -0.57299954 -0.00000039
-0.78079933 -0.44794387 -0.00000088
-0.51936930 0.21402952 0.00000115
-0.52294064 -0.38324466 0.00000099
-0.43925795 -0.26485229 0.00000366
-0.10498952 0.22238041 0.00000847
-0.51890284 -0.69560009 0.00000268
-0.31867209 0.28586632 0.00000426
-0.35764870 -0.58198708 0.00000230
-0.67613620 -0.31450492 -0.00000054
-0.11883964 0.15516768 0.00000885
-0.57292646 -0.52663976 0.00000063
-0.37552032 -0.21335714 0.00000353
-0.53017581 -0.56228411 0.00000314
-0.48130906 0.24134307 0.00000160
-0.30197483 0.30222282 0.09491193
-0.31398776 0.31257853 0.11106395
-0.49295786 0.01287148 0.00000376
-0.25896287 0.09847784 0.00000723
-0.28415313 -0.15049453 0.00000332
-0.45494762 -0.69314218 0.00000239
-0.11086607 0.32082033 0.00000752
-0.21425568 0.43050143 0.06064660
-0.40458453 -0.68253881 0.00000220
-0.44012949 -0.36384356 0.00000336
-0.34975097 0.06792535 0.00000594
-0.05679671 0.47805935 0.00000696
-0.06053334 0.38472947 0.00000772
-0.58801806 0.02174600 0.00000184
-0.02816226 0.18533218 0.00000995
-0.14005037 -0.48096704 0.00000163
-0.18312573 0.00846585 0.00000916
-0.49607065 -0.02581434 0.15259314
-0.08235000 0.39099899 0.00000734
-0.22038773 0.38546082 0.04823775
-0.62987202 -0.64416260 0.00000018
-0.74887174 0.00106903 -0.00000103
-0.67058039 -0.44095942 -0.00000038
-0.70959985 0.03117672 -0.00000059
-0.03974129 0.29577643 0.00000881
-0.70078236 -0.57039374 -0.00000056
-0.08106109 -0.66564846 0.00000079
-0.17469335 -0.15098345 0.00000282
-0.60953152 -0.12256522 -0.00000007
-0.06039742 0.03418931 0.00001079
-0.22375979 0.50650859 0.00000377
-0.34557709 -0.28237841 0.00000318
-0.05558418 -0.50412112 0.00000118
-0.12791681 0.13677494 0.00000887
-0.56255019 -0.69473910 0.00000288
-0.13301930 0.30348289 0.00000734
-0.44559923 -0.77126819 0.00000211
-0.13924044 -0.13213076 0.00000272
-0.03891626 -0.01497316 0.00000263
-0.32548338 0.13574041 0.00000569
-0.15976989 -0.49899721 0.00000166
-0.03379468 -0.59304357 0.00000080
-0.77983916 -0.17316692 -0.00000157
-0.00955813 0.03447267 0.00001155
-0.46875957 0.10482286 0.00000327
-0.00938328 0.52638131 0.00000725
-0.06046119 -0.14547081 0.00000232
-0.05631483 -0.40696138 0.00000148
-0.52890134 0.01816639 0.00000302
-0.76742584 -0.25294295 -0.00000137
-0.53297997 -0.54534638 0.00000321
-0.39453530 0.27977532 0.00000286
-0.55953795 0.14300653 0.00000112
-0.02013395 -0.18279558 0.00000202
-0.01823656 -0.35989091 0.00000146
-0.73879397 -0.15399504 -0.00000128
-0.42206621 0.26243964 0.19756871
-0.41648951 -0.07080633 0.05528177
-0.42840794 -0.58583874 0.00000261
-0.00626583 -0.19048844 0.00000193
-0.61866063 -0.45007747 0.09993773
-0.35484701 -0.45547417 0.00000268
-0.24670684 -0.71036017 0.00000140
-0.21182691 -0.36198407 0.00000233
-0.50024861 -0.51178843 0.00000317
-0.53504312 -0.52841848 0.00000327
-0.27686134 0.01310920 0.00000771
-0.75219816 0.00992804 -0.00000119
-0.05888289 0.53888291 0.00000640
-0.69421792 -0.53774780 -0.00000053
-0.35713932 -0.06019826 0.00083257
-0.05503109 0.54518557 0.00000640
-0.09462265 -0.06604466 0.00000272
-0.47467422 0.14324072 0.20077305
-0.23552039 0.45184118 0.09047282
-0.42384216 0.16711906 0.16020942
-0.79173243 -0.68739700 -0.00000028
-0.36690193 -0.07993995 0.00240328
-0.46535131 -0.04575245 0.00000125
-0.73736686 -0.32106227 -0.00000112
-0.09101475 -0.57058561 0.00000113
-0.31189597 -0.10378325 0.00000359
-0.33237869 -0.48658553 0.00000248
-0.70972693 -0.25723049 -0.00000091
-0.66168028 0.10867333 -0.00000048
-0.48585311 0.16746640 0.00000228
-0.25166801 -0.41169193 0.00000235
-0.23676731 -0.22955683 0.00000285
-0.31584486 -0.34933269 0.00000284
-0.47767416 0.06574462 0.17194147
-0.40109211 -0.24199399 0.00000356
-0.40559968 0.39162824 0.00000145
-0.27197495 -0.10225540 0.00000341
-0.00820660 -0.59279203 0.00000065
-0.30525407 -0.12737015 0.00000348
-0.05787126 -0.57897180 0.00000095
-0.10309310 -0.68578470 0.00000082
-0.70492750 -0.09936915 -0.00000100
-0.26911664 0.37109894 0.09062312
-0.10198492 -0.12175912 0.00000258
-0.39464611 -0.05774246 0.00000194
-0.04381979 0.43616259 0.00000752
-0.45761457 -0.36896932 0.00000342
-0.13201039 0.61198044 0.05363769
-0.06842641 0.60642755 0.00000566
-0.76074326 -0.67543340 -0.00000031
-0.07474457 0.66620421 0.00000496
-0.42393157 -0.00369231 0.09019827
-0.09037255 0.11827566 0.00000960
-0.06554965 0.47897956 0.00000682
-0.21000262 0.37625512 0.00000540
-0.33833894 0.05630435 0.00000628
-0.00574751 -0.53545022 0.00000085
-0.49609452 -0.31104791 0.03555903
-0.21990661 -0.02672044 0.00000341
-0.03730714 -0.19141932 0.00000207
-0.09702621 -0.60412401 0.00000105
-0.40843511 0.18594389 0.00000358
-0.00421255 -0.15106431 0.00000205
-0.38101706 -0.55424851 0.00000249
-0.15285796 -0.57254696 0.00000140
-0.05863487 -0.35970357 0.00000164
-0.44742590 -0.03840319 0.00000142
-0.40643731 -0.06333849 0.00000183
-0.49164864 -0.12397911 0.00000107
-0.14999221 0.07082995 0.00000912
-0.10341194 -0.45595071 0.00000154
-0.43804103 -0.02632877 0.00000150
-0.03252627 -0.04123957 0.00000252
-0.15374646 -0.70801979 0.00000098
-0.31039542 -0.68178135 0.00000177
-0.64246780 -0.56701547 0.07553477
-0.39646229 -0.32141337 0.00000329
-0.53575212 -0.61150062 0.00000301
-0.79880148 -0.51682329 -0.00000071
-0.73504019 -0.02713101 -0.00000135
-0.32537174 0.47183770 0.00000216
-0.31422898 0.15933129 0.00000566
-0.73925906 -0.14150082 -0.00000130
-0.23695838 0.55570453 0.00000300
-0.33716792 -0.23224266 0.00000330
-0.17796931 -0.55557734 0.00000157
-0.39730093 -0.56440526 0.00000253
-0.45041817 0.13548556 0.00000330
-0.23167628 -0.02506711 0.00000347
-0.02933070 0.12106589 0.00001050
-0.12011279 0.40383443 0.00000665
-0.49636269 -0.56460917 0.00000298
-0.24531519 0.51888484 0.00000323
-0.08317017 -0.15210102 0.00000240
-0.58480859 -0.51864362 0.00000051
-0.43480268 -0.72850049 0.00000219
-0.13444448 -0.65244013 0.00000107
-0.10867968 0.09764280 0.00000951
-0.75278193 -0.29909110 -0.00000125
-0.70818782 -0.44261599 -0.00000074
-0.19882531 -0.79639447 0.00000091
-0.03216775 -0.70368433 0.00000045
-0.00761893 -0.69664317 0.00000032
-0.01825667 0.48350549 0.00000749
-0.47194806 0.04271043 0.15681514
-0.48411658 -0.04783642 0.13171165
-0.55482423 0.14774914 0.00000116
-0.51995373 -0.58359545 0.00000303
-0.07485741 0.43571192 0.00000706
-0.37488011 -0.00389259 0.00000209
-0.35507989 -0.46624368 0.00000265
-0.12758669 -0.76467806 0.00000069
-0.13251574 0.44394964 0.00000612
-0.71196175 -0.24157655 -0.00000095
-0.30137649 0.05523548 0.00000697
-0.72952342 -0.23624995 -0.00000112
-0.20221613 0.49516290 0.00000430
-0.76127249 -0.16120218 -0.00000149
-0.55019468 -0.15284228 0.00000053
-0.31079248 -0.41451785 0.00000261
-0.16992843 0.45097503 0.00000539
-0.68400377 -0.08102530 -0.00000082
-0.34286666 -0.42576951 0.00000272
-0.26405036 -0.24099314 0.00000294
-0.09226546 -0.69347978 0.00000075
-0.40593854 0.26818585 0.00000276
-0.69524795 -0.67229950 -0.00000032
-0.06072125 0.61663336 0.00000569
-0.40558535 0.05700736 0.09693200
-0.25580326 0.47488546 0.00000349
-0.40210363 -0.04080309 0.05334171
-0.38210395 0.33843875 0.00000249
-0.03910058 0.65377969 0.00000569
-0.14094409 0.38810983 0.00000648
-0.54655010 -0.67582756 0.00000286
-0.55529934 -0.59470397 0.00000316
-0.06602393 0.20321053 0.00000923
-0.20956849 0.06633446 0.00000826
-0.32307255 0.26243508 0.00000442
-0.11862303 0.51889193 0.00217100
-0.27197242 0.15124403 0.00322571
-0.64812827 -0.60298526 0.06638129
-0.52658892 -0.52991718 0.00000323
-0.24359797 -0.40199167 0.00000235
-0.39028499 0.30429897 0.00000269
-0.47272134 0.04655301 0.00000380
-0.61873394 -0.22180891 -0.00000007
-0.43844336 -0.74847424 0.00000215
-0.12577865 0.57624054 0.00000492
-0.22859249 0.50933504 0.00000365
-0.61754143 -0.09575825 0.24423885
-0.15050620 0.19244024 0.00000805
-0.10029329 -0.00859436 0.00000293
-0.27716610 -0.73182911 0.00000147
-0.45833340 0.21078058 0.21230084
-0.00042811 -0.21558367 0.00000183
-0.34531343 0.22291172 0.00000440
-0.58280146 -0.28268608 0.00000033
-0.57607704 0.13589676 0.00000088
-0.21707799 -0.79491222 0.00000100
-0.13686132 -0.49000332 0.00000159
-0.61851263 -0.38797057 0.12527931
-0.52656329 -0.77624202 0.00000246
-0.68029565 -0.46508279 0.15484612
-0.27879640 0.15352590 0.01092321
-0.64688456 -0.78334481 0.00000298
-0.01763714 0.71113592 0.00000551
-0.50554121 -0.72328615 0.00000253
-0.59502220 -0.09512538 0.00000005
-0.47002900 0.04512032 0.00000387
-0.66292489 -0.23597655 0.23165908
-0.38919330 0.21263573 0.14455990
-0.72457683 0.06257787 -0.00000121
-0.34007648 0.36753899 0.00000299
-0.62708855 -0.65936822 0.02239651
-0.55723995 -0.59437782 0.00000317
-0.07279019 0.20890760 0.00000907
-0.44706431 0.25015754 0.00000216
-0.59940892 -0.60025275 0.00000044
-0.47521263 0.09061128 0.00000329
-0.11145711 -0.73717844 0.00000070
-0.68798560 -0.56487554 0.12151094
-0.10415491 -0.70039701 0.00000078
-0.41996425 -0.05618196 0.00000170
-0.50612807 0.11750501 0.00000242
-0.04084174 0.59047294 0.00000622
-0.41583523 0.11093399 0.00000422
-0.48620954 -0.01312959 0.00000102
-0.69402981 -0.05380587 -0.00000094
-0.74186754 -0.54853338 -0.00000063
-0.11948769 0.55797166 0.01906571
-0.46759266 0.13979243 0.00000292
-0.09189825 0.65215385 0.00000478
-0.13421915 -0.53223431 0.00000144
-0.01087297 0.46978772 0.00000773
-0.21937340 -0.09216539 0.00000321
-0.07225522 -0.48121792 0.00000132
-0.04141149 -0.27563176 0.00000183
-0.17466877 0.26620516 0.00000704
-0.03955399 -0.68500906 0.00000054
-0.24530005 0.03447035 0.00000800
-0.38944894 -0.03962379 0.00000198
-0.49454588 -0.55067587 0.00000302
-0.79835910 -0.02553060 -0.00000194
-0.72608030 0.03794446 -0.00000098
-0.16487058 -0.06405937 0.00000305
-0.70767653 -0.40955308 -0.00000076
-0.30850029 -0.75111979 0.00000155
-0.66263258 -0.23422498 -0.00000048
-0.03045857 -0.33635649 0.00000159
-0.76454455 -0.67655361 -0.00000031
-0.61820531 -0.75061262 0.00000295
-0.08102316 -0.29415426 0.00000195
-0.45481628 -0.71015388 0.00000234
-0.56574601 -0.58141732 0.00000324
-0.71780592 -0.68055767 -0.00000030
-0.39156124 -0.50490171 0.00000269
-0.47857195 0.16770501 0.00000242
-0.30223954 -0.06856018 0.00000365
-0.23502320 -0.38381511 0.00000236
-0.48515591 0.25567132 0.00000137
-0.29825830 -0.61801565 0.00000192
-0.59610188 -0.45403165 0.00000034
-0.04333949 -0.45681965 0.00000127
-0.00826660 -0.52014518 0.00000091
-0.34200916 0.07693091 0.00000599
-0.71999252 -0.38480917 -0.00000090
-0.31897545 -0.33622754 0.00000289
-0.49045211 0.29275623 0.00000088
-0.05476174 0.63202107 0.00000564
-0.51580131 -0.68889874 0.00000268
-0.63042724 0.07837561 0.00000044
-0.11678690 -0.74021727 0.00000072
-0.70734906 -0.18403576 -0.00000095
-0.23606385 0.50764948 0.00000352
-0.40943608 0.08091327 0.11055801
-0.74610591 -0.57295936 -0.00000057
-0.42622945 0.21362305 0.00000294
-0.43394968 -0.03582890 0.00000155
-0.47068602 0.28690508 0.00000132
-0.15256609 -0.63460952 0.00000121
-0.48993486 0.24888442 0.00000135
-0.24463737 -0.42961192 0.00000226
-0.27841359 -0.35060602 0.00000266
-0.12972420 0.04497490 0.00000965
-0.43185496 -0.29140180 0.00000354
-0.31068081 0.25846192 0.08557844
-0.46874547 -0.51213884 0.00000302
-0.21813054 0.27204788 0.00000633
-0.18015271 -0.41484681 0.00000202
-0.55965793 -0.04281184 0.20861816
-0.03679203 -0.66888267 0.00000058
-0.37006494 0.16833980 0.10742929
-0.34990817 0.10966567 0.06337904
-0.24265213 -0.33422658 0.00000255
-0.53249907 -0.12170311 0.00000067
-0.30053201 -0.61246997 0.00000195
-0.77393758 -0.18373390 -0.00000154
-0.27030888 0.44226161 0.12100899
-0.31714198 -0.54034185 0.00000225
-0.34709331 -0.74206263 0.00000175
-0.26627401 -0.30867678 0.00000274
-0.04451095 -0.23100011 0.00000198
-0.34664503 -0.45666420 0.00000264
-0.53440386 0.26476878 0.00000032
-0.05780643 0.67969358 0.00790726
-0.06951636 -0.09301540 0.00000252
-0.03429714 -0.53541589 0.00000098
-0.70160335 -0.54880238 -0.00000059
-0.64928573 -0.17181082 -0.00000041
-0.36811730 -0.36668780 0.00000302
-0.18057953 0.14211208 0.00000803
-0.64329922 -0.36112580 -0.00000019
-0.49968055 0.02565579 0.17729269
-0.74052244 -0.55856162 -0.00000060
-0.64863181 -0.52351958 -0.00000010
-0.16653366 -0.12531707 0.00000286
-0.59147710 -0.72139591 0.00000292
-0.03299654 0.43418214 0.00000770
-0.31301007 0.03916617 0.00000693
-0.72359699 -0.26102301 -0.00000104
-0.40149111 -0.78494495 0.00000186
-0.03817759 -0.12764584 0.00000227
-0.70137781 -0.59203994 -0.00000052
-0.21686392 0.00479705 0.00000869
-0.32828164 0.38172701 0.00000307
-0.41951656 -0.33330536 0.00000336
-0.78590256 -0.22672956 -0.00000143
-0.66798085 0.12061624 -0.00000073
-0.69938725 -0.16631322 -0.00000089
-0.53650141 -0.70765954 0.00000272
-0.19472641 0.06078962 0.00000853
-0.75133228 -0.52958918 -0.00000068
-0.39294863 -0.39373666 0.00000305
-0.52800030 -0.27901086 0.00000085
-0.10084737 -0.60422266 0.00000107
-0.18993180 0.30136481 0.00000650
-0.17690511 0.13840435 0.00000812
-0.67895508 -0.40357286 0.17876112
-0.29258534 0.31970462 0.00000440
-0.16867229 0.15902369 0.00000806
-0.20001389 0.31002969 0.00000627
-0.02350139 -0.12016556 0.00000223
-0.36730495 0.05327800 0.00000575
-0.70822722 -0.19859961 -0.00000095
-0.26269221 -0.36073524 0.00000256
-0.75738394 -0.09067284 -0.00000151
-0.00215811 -0.29092520 0.00000159
-0.55983877 -0.04041576 0.00000034
-0.27126491 -0.33240503 0.00000269
-0.74253899 -0.40181482 -0.00000100
-0.22768243 0.18941128 0.00000691
-0.59159046 0.03060573 0.00000168
-0.15849183 -0.44447327 0.00000183
-0.30647522 -0.27979174 0.00000301
-0.63610947 -0.37848210 -0.00000010
-0.30514535 -0.25082296 0.00000310
-0.22696827 -0.36471227 0.00000239
-0.24023199 0.35974461 0.00000499
-0.08633956 0.43959779 0.00000685
-0.45138982 -0.69841969 0.00000236
-0.30670592 0.29290608 0.00000441
-0.22364305 0.48689243 0.09308983
-0.51310515 -0.74347484 0.00000250
-0.43060616 0.13240822 0.00000371
-0.35906655 -0.27654392 0.00000326
-0.66599184 -0.01500033 -0.00000070
-0.21367984 -0.09857643 0.00000316
-0.74205309 -0.51217920 -0.00000072
-0.07667827 0.63739491 0.00924594
-0.10005565 -0.17447826 0.00000241
-0.14940196 -0.62852842 0.00000121
-0.11497038 -0.54341376 0.00000132
-0.07899531 -0.68350315 0.00000072
-0.30428436 -0.23687790 0.00000314
-0.58924729 -0.66883534 0.00000308
-0.33618447 -0.12835692 0.00000362
-0.30782372 0.18574831 0.00000551
-0.58472127 -0.37132141 0.09863237
-0.11114198 0.28873065 0.00000780
-0.33661631 -0.70174325 0.00000183
-0.32126772 -0.69676518 0.00000178
-0.10148895 -0.36062756 0.00000183
-0.18115164 -0.58806950 0.00000148
-0.48898259 -0.71947181 0.00000247
-0.18235542 0.49678779 0.00000467
-0.79325730 -0.03696346 -0.00000190
-0.22195478 0.36238420 0.00000531
-0.31290239 0.02709017 0.00000704
-0.38538370 0.41270295 0.00000163
-0.59851784 -0.43110654 0.00000030
-0.19969384 0.45140225 0.00000481
-0.60081089 -0.67413753 0.00000311
-0.24278753 -0.21648113 0.00000292
-0.09573618 0.62841076 0.00000496
-0.26401326 -0.54395431 0.00000200
-0.09721683 -0.34873420 0.00000185
-0.19353054 -0.12256252 0.00000299
-0.18296474 -0.76111525 0.00000095
-0.72916251 -0.46393338 -0.00000084
-0.25829762 -0.30361000 0.00000272
-0.20709480 0.56585735 0.00000347
-0.71094620 -0.23515104 -0.00000094
-0.58456481 -0.15033196 0.00000020
-0.75443876 -0.56453460 -0.00000059
-0.08864404 -0.65104890 0.00000087
-0.68891311 -0.67906427 -0.00000030
-0.11529722 -0.79889154 0.00000053
-0.08880382 0.31547445 0.00000790
-0.57293332 -0.49016437 0.00000060
-0.51858670 -0.17544128 0.00000085
-0.33148056 0.33852181 0.00000346
-0.68132216 -0.73454911 0.04527618
-0.54959679 0.04699270 0.00000232
-0.26926321 -0.42024916 0.00000241
-0.07057949 0.29287997 0.00000837
-0.76508123 -0.31721732 -0.00000121
-0.26263660 -0.34990767 0.00000260
-0.57846737 -0.68366820 0.00000298
-0.49133074 -0.17574875 0.00000111
-0.17993145 0.60725999 0.00000356
-0.64608556 -0.49416929 -0.00000010
-0.27950338 0.39020300 0.00000392
-0.07701868 -0.39190623 0.00000162
-0.62199306 0.15072815 -0.00000016
-0.71375847 -0.45460764 0.19229926
-0.64259613 0.13502137 -0.00000039
-0.39224729 -0.05952120 0.00000197
-0.35165185 -0.42982733 0.00000275
-0.41431874 0.33394969 0.00000192
-0.38627386 0.15741895 0.11900684
-0.02264758 0.51149094 0.00000718
-0.05933050 -0.61322767 0.00000085
-0.15847486 -0.79882002 0.00000072
-0.49672523 -0.26826072 0.05374347
-0.19968820 0.06672318 0.00000840
-0.02353517 0.47152856 0.00000752
-0.68836975 0.02448962 -0.00000011
-0.72874647 -0.62417471 -0.00000044
-0.51889861 -0.71231866 0.00000262
-0.51897991 -0.54783767 0.00000314
-0.00484592 -0.73890990 0.00000019
-0.08432505 -0.79108977 0.00000041
-0.20161717 -0.64012349 0.00000141
-0.60539639 -0.76764089 0.00000284
-0.61890393 0.07645882 0.00000068
-0.58840156 -0.39199033 0.00000037
-0.45170072 -0.15064649 0.05740233
-0.61947900 -0.42854109 0.10958692
-0.42715150 -0.78333819 0.00000199
-0.11437617 0.08639527 0.00000952
-0.30407366 0.16913345 0.00000576
-0.54205966 -0.56036931 0.00000320
-0.14581762 -0.35420740 0.00000205
-0.11687572 0.50428849 0.00000582
-0.65001625 0.05674109 0.00000029
-0.39406839 -0.02244266 0.05291558
-0.38246360 0.21174467 0.00000380
-0.54334372 -0.29808828 0.00000072
-0.30462852 -0.02607124 0.00000380
-0.12989885 0.14319479 0.00000879
-0.54019773 -0.58290201 0.00000312
-0.01668854 0.19074039 0.00001008
-0.57700115 -0.14685541 0.00000027
-0.05871640 -0.43704134 0.00000140
-0.68554640 0.11119686 -0.00000100
-0.26033935 -0.53296965 0.00000201
-0.42279187 0.27266437 0.00000239
-0.71252894 -0.29042229 -0.00000091
-0.21067189 0.42857245 0.00000484
-0.04383417 0.03484045 0.00001103
-0.09823121 -0.21347684 0.00000228
-0.25612018 -0.60919011 0.00000176
-0.09452122 0.22532797 0.00000860
-0.22315736 0.09830388 0.00000777
-0.58007729 -0.31633437 0.00000038
-0.18504708 -0.67504913 0.00000123
-0.00037083 -0.22271134 0.00000181
-0.54412299 -0.76318699 0.00000258
-0.10205600 0.59696317 0.01779666
-0.68042910 -0.69906926 -0.00000025
-0.23930801 0.41645315 0.07970252
-0.37395883 0.02040553 0.00000597
-0.11160151 0.23362178 0.00000827
-0.53678066 -0.75325251 0.00000258
-0.22325586 -0.47326162 0.00000203
-0.63737851 -0.49610385 -0.00000002
-0.21701194 0.49524835 0.08994910
-0.06702021 0.45809481 0.00000698
-0.14423706 -0.47275284 0.00000168
-0.46062329 -0.63638771 0.00000260
-0.67687696 -0.55067718 0.11633165
-0.30117121 0.00602340 0.00000740
-0.25529546 -0.10008521 0.00000334
-0.24579976 -0.44372469 0.00000223
-0.58863378 0.06578187 0.00000137
-0.15182130 -0.30056337 0.00000225
-0.17797288 0.48719698 0.00000485
-0.67451560 -0.25986353 0.23333985
-0.72014481 -0.72507042 0.08763077
-0.65279710 -0.57351571 -0.00000010
-0.26966834 0.41697121 0.00000383
-0.41377258 -0.77903461 0.00000194
-0.69092542 -0.50715148 -0.00000052
-0.49520350 -0.79048401 0.00000227
-0.49721828 -0.55022353 0.00000303
-0.05592351 -0.48030120 0.00000125
-0.43671870 -0.07785972 0.00000155
-0.39805073 -0.59502846 0.00000244
-0.35445637 -0.67269087 0.00000200
-0.63917607 -0.78213090 0.00000295
-0.09712383 0.52811933 0.00000591
-0.75797731 -0.43371388 -0.00000092
-0.30066514 -0.05466455 0.00000369
-0.13762791 -0.67330474 0.00000102
-0.56214178 -0.27697578 0.00000052
-0.49332172 -0.31645015 0.03059476
-0.19904511 0.39453349 0.00000542
-0.58515167 -0.69340897 0.00000298
-0.34764227 -0.20787866 0.00000342
-0.68882841 -0.72626501 -0.00000018
-0.53774232 0.03186981 0.21755353
-0.30044645 -0.56041640 0.00000211
-0.34115863 -0.31355655 0.00000306
-0.51591516 -0.20352840 0.00000090
-0.28394014 -0.23233946 0.00000306
-0.02716177 0.13367940 0.00001042
-0.78595877 -0.65268427 -0.00000037
-0.58558345 0.06644121 0.00000142
-0.43776402 0.12622043 0.00000364
