ply
format ascii 1.0
element vertex 394
property float x
property float y
property float z
end_header
-0.55152023 0.59053630 0.08328148
-0.21086811 0.77528197 0.04532186
-0.62544048 0.26434913 0.02186115
-0.77636248 0.11767233 0.02289498
-0.77371091 0.50398576 0.11630666
-0.58448076 0.35269108 0.03339742
-0.59843254 0.70732284 0.12313816
-0.68708241 0.71718055 0.14712241
-0.50921571 0.53086764 0.05845356
-0.74336118 0.52184767 0.11326616
-0.30353767 0.69471633 0.04826894
-0.17009354 0.63884890 0.00217627
-0.76967371 0.50926018 0.11660789
-0.46662602 0.51957756 0.04533517
-0.54136223 0.73798293 0.11670789
-0.47396034 0.38495243 0.01434321
-0.44382286 0.43404302 0.01895775
-0.66369718 0.49254254 0.08673484
-0.21660244 0.64516336 0.01503745
-0.67460191 0.56183076 0.10625982
-0.39938304 0.56270677 0.03946400
-0.70013481 0.74270427 0.15651473
-0.51634514 0.49336705 0.05105899
-0.20512749 0.69677275 0.02480911
-0.62300056 0.51445192 0.08216058
-0.22182573 0.71963149 0.03444025
-0.67798948 0.14945503 0.00668182
-0.64352351 0.47530755 0.07762677
-0.76114702 0.32610738 0.06993887
-0.73055440 0.29546443 0.05502956
-0.63664621 0.70050418 0.13078210
-0.40289384 0.71963900 0.07852785
-0.19965184 0.60558069 0.00127305
-0.79477912 0.10989816 0.02548617
-0.68598562 0.32375869 0.05106708
-0.35693061 0.50501579 0.01508164
-0.69752240 0.21198775 0.02666270
-0.74932313 0.12094696 0.01710885
-0.51304233 0.63936651 0.08580198
-0.61120182 0.75147974 0.13699831
-0.70214200 0.55100936 0.11033044
-0.78918290 0.23801973 0.05531787
-0.27313986 0.57839584 0.01254678
-0.37998921 0.43355772 0.00329767
-0.47702345 0.64904308 0.07938826
-0.75122607 0.61028886 0.13671434
-0.53121525 0.77249479 0.12264013
-0.66774970 0.66755998 0.13033396
-0.42377806 0.37703729 0.00019793
-0.55965799 0.43401644 0.04715428
-0.25301126 0.72339165 0.04294870
-0.49001548 0.51580805 0.05011216
-0.75616139 0.60521013 0.13667943
-0.71431881 0.13870551 0.01290991
-0.59672481 0.55407971 0.08541142
-0.46943483 0.59765857 0.06502975
-0.76361418 0.63933533 0.14680266
-0.62711424 0.50644529 0.08121274
-0.36535838 0.56534731 0.03182274
-0.21812090 0.65706909 0.01830589
-0.26338390 0.55412018 0.00426095
-0.34529072 0.58291972 0.03121518
-0.40909728 0.45827216 0.01640209
-0.35529399 0.45362213 0.00217015
-0.71029019 0.52242362 0.10535441
-0.62954432 0.61938512 0.10930246
-0.66994381 0.22858065 0.02398793
-0.77778733 0.45645803 0.10572735
-0.57040423 0.66757894 0.10663728
-0.57602090 0.74197090 0.12611739
-0.63972276 0.53269351 0.09067338
-0.55508667 0.33192980 0.02118586
-0.66943514 0.70109463 0.13890918
-0.54044378 0.75976306 0.12178718
-0.61066467 0.22792894 0.00939624
-0.62628430 0.26055437 0.02114267
-0.48522583 0.76126498 0.10870862
-0.58688080 0.53047830 0.07726830
-0.48701540 0.46973860 0.03816501
-0.22378443 0.67717439 0.02457994
-0.68519688 0.53550762 0.10243041
-0.43123624 0.52818304 0.03881384
-0.77664512 0.56632215 0.13219845
-0.36167249 0.61609989 0.04328223
-0.59518653 0.71324110 0.12378879
-0.56506950 0.57219982 0.08211592
-0.19469140 0.71589279 0.02692341
-0.55775028 0.71485960 0.11506802
-0.26102433 0.75485861 0.05256112
-0.60431433 0.42959997 0.05695171
-0.53142273 0.77149320 0.12244679
-0.62904263 0.47392070 0.07376338
-0.17246731 0.72191495 0.02297864
-0.75404721 0.66428369 0.15054765
-0.48196197 0.66465914 0.08439280
-0.76286960 0.43953171 0.09797413
-0.34821963 0.46984133 0.00439667
-0.65651608 0.68961036 0.13296756
-0.78035384 0.30682060 0.06991944
-0.75693178 0.55879641 0.12556639
-0.71543014 0.44082019 0.08673750
-0.70625526 0.28702837 0.04705936
-0.31101421 0.64746696 0.03858525
-0.42148525 0.56602329 0.04565284
-0.33831018 0.55887997 0.02366254
-0.26764256 0.53587782 0.00085629
-0.69614923 0.56398201 0.11202987
-0.75586057 0.12812749 0.02044882
-0.59776205 0.67758065 0.11573342
-0.55534548 0.28753087 0.01043889
-0.53450906 0.32673079 0.01490989
-0.76650339 0.21893688 0.04514980
-0.67146677 0.69649303 0.13828346
-0.63366550 0.39442259 0.05553322
-0.53851247 0.26733103 0.00142232
-0.78920799 0.30092156 0.07063894
-0.46581763 0.52401191 0.04621800
-0.16476715 0.68386960 0.01184078
-0.31550449 0.55391800 0.01690179
-0.74554276 0.76720101 0.17353486
-0.44700646 0.60231626 0.06070301
-0.33628353 0.70962989 0.05987286
-0.45488167 0.61035269 0.06457711
-0.67155135 0.29895607 0.04151390
-0.36213589 0.45901126 0.00514809
-0.66611725 0.36740279 0.05685581
-0.59345829 0.55217057 0.08415128
-0.22455285 0.61189240 0.00887258
-0.52889860 0.53463030 0.06416196
-0.49975324 0.62970603 0.08021432
-0.78323889 0.10110885 0.02053645
-0.53911930 0.52083927 0.06329271
-0.61337435 0.19215696 0.00134643
-0.45137283 0.74387360 0.09623184
-0.09065429 0.72745812 0.00440879
-0.72677553 0.44745040 0.09111411
-0.13988395 0.75616938 0.02338547
-0.39805731 0.46931845 0.01640360
-0.31135496 0.50202793 0.00325761
-0.43888348 0.50467342 0.03495178
-0.70285726 0.23181178 0.03278823
-0.73389053 0.38579443 0.07783483
-0.66106039 0.25999483 0.02947357
-0.60003787 0.61509067 0.10107275
-0.63459855 0.25007793 0.02061625
-0.22797798 0.73438001 0.03952909
-0.74728453 0.11224367 0.01449348
-0.47580206 0.39223215 0.01656404
-0.64115900 0.36304352 0.04971772
-0.60406411 0.59455389 0.09705283
-0.12589614 0.72564828 0.01254867
-0.54855520 0.42911765 0.04325830
-0.26759407 0.63854653 0.02584163
-0.48169664 0.55689138 0.05808944
-0.38223451 0.44846421 0.00747368
-0.32989541 0.50099057 0.00751919
-0.57934839 0.40273678 0.04433263
-0.38812342 0.49839452 0.02106421
-0.69168448 0.64719498 0.13120313
-0.63508797 0.47552621 0.07562617
-0.53313696 0.27610210 0.00224905
-0.47622529 0.62550169 0.07346217
-0.73001051 0.09783800 0.00678026
-0.32378733 0.64902943 0.04207563
-0.47476363 0.67796355 0.08587947
-0.78328401 0.33422956 0.07730622
-0.37628341 0.47457105 0.01238107
-0.67932767 0.44715485 0.07948975
-0.16486807 0.74485701 0.02671422
-0.74054611 0.42792192 0.08971223
-0.67861205 0.66535318 0.13244136
-0.16643737 0.67627734 0.01039893
-0.24383914 0.67024744 0.02777623
-0.55687708 0.52886540 0.06957043
-0.75273263 0.30547485 0.06286669
-0.57886767 0.55297029 0.08079353
-0.60209179 0.55371583 0.08662957
-0.48912293 0.61422211 0.07385615
-0.27453059 0.53039366 0.00119811
-0.62260383 0.31959221 0.03462074
-0.31538457 0.57486898 0.02197362
-0.77347749 0.06198182 0.00863337
-0.66359359 0.51121438 0.09125572
-0.43348327 0.61987203 0.06168482
-0.53022617 0.71752894 0.10901647
-0.62822503 0.61915714 0.10892574
-0.71798360 0.15580098 0.01796449
-0.69167274 0.21374729 0.02566685
-0.40068513 0.62040776 0.05382972
-0.46092054 0.35681051 0.00431652
-0.74742347 0.54537666 0.11998397
-0.15306532 0.77370965 0.03086545
-0.79167801 0.10407114 0.02331240
-0.59860545 0.54562283 0.08381027
-0.55901945 0.53195828 0.07084508
-0.72213417 0.09303773 0.00369384
-0.73804194 0.41969481 0.08709944
-0.66342616 0.65330762 0.12581117
-0.20240539 0.73088747 0.03245243
-0.38119769 0.62460166 0.05010611
-0.56323069 0.41486886 0.04336221
-0.50705028 0.31085911 0.00436000
-0.36783355 0.52803439 0.02334065
-0.77448225 0.29997808 0.06682386
-0.73804867 0.09328646 0.00762918
-0.27725860 0.53433836 0.00282275
-0.39751777 0.55115968 0.03619845
-0.41982216 0.78092200 0.09757039
-0.66496503 0.37346390 0.05805099
-0.28904825 0.60280734 0.02236363
-0.59010094 0.59571964 0.09393698
-0.42330176 0.69683075 0.07794343
-0.72771502 0.23065084 0.03855782
-0.76443696 0.75327355 0.17474413
-0.18100880 0.74227887 0.03001640
-0.43858808 0.60185289 0.05854052
-0.51032168 0.74345005 0.11048135
-0.54609776 0.54632556 0.07119704
-0.28408039 0.78911173 0.06651451
-0.62316775 0.27910590 0.02490068
-0.74533653 0.27420473 0.05345246
-0.72984648 0.18631355 0.02828182
-0.67109001 0.41290256 0.06914456
-0.65846407 0.30814853 0.04056559
-0.77827799 0.73830688 0.17447008
-0.62584323 0.69315457 0.12636238
-0.69605500 0.26368380 0.03889206
-0.61697823 0.22942071 0.01129664
-0.37094826 0.60933191 0.04389283
-0.60460782 0.53128642 0.08178115
-0.66702992 0.21342929 0.01958951
-0.68962777 0.46221736 0.08566490
-0.49795151 0.71272832 0.09998953
-0.09203520 0.74114698 0.00807789
-0.33871070 0.66505784 0.04961161
-0.41447672 0.56462389 0.04360572
-0.26383308 0.68080628 0.03521506
-0.63937569 0.34322158 0.04445739
-0.70048845 0.73105979 0.15376569
-0.24650337 0.57779640 0.00591549
-0.60869849 0.70270127 0.12451244
-0.33776143 0.77375925 0.07584661
-0.74131900 0.31084982 0.06139642
-0.54810709 0.70900667 0.11129509
-0.53965431 0.32743618 0.01633438
-0.75396699 0.40361547 0.08706190
-0.40912348 0.76103115 0.09012259
-0.29190278 0.55697298 0.01189917
-0.40359762 0.78832603 0.09542281
-0.19327199 0.63973057 0.00803431
-0.53851479 0.56874520 0.07480936
-0.28900310 0.70775443 0.04790457
-0.59169537 0.38494146 0.04300613
-0.70633906 0.45962396 0.08910228
-0.74481940 0.10097315 0.01114920
-0.77566326 0.45276049 0.10430994
-0.50383008 0.70616275 0.09982228
-0.69136280 0.73449314 0.15237975
-0.36731353 0.65942073 0.05520321
-0.49362612 0.69237316 0.09398042
-0.49009588 0.77208596 0.11252901
-0.50847501 0.73535371 0.10806049
-0.74563086 0.62044537 0.13782489
-0.25843257 0.74974734 0.05068562
-0.47719252 0.38193765 0.01439614
-0.72863358 0.76515836 0.16892055
-0.47275019 0.44867662 0.02956374
-0.54218823 0.27058071 0.00310849
-0.56178063 0.56931359 0.08061243
-0.65291178 0.76603526 0.15069757
-0.32633278 0.58977240 0.02826783
-0.67458248 0.12830855 0.00070370
-0.20013128 0.63659078 0.00893992
-0.46368861 0.38050687 0.01075992
-0.64119577 0.37061036 0.05156900
-0.77823210 0.47056529 0.10927040
-0.27537593 0.56838483 0.01065378
-0.71927965 0.20138495 0.02937855
-0.03124817 0.77414531 0.00131197
-0.54743385 0.34634325 0.02283188
-0.70598477 0.11713221 0.00562823
-0.53095722 0.36882693 0.02429440
-0.65921438 0.24728373 0.02592929
-0.43573275 0.49151847 0.03098177
-0.42860842 0.47323012 0.02479444
-0.50575888 0.75062323 0.11111692
-0.45171779 0.49541166 0.03582163
-0.66824180 0.54609805 0.10088076
-0.23924789 0.76303601 0.04925007
-0.43007821 0.78059036 0.09998675
-0.36277774 0.72798252 0.07079198
-0.20005567 0.68375725 0.02040532
-0.72319043 0.14553048 0.01673161
-0.38566443 0.68939674 0.06696964
-0.54543620 0.74531466 0.11948489
-0.58179170 0.37751761 0.03878730
-0.18072705 0.77718043 0.03844547
-0.44757664 0.56736904 0.05233310
-0.45253092 0.66900414 0.07828495
-0.75035518 0.43999770 0.09504063
-0.27853832 0.77520657 0.06177958
-0.41457832 0.69121075 0.07445115
-0.44217178 0.67124057 0.07630726
-0.45422268 0.56699651 0.05386054
-0.61201781 0.73635072 0.13351344
-0.61332047 0.47907051 0.07118926
-0.40435994 0.54912192 0.03736820
-0.28851613 0.71202463 0.04882570
-0.62295216 0.35689723 0.04378835
-0.03683231 0.77749449 0.00348701
-0.35999298 0.55354398 0.02764260
-0.71300268 0.73873752 0.15868196
-0.17388692 0.72914642 0.02508496
-0.79061180 0.18180759 0.04197959
-0.62485534 0.47214115 0.07231060
-0.78796172 0.32486615 0.07616539
-0.51138324 0.69136298 0.09805790
-0.46765354 0.76347578 0.10496846
-0.63925403 0.45222798 0.07096799
-0.68552965 0.14711133 0.00794704
-0.18220268 0.78865236 0.04159789
-0.18669485 0.63639390 0.00562055
-0.36259004 0.71455497 0.06747700
-0.73049963 0.74747950 0.16507050
-0.31056428 0.69386965 0.04977360
-0.67233825 0.42377231 0.07209497
-0.63705534 0.33927083 0.04293056
-0.59937239 0.40177807 0.04897456
-0.50774539 0.77183419 0.11676495
-0.61239427 0.66003776 0.11502476
-0.62791800 0.75220639 0.14124522
-0.67683870 0.57352048 0.10965059
-0.37399516 0.55656153 0.03178646
-0.51852763 0.31986925 0.00934819
-0.31186557 0.61346459 0.03051386
-0.32914221 0.62042063 0.03641391
-0.39135048 0.70971292 0.07330056
-0.38164419 0.53037030 0.02727194
-0.67180586 0.70570201 0.14060818
-0.36996421 0.44655535 0.00402141
-0.51454026 0.65253836 0.08937372
-0.38206053 0.63694251 0.05332087
-0.43782440 0.60580641 0.05931716
-0.49799564 0.70109057 0.09716678
-0.41857269 0.69344872 0.07596857
-0.73149741 0.54790586 0.11672216
-0.61244023 0.66537094 0.11633444
-0.28559655 0.57492346 0.01473424
-0.19054399 0.69019943 0.01965797
-0.61276138 0.72671461 0.13134833
-0.66262996 0.59595513 0.11165340
-0.72487098 0.31141290 0.05752882
-0.13301995 0.78332824 0.02832677
-0.46602032 0.44696867 0.02750934
-0.78672731 0.15567283 0.03467069
-0.74622267 0.58565599 0.12949863
-0.71699053 0.42111093 0.08231873
-0.35577750 0.74095273 0.07224551
-0.11408992 0.71961027 0.00820404
-0.55521274 0.71400380 0.11424182
-0.71040434 0.24293800 0.03733471
-0.67099267 0.44110054 0.07598634
-0.57490015 0.61912626 0.09593488
-0.40199581 0.71462291 0.07708790
-0.77248824 0.50869548 0.11715567
-0.53653908 0.66326439 0.09734144
-0.43053997 0.68495858 0.07681517
-0.42791453 0.56340808 0.04658146
-0.49240768 0.68108612 0.09093565
-0.38826087 0.73029810 0.07756029
-0.60350984 0.28616935 0.02183423
-0.47910136 0.56122255 0.05851209
-0.74557108 0.51788414 0.11283920
-0.72412598 0.53568298 0.11195141
-0.30442917 0.72332764 0.05545214
-0.61499554 0.40079474 0.05253899
-0.75108850 0.21257237 0.03984707
-0.71789867 0.18613252 0.02532874
-0.64221513 0.50263119 0.08396081
-0.71082371 0.32165560 0.05660248
-0.26313126 0.70467573 0.04085581
-0.59976655 0.30906108 0.02649636
-0.72759444 0.74827969 0.16455798
-0.18169126 0.74412286 0.03063152
-0.14417298 0.68630064 0.00741851
-0.43926582 0.51011854 0.03637063
-0.47802615 0.68832088 0.08919557
-0.23261274 0.60649502 0.00952083
-0.30322090 0.71620226 0.05342310
-0.47082308 0.41139272 0.02001688
-0.16838960 0.71610749 0.02057185
-0.54884291 0.50567567 0.06196822
-0.76081634 0.33482382 0.07198058
-0.69052958 0.72448909 0.14974116
