ply
format ascii 1.0
element vertex 1375
property float x
property float y
property float z
end_header
-0.05139973 0.07109853 0.58755422
-0.75912660 -0.22027978 -0.00000144
-0.03044996 -0.17666683 0.34808490
-0.29263571 -0.50430793 0.00000000
-0.05718576 0.61326015 0.00000194
-0.05352069 -0.33846402 0.61182016
-0.00198910 0.36480951 0.02266658
-0.03613156 0.07647809 0.41298062
-0.00380191 -0.01912049 0.04346106
-0.05240394 -0.30906153 0.59905410
-0.02533542 0.06684597 0.28953761
-0.01693600 0.01094979 0.19349596
-0.03558999 -0.10710204 0.40684363
-0.05072676 0.08206396 0.57986176
-0.01909050 -0.14246956 0.21823066
-0.03557975 -0.12665653 0.40672630
-0.06121956 -0.64433724 0.69982630
-0.32701269 -0.56584036 0.00000000
-0.36183953 -0.16175415 0.00000000
-0.06529482 -0.39789656 0.74641716
-0.03885209 0.30301815 0.44413194
-0.08511715 -0.72066909 0.00000000
-0.02003925 -0.43061891 0.22907621
-0.05818982 0.03331833 0.00001062
-0.04606824 -0.30544129 0.52662575
-0.30297178 0.45459396 -0.00000005
-0.01032900 0.31107688 0.00000718
-0.01922857 -0.78257608 0.21980892
-0.03517675 -0.29335669 0.00000000
-0.01593860 -0.46556333 0.00000000
-0.04779195 -0.05934098 0.54633456
-0.02375080 0.30120841 0.27146503
-0.56385362 -0.52796787 -0.00000006
-0.51424128 -0.50129020 0.00000000
-0.01311049 -0.52242339 0.14987089
-0.22876719 -0.76807392 0.00000000
-0.39002883 -0.17323607 0.00000000
-0.01741859 0.11069672 0.19903073
-0.00273136 -0.28107366 0.03122322
-0.00200751 -0.73620647 0.02294856
-0.01586394 -0.40400544 0.18134664
-0.01941509 0.47098279 0.22192469
-0.52608043 -0.63271677 0.00000000
-0.03888754 0.28907734 0.44453448
-0.06267725 -0.02422542 0.71650064
-0.54804367 -0.70498621 0.00000000
-0.61029339 0.00685486 0.00000153
-0.02107406 0.41004652 0.00000553
-0.11645372 0.33085641 0.00000528
-0.09476610 0.49500263 0.00000315
-0.06879791 -0.58464026 0.78645515
-0.00337512 -0.53295738 0.03858228
-0.01237786 -0.73670691 0.14149591
-0.01949751 0.01425581 0.00001149
-0.34445274 0.32186991 0.00000137
-0.01059463 0.15151830 0.12101822
-0.00780928 -0.23513728 0.08927084
-0.15994436 0.26249889 0.00000565
-0.01278087 -0.72115761 0.14610296
-0.71683216 -0.39629403 -0.00000094
-0.20124283 0.03258211 0.00000847
-0.55595309 0.01649566 0.00000241
-0.48440671 -0.71586227 0.00000000
-0.25292191 -0.19071689 0.00000000
-0.10405143 0.27752680 0.00000627
-0.04734007 -0.10316643 0.54116809
-0.21403581 -0.36150858 0.00000000
-0.06967430 -0.18265328 0.79648459
-0.06027794 -0.03712035 0.68907195
-0.05303893 -0.71442831 0.60630780
-0.62483287 -0.48236302 -0.00000040
-0.02063842 -0.49967846 0.23592548
-0.06152849 -0.17304713 0.70336598
-0.06730095 0.41595915 0.00000475
-0.18616810 -0.18608209 0.00000000
-0.48332325 0.10011741 0.00000241
-0.00430616 -0.32890025 0.04922527
-0.02980317 -0.30422717 0.00000000
-0.06365400 -0.36565274 0.72766155
-0.02454621 -0.69635183 0.28059694
-0.06085247 -0.53466201 0.69563258
-0.02286343 0.26082641 0.26131088
-0.02571911 0.03407337 0.29391870
-0.02061101 -0.33381388 0.23561212
-0.02939663 -0.33971992 0.33604383
-0.24467605 0.25617144 0.00000439
-0.04015464 -0.56051081 0.45902273
-0.32425630 -0.03465599 0.00000000
-0.72532594 -0.16332546 -0.00000139
-0.01984225 0.28350455 0.22677155
-0.37398335 -0.71401644 0.00000000
-0.53488654 -0.45663467 -0.00000006
-0.15529759 0.29154304 0.00000528
-0.02928841 -0.18596511 0.33480680
-0.06201536 -0.61077774 0.70892400
-0.62879241 -0.11975168 -0.00000106
-0.49103794 -0.24335416 -0.00000025
-0.05526523 -0.53735667 0.63176036
-0.43269262 -0.64577764 0.00000000
-0.02959700 0.37209821 0.33832395
-0.04529662 0.14618538 0.51778686
-0.40208146 0.09092229 0.00000412
-0.01604742 -0.33230141 0.18344413
-0.04451185 -0.61286002 0.50883162
-0.35561183 -0.64613140 0.00000000
-0.02447967 -0.69611841 0.27983624
-0.21196242 -0.12973467 0.00000000
-0.16632785 0.02256175 0.00000915
-0.03538834 0.00343313 0.40446821
-0.31548676 -0.53004527 0.00000000
-0.01337550 -0.35041064 0.15290035
-0.57017690 0.01529913 0.00000216
-0.05679327 -0.43133876 0.64923024
-0.01612861 0.04416778 0.18427065
-0.00220310 0.62413836 0.02515799
-0.23964360 0.26040712 0.00000441
-0.06586622 -0.22461969 0.75295323
-0.31674588 0.20982163 0.00000378
-0.02274134 -0.23428290 0.25996473
-0.03787745 -0.18495497 0.43299222
-0.52242875 -0.04714535 -0.00000073
-0.06916930 0.66276503 0.00000096
-0.57149893 -0.24167934 -0.00000060
-0.35705760 -0.30489707 0.00000000
-0.38243863 -0.78087807 0.00000000
-0.12759973 -0.51937670 0.00000000
-0.00014928 0.75705361 0.00000064
-0.04553525 -0.55528665 0.52053046
-0.07178613 0.67367154 0.00000073
-0.32790866 0.07754649 0.00000577
-0.02049188 0.08956019 0.23416443
-0.32140648 0.32981190 0.00000168
-0.05003816 0.19321460 0.57201046
-0.16278985 -0.63272345 0.00000000
-0.05130899 -0.09081836 0.58654004
-0.00766921 -0.13418730 0.08766959
-0.03713808 0.29785979 0.42453310
-0.38132876 -0.57479066 0.00000000
-0.42563751 0.31253314 -0.00000003
-0.02972086 -0.43397072 0.33975026
-0.03838149 -0.24324930 0.43875343
-0.42650306 -0.10732972 -0.00000022
-0.25568497 -0.33954835 0.00000000
-0.04976062 0.01888215 0.00001097
-0.04732795 -0.41281861 0.00000000
-0.00724116 -0.71046215 0.08277645
-0.05204457 -0.33799076 0.59494543
-0.01995865 0.53491062 0.00000368
-0.74291432 -0.76070237 -0.00000010
-0.67818719 -0.31254071 -0.00000093
-0.04247606 0.00696307 0.48550913
-0.12117740 0.25608525 0.00000633
-0.02977001 -0.52586168 0.34031215
-0.04833167 -0.49402788 0.55249804
-0.21968868 -0.59985274 0.00000000
-0.05213119 0.36503461 0.00000574
-0.03854939 -0.37723720 0.44067255
-0.03805365 -0.64745057 0.43500552
-0.00220228 0.72401851 0.02516587
-0.04228254 -0.16556555 0.48335055
-0.61154044 -0.06275307 -0.00000108
-0.10440154 0.40479925 0.00000435
-0.03533838 -0.64833748 0.40396625
-0.02726943 -0.02942346 0.31172708
-0.02195866 0.45875114 0.00000479
-0.07223723 -0.57282072 0.00000000
-0.06939685 -0.07151045 0.79331625
-0.20705566 -0.14185102 0.00000000
-0.62861949 -0.21020266 -0.00000090
-0.32422051 0.26179519 0.00000276
-0.14666639 0.22500671 0.00000641
-0.04248795 -0.17062704 0.48569867
-0.05537692 -0.37186244 0.63303971
-0.02841091 0.21742004 0.32473153
-0.70000559 -0.18110752 -0.00000125
-0.54863864 -0.23939095 -0.00000050
-0.00480743 -0.24680319 0.05495553
-0.01881658 -0.61205500 0.21509936
-0.05892506 -0.42430928 0.67360044
-0.04862389 0.04563222 0.55581045
-0.05833936 -0.47155955 0.66690421
-0.59542757 -0.74219757 0.00000000
-0.49425375 -0.01379021 -0.00000067
-0.28981742 0.49987316 -0.00000055
-0.00608054 0.63655275 0.06949174
-0.34137872 -0.28740650 0.00000000
-0.62675077 0.05286001 0.00000044
-0.02869613 -0.56034672 0.32803622
-0.06007413 -0.67587316 0.68673217
-0.69204658 -0.79267788 -0.00000002
-0.02457318 -0.48521942 0.28090519
-0.24106221 0.48345014 0.00000066
-0.02694501 0.36678305 0.00000609
-0.05729854 -0.33024612 0.65500778
-0.03137022 -0.46750191 0.35860470
-0.01488560 -0.53880763 0.17016286
-0.52974838 -0.46533653 -0.00000002
-0.43544477 -0.26018178 0.00000000
-0.05892921 -0.05243249 0.67365336
-0.02980986 0.37703547 0.34075874
-0.06011838 -0.23416294 0.68724507
-0.05510867 -0.33559549 0.62997353
-0.12943968 0.38158402 0.00000432
-0.66760534 0.09698879 -0.00000108
-0.06032327 -0.44361746 0.68958414
-0.78331256 -0.49027073 -0.00000077
-0.34293532 0.09800888 0.00000514
-0.06320753 -0.18822902 0.72256029
-0.05264963 -0.43257004 0.60186088
-0.66478640 -0.50827283 -0.00000052
-0.31085363 -0.48741478 0.00000000
-0.04251483 0.17038687 0.48598489
-0.06589251 -0.26324853 0.75325316
-0.53465182 -0.63552177 0.00000000
-0.06214696 -0.22151875 0.71043551
-0.03132310 -0.11871441 0.35806605
-0.04426320 -0.24293305 0.50599188
-0.49297762 -0.50191939 0.00000000
-0.75604564 -0.01207158 -0.00000179
-0.28428823 -0.74722695 0.00000000
-0.02041470 -0.68127412 0.23336811
-0.05094244 -0.54134494 0.58234310
-0.01645302 0.54244596 0.18807086
-0.08857218 -0.44242519 0.00000000
-0.54529607 0.21456598 -0.00000069
-0.01119320 0.16772816 0.12786458
-0.02664205 0.27647963 0.30451828
-0.12106603 0.65824085 0.00000004
-0.76911843 -0.54268235 -0.00000064
-0.11728763 0.12827235 0.00000831
-0.02984113 -0.49467146 0.34112516
-0.01906673 0.18911383 0.21788774
-0.50936067 -0.79707164 0.00000000
-0.35445568 -0.28102779 0.00000000
-0.58688658 -0.06636037 -0.00000097
-0.67110944 -0.61679882 -0.00000036
-0.33160719 -0.53905910 0.00000000
-0.27748284 -0.32363531 0.00000000
-0.26928324 0.49283645 -0.00000004
-0.40423587 -0.31074977 0.00000000
-0.26132154 0.52048308 -0.00000035
-0.04681464 0.18874802 0.53515220
-0.45346999 -0.32280260 0.00000000
-0.00770863 -0.43302119 0.08812029
-0.03315581 0.24092661 0.37898892
-0.22298680 -0.75388718 0.00000000
-0.15154949 0.30589560 0.00000512
-0.70705903 -0.31031337 -0.00000105
-0.01527660 -0.43385115 0.17463247
-0.00973545 0.32109585 0.11122434
-0.16292885 -0.18526413 0.00000000
-0.41587675 -0.00066177 -0.00000036
-0.01161024 -0.62520063 0.13272104
-0.06799501 -0.29434851 0.77728558
-0.06623672 -0.49273708 0.75718123
-0.00503425 0.09319722 0.05743539
-0.14274970 -0.69713688 0.00000000
-0.42434627 -0.76709723 0.00000000
-0.37124461 -0.55843782 0.00000000
-0.35156026 -0.50665647 0.00000000
-0.00147306 -0.65701836 0.01683909
-0.01427473 0.38147891 0.00000606
-0.49459466 -0.50219846 0.00000000
-0.05562105 -0.69033527 0.63582575
-0.26051065 -0.40227985 0.00000000
-0.01103590 -0.05981127 0.12615556
-0.38761324 -0.58426243 0.00000000
-0.12189300 -0.20644458 0.00000000
-0.03188578 0.10803630 0.36444113
-0.05071803 -0.64623636 0.00000000
-0.00271972 -0.01304067 0.03109011
-0.19424926 -0.59260452 0.00000000
-0.01923240 -0.08588196 0.21985270
-0.03378026 -0.40792316 0.38615474
-0.03467207 -0.59916174 0.39634943
-0.54616010 -0.44654378 -0.00000013
-0.53937650 -0.13006821 -0.00000066
-0.01490142 -0.03980739 0.00000000
-0.67602646 -0.20480722 -0.00000111
-0.03871247 -0.55645871 0.44253668
-0.00930146 -0.61978841 0.10632851
-0.06110419 -0.65768695 0.00000000
-0.22195812 0.44855171 0.00000161
-0.00872036 -0.23795924 0.09968564
-0.06587154 -0.60092640 0.75300372
-0.03954256 -0.16256121 0.45202771
-0.02261723 0.46842936 0.25853708
-0.05201643 -0.37919345 0.59462315
-0.43452299 -0.63322252 0.00000000
-0.03647948 0.10861280 0.41696513
-0.06848224 -0.61614388 0.78284585
-0.03952225 0.34614724 0.45180306
-0.45627272 0.28464073 -0.00000015
-0.03717520 -0.65254617 0.42496362
-0.00449838 0.16521759 0.05132108
-0.65481269 -0.09636905 -0.00000121
-0.05474687 0.03815514 0.62581855
-0.02304068 0.38233787 0.26336166
-0.01434751 0.29037341 0.16394952
-0.05469999 -0.34731323 0.62530142
-0.01175719 0.47710162 0.13436632
-0.05357128 -0.60135806 0.61239457
-0.05947102 -0.05616907 0.67984712
-0.31920281 -0.01508413 0.00000000
-0.00387959 0.33348545 0.04427542
-0.15774851 -0.14991137 0.00000000
-0.42244202 -0.49078211 0.00000000
-0.02378458 0.29381788 0.27184972
-0.25397518 -0.56534487 0.00000000
-0.24857889 -0.18502219 0.00000000
-0.06157804 0.23050635 0.00000761
-0.05393336 0.07217505 0.61652368
-0.10747248 -0.39197576 0.00000000
-0.01748241 -0.17240222 0.19984792
-0.51091355 -0.73895711 0.00000000
-0.36052388 -0.46140540 0.00000000
-0.29682902 -0.51302773 0.00000000
-0.04019366 -0.51344562 0.45946878
-0.37147027 0.20377254 0.00000283
-0.01154235 -0.22764081 0.00000000
-0.15145785 -0.79612690 0.00000000
-0.06318339 -0.14497378 0.72228491
-0.06559354 -0.43319845 0.74983072
-0.04980799 -0.64251500 0.00000000
-0.03309086 0.34564778 0.00000632
-0.43895751 0.12522732 0.00000284
-0.14598273 0.09955670 0.00000830
-0.03125440 0.57218760 0.00000295
-0.04682395 -0.42533171 0.53526312
-0.10913244 -0.07855118 0.00000000
-0.00289330 -0.68398184 0.03307434
-0.06159722 -0.77300161 0.70413971
-0.03083104 0.16046873 0.35239169
-0.01482125 -0.43556541 0.16942722
-0.23139235 0.24419077 0.00000484
-0.01424362 -0.55980003 0.16282415
-0.08938286 -0.74148190 0.00000000
-0.57298380 -0.32146096 -0.00000046
-0.06219510 -0.10931222 0.71098757
-0.28786597 -0.58662689 0.00000000
-0.62611800 -0.26175815 -0.00000080
-0.16790496 0.25322977 0.00000567
-0.24470124 -0.26040566 0.00000000
-0.01855070 0.20947634 0.21199130
-0.05820189 -0.65334910 0.66532999
-0.00082381 0.11352641 0.00930020
-0.32117370 -0.66041923 0.00000000
-0.31283650 -0.74366766 0.00000000
-0.05558165 -0.67110837 0.63537562
-0.58789831 -0.37611511 -0.00000043
-0.01061174 0.33370924 0.12124531
-0.04955917 0.01090067 0.56649745
-0.24493723 0.45569733 0.00000105
-0.01512726 -0.56981641 0.17292537
-0.00754858 -0.35288826 0.08629069
-0.03135107 0.08824013 0.00001020
-0.01201937 -0.21210641 0.13739792
-0.02367463 -0.73208696 0.27063355
-0.35613549 -0.02209950 -0.00000007
-0.00165678 -0.35223052 0.01893926
-0.02079016 -0.44419140 0.23766005
-0.66557956 -0.26165643 -0.00000096
-0.00867761 -0.72680420 0.09919698
-0.36788338 -0.36119971 0.00000000
-0.02149153 -0.65551049 0.24567771
-0.31710508 -0.55867827 0.00000000
-0.24297829 -0.09045564 0.00000000
-0.01171376 0.38412300 0.00000606
-0.11911976 -0.00044601 0.00000000
-0.02491968 0.46866509 0.28486317
-0.00222253 -0.22843362 0.00000000
-0.17444099 0.09842657 0.00000789
-0.59740287 -0.28221533 -0.00000064
-0.23373964 -0.11734256 0.00000000
-0.64960963 -0.30666378 -0.00000082
-0.40602905 -0.66202378 0.00000000
-0.12349195 -0.38217887 0.00000000
-0.21882206 0.41237491 0.00000227
-0.02518043 0.50383216 0.28785148
-0.24396087 -0.16015354 0.00000000
-0.04983899 -0.65809005 0.56972820
-0.06918147 -0.21204665 0.79085022
-0.78774649 -0.44645184 -0.00000088
-0.11076012 0.35040668 0.00000507
-0.02032596 -0.16169105 0.23235367
-0.23863623 -0.49283108 0.00000000
-0.05986115 -0.69984937 0.68429691
-0.04855520 0.07330218 0.55503064
-0.49519262 0.21281116 0.00000030
-0.04064967 -0.54428089 0.46468154
-0.77285439 -0.40573156 -0.00000099
-0.33963120 0.36011517 0.00000083
-0.06342100 -0.07929147 0.72500217
-0.79333407 -0.51646274 -0.00000071
-0.66770118 -0.71346658 -0.00000017
-0.28812546 -0.62000847 0.00000000
-0.35728577 -0.23437646 0.00000000
-0.03162533 -0.72121841 0.36152098
-0.52240610 0.21904892 -0.00000033
-0.02064308 -0.76961678 0.23597872
-0.05218502 -0.18653968 0.59655333
-0.69734645 -0.63127577 -0.00000042
-0.05133769 -0.09670742 0.58686817
-0.02457240 -0.40779263 0.28089634
-0.03487362 -0.10277439 0.39865434
-0.01697664 0.23792227 0.19399972
-0.48732919 -0.00266710 -0.00000066
-0.01941576 0.00099792 0.22184575
-0.00645668 0.05387260 0.07369139
-0.30987555 -0.18343805 0.00000000
-0.56620753 -0.04753024 -0.00000092
-0.02073298 -0.32482699 0.23700643
-0.02304173 0.23450376 0.26334429
-0.35149011 -0.31345969 0.00000000
-0.04469922 -0.51311111 0.51097351
-0.02535272 -0.47004563 0.28981641
-0.06435280 0.19195370 0.00000815
-0.00915086 -0.52319610 0.10460688
-0.15551738 -0.72184998 0.00000000
-0.00666256 0.12553149 0.07605772
-0.59833980 -0.60997546 -0.00000006
-0.40387183 -0.47690082 0.00000000
-0.25570220 0.04482551 0.00000747
-0.02410933 0.48475388 0.27560091
-0.58850282 0.05280785 0.00000118
-0.06056410 -0.38426501 0.69233817
-0.02858935 -0.56911010 0.32681549
-0.32620919 -0.61568427 0.00000000
-0.01361352 -0.37615073 0.15562123
-0.33527011 -0.26699117 0.00000000
-0.55636621 -0.63545978 0.00000000
-0.01241027 0.09417811 0.14176683
-0.04168288 -0.32356182 0.47649300
-0.03879004 -0.60363144 0.44342342
-0.00512372 -0.36026084 0.05857110
-0.02633702 -0.65842956 0.30106834
-0.40159941 0.17467153 0.00000273
-0.00233729 -0.33822832 0.02671838
-0.01869458 -0.00469973 0.21370476
-0.04036100 0.18170051 0.46136051
-0.45184714 -0.01942375 -0.00000048
-0.05071972 -0.56849039 0.57979667
-0.05188160 -0.25974533 0.59308350
-0.00909224 -0.20658426 0.10393682
-0.06283386 -0.57212812 0.71828133
-0.02158145 0.07744418 0.24661967
-0.04759835 -0.66917193 0.54411459
-0.57464278 0.15226328 -0.00000022
-0.03515255 0.32015339 0.40183514
-0.38856488 0.06227182 0.00000486
-0.45104715 -0.16819701 -0.00000021
-0.10552487 -0.05864515 0.00000000
-0.00076827 -0.57539439 0.00000000
-0.05237469 0.06221074 0.59870011
-0.02124591 0.28498799 0.24282114
-0.03453715 -0.18625434 0.39480710
-0.05588674 -0.24561019 0.63886970
-0.00892049 -0.72161305 0.10197342
-0.24353176 -0.78471500 0.00000000
-0.04072101 0.26213083 0.46549284
-0.55528480 -0.11846936 -0.00000075
-0.04512669 -0.01256565 0.51586652
-0.01974788 -0.46921036 0.22574545
-0.05379514 -0.21182954 0.61495948
-0.21270679 0.26392466 0.00000483
-0.54326087 -0.59783697 0.00000000
-0.11315537 -0.75998676 0.00000000
-0.47019547 -0.77690893 0.00000000
-0.00652973 0.47923067 0.07460008
-0.74787468 -0.29743454 -0.00000125
-0.00425909 0.72266108 0.04868262
-0.01159449 0.60684186 0.00000272
-0.06550353 0.49482372 0.00000359
-0.33953765 0.28653836 0.00000206
-0.18698727 0.25657129 0.00000533
-0.37895083 0.20895006 0.00000260
-0.01616876 -0.20787451 0.18483119
-0.60221517 -0.39771247 -0.00000045
-0.04127255 0.25657940 0.47179794
-0.04899570 0.21984708 0.56009638
-0.03014974 -0.31523106 0.00000000
-0.77161068 -0.35026285 -0.00000112
-0.00309563 0.43385690 0.03532961
-0.05907024 0.46095869 0.00000419
-0.06114122 -0.23744878 0.69893789
-0.02240740 -0.52501839 0.25614735
-0.12131297 -0.79001623 0.00000000
-0.55199033 0.21869092 -0.00000089
-0.48933694 -0.65578216 0.00000000
-0.19324249 -0.22584647 0.00000000
-0.01378669 -0.27162942 0.15760078
-0.00457457 -0.23625515 0.00000000
-0.21894236 -0.35803312 0.00000000
-0.05550241 0.07539871 0.00001003
-0.20454746 0.07917649 0.00000773
-0.06539466 0.00180923 0.74755704
-0.28811115 -0.16638321 0.00000000
-0.02822324 0.63302243 0.00000208
-0.02534662 0.25335479 0.28970191
-0.05642833 0.64758146 0.00000143
-0.28884032 -0.60353565 0.00000000
-0.02891816 -0.72321975 0.33057430
-0.71003133 -0.33962038 -0.00000102
-0.16623719 0.03181910 0.00000901
-0.00121926 -0.13590108 0.01393780
-0.04473460 -0.72167194 0.51137799
-0.12289793 0.41866043 0.00000387
-0.63846987 -0.51127017 -0.00000041
-0.14822726 -0.29908061 0.00000000
-0.01092251 -0.18935136 0.12485926
-0.02309449 -0.30280733 0.26400179
-0.48930934 -0.12710546 -0.00000045
-0.00840237 -0.56541377 0.09605068
-0.06079786 -0.22169793 0.69501293
-0.57143074 -0.06500934 -0.00000091
-0.05575755 -0.52746415 0.63738865
-0.01798350 -0.79511422 0.20557608
-0.04493949 -0.76772702 0.51372010
-0.04991654 -0.42681295 0.57061696
-0.49029377 -0.39720744 0.00000000
-0.06925278 -0.05374908 0.79166985
-0.39626232 -0.15386678 -0.00000000
-0.15208764 0.10293927 0.00000816
-0.00706050 -0.51172572 0.08071122
-0.05960994 0.28243932 0.00000686
-0.59263587 -0.38145098 -0.00000044
-0.10101973 0.19669028 0.00000753
-0.02877092 -0.55475265 0.32889113
-0.33956951 -0.69426793 0.00000000
-0.41520792 -0.00787302 -0.00000034
-0.72448248 -0.08064630 -0.00000154
-0.02129861 -0.22642672 0.24347232
-0.01331289 -0.73364669 0.15218464
-0.64345860 -0.10074951 -0.00000115
-0.04582865 -0.38690493 0.52388573
-0.47639823 -0.22050987 -0.00000023
-0.09778220 -0.50728500 0.00000000
-0.00039240 -0.78901988 0.00448566
-0.02256618 0.42948365 0.25794566
-0.03616291 -0.22177096 0.41339174
-0.36433411 -0.77035415 0.00000000
-0.05880184 -0.76337337 0.67218637
-0.01881217 0.30875409 0.21499875
-0.04660451 -0.70674270 0.53275353
-0.00812461 -0.38418239 0.09287550
-0.41782302 -0.77958971 0.00000000
-0.00686992 -0.66372091 0.07853259
-0.01027356 0.52150947 0.11741147
-0.13466886 -0.76372784 0.00000000
-0.50328016 -0.63956511 0.00000000
-0.05421412 -0.01582664 0.61975205
-0.01084648 0.61500067 0.12398071
-0.00001317 -0.27946314 0.00015058
-0.04778957 0.03020418 0.54626793
-0.45780167 0.02616263 0.00000413
-0.02983455 -0.44107014 0.34104994
-0.00875508 -0.63095862 0.10008264
-0.11214530 -0.44351259 0.00000000
-0.05087981 -0.09454894 0.58163375
-0.03738237 0.03625852 0.42727426
-0.28760886 0.40584537 0.00000106
-0.01845382 -0.02799535 0.21095254
-0.55718046 0.16640565 -0.00000012
-0.04351619 -0.63199914 0.49744982
-0.12931345 0.09407511 0.00000864
-0.22506332 0.16317746 0.00000616
-0.64896244 -0.09651888 -0.00000118
-0.64992511 0.00870738 0.00000074
-0.73614234 -0.40674362 -0.00000098
-0.01481784 0.37732920 0.16934188
-0.13351281 0.34805119 0.00000476
-0.72555959 -0.03057942 -0.00000163
-0.16065396 0.26672727 0.00000557
-0.57119697 -0.25210625 -0.00000058
-0.59494114 -0.53653234 -0.00000018
-0.36037108 -0.50903898 0.00000000
-0.04546146 -0.18257406 0.51969111
-0.00102997 0.12156521 0.01165868
-0.04495934 -0.11410249 0.51395196
-0.06946631 -0.61829376 0.79409468
-0.59077561 0.15666877 -0.00000060
-0.43104547 -0.57526064 0.00000000
-0.01045519 0.21961734 0.11943575
-0.02043816 -0.30635613 0.23363626
-0.04393113 -0.65739417 0.50219309
-0.02652380 -0.40558547 0.30320352
-0.02383185 -0.29670224 0.00000000
-0.01283373 0.14877050 0.00000957
-0.00021729 0.03318354 0.00235189
-0.03848184 -0.44711289 0.43990034
-0.24188092 -0.03926118 0.00000000
-0.00706871 0.58317375 0.08078038
-0.02356070 -0.25215659 0.26933113
-0.02784292 0.42911467 0.31827933
-0.35375324 -0.39782739 0.00000000
-0.02658230 -0.56656027 0.30387223
-0.37989315 -0.70661783 0.00000000
-0.01517069 -0.00427127 0.17342187
-0.03216625 0.03541188 0.36763349
-0.23357581 0.12763344 0.00000656
-0.06537023 -0.64248556 0.74727219
-0.60280037 -0.13355267 -0.00000092
-0.11036460 -0.06008907 0.00000000
-0.06494696 -0.62142706 0.74243450
-0.00214313 -0.27880597 0.02449897
-0.59738505 -0.05659096 -0.00000104
-0.65546739 -0.76248813 -0.00000004
-0.02950222 -0.62175357 0.33725092
-0.40486777 0.28139418 0.00000089
-0.73136526 -0.54777908 -0.00000063
-0.58383948 -0.01062218 -0.00000106
-0.03989830 -0.47680143 0.00000000
-0.18600734 0.51120239 0.00000125
-0.10808442 0.27969944 0.00000617
-0.69775909 -0.71627444 -0.00000021
-0.06336853 -0.67740148 0.72438997
-0.00370187 -0.54847908 0.04231747
-0.00430008 0.05511100 0.04903485
-0.71319431 -0.58052129 -0.00000055
-0.03469207 -0.37715283 0.39657801
-0.25264570 -0.23513587 0.00000000
-0.03086865 0.39987549 0.00000554
-0.13421454 0.20919251 0.00000684
-0.31293422 0.02774472 0.00000686
-0.02359681 0.35393819 0.26971477
-0.00294170 -0.26927632 0.03362765
-0.14802884 -0.30694202 0.00000000
-0.45448789 -0.71756965 0.00000000
-0.01249929 -0.67664230 0.14288402
-0.03635113 -0.52630872 0.41554335
-0.02624520 0.29712060 0.29998484
-0.05435812 -0.50499910 0.62139094
-0.00808648 -0.18047042 0.09243958
-0.01103222 0.17809471 0.00000916
-0.04978742 -0.13760044 0.56914520
-0.02005412 -0.29974356 0.22924620
-0.34283462 0.02317986 0.00000639
-0.21661457 0.29362512 0.00000430
-0.49175480 -0.07425440 -0.00000055
-0.00274544 0.21128504 0.03128742
-0.05117408 -0.24863733 0.58499551
-0.04993298 0.27722898 0.00000709
-0.04178761 0.28217438 0.00000714
-0.30313417 -0.14478929 0.00000000
-0.03805043 -0.25361490 0.43496871
-0.22307804 -0.57583284 0.00000000
-0.06903207 -0.03833563 0.78914732
-0.37300956 0.39822173 -0.00000045
-0.02785596 0.11076465 0.31836507
-0.00847642 0.03781220 0.09678067
-0.01708748 -0.64041412 0.19533333
-0.41966268 0.19081172 0.00000212
-0.00020177 0.27175555 0.00221562
-0.03438713 0.04256556 0.39302826
-0.06227872 -0.70720863 0.00000000
-0.06824752 -0.11860143 0.78017700
-0.01013110 -0.12526302 0.11581242
-0.29497388 -0.54638791 0.00000000
-0.22387213 0.01915047 0.00000833
-0.79306579 -0.65271229 -0.00000037
-0.04180503 -0.70482367 0.47788888
-0.02081800 -0.22876658 0.23797831
-0.06472913 -0.65801173 0.73994339
-0.03834755 -0.04901035 0.43836832
-0.62108982 0.06730934 0.00000031
-0.58977550 -0.76209116 0.00000000
-0.12821250 0.57301533 0.00000133
-0.53190815 -0.51866305 0.00000000
-0.60396433 0.15912664 -0.00000089
-0.09542117 -0.33355322 0.00000000
-0.02654581 -0.47141016 0.30345508
-0.35517722 -0.49670035 0.00000000
-0.01526158 0.15523744 0.17437692
-0.03578113 0.37823948 0.40903383
-0.03763064 -0.49467158 0.43016985
-0.04333644 -0.79929614 0.49539509
-0.52134693 -0.74152470 0.00000000
-0.06342039 -0.28920707 0.72499216
-0.02895577 0.14418939 0.00000940
-0.00678421 0.72156030 0.07755445
-0.02544889 -0.49248236 0.00000000
-0.19821997 -0.31938586 0.00000000
-0.29908371 0.10431129 0.00000588
-0.64159614 -0.58986372 -0.00000028
-0.03403002 0.02531315 0.38894165
-0.21193874 -0.51322299 0.00000000
-0.18291055 -0.51943374 0.00000000
-0.11176553 -0.58356339 0.00000000
-0.04213532 0.11464304 0.48163456
-0.04743064 -0.67948586 0.54219741
-0.36475822 -0.43523324 0.00000000
-0.04335364 -0.68365151 0.49559167
-0.39275414 0.12549539 0.00000372
-0.51169032 -0.61807227 0.00000000
-0.53083366 -0.73193532 0.00000000
-0.61103874 -0.12142495 -0.00000098
-0.44737872 0.13346890 0.00000254
-0.02290405 -0.26496288 0.26182482
-0.01542231 -0.68281370 0.17629817
-0.00709716 -0.49298564 0.08113028
-0.01332827 0.30716234 0.15229928
-0.06443171 -0.58652818 0.73654562
-0.55850327 -0.76737040 0.00000000
-0.50011230 0.03616340 0.00000316
-0.35726306 -0.49145478 0.00000000
-0.23477256 0.44394496 0.00000144
-0.12193805 0.65083283 0.00000015
-0.00292365 -0.41913542 0.03342129
-0.02776644 0.34797654 0.31738871
-0.55695736 -0.45277983 -0.00000016
-0.09247567 -0.54853278 0.00000000
-0.00060152 0.54626983 0.00683344
-0.28703070 -0.24642485 0.00000000
-0.45419651 -0.79407936 0.00000000
-0.78808677 -0.60165620 -0.00000050
-0.03523978 -0.61216122 0.40283912
-0.25211266 0.11235064 0.00000651
-0.04384103 -0.74893194 0.50116324
-0.01228082 -0.21773189 0.14038670
-0.55190170 0.05567999 0.00000183
-0.63850546 0.09092060 -0.00000042
-0.04889798 -0.55275571 0.55897117
-0.24775346 0.39490050 0.00000201
-0.06288901 -0.73467112 0.71890712
-0.03974124 -0.46932039 0.00000000
-0.57923192 -0.16784282 -0.00000076
-0.03984757 -0.18094642 0.45551425
-0.00428216 0.18725625 0.04885284
-0.03809150 0.13862301 0.43540278
-0.01778089 -0.33011445 0.20325999
-0.37008488 0.00061457 0.00000625
-0.02526364 -0.46488658 0.28879809
-0.15533605 -0.21093699 0.00000000
-0.40355644 -0.57360679 0.00000000
-0.39129388 0.30577257 0.00000074
-0.00165471 -0.26099119 0.01891558
-0.24059741 -0.14835635 0.00000000
-0.34269938 -0.40271437 0.00000000
-0.02484510 -0.23851804 0.28401366
-0.03758496 0.28562677 0.42964026
-0.05074321 -0.43595603 0.58006716
-0.34669098 0.25944909 0.00000237
-0.00256108 -0.61226952 0.02927664
-0.06081875 -0.76814651 0.69524127
-0.03115667 -0.27247044 0.35616356
-0.01754159 -0.75104803 0.20052446
-0.46313643 -0.14147624 -0.00000031
-0.01253433 0.11236095 0.14318836
-0.49598378 -0.62419391 0.00000000
-0.03626319 -0.79966855 0.41453806
-0.01438465 -0.70707273 0.16443633
-0.45903584 -0.48369333 0.00000000
-0.06340569 -0.23171677 0.72482485
-0.13098089 -0.78205109 0.00000000
-0.00787778 -0.22465333 0.09005384
-0.64472222 -0.20434342 -0.00000098
-0.08994447 -0.10133092 0.00000000
-0.05172022 0.19475287 0.59124333
-0.68989515 -0.76798236 -0.00000008
-0.01401336 -0.65700209 0.00000000
-0.00710598 0.04206550 0.08111301
-0.45131108 0.17598654 0.00000176
-0.32087398 -0.19506460 0.00000000
-0.01098706 0.17606977 0.12550922
-0.05696370 0.08937676 0.65117574
-0.05033855 -0.51204330 0.57543999
-0.04666620 -0.66619182 0.53345883
-0.20295319 0.32946685 0.00000396
-0.79514176 -0.41416821 -0.00000096
-0.02037240 0.13628411 0.23280653
-0.06540439 -0.60648847 0.74766368
-0.36366692 -0.31387544 0.00000000
-0.06858765 -0.41241714 0.78405660
-0.15284806 0.48098043 0.00000239
-0.03040259 -0.10428075 0.34754333
-0.01720630 0.34771505 0.19664513
-0.02184182 -0.23716061 0.24968199
-0.04009085 -0.67055970 0.45829347
-0.45225286 0.26344961 0.00000028
-0.01283795 0.24641976 0.14668284
-0.00659237 0.22594059 0.07527253
-0.02362753 0.03254227 0.27000502
-0.11893991 0.20364749 0.00000715
-0.06574153 0.27045056 0.00000695
-0.04315656 -0.04572522 0.49334398
-0.03873630 -0.08536088 0.44281194
-0.28974321 0.02105435 0.00000731
-0.10606016 -0.38480058 0.00000000
-0.28252256 -0.69931734 0.00000000
-0.01945433 -0.24941292 0.22238971
-0.00007626 -0.28446057 0.00087177
-0.05763445 -0.56824535 0.65884429
-0.04127569 0.21116944 0.47182491
-0.10461672 0.32493982 0.00000555
-0.05389522 -0.11134746 0.61610508
-0.06199694 -0.46412924 0.70871693
-0.55095130 -0.12978837 -0.00000071
-0.00404115 0.51770240 0.04615441
-0.62151152 -0.16304229 -0.00000095
-0.35900149 0.20915654 0.00000298
-0.00691185 0.13246439 0.07890907
-0.05583112 -0.46208891 0.63823068
-0.01606675 -0.65509653 0.18366498
-0.03075499 -0.01940631 0.35157228
-0.02940829 -0.09714712 0.33617714
-0.00816141 0.08538145 0.09318736
-0.34821686 0.40840217 -0.00000015
-0.75296533 -0.40778089 -0.00000098
-0.00542407 0.07080459 0.06188832
-0.00581390 0.38832793 0.06640019
-0.02606054 0.14041691 0.29784235
-0.02106933 0.20908706 0.24078727
-0.13842577 -0.33792448 0.00000000
-0.03940320 0.13435020 0.45039967
-0.12580100 -0.57325971 0.00000000
-0.73321503 0.06282675 -0.00000177
-0.01169477 0.63131744 0.13368329
-0.04132620 -0.28812841 0.47241613
-0.06235496 -0.65563309 0.71280468
-0.01013869 0.65575767 0.11589602
-0.05666980 -0.69797260 0.00000000
-0.46255088 0.04277144 0.00000377
-0.02923369 -0.51192874 0.33418122
-0.05596320 -0.77346343 0.63973629
-0.00088141 -0.14467242 0.01007578
-0.67201132 -0.60573226 -0.00000038
-0.62037897 -0.13363712 -0.00000100
-0.05610797 -0.78885812 0.64139116
-0.26419890 0.19279800 0.00000507
-0.03322113 -0.42908281 0.37976319
-0.54227108 0.18346171 -0.00000012
-0.00400485 0.70536697 0.00000136
-0.27771661 -0.63200945 0.00000000
-0.04869824 -0.37521487 0.55669039
-0.40969798 -0.60017627 0.00000000
-0.00383499 -0.05642053 0.04383925
-0.62294984 0.11319109 -0.00000049
-0.04146908 -0.47825426 0.47404853
-0.02009982 -0.73780805 0.22976857
-0.31700161 -0.14495736 0.00000000
-0.02797766 -0.47958553 0.31982309
-0.03006172 -0.74040711 0.34364676
-0.02205214 0.16770133 0.25201669
-0.01415415 -0.51839244 0.16180140
-0.36940116 -0.06682828 -0.00000004
-0.36218002 0.26356468 0.00000201
-0.03060972 -0.79325271 0.34991115
-0.19783892 0.56398058 0.00000014
-0.75032210 -0.04100703 -0.00000172
-0.00331756 -0.58306682 0.00000000
-0.28145978 0.09953145 0.00000626
-0.10005200 -0.44166556 0.00000000
-0.04329585 -0.05848573 0.00000000
-0.77066469 0.00287021 -0.00000148
-0.05139534 -0.47098601 0.58752161
-0.05731180 -0.08833636 0.65516299
-0.05222740 -0.61485547 0.00000000
-0.08409568 -0.54421687 0.00000000
-0.01421416 -0.45680106 0.16248742
-0.00962249 -0.39433521 0.10999829
-0.76134825 -0.56244367 -0.00000059
-0.18779691 0.03089755 0.00000870
-0.69239247 -0.38041356 -0.00000087
-0.01524734 0.23611620 0.17422806
-0.02978606 0.44620252 0.34050035
-0.11424235 0.53932381 0.00000216
-0.01573757 0.55738324 0.17989343
-0.00318429 0.75296837 0.03639953
-0.30713508 -0.71262801 0.00000000
-0.75989717 0.02319283 -0.00000162
-0.44074073 -0.64186478 0.00000000
-0.04486025 -0.49865982 0.51281428
-0.56691873 -0.03327687 -0.00000095
-0.06821999 -0.58174562 0.77984905
-0.24021585 0.50246304 0.00000036
-0.62494129 -0.19185978 -0.00000091
-0.00246966 -0.51355755 0.02823162
-0.00127874 0.20340379 0.01451701
-0.02605470 -0.49965051 0.29784098
-0.05488457 -0.60639566 0.62740773
-0.00587429 -0.14089625 0.06715125
-0.58213454 -0.52808666 -0.00000014
-0.33729571 0.00094778 0.00000687
-0.02669376 -0.30718315 0.30514640
-0.02490420 -0.20974363 0.28468922
-0.01788753 0.09258094 0.20438907
-0.31002954 -0.16099679 0.00000000
-0.65921414 -0.68809789 -0.00000018
-0.00733274 0.38804895 0.08376535
-0.02611653 0.26848418 0.29850799
-0.00788323 0.78190345 0.00000015
-0.08971674 -0.47046718 0.00000000
-0.00286125 -0.67988580 0.03270804
-0.00821591 -0.69367141 0.09391918
-0.03095567 0.28548989 0.00000725
-0.06726078 -0.07946206 0.76889765
-0.01801805 0.74232912 0.00000059
-0.06025892 -0.70762688 0.68884367
-0.00827395 -0.68327600 0.09458261
-0.73618042 -0.74639738 -0.00000013
-0.05390378 -0.38004813 0.61619896
-0.00447429 -0.02134308 0.05114726
-0.46469858 -0.74329835 0.00000000
-0.05822735 -0.65009457 0.66562104
-0.06662623 -0.57695049 0.76163125
-0.48607349 0.24349897 -0.00000004
-0.01448346 -0.06324233 0.16556582
-0.00038867 -0.25002310 0.00444307
-0.07843377 0.23552985 0.00000728
-0.64020002 -0.59537762 -0.00000027
-0.01995712 0.27335125 0.22808294
-0.00921712 0.56671149 0.10534121
-0.01317133 -0.10002895 0.15056644
-0.01941928 -0.07068031 0.22198904
-0.01842622 0.28413668 0.21058109
-0.05085208 0.07925153 0.58129412
-0.04886603 -0.23251706 0.55861068
-0.05379788 -0.28786132 0.61498958
-0.02677727 -0.75194597 0.30610093
-0.01758979 0.47825736 0.20105585
-0.17348598 -0.62230110 0.00000000
-0.06522716 -0.74704945 0.74563378
-0.05494648 0.22000103 0.00000787
-0.02316695 0.67519009 0.00000152
-0.00437990 -0.54875928 0.05006824
-0.43993896 -0.03298068 -0.00000041
-0.76930070 -0.41465038 -0.00000096
-0.03195008 -0.40253976 0.36523333
-0.05298889 0.07523959 0.00001007
-0.02722022 -0.54913324 0.31116450
-0.42259407 -0.25457591 0.00000000
-0.02267890 -0.16096935 0.25925094
-0.51275933 -0.52732241 0.00000000
-0.08809663 -0.23402244 0.00000000
-0.01206779 0.37814614 0.13790026
-0.36556050 -0.23504320 0.00000000
-0.64187592 -0.71015537 -0.00000007
-0.10175835 -0.75430989 0.00000000
-0.03088081 -0.05504198 0.35301012
-0.48363245 0.09630889 0.00000247
-0.04028083 -0.74354553 0.46046525
-0.42870295 -0.25947139 0.00000000
-0.07472369 0.70908976 0.00000008
-0.35065788 0.00788198 0.00000650
-0.02339430 -0.38454673 0.00000000
-0.39676353 -0.65503609 0.00000000
-0.37711313 0.37842995 -0.00000020
-0.43380538 -0.17256515 -0.00000013
-0.00565567 -0.18105857 0.06465204
-0.00965979 0.51001066 0.11039191
-0.08581476 0.02770541 0.00001029
-0.01035788 0.27503735 0.00000772
-0.73185682 -0.69732797 -0.00000026
-0.06567454 -0.23659915 0.75076181
-0.01584092 0.47189477 0.18105823
-0.65074825 -0.65548801 -0.00000020
-0.02554479 0.35670248 0.29198834
-0.04170870 0.15943430 0.47676560
-0.50251323 -0.51145732 0.00000000
-0.04915774 -0.15672611 0.56194651
-0.01626499 0.07197371 0.18583469
-0.04034016 -0.37228206 0.46114349
-0.06833517 -0.66660827 0.78116328
-0.28826618 -0.39935288 0.00000000
-0.36294207 -0.54354692 0.00000000
-0.00299416 -0.46734375 0.00000000
-0.37060302 0.32069361 0.00000089
-0.01551816 -0.45471379 0.17739391
-0.07524568 0.04552131 0.00001018
-0.25554267 0.43434969 0.00000120
-0.04010086 -0.69649100 0.45840791
-0.53971511 -0.29911631 -0.00000036
-0.40300646 -0.66605049 0.00000000
-0.56086487 -0.17656758 -0.00000067
-0.01382472 -0.25263581 0.15803556
-0.05082583 0.13382359 0.58100480
-0.59760398 -0.61184281 -0.00000005
-0.40788126 0.39016238 -0.00000099
-0.03805235 -0.22427510 0.43499112
-0.07825123 0.39082938 0.00000496
-0.00393511 -0.67975950 0.04498375
-0.16002908 -0.36339688 0.00000000
-0.02002719 0.33878097 0.22889715
-0.02195071 0.14101097 0.25085244
-0.00848918 0.00772388 0.09692146
-0.51584435 0.16532370 0.00000070
-0.29883850 -0.04011651 0.00000000
-0.04734966 -0.47159117 0.54127222
-0.03509279 0.35354480 0.40115854
-0.00445586 -0.50714862 0.05093660
-0.10151124 -0.11855953 0.00000000
-0.57493329 -0.01677584 -0.00000101
-0.28577864 -0.61074662 0.00000000
-0.03477256 0.19201022 0.39746493
-0.59552890 -0.29860073 -0.00000060
-0.04089641 -0.22952744 0.46750373
-0.57779580 -0.40587777 -0.00000033
-0.17267510 -0.55337244 0.00000000
-0.03487251 -0.20871098 0.39864075
-0.31756556 -0.18093644 0.00000000
-0.29003429 0.04745904 0.00000691
-0.06647497 -0.12111064 0.75991386
-0.54628128 -0.06585119 -0.00000080
-0.62530977 -0.36314514 -0.00000061
-0.26486096 -0.64701742 0.00000000
-0.50561905 -0.02256971 -0.00000070
-0.05565436 -0.31003690 0.63621223
-0.36216271 -0.50312930 0.00000000
-0.05997253 -0.65779394 0.68557131
-0.00539191 -0.50483638 0.06163698
-0.74778807 -0.64393628 -0.00000039
-0.08816818 -0.13452229 0.00000000
-0.02674110 0.16031817 0.30562779
-0.46186137 -0.34629148 0.00000000
-0.45541185 0.12411320 0.00000254
-0.08708081 -0.03963755 0.00000000
-0.05467036 -0.41738662 0.62496173
-0.12998678 0.63337415 0.00000029
-0.61805964 -0.45887074 -0.00000041
-0.52174348 -0.54868555 0.00000000
-0.32052168 -0.34978068 0.00000000
-0.05630736 -0.39131317 0.00000000
-0.04837206 -0.38105187 0.55296147
-0.02925826 -0.30946550 0.33446205
-0.02513979 -0.42395955 0.28738236
-0.01044581 -0.44705087 0.00000000
-0.22184119 0.18435501 0.00000589
-0.18625952 0.06445067 0.00000822
-0.21020973 0.09506771 0.00000740
-0.00372364 -0.61451751 0.04256634
-0.05015228 0.11119724 0.57329893
-0.00061688 -0.13797893 0.00000000
-0.01954567 -0.69183093 0.22343384
-0.38451445 -0.09744413 -0.00000005
-0.00224707 0.29418799 0.02560372
-0.01356465 0.08723349 0.15496387
-0.00431278 0.35544717 0.04923196
-0.72512418 -0.54939789 -0.00000063
-0.01374716 0.35837668 0.15709740
-0.12307796 0.11841170 0.00000837
-0.39015448 -0.66391551 0.00000000
-0.02415034 -0.74746162 0.27607152
-0.01396311 0.04991261 0.15951312
-0.59453833 -0.32060716 -0.00000056
-0.32813203 -0.79482061 0.00000000
-0.13205013 -0.17011982 0.00000000
-0.67791659 -0.53831512 -0.00000053
-0.07022634 0.61401069 0.00000173
-0.00104451 0.60389751 0.01190822
-0.00497281 0.66786826 0.05683228
-0.00406306 -0.78968388 0.04644634
-0.18552335 -0.33992198 0.00000000
-0.00108183 0.20102653 0.01226533
-0.02673786 -0.24267690 0.30565053
-0.53336239 0.10425046 0.00000138
-0.01425392 -0.60996646 0.16294193
-0.18590006 -0.27889690 0.00000000
-0.00166231 -0.76162702 0.01900253
-0.50445706 0.08879899 0.00000219
-0.00006584 0.24904153 0.00065753
-0.51880473 -0.63602138 0.00000000
-0.06570101 -0.63900059 0.75105339
-0.00719073 -0.50834566 0.08219996
-0.37148473 -0.28093362 0.00000000
-0.02145203 -0.07423946 0.24522613
-0.01486828 -0.44102925 0.16996484
-0.03446380 0.06216027 0.00001055
-0.40304166 -0.74245870 0.00000000
-0.00410357 -0.03481208 0.04690948
-0.02542949 -0.41722494 0.00000000
-0.57462925 -0.16540807 -0.00000075
-0.03830970 -0.72369957 0.43793255
-0.41024956 -0.15035728 -0.00000007
-0.59751737 0.06466567 0.00000081
-0.48549658 -0.55108553 0.00000000
-0.15049140 0.50864285 0.00000198
-0.02509193 -0.24251950 0.28683522
-0.04774216 0.13518703 0.54574668
-0.03389558 -0.54337239 0.38747308
-0.78848386 -0.16867195 -0.00000158
-0.00627208 0.01080344 0.07157349
-0.04889559 0.06766691 0.55892140
-0.03682792 0.23798542 0.42097485
-0.01345567 0.19109613 0.15373580
-0.03325541 -0.56922120 0.38015500
-0.56021655 -0.32517400 -0.00000040
-0.08630893 -0.70887220 0.00000000
-0.02293970 0.43554157 0.26221764
-0.67946416 -0.25780886 -0.00000103
-0.04609377 -0.72474033 0.52691513
-0.00962727 -0.78016990 0.11005297
-0.12213644 -0.75678599 0.00000000
-0.05360927 -0.68364769 0.61282766
-0.03353245 0.06378058 0.38326013
-0.02484251 -0.54610968 0.28398404
-0.45062745 -0.36026984 0.00000000
-0.02623845 0.38904303 0.29992601
-0.00042255 -0.65624344 0.00483036
-0.28460786 -0.39281678 0.00000000
-0.28418303 -0.12288296 0.00000000
-0.00789656 0.11124250 0.09016375
-0.01002813 -0.65503377 0.11463533
-0.05671668 -0.01544949 0.00000000
-0.01320252 -0.30743098 0.15092291
-0.01996538 0.05956345 0.22813977
-0.26675311 -0.66453993 0.00000000
-0.04629592 -0.32407758 0.52922833
-0.21426506 -0.38633084 0.00000000
-0.00939801 0.39479297 0.10737907
-0.32588235 0.22451337 0.00000335
-0.05638666 -0.72939676 0.64457750
-0.03321881 -0.02882029 0.37973803
-0.03974570 0.12344729 0.45431367
-0.04424572 -0.28726009 0.50579137
-0.00453833 -0.37810808 0.05187937
-0.04086860 -0.01803052 0.46718895
-0.37986296 -0.34118369 0.00000000
-0.04501588 -0.78072757 0.51459330
-0.06272520 -0.29525587 0.71704477
-0.05117654 -0.29980519 0.58502281
-0.03604476 0.49666372 0.00000401
-0.02065488 -0.34742036 0.23611364
-0.03631829 -0.10726266 0.41516945
-0.31828347 -0.40544280 0.00000000
-0.12483489 0.61656088 0.00000067
-0.01939366 -0.69285709 0.22169618
-0.44292837 -0.71974641 0.00000000
-0.02451061 -0.22896931 0.28018996
-0.10805000 0.35902372 0.00000498
-0.04891948 -0.75193214 0.55921692
-0.00810032 0.28314710 0.09252310
-0.00642103 0.22274330 0.00000856
-0.03071511 0.33662403 0.00000649
-0.09716883 -0.59068662 0.00000000
-0.02376771 0.09102753 0.27161789
-0.44497612 -0.66873962 0.00000000
-0.04840947 -0.65601927 0.55338681
-0.06665029 -0.51748419 0.00000000
-0.03148168 -0.26940879 0.35987890
-0.06380896 -0.60004371 0.72942674
-0.20445780 -0.25804526 0.00000000
-0.02487950 -0.43608922 0.28440693
-0.04794607 -0.20181116 0.54809433
-0.02272901 -0.18016087 0.25982380
-0.53755379 -0.51386195 0.00000000
-0.15370806 -0.25119814 0.00000000
-0.04495213 0.24298905 0.51386720
-0.27654105 0.09644019 0.00000638
-0.00569668 -0.34673420 0.00000000
-0.00576567 -0.47568130 0.06590959
-0.53343779 -0.66826105 0.00000000
-0.07318434 -0.36032951 0.00000000
-0.00498498 -0.02350146 0.05698515
-0.18091962 0.56556314 0.00000044
-0.71466714 0.00375986 -0.00000042
-0.01526837 0.21974343 0.17446570
-0.05198982 -0.68142784 0.59431511
-0.37301344 0.08051207 0.00000486
-0.20387921 -0.41380456 0.00000000
-0.02354327 0.44708076 0.26912117
-0.05330775 -0.41832325 0.00000000
-0.04836773 -0.48501363 0.55291051
-0.03305956 -0.15350036 0.37791619
-0.50297773 -0.37585476 -0.00000007
-0.20537409 -0.78506702 0.00000000
-0.30427325 -0.75732839 0.00000000
-0.03442234 -0.79204530 0.39349461
-0.02309991 0.36336192 0.26403511
-0.02355867 -0.08078126 0.26930797
-0.02812807 -0.02923878 0.32154250
-0.00265153 -0.29218334 0.03031063
-0.02149204 -0.59593117 0.24568351
-0.04811806 -0.19076861 0.55006063
-0.04257805 -0.75572824 0.48672566
-0.04612209 -0.39510119 0.52724010
-0.00285798 -0.54463255 0.03267065
-0.04691399 -0.74403977 0.53629130
-0.00118471 0.58155674 0.01350730
-0.05420502 -0.56790400 0.61963981
-0.02066211 0.30285001 0.23614950
-0.09456436 -0.40405476 0.00000000
-0.04331070 0.14471421 0.49507979
-0.04533912 -0.10245366 0.51829368
-0.04818468 -0.03768777 0.55082446
-0.01369768 0.12382062 0.00000994
-0.06911721 -0.76428938 0.79009986
-0.06103080 -0.38670367 0.69767332
-0.43074489 -0.40785223 0.00000000
-0.30977568 -0.60827184 0.00000000
-0.36811072 0.06640286 0.00000519
-0.01572371 -0.41464263 0.17974363
-0.04760049 0.24387556 0.54414845
-0.06632222 -0.23900567 0.75816572
-0.01234298 -0.04340467 0.14109717
-0.03234135 -0.48736832 0.36970603
-0.04950224 -0.72494423 0.56587863
-0.06489684 -0.09854312 0.74187338
-0.02500537 -0.22914346 0.28584576
-0.01475738 -0.09117846 0.16869718
-0.04394968 -0.53818387 0.50240523
-0.69594187 -0.54883313 -0.00000059
-0.11394604 -0.69481152 0.00000000
-0.01394556 -0.25619438 0.15941691
-0.13124076 0.65458983 -0.00000009
-0.30462503 -0.16552959 0.00000000
-0.53626370 0.15029521 0.00000055
-0.03415737 -0.69569397 0.39046571
-0.56011796 -0.08489311 -0.00000083
-0.02168795 0.24420986 0.24786723
-0.00101064 -0.44275475 0.00000000
-0.28849256 -0.45505390 0.00000000
-0.11614165 -0.04245653 0.00000000
-0.05467476 0.08723629 0.62500381
-0.71308947 -0.07767726 -0.00000149
-0.79391634 -0.04824143 -0.00000188
-0.24949563 -0.08294733 0.00000000
-0.71153659 0.08118093 -0.00000166
-0.47823712 0.22164184 0.00000048
-0.02433000 0.14839710 0.27805713
-0.75165743 -0.35109177 -0.00000112
-0.03912918 -0.19821399 0.44730160
-0.34268799 -0.51486796 0.00000000
-0.47295409 -0.42829257 0.00000000
-0.00379066 0.28511864 0.04325036
-0.16390663 0.07223537 0.00000844
-0.28348339 0.21823788 0.00000427
-0.73787338 -0.60260171 -0.00000049
-0.48549923 0.05242298 0.00000316
-0.37004170 -0.61035937 0.00000000
-0.02561855 -0.73734951 0.29285520
-0.72335893 -0.34231472 -0.00000107
-0.64484853 -0.56910008 -0.00000033
-0.39758328 -0.47465777 0.00000000
-0.52398193 -0.79480326 0.00000000
-0.56363201 -0.06490297 -0.00000088
-0.25001422 0.51496816 -0.00000004
-0.14285976 0.60531265 0.00000051
-0.04863342 -0.53416240 0.55594701
-0.04328484 -0.11449620 0.49480939
-0.71349275 -0.60565805 -0.00000049
-0.77179223 -0.41861841 -0.00000095
-0.06081107 -0.68038189 0.69515592
-0.60910654 -0.63407803 -0.00000006
-0.08217707 -0.19600491 0.00000000
-0.60395175 -0.12248174 -0.00000095
-0.03195181 0.42721808 0.36525959
-0.02474867 -0.02347833 0.28291127
-0.01557454 0.45291886 0.17800868
-0.02891523 -0.25738886 0.33054081
-0.52902257 0.07650566 0.00000193
-0.77429819 -0.38331237 -0.00000104
-0.00941547 0.32769081 0.10756713
-0.02512124 -0.67749685 0.28717032
-0.02080331 -0.30290407 0.23781040
-0.44997868 -0.35160586 0.00000000
-0.04497131 0.40263367 0.00000528
-0.22638394 -0.43892497 0.00000000
-0.01694551 -0.68441308 0.19371042
-0.01090025 -0.08838305 0.12460481
-0.05787031 -0.44288307 0.66154253
-0.26479161 -0.04604043 0.00000000
-0.37819290 -0.30350760 0.00000000
-0.06784114 -0.55282015 0.77551937
-0.57730412 -0.37357008 -0.00000039
-0.06368122 -0.67426622 0.72796440
-0.00074785 -0.59420925 0.00854895
-0.58555746 -0.20333053 -0.00000073
-0.67202359 -0.14951128 -0.00000119
-0.05973987 0.49420464 0.00000369
-0.46745816 0.29111704 -0.00000048
-0.78525764 -0.65603024 -0.00000036
-0.52816755 -0.00944586 -0.00000082
-0.49505478 -0.32979101 -0.00000012
-0.25700760 0.17173018 0.00000555
-0.37211892 0.09482708 0.00000463
-0.56710696 -0.08784967 -0.00000085
-0.68439221 -0.70781994 -0.00000023
-0.45694900 0.33346093 -0.00000098
-0.01502096 -0.47600114 0.17171019
-0.37594649 -0.40147766 0.00000000
-0.02093607 -0.10115141 0.23932800
-0.00751804 0.31604025 0.08587143
-0.03075291 0.07058357 0.35148051
-0.02215191 0.20686360 0.25316465
-0.01315341 0.09281824 0.15026310
-0.04113508 -0.68728900 0.47023049
-0.01554143 -0.30731741 0.17765985
-0.60172415 -0.64670759 -0.00000001
-0.52061850 -0.02511360 -0.00000076
-0.27784112 0.08303699 0.00000656
-0.00803621 0.52915639 0.09183261
-0.28905731 0.14507383 0.00000539
-0.04052433 -0.12177400 0.46325168
-0.56480777 0.03939573 0.00000186
-0.05662095 0.64897346 0.00000141
-0.13222928 -0.71712554 0.00000000
-0.75625110 -0.76515514 -0.00000009
-0.28281346 -0.09087205 0.00000000
-0.01559998 0.21118367 0.17825557
-0.01516377 -0.70030588 0.00000000
-0.24323386 0.04793397 0.00000761
-0.15271269 -0.07935232 0.00000000
-0.04860610 -0.57023013 0.55563456
-0.04778852 -0.10931318 0.54629457
-0.72969192 0.02137112 -0.00000101
-0.62477738 -0.11207275 -0.00000105
-0.05906077 -0.36698833 0.67515272
-0.52601689 -0.70936400 0.00000000
-0.50865054 -0.60967797 0.00000000
-0.74099946 -0.12624939 -0.00000153
-0.00401793 0.40163147 0.00000591
-0.01645131 0.20957465 0.18798865
-0.36432090 -0.30623838 0.00000000
-0.02092589 0.27014893 0.23915905
-0.46961552 -0.76208913 0.00000000
-0.68342865 -0.53402883 -0.00000056
-0.05787924 0.02100631 0.66163033
-0.13280810 0.48822579 0.00000266
-0.05655325 -0.16182534 0.00000000
-0.02757968 -0.75393033 0.31527370
-0.02212692 -0.11668718 0.25294110
-0.02858652 0.39602420 0.32677490
-0.05345760 -0.16810486 0.61110139
-0.05681921 -0.34625587 0.64952797
-0.33373272 0.31785744 0.00000164
-0.42214456 0.11107056 0.00000340
-0.05003518 0.08127114 0.57195419
-0.14117207 0.51330525 0.00000208
-0.44910684 -0.78219455 0.00000000
-0.01651490 -0.40582606 0.18878800
-0.05352058 -0.43117130 0.61181748
-0.02304457 -0.48470980 0.00000000
-0.25133368 -0.32350022 0.00000000
-0.03692361 -0.31710199 0.42208758
-0.06879954 -0.32864174 0.78648114
-0.03709423 -0.16275053 0.42403895
-0.14992470 0.64200127 -0.00000024
-0.07975638 -0.30508697 0.00000000
-0.00898895 0.09082819 0.10264976
-0.45187327 0.18692014 0.00000156
-0.06769162 -0.23334736 0.00000000
-0.04449952 -0.38511446 0.50869137
-0.00778133 -0.64703643 0.08895131
-0.06971567 -0.39168078 0.79695141
-0.01832362 0.40226319 0.00000569
-0.39646739 -0.22560215 0.00000000
-0.28035465 0.50571442 -0.00000047
-0.03352729 -0.51841480 0.38326302
-0.02719160 0.13914292 0.31077451
-0.37210077 -0.63967174 0.00000000
-0.21417068 -0.11530980 0.00000000
-0.69434553 -0.50629753 -0.00000065
-0.26303178 0.02600711 0.00000764
-0.01346806 0.32827210 0.15390113
-0.16837300 0.30735213 0.00000485
-0.06811942 -0.43272230 0.77870375
-0.00312131 -0.34257510 0.03568083
-0.59225023 -0.72730207 0.00000000
-0.26111183 -0.32434946 0.00000000
-0.01398517 -0.23820789 0.15986975
-0.04234307 -0.22907662 0.48404160
-0.01795875 0.39051256 0.20525707
-0.02079027 0.08564720 0.23757534
-0.05394135 -0.13386212 0.61663210
-0.40945181 -0.06566006 -0.00000022
-0.02773808 -0.66446757 0.31708440
-0.59204125 -0.39473447 -0.00000041
-0.43814391 -0.34896132 0.00000000
-0.29890764 -0.27701360 0.00000000
-0.07091826 -0.18089786 0.00000000
-0.53405029 -0.13063277 -0.00000063
-0.53109610 -0.68116301 0.00000000
-0.03216377 -0.23902325 0.36767608
-0.09830586 0.63347805 0.00000089
-0.13641278 0.60067868 0.00000071
