ply
format ascii 1.0
element vertex 1374
property float x
property float y
property float z
end_header
-0.15530667 0.42716783 0.28018984
-0.31138071 -0.12516356 0.56176341
-0.17048129 -0.12042715 0.30756468
-0.34140721 -0.30629671 0.61593395
-0.79798466 -0.11023657 -0.00000172
-0.65422314 -0.24451222 -0.00000095
-0.05732501 0.30127931 0.10341985
-0.15645160 0.35427687 0.28225514
-0.38469949 -0.65279710 0.69403589
-0.67355132 -0.00441783 -0.00000145
-0.27509099 0.14287212 0.49629363
-0.21457440 -0.11690306 0.00000000
-0.05569462 0.64489985 0.10047896
-0.05627181 0.65201151 0.10152032
-0.01546316 -0.78800595 0.02789704
-0.00125416 0.70406604 0.00226262
-0.45652276 0.32745802 -0.00000087
-0.30557749 -0.72269303 0.55129123
-0.04924354 -0.01107282 0.08884009
-0.18278679 -0.53225940 0.32976499
-0.03937766 -0.70694017 0.07104109
-0.09643331 0.21351296 0.17397498
-0.37013274 0.35545599 0.00000032
-0.46625096 0.31572005 -0.00000086
-0.32648593 0.11363010 0.00000520
-0.01086245 0.59833229 0.01959691
-0.72932541 0.00081065 -0.00000066
-0.33096394 -0.62151849 0.59709179
-0.19203056 0.23478819 0.34644324
-0.47913688 0.22748949 0.00000036
-0.71522868 -0.06043885 -0.00000153
-0.36663625 -0.12724155 0.66145086
-0.29122463 -0.16095319 0.52539933
-0.33874074 -0.15951698 0.61112398
-0.14771451 -0.38766265 0.26649123
-0.28400072 0.31314775 0.00000268
-0.41254899 -0.37177896 0.00000000
-0.20205045 0.43217492 0.00000226
-0.36156636 -0.37881291 0.00000000
-0.41256672 -0.16829658 -0.00000005
-0.04610372 0.40624121 0.08317556
-0.06548935 -0.32374153 0.11814910
-0.48036122 -0.39785302 0.00000000
-0.14380550 0.23688091 0.25943962
-0.44462249 -0.45459059 0.00000000
-0.51206410 0.13457964 0.00000128
-0.12048316 -0.53506875 0.21736322
-0.33044645 -0.60603374 0.59615827
-0.67780292 -0.65217173 -0.00000033
-0.78043199 -0.47766018 -0.00000081
-0.06669851 0.64906651 0.12033129
-0.03512578 0.45773527 0.06337029
-0.10124642 -0.39473817 0.18265831
-0.20785144 -0.39197749 0.37498403
-0.16728416 -0.07252503 0.30179676
-0.45054024 0.16388541 0.00000197
-0.25827277 -0.79207748 0.00000000
-0.10100893 -0.16348715 0.18222985
-0.01183178 0.78613061 0.00000000
-0.22333075 0.39824343 0.00000242
-0.55910760 -0.78347832 0.00000000
-0.04486009 -0.36944276 0.08093193
-0.19369937 -0.75864857 0.00000000
-0.38590917 -0.07284861 0.69622159
-0.02271931 0.23323452 0.04098783
-0.47769782 -0.21125790 -0.00000025
-0.15835711 -0.67531371 0.28569150
-0.21638443 -0.26245651 0.39037842
-0.32961920 -0.76472825 0.59466505
-0.68972516 -0.29580510 -0.00000101
-0.47941431 -0.15112136 -0.00000036
-0.37243620 -0.78859830 0.67191088
-0.33500183 -0.72101653 0.00000000
-0.79547739 -0.65299749 -0.00000037
-0.08408384 -0.00483210 0.15169536
-0.60856569 -0.47708976 -0.00000034
-0.33633941 -0.37607032 0.60679078
-0.08187575 0.30576047 0.14771174
-0.09662097 -0.64726144 0.17431355
-0.13275668 -0.78574783 0.00000000
-0.26150128 0.41659594 0.00000138
-0.33806115 -0.68066239 0.60989565
-0.54630595 -0.03104242 -0.00000086
-0.03087065 0.16028035 0.05569362
-0.59508950 0.04624989 0.00000116
-0.20253760 -0.47426617 0.00000000
-0.40711400 -0.31080446 0.00000000
-0.05438786 0.43357351 0.09812094
-0.03678760 -0.21982811 0.06636838
-0.12224460 -0.59444159 0.22054105
-0.44671556 0.33519748 -0.00000081
-0.48185971 -0.37638462 0.00000000
-0.34629044 0.04607182 0.62474537
-0.15444569 0.09486094 0.27863520
-0.01798359 0.69474024 0.03244412
-0.25177094 0.11630496 0.45422143
-0.31782731 -0.14657164 0.57339376
-0.09643874 0.47148857 0.17398541
-0.25846645 -0.72210789 0.46629843
-0.39414746 -0.19134445 0.00000000
-0.22917405 0.39728421 0.00000233
-0.25245816 -0.20750494 0.45545992
-0.33520195 -0.07627697 0.60473990
-0.32951060 -0.33740640 0.00000000
-0.02294816 0.45905632 0.04140069
-0.10620134 0.56797284 0.19159868
-0.13026071 0.28576818 0.23500344
-0.02705867 -0.26002121 0.04881645
-0.26579887 -0.31118193 0.47952765
-0.19086944 0.35212663 0.34434894
-0.24957429 -0.03815432 0.45025775
-0.29656702 -0.29736972 0.53503704
-0.07003602 -0.68293947 0.12635173
-0.01058336 -0.18492585 0.01909340
-0.31792048 -0.73553747 0.00000000
-0.47216961 -0.12632380 -0.00000038
-0.15989211 -0.16330309 0.28846079
-0.05204472 0.12343923 0.09389370
-0.28677461 -0.61685586 0.00000000
-0.53009230 -0.22506297 -0.00000045
-0.33319569 0.41894111 -0.00000003
-0.52989185 0.08324217 0.00000180
-0.20593759 -0.11676196 0.37153172
-0.20817760 0.18786411 0.37557420
-0.55850655 0.02467922 0.00000223
-0.29649636 0.10202331 0.53491127
-0.58792013 -0.39285636 -0.00000040
-0.29347271 -0.54062372 0.52945358
-0.25034854 -0.74572247 0.00000000
-0.25647047 -0.03377151 0.46269926
-0.03015487 0.66661853 0.05440236
-0.03378836 0.03893800 0.06095746
-0.12077889 -0.59550726 0.21789676
-0.14949670 0.33807737 0.26970762
-0.51675463 -0.36968628 -0.00000014
-0.33868486 -0.05298061 0.61102355
-0.14421599 -0.69490713 0.26017952
-0.22343998 -0.31561711 0.40310726
-0.59123927 -0.72920877 0.00000000
-0.28220758 -0.76429605 0.50912964
-0.10970297 -0.24308066 0.19791473
-0.09590011 0.00996418 0.17301305
-0.22609067 0.34232226 0.00000330
-0.11433000 0.04803880 0.20626234
-0.00744826 -0.41975954 0.01343738
-0.24147683 -0.46553114 0.43564749
-0.44857484 -0.29346901 0.00000000
-0.04962645 0.03719478 0.08953090
-0.35329649 0.16174118 0.00000388
-0.17244130 -0.34697363 0.31110072
-0.09364740 -0.16433807 0.16894893
-0.48646551 -0.07721380 -0.00000053
-0.69689852 -0.07303639 -0.00000143
-0.24458812 -0.62049240 0.00000000
-0.07572700 0.28756920 0.13661881
-0.46040621 0.29578245 -0.00000042
-0.24534313 -0.06364556 0.44262415
-0.15809774 -0.64830327 0.28522360
-0.35136017 -0.36157075 0.63389003
-0.23650157 -0.56503820 0.42667165
-0.70931441 -0.28450501 -0.00000111
-0.11101432 0.02009578 0.20028055
-0.27218962 -0.26269236 0.00000000
-0.36903417 -0.64561582 0.00000000
-0.17330836 -0.76992905 0.00000000
-0.25852880 -0.28905979 0.00000000
-0.24036513 0.19901945 0.43364432
-0.27630481 -0.77832067 0.49848053
-0.73385054 -0.55850512 -0.00000060
-0.15221925 -0.58849293 0.27461821
-0.49475577 0.18284313 0.00000081
-0.16557021 0.26339567 0.29870582
-0.13195942 -0.29663134 0.23806751
-0.05367922 -0.01838197 0.09684249
-0.00812552 0.56239784 0.01465922
-0.06761027 -0.08409454 0.12197545
-0.18118963 -0.06253778 0.32688373
-0.08253227 -0.43084443 0.14889616
-0.05165308 -0.31684375 0.09318714
-0.26908341 0.12311525 0.00000609
-0.21910580 -0.29796648 0.00000000
-0.42105725 -0.54193479 0.00000000
-0.57533991 0.14760031 -0.00000015
-0.01064984 0.19113792 0.01921333
-0.16546857 -0.77791870 0.29852128
-0.68121326 0.03670179 -0.00000033
-0.77089912 -0.72335315 -0.00000019
-0.07474414 -0.79265422 0.00000000
-0.37628824 0.04364989 0.00000541
-0.33700058 -0.24721994 0.00000000
-0.65866297 -0.32660905 -0.00000082
-0.37873143 -0.22178681 0.68327141
-0.79778767 -0.47318223 -0.00000082
-0.43420789 0.01854842 0.00000472
-0.01005328 -0.46356809 0.01813709
-0.54654914 -0.30135125 -0.00000039
-0.17911220 -0.78510672 0.00000000
-0.46993709 0.18806084 0.00000120
-0.34034684 -0.04347837 0.61402202
-0.05042521 0.51455289 0.09097195
-0.32009664 0.17756689 0.00000425
-0.27441856 0.35301128 0.00000220
-0.31708905 -0.06790305 0.57206213
-0.59096402 -0.40369898 -0.00000039
-0.42008704 -0.49023420 0.00000000
-0.20980074 0.01126022 0.37850183
-0.10871603 0.37969622 0.19613470
-0.49510106 -0.32280615 -0.00000013
-0.02139333 -0.37605476 0.03859563
-0.44603115 -0.42349079 0.00000000
-0.56716442 -0.71716684 0.00000000
-0.38397190 -0.55984730 0.69272375
-0.22404443 -0.60742259 0.00000000
-0.01927341 -0.22521453 0.03477109
-0.53264660 -0.14248781 -0.00000061
-0.16014072 -0.78414935 0.00000000
-0.41776130 -0.41199151 0.00000000
-0.26224497 -0.73750371 0.47311521
-0.36513710 -0.54417223 0.65874404
-0.06532498 -0.67826861 0.11785256
-0.49369484 -0.38158727 -0.00000002
-0.26162741 -0.73835981 0.47200108
-0.10165587 0.57391375 0.18339814
-0.32625449 -0.01254873 0.58859789
-0.05997021 -0.54580283 0.10819205
-0.15474641 0.45605302 0.27917922
-0.48169354 -0.55639833 0.00000000
-0.56248367 -0.56136918 0.00000000
-0.49005917 -0.52999878 0.00000000
-0.03729517 -0.22795270 0.06728409
-0.11475541 0.56069928 0.20703121
-0.18426131 -0.19856673 0.33242515
-0.29970247 0.28886980 0.00000278
-0.48649192 0.23007782 0.00000018
-0.57843268 -0.55035108 -0.00000008
-0.50352842 -0.30067411 -0.00000020
-0.02928219 -0.27858999 0.05282789
-0.02960854 -0.79512489 0.05341667
-0.27828270 0.26377133 0.00000361
-0.25648668 -0.47379121 0.46272671
-0.13623300 -0.71564174 0.24577746
-0.66816270 -0.13437778 -0.00000120
-0.79119587 -0.03281526 -0.00000190
-0.03407465 -0.32097310 0.06147396
-0.07868818 0.32068726 0.14196105
-0.47352445 -0.62648183 0.00000000
-0.34172016 -0.29217869 0.61649865
-0.45723796 -0.75169992 0.00000000
-0.54106164 -0.46933740 -0.00000007
-0.16208978 -0.03347186 0.29242557
-0.12526757 -0.56330234 0.22599475
-0.11705479 -0.57472610 0.21117812
-0.53184944 -0.67875314 0.00000000
-0.64379489 -0.20819396 -0.00000097
-0.01864134 -0.44398379 0.03363077
-0.45836461 0.30509391 -0.00000054
-0.33331949 -0.60922581 0.00000000
-0.55102885 -0.74313122 0.00000000
-0.20994768 -0.39624289 0.37876582
-0.09416372 0.32160699 0.16988043
-0.03890688 0.02211397 0.07019177
-0.15906785 0.20074371 0.28697455
-0.37807807 -0.27380219 0.68209237
-0.40044025 0.17736958 0.00000271
-0.37921560 -0.31272286 0.68414438
-0.05259437 -0.59489870 0.09488531
-0.18183805 0.26092893 0.32805488
-0.21728259 -0.78118664 0.00000000
-0.25326943 0.25704396 0.45692545
-0.14868201 -0.64842999 0.26823670
-0.24892762 0.12449381 0.44909176
-0.08951693 -0.32158265 0.16149718
-0.06008767 0.68273836 0.00000080
-0.07145375 -0.58400828 0.12890945
-0.09680955 -0.44236180 0.17465375
-0.20935559 -0.27898860 0.00000000
-0.43218276 -0.27380776 0.00000000
-0.02738226 0.13603677 0.04940024
-0.22683531 0.15860029 0.00000620
-0.26515397 -0.72310549 0.00000000
-0.33731416 -0.65513492 0.60854810
-0.36055371 0.05102517 0.00000559
-0.02009545 -0.13070022 0.03625413
-0.17779945 0.30486211 0.32076895
-0.21875925 0.01325308 0.00000850
-0.13843840 -0.71499658 0.24975625
-0.23619840 -0.12173375 0.42612571
-0.67977738 -0.65434796 -0.00000033
-0.35274300 -0.02094703 -0.00000005
-0.08569211 0.45484936 0.15459716
-0.59607226 -0.13906205 -0.00000088
-0.41151056 -0.49461341 0.00000000
-0.08067673 -0.47074187 0.14554860
-0.09340434 -0.14877154 0.16851044
-0.00760417 0.26574549 0.01371866
-0.32357782 -0.46474791 0.00000000
-0.20329057 -0.42324713 0.36675578
-0.35556766 -0.23721077 0.00000000
-0.10189613 0.20393439 0.18383045
-0.00442252 -0.43983391 0.00797866
-0.46776956 0.00572883 0.00000428
-0.47577450 -0.44203112 0.00000000
-0.74017388 -0.22381344 -0.00000135
-0.14115494 0.25639421 0.25465778
-0.04604287 -0.66612995 0.08306577
-0.71313566 -0.71649116 -0.00000021
-0.03609669 -0.04173087 0.06512191
-0.28354350 -0.68368554 0.51153982
-0.09883038 0.21203534 0.17829953
-0.07412193 -0.71144193 0.13372311
-0.34169289 -0.79897523 0.00000000
-0.22724004 -0.01124206 0.00000000
-0.27096242 -0.42918491 0.00000000
-0.28258687 -0.71861452 0.00000000
-0.00550114 -0.79540002 0.00992459
-0.37485352 0.28659096 0.00000138
-0.29862320 0.14302349 0.53874844
-0.34240726 -0.55140150 0.61773717
-0.37539813 -0.43006656 0.00000000
-0.02655823 0.50496048 0.04791361
-0.17796148 0.42417109 0.32106176
-0.72800344 -0.47942689 -0.00000080
-0.09551809 -0.64764816 0.17232384
-0.22562902 -0.07442874 0.40705752
-0.16795695 0.22529702 0.30301160
-0.33748579 -0.63895029 0.60885787
-0.29049230 -0.63359928 0.52407616
-0.51614285 -0.31727442 -0.00000023
-0.04119612 0.26135415 0.07432178
-0.20964192 -0.27744672 0.37821424
-0.22210406 -0.22520202 0.00000000
-0.37300873 -0.36271897 0.67294627
-0.05106813 -0.09567827 0.09213182
-0.58230621 -0.50024438 -0.00000019
-0.14906515 -0.77533102 0.26892790
-0.05401328 -0.36921906 0.09744517
-0.56094253 -0.09990677 -0.00000080
-0.33982307 -0.16206829 0.61307663
-0.18974762 0.01929927 0.34232366
-0.17193072 -0.06391843 0.31017959
-0.16806249 0.01284407 0.30320114
-0.68399084 0.10951493 -0.00000160
-0.64312804 -0.36247233 -0.00000069
-0.32652733 -0.02027449 0.00000000
-0.29585993 -0.29707634 0.53376138
-0.33125722 -0.14415069 0.00000000
-0.10022929 -0.31253523 0.18082331
-0.22016658 -0.76632494 0.00000000
-0.23456959 -0.22007465 0.00000000
-0.12728792 0.49953899 0.22964107
-0.69898272 -0.60666186 -0.00000048
-0.67032695 -0.50044745 -0.00000056
-0.04857993 -0.30157959 0.08764289
-0.54367799 0.08216173 0.00000155
-0.01542434 0.68686187 0.02782701
-0.13188031 -0.78347158 0.23792481
-0.21534750 -0.28693801 0.38850766
-0.57534099 0.10916505 0.00000049
-0.20834334 0.06455787 0.00000789
-0.36368272 -0.39775711 0.65612102
-0.21335024 0.07006114 0.38490576
-0.76664752 -0.06216091 -0.00000175
-0.20144473 -0.29681417 0.36342570
-0.17788941 0.37224883 0.32093155
-0.29306242 -0.63954103 0.52871293
-0.17867918 -0.12753750 0.32235447
-0.37259725 -0.52540982 0.67220300
-0.19303983 -0.34396401 0.34826246
-0.11274794 -0.42322665 0.20340815
-0.42969072 -0.71046662 0.00000000
-0.36891127 -0.15580168 0.66555512
-0.01918263 -0.19017391 0.03460732
-0.04877460 -0.06885496 0.08799407
-0.55812275 -0.15827893 -0.00000069
-0.06316030 -0.09818368 0.11394727
-0.20293616 0.04764825 0.36611748
-0.72940141 -0.70454115 -0.00000024
-0.17564584 0.15301345 0.31688300
-0.05753420 -0.79922926 0.10379725
-0.17523880 -0.37441313 0.31614769
-0.51377743 -0.08822804 -0.00000062
-0.16430698 -0.48503974 0.29642564
-0.38381475 -0.69772303 0.00000000
-0.16866957 0.47500423 0.00000219
-0.61644316 -0.14730760 -0.00000096
-0.17665407 0.21526416 0.31870219
-0.02300285 0.18361290 0.04149935
-0.25627181 -0.76880735 0.46233907
-0.11983643 -0.07024069 0.21619648
-0.10714296 0.53745204 0.19329736
-0.12955758 -0.61141193 0.23373435
-0.21063453 -0.56105202 0.38000500
-0.12070578 0.03102260 0.21776487
-0.04251274 -0.31305525 0.07669709
-0.30828434 0.47079706 -0.00000042
-0.01190374 -0.28069794 0.02147550
-0.17293468 -0.77079260 0.31199083
-0.74483812 -0.17513546 -0.00000145
-0.45687625 -0.73301220 0.00000000
-0.12352164 0.15987162 0.22284494
-0.21056665 -0.46358690 0.37988254
-0.67214835 -0.15844384 -0.00000117
-0.02691424 0.58201164 0.04855589
-0.22822635 0.45706126 0.00000135
-0.26105309 -0.70245367 0.47096494
-0.02101115 -0.35080686 0.03790614
-0.07561024 0.23177958 0.13640817
-0.62887484 -0.20126627 -0.00000091
-0.48231879 -0.51325703 0.00000000
-0.76263547 -0.22406285 -0.00000144
-0.06309233 -0.50044757 0.11382465
-0.28056490 0.51753026 -0.00000070
-0.27454621 0.06726497 0.00000685
-0.05731730 -0.34579319 0.10340594
-0.26219353 -0.30392325 0.47302324
-0.36168587 0.04937728 0.65252048
-0.57232332 0.21163887 -0.00000116
-0.43287364 -0.74462241 0.00000000
-0.07137041 0.51861298 0.12875941
-0.24312338 0.04273735 0.00000769
-0.33833462 0.04056833 0.61039209
-0.52959043 -0.19196373 -0.00000051
-0.32787439 -0.26204088 0.59151936
-0.09684952 0.05402996 0.17472588
-0.36239409 -0.24188600 0.65379703
-0.05816643 0.31415388 0.10493784
-0.25329077 -0.32577091 0.45696154
-0.07392426 0.60641521 0.13336723
-0.07466996 -0.79591191 0.13471182
-0.35827991 -0.71279949 0.00000000
-0.18587208 -0.52950668 0.33533114
-0.28032339 -0.69152892 0.50573039
-0.10825143 0.48152822 0.19529694
-0.40982014 -0.75645500 0.00000000
-0.14215951 -0.09439326 0.25646946
-0.77121472 -0.12270841 -0.00000166
-0.64443320 -0.23878659 -0.00000091
-0.34857509 -0.30923823 0.62886566
-0.22578938 -0.13040969 0.00000000
-0.00516912 -0.49866197 0.00932559
-0.15488245 -0.66605514 0.27942288
-0.26159415 -0.56309146 0.00000000
-0.16288169 0.17974421 0.29385504
-0.32613051 -0.29641479 0.58837306
-0.37300631 -0.19316386 0.67294288
-0.23241232 -0.08984780 0.41929534
-0.36175859 -0.66746444 0.00000000
-0.11442869 -0.62213522 0.20644039
-0.35552391 -0.44348261 0.64140153
-0.51816696 -0.77585053 0.00000000
-0.22504079 0.15726116 0.40599725
-0.68714041 -0.70711124 -0.00000023
-0.64982462 -0.62985522 -0.00000025
-0.22299726 0.10328586 0.00000709
-0.37270653 -0.71634424 0.67239904
-0.09181565 -0.23768051 0.16564429
-0.42704365 -0.41737831 0.00000000
-0.17339823 -0.30021963 0.31282711
-0.09687104 0.57003081 0.00000198
-0.20533748 -0.03755334 0.37044939
-0.28423288 -0.35920709 0.51278460
-0.23670326 0.10256072 0.42703748
-0.48736662 0.29362917 -0.00000090
-0.66114014 -0.48028651 -0.00000056
-0.41621464 -0.18682642 -0.00000003
-0.14703713 0.47642276 0.26527086
-0.75738621 -0.20236889 -0.00000146
-0.21015930 -0.67839611 0.37914765
-0.56828445 -0.59236461 0.00000000
-0.08586314 0.17305639 0.15490539
-0.31524998 0.09218887 0.00000577
-0.11188544 0.50043100 0.20185319
-0.02111277 0.09382947 0.03808946
-0.50484341 -0.27603757 -0.00000025
-0.04857250 -0.46285918 0.08762947
-0.68627548 -0.69163352 -0.00000027
-0.08135756 0.09575544 0.14677687
-0.40646416 -0.62872899 0.00000000
-0.78189528 -0.17752397 -0.00000156
-0.28126594 -0.79654062 0.50743091
-0.02273465 -0.35200101 0.04101551
-0.68236655 -0.52616012 -0.00000057
-0.23120151 0.14261784 0.41711184
-0.31028756 -0.40768456 0.00000000
-0.07879508 -0.49890745 0.14215392
-0.78387839 -0.69268745 -0.00000027
-0.06154422 -0.47279710 0.11103171
-0.36031705 0.39945182 -0.00000023
-0.24374563 -0.08415932 0.43974197
-0.76419544 -0.45250472 -0.00000087
-0.20133002 0.32430461 0.00000408
-0.01907993 0.55846864 0.03442203
-0.00284754 -0.22072148 0.00513723
-0.12661012 -0.05781326 0.22841685
-0.09379203 0.33200011 0.16920987
-0.69065082 -0.00889493 -0.00000152
-0.01676238 -0.68807656 0.03024095
-0.22846878 -0.65268654 0.41217971
-0.64792913 -0.71955657 -0.00000008
-0.35191911 -0.52763945 0.00000000
-0.53800547 0.10968333 0.00000120
-0.18387733 -0.18259142 0.33173245
-0.66737044 -0.16654827 -0.00000114
-0.33729035 -0.64425969 0.60850525
-0.10435808 0.34105304 0.18827230
-0.39973497 -0.28662172 0.00000000
-0.78090006 -0.26468107 -0.00000134
-0.40660045 -0.73231292 0.00000000
-0.08817967 0.37445262 0.15908468
-0.15960097 -0.59652281 0.28793553
-0.75301021 -0.43324211 -0.00000092
-0.37218711 -0.40940723 0.67146373
-0.37590376 -0.35177556 0.67816925
-0.03992751 -0.55855656 0.07203309
-0.23459955 0.52048975 0.00000016
-0.13100535 -0.74052399 0.23634629
-0.06953968 0.63015759 0.12545700
-0.31805229 -0.34616929 0.00000000
-0.19952264 -0.22841364 0.35995808
-0.15658332 0.30979010 0.28249261
-0.17010576 0.30307794 0.30688861
-0.62650084 -0.11635204 -0.00000105
-0.30063292 -0.08608457 0.00000000
-0.37151986 0.00800415 0.00000610
-0.08298193 -0.73972148 0.14970741
-0.05914224 -0.36845118 0.10669830
-0.39269149 0.24064961 0.00000180
-0.75383025 -0.68502820 -0.00000029
-0.30564374 -0.24337623 0.00000000
-0.73808962 -0.26096433 -0.00000127
-0.11599642 -0.58546889 0.20926873
-0.73033571 -0.28824973 -0.00000119
-0.17936328 -0.12172060 0.32358864
-0.21336280 0.23284048 0.38492909
-0.29963139 -0.50197232 0.54056472
-0.09318833 0.67113060 0.00000036
-0.24276514 -0.20218064 0.43797258
-0.32287261 -0.73069304 0.58249360
-0.54498202 0.02863092 0.00000242
-0.20521455 -0.27171937 0.00000000
-0.21965259 0.52060825 0.00000045
-0.35215703 -0.53891194 0.00000000
-0.79511952 -0.43475074 -0.00000091
-0.25030753 -0.60753524 0.45157889
-0.27271125 -0.36869669 0.00000000
-0.24281599 -0.13911323 0.00000000
-0.32987764 -0.79884589 0.00000000
-0.20665544 0.54922450 0.00000022
-0.74080265 -0.47945571 -0.00000080
-0.30412999 -0.45689195 0.54868090
-0.06680850 -0.16793706 0.12052898
-0.15689722 0.23647828 0.28305861
-0.68312573 -0.30732045 -0.00000096
-0.31003937 0.16820276 0.00000460
-0.10421051 0.21622653 0.18800581
-0.22680178 -0.21258412 0.00000000
-0.64540458 -0.67614466 -0.00000014
-0.28214741 0.23571572 0.00000401
-0.47104529 0.07976537 0.00000299
-0.30713198 -0.29377654 0.00000000
-0.27675441 0.06671066 0.49929428
-0.21143951 -0.60424322 0.38145724
-0.27810651 0.30950400 0.00000285
-0.00728029 -0.04814498 0.01313434
-0.13534147 -0.37345150 0.24416906
-0.36186022 -0.68414432 0.65283144
-0.35378900 -0.26588115 0.00000000
-0.42453384 0.33902919 -0.00000045
-0.46485081 -0.64219993 0.00000000
-0.03434444 0.56754982 0.06196067
-0.25049779 -0.38200203 0.00000000
-0.33949503 -0.26331502 0.00000000
-0.29937920 0.10330718 0.00000589
-0.33670118 0.27081484 0.00000237
-0.39151967 0.32043028 0.00000049
-0.09605674 -0.02996339 0.17329562
-0.35552323 -0.62540728 0.00000000
-0.79806960 -0.65821773 -0.00000035
-0.23018515 -0.69342798 0.41527620
-0.52746964 -0.75951177 0.00000000
-0.35469475 -0.56467140 0.00000000
-0.03691157 -0.71370691 0.06659203
-0.14991271 -0.77272666 0.27045700
-0.26950327 -0.56153250 0.00000000
-0.43345958 0.00468638 0.00000496
-0.37014440 -0.36757928 0.66777873
-0.36635453 -0.66119069 0.66093975
-0.59614581 -0.65645373 0.00000000
-0.28149080 -0.68006545 0.50783652
-0.10796983 0.40206984 0.19478856
-0.19826995 0.38174069 0.35770044
-0.53139585 -0.50276548 0.00000000
-0.00541442 0.53414601 0.00976814
-0.16491808 0.37218547 0.29752973
-0.19026425 0.05118568 0.34325591
-0.05285787 0.47810227 0.09536068
-0.00293588 -0.76783133 0.00529661
-0.06720021 -0.17957740 0.12123566
-0.17517567 -0.66402715 0.31603378
-0.40460226 0.13185757 0.00000339
-0.30045623 0.31238142 0.00000238
-0.20224150 0.16693529 0.36486468
-0.08468628 0.20047255 0.15278222
-0.27225792 -0.73396778 0.49117953
-0.09813316 0.55755824 0.17704269
-0.05652235 -0.68459982 0.10197177
-0.50073540 -0.70634675 0.00000000
-0.49415913 -0.53939539 0.00000000
-0.12334329 0.42602175 0.22252420
-0.06888161 -0.51837593 0.12426906
-0.05831473 -0.29633054 0.10520539
-0.09703382 -0.13813815 0.17505836
-0.14668027 0.44207489 0.26462686
-0.21174248 -0.14366899 0.38200432
-0.43413916 0.36048356 -0.00000108
-0.01100937 -0.58666444 0.01986196
-0.75344175 -0.09930207 -0.00000163
-0.58167922 -0.44679105 -0.00000028
-0.34789619 -0.09488163 0.62764174
-0.13086244 0.43577445 0.23608965
-0.02459317 0.59928942 0.04436844
-0.32565111 -0.11344443 0.00000000
-0.00900097 0.12608488 0.01623861
-0.54058671 -0.64579105 0.00000000
-0.30921280 -0.56824237 0.00000000
-0.18642516 -0.45177498 0.33632898
-0.32838485 -0.04616469 0.00000000
-0.08263341 -0.23454444 0.14907864
-0.39333194 0.40127799 -0.00000089
-0.56828803 -0.76015675 0.00000000
-0.09343605 -0.12450106 0.16856764
-0.47157022 -0.06115924 -0.00000049
-0.02362716 -0.33643645 0.04262567
-0.33747721 -0.78197455 0.00000000
-0.03471828 0.24912506 0.06263512
-0.12223940 -0.41363868 0.22053166
-0.19692352 -0.62773359 0.35526901
-0.06669534 -0.56279045 0.12032483
-0.47208902 -0.05804224 -0.00000050
-0.30442569 -0.47675347 0.00000000
-0.08640708 -0.19452929 0.15588669
-0.49764168 -0.48015004 0.00000000
-0.21760109 -0.71492398 0.00000000
-0.23945867 0.24112307 0.43200913
-0.34396815 -0.23480003 0.00000000
-0.03068593 -0.44437796 0.05536038
-0.15476523 0.23171262 0.27921224
-0.00955298 0.41350931 0.01723450
-0.45294401 -0.31188828 0.00000000
-0.21920709 0.27586842 0.39547309
-0.30726126 0.11043358 0.00000562
-0.07905753 0.54223680 0.14262797
-0.19522022 -0.36570328 0.35219607
-0.37455890 -0.26243597 0.67574346
-0.11018280 -0.42528415 0.19878040
-0.32582855 -0.12985164 0.00000000
-0.49996209 -0.48232985 0.00000000
-0.09219120 0.60076576 0.00000156
-0.32940406 -0.18342893 0.00000000
-0.71969199 -0.74538982 -0.00000014
-0.30001631 0.06422994 0.54126149
-0.58325392 -0.49168354 -0.00000021
-0.05465770 0.54084009 0.09860782
-0.28740117 -0.59330022 0.51849955
-0.34049016 0.02943077 0.61428088
-0.02411591 -0.34432003 0.04350743
-0.21267609 -0.79290378 0.00000000
-0.11799623 0.67512667 -0.00000018
-0.57462704 -0.65193588 0.00000000
-0.54497749 -0.10672845 -0.00000072
-0.29383063 -0.00491071 0.53010148
-0.26035810 -0.73798484 0.46971112
-0.03981134 0.23067991 0.07182349
-0.09168543 0.63280386 0.00000103
-0.75525796 -0.36212698 -0.00000109
-0.22834137 -0.22242482 0.00000000
-0.31984773 0.39821103 0.00000057
-0.19313657 -0.28908160 0.34843701
-0.30845022 -0.16487715 0.55647629
-0.28127539 -0.52054387 0.50744826
-0.31695920 0.00474512 0.00000715
-0.60239643 -0.19518223 -0.00000081
-0.06080734 -0.46655497 0.10970231
-0.17266136 -0.10882461 0.31149775
-0.06331299 -0.63462579 0.11422274
-0.20887418 -0.78899634 0.37682915
-0.78666097 -0.74438322 -0.00000014
-0.19523638 0.04935414 0.35222617
-0.24343640 -0.70074356 0.43918273
-0.21741302 0.04708416 0.39223543
-0.15992364 0.44248110 0.28851950
-0.32618317 -0.64611983 0.58846658
-0.34773538 -0.58632994 0.00000000
-0.68568188 -0.39331827 -0.00000082
-0.44969440 -0.41507301 0.00000000
-0.34330955 0.02105951 0.61936736
-0.00755311 0.17902312 0.01362655
-0.08889448 -0.67919099 0.16037421
-0.13571803 0.40817866 0.24484958
-0.06892631 -0.49158230 0.12434971
-0.20855831 0.31907427 0.37626156
-0.08306328 0.45981398 0.14985447
-0.34342858 0.42607319 -0.00000035
-0.24526182 -0.36618313 0.44247618
-0.08684062 -0.13272469 0.15666886
-0.10162512 0.05489823 0.18334150
-0.11254678 -0.20781393 0.20304523
-0.00279801 0.19570524 0.00504787
-0.06497733 -0.60242510 0.11722537
-0.77205992 0.02742328 -0.00000193
-0.33857527 0.21308175 0.00000330
-0.14872020 -0.60745633 0.26830557
-0.41766971 -0.42551887 0.00000000
-0.05941520 0.26952061 0.10719075
-0.22317933 0.44649419 0.00000162
-0.35774195 -0.05651412 0.64540482
-0.06658625 -0.02751023 0.12012802
-0.23118572 0.28641975 0.41708395
-0.18502541 -0.66980731 0.33380368
-0.43443438 -0.60670877 0.00000000
-0.29544383 -0.10589500 0.53301150
-0.02012058 -0.31269616 0.03629946
-0.25226304 -0.75496972 0.45510685
-0.15210886 -0.06652278 0.27441904
-0.39039129 -0.64564049 0.00000000
-0.20164527 -0.52901357 0.36378750
-0.35471943 -0.09650235 0.63995165
-0.53133732 -0.78043813 0.00000000
-0.02879017 0.10564903 0.05194024
-0.02767477 -0.04860426 0.04992796
-0.04130029 -0.14897878 0.07450970
-0.47822005 0.20439883 0.00000077
-0.71222430 0.04059479 -0.00000099
-0.21789593 -0.71457297 0.39310524
-0.50252253 -0.76263970 0.00000000
-0.05034997 0.49560371 0.09083620
-0.24926805 -0.45596513 0.00000000
-0.26422918 -0.28427216 0.47669587
-0.47539335 -0.64715618 0.00000000
-0.69465792 -0.67303598 -0.00000032
-0.54322469 -0.50045460 -0.00000002
-0.60517317 -0.49352747 -0.00000030
-0.16269064 -0.29689080 0.29350960
-0.12229323 -0.53217971 0.22062877
-0.37386498 -0.72369581 0.00000000
-0.79835689 -0.20497283 -0.00000149
-0.16538917 -0.27532163 0.29837802
-0.57505816 -0.76405817 0.00000000
-0.70535088 0.07781840 -0.00000148
-0.15297981 -0.57546258 0.27599031
-0.35934475 -0.79101026 0.64829266
-0.35303336 -0.48283640 0.00000000
-0.22209619 -0.52162713 0.40068293
-0.27931902 -0.33632809 0.00000000
-0.72700572 -0.43519667 -0.00000091
-0.24530846 -0.07449134 0.00000000
-0.00685765 0.71107888 0.01237186
-0.27067018 -0.32093036 0.48831603
-0.36380792 -0.74388707 0.65634489
-0.08308161 -0.70487779 0.14988723
-0.25783396 -0.17133242 0.00000000
-0.72944152 0.00377740 -0.00000071
-0.53226882 -0.06951357 -0.00000073
-0.38250163 -0.59374350 0.69007105
-0.20641938 -0.50792748 0.37240046
-0.22859265 0.24163529 0.00000493
-0.03571268 0.22585496 0.06442912
-0.33488885 -0.16221350 0.00000000
-0.04961422 0.61589718 0.08950909
-0.34661174 0.08300773 0.62532514
-0.14314380 -0.01698375 0.25824523
-0.20880774 0.46233135 0.00000163
-0.24704286 -0.61868149 0.00000000
-0.03282754 0.50421137 0.05922405
-0.22973841 -0.42149216 0.41447026
-0.38369885 -0.04294118 0.69223410
-0.13655166 0.65466338 -0.00000019
-0.26997930 -0.28278702 0.48706973
-0.20638426 0.30045921 0.37233928
-0.05874304 -0.35319757 0.10597811
-0.27983087 -0.67917186 0.50484186
-0.27874181 -0.39318690 0.00000000
-0.02105317 -0.18301775 0.03798196
-0.32215127 -0.12270067 0.00000000
-0.18638359 -0.46368730 0.33625397
-0.34370968 0.16471855 0.00000401
-0.35555178 -0.42375812 0.00000000
-0.36745483 -0.17145637 0.00000000
-0.18029048 -0.71856242 0.32526141
-0.19715621 -0.77620727 0.35568881
-0.52616572 -0.48951811 0.00000000
-0.04714906 -0.59005100 0.08506145
-0.64286417 -0.52957553 -0.00000039
-0.73701686 -0.46324646 -0.00000084
-0.19538596 -0.11422979 0.35249537
-0.12667888 0.01738606 0.22854093
-0.26234153 0.14114428 0.47329205
-0.31741390 0.02535112 0.57264858
-0.26698855 0.21449564 0.00000465
-0.37404519 -0.30468208 0.67481649
-0.18073820 -0.62070912 0.32606915
-0.02915524 0.19055559 0.05259887
-0.39281887 -0.65703470 0.00000000
-0.00864143 0.56534004 0.01558997
-0.16476882 0.07487422 0.29725921
-0.10160387 0.56527209 0.18330429
-0.35593972 0.00244940 0.00000649
-0.34241533 0.21530439 0.00000319
-0.53996009 -0.63629520 0.00000000
-0.15969022 0.18808050 0.28809729
-0.24116059 -0.12270990 0.00000000
-0.31981629 -0.14395155 0.57698208
-0.69521719 -0.56156152 -0.00000056
-0.35360211 -0.08746590 0.00000000
-0.18776715 -0.64923203 0.33875003
-0.49577925 -0.18349834 -0.00000038
-0.15725549 0.50876749 0.00000184
-0.04456221 -0.40604728 0.08039452
-0.18764707 -0.67773974 0.33853343
-0.66974598 0.01271992 0.00000029
-0.06909765 -0.32683107 0.12465882
-0.26490754 0.26012093 0.00000393
-0.65664274 0.13566092 -0.00000151
-0.27479127 -0.71287715 0.49574998
-0.22113003 -0.16820757 0.39894044
-0.15869242 0.34966978 0.28629783
-0.01727470 -0.54832560 0.03116522
-0.38141945 -0.62819648 0.00000000
-0.03222610 0.12059142 0.05813898
-0.02795659 -0.53022712 0.05043639
-0.18269408 0.30375984 0.32959944
-0.00634711 -0.09025980 0.01145079
-0.32950023 -0.30380467 0.59445238
-0.08871746 -0.72866976 0.16005485
-0.02038104 -0.64669859 0.03676936
-0.16944259 -0.32880825 0.30569077
-0.24096100 0.02613832 0.00000797
-0.37414369 -0.63385898 0.67499226
-0.14545257 0.17714447 0.26241088
-0.10492351 0.21778326 0.18929212
-0.35989636 -0.35226211 0.64929038
-0.43325141 -0.23294652 -0.00000002
-0.17587399 -0.00004999 0.31729397
-0.35259315 -0.55468798 0.00000000
-0.44326016 0.09923888 0.00000319
-0.29941121 -0.05705640 0.54016930
-0.51020432 -0.17658582 -0.00000045
-0.28466240 -0.23965575 0.51356000
-0.17985567 0.06920182 0.32447764
-0.58160889 -0.62409341 0.00000000
-0.24203195 -0.38941935 0.43664905
-0.06694453 0.07881964 0.12077438
-0.23404650 -0.74954802 0.42224243
-0.01026278 0.62863880 0.01851505
-0.15549587 0.08669818 0.28052980
-0.24672604 -0.52381486 0.44511753
-0.06572036 0.16436005 0.11856586
-0.35873565 -0.05032845 -0.00000003
-0.21149498 -0.31973532 0.38155735
-0.03677521 -0.19561863 0.06634602
-0.01606773 0.36446035 0.02898773
-0.17170034 -0.69788367 0.30976397
-0.35450175 -0.76889902 0.63955551
-0.36054531 0.03951047 0.00000578
-0.08280470 0.00470736 0.14938767
-0.72497839 -0.21383505 -0.00000130
-0.02540717 -0.32993880 0.04583699
-0.22116429 -0.36143252 0.39900169
-0.54582518 0.03128293 0.00000236
-0.28766972 -0.09434078 0.51898611
-0.18711409 0.07552389 0.33757272
-0.64714521 -0.39158139 -0.00000066
-0.20399246 -0.21322601 0.36802205
-0.60580409 -0.11817017 -0.00000096
-0.09979323 -0.07869409 0.18003660
-0.29427475 -0.60153556 0.00000000
-0.75351721 -0.75489175 -0.00000011
-0.11514050 -0.45924979 0.20772456
-0.50132298 0.23917577 -0.00000026
-0.00739221 0.19082423 0.01333626
-0.25564784 -0.36174291 0.00000000
-0.31139737 0.00649451 0.00000720
-0.01269998 -0.21965289 0.02291200
-0.27670220 -0.53965116 0.49919760
-0.21424958 -0.73952466 0.00000000
-0.33577272 -0.20125628 0.60576916
-0.24284270 -0.61220556 0.43811166
-0.58690733 -0.42204699 -0.00000034
-0.33168870 -0.12012246 0.59840143
-0.16714121 -0.34114075 0.30153888
-0.29203787 -0.41950029 0.52686542
-0.50990832 0.07767165 0.00000227
-0.17874497 0.21537828 0.32247442
-0.38677779 0.12712321 0.00000381
-0.57276750 -0.72879338 0.00000000
-0.05438602 0.23375809 0.09811763
-0.16758163 0.06579130 0.30233383
-0.04874826 -0.58767599 0.08794656
-0.27851006 0.39040950 0.00000149
-0.34464604 -0.24547306 0.62177742
-0.34956279 -0.36392924 0.00000000
-0.31835261 -0.51113009 0.57433993
-0.04042958 -0.23497345 0.07293886
-0.39619768 -0.14897908 -0.00000001
-0.04687483 -0.22462136 0.08456671
-0.30771497 0.13010845 0.55515105
-0.58126855 -0.20017889 -0.00000071
-0.19350185 -0.76783597 0.34909597
-0.59494132 0.17960852 -0.00000106
-0.34839439 0.26089638 0.00000231
-0.11235704 -0.46890685 0.20270292
-0.21360551 -0.26010936 0.38536495
-0.52145708 -0.30942366 -0.00000026
-0.02317735 0.28293911 0.04181418
-0.56801224 0.17787996 -0.00000052
-0.20323479 -0.30799359 0.00000000
-0.35721192 0.14805903 0.00000403
-0.02115590 -0.65373665 0.03816728
-0.04650540 -0.70518023 0.08390022
-0.28942770 -0.22944736 0.52215713
-0.14182758 -0.36852515 0.25587064
-0.69059497 -0.31053457 -0.00000098
-0.18366146 0.33587936 0.33134484
-0.03066405 0.56799126 0.05532090
-0.30122736 -0.33741590 0.54344469
-0.22169746 -0.40735942 0.00000000
-0.04973941 0.04505126 0.08973469
-0.08743771 0.04541489 0.15774606
-0.26003915 -0.15615319 0.46913707
-0.00504217 -0.35916185 0.00909656
-0.08324881 0.23284638 0.15018888
-0.19270205 -0.42119855 0.34765309
-0.41121522 -0.33980080 0.00000000
-0.45627081 -0.52566844 0.00000000
-0.09759006 0.55871701 0.17606288
-0.25075093 -0.23805399 0.00000000
-0.03140848 -0.53660852 0.05666393
-0.28487664 -0.70523190 0.51394492
-0.16252775 -0.11485864 0.29321575
-0.38909379 -0.46966478 0.00000000
-0.35741550 -0.61115330 0.64481312
-0.34173349 0.09461579 0.61652428
-0.49896887 0.02068128 0.00000344
-0.23065585 -0.65265185 0.41612539
-0.02697351 0.20060390 0.04866281
-0.02726392 -0.66865826 0.04918675
-0.07143658 -0.41947797 0.12887847
-0.77863067 -0.05857935 -0.00000181
-0.34484470 -0.22826040 0.00000000
-0.32496202 -0.27768555 0.00000000
-0.13004164 -0.79932743 0.23460765
-0.53466874 -0.13359410 -0.00000063
-0.13251185 0.40571350 0.23906527
-0.06254319 -0.37751514 0.11283395
-0.01918792 -0.15302345 0.03461686
-0.37209401 -0.49582574 0.00000000
-0.45863450 -0.25928023 -0.00000008
-0.00586278 -0.57440859 0.01057702
-0.26393545 -0.44419289 0.00000000
-0.22235250 -0.69009292 0.40114537
-0.67673719 -0.75142908 -0.00000012
-0.06807458 -0.12033504 0.12281310
-0.21245508 -0.45710897 0.00000000
-0.42619008 0.33772644 -0.00000046
-0.22121461 0.27416304 0.00000454
-0.18216696 0.52538711 0.00000109
-0.07568567 -0.43544671 0.13654424
-0.01245869 -0.42978430 0.02247667
-0.03916901 0.75041258 0.00000008
-0.32942274 0.11966742 0.00000504
-0.27205881 0.38825107 0.00000165
-0.36511493 -0.72394854 0.65870297
-0.78744179 -0.14145538 -0.00000165
-0.11700502 -0.10235896 0.21108834
-0.05764542 -0.25206429 0.10399789
-0.50644040 -0.67193055 0.00000000
-0.75264913 -0.58292639 -0.00000054
-0.23168878 -0.02836165 0.41799027
-0.28299636 -0.51419395 0.51055312
-0.58473217 -0.47375122 -0.00000024
-0.43100548 0.14226633 0.00000271
-0.41666967 -0.33818167 0.00000000
-0.10508272 0.13382235 0.18957935
-0.28315404 -0.78858060 0.51083720
-0.11435586 -0.56930584 0.20630901
-0.07135050 0.49104285 0.12872337
-0.52113837 0.11058324 0.00000151
-0.34456766 -0.49746251 0.62163496
-0.22692575 0.38004780 0.00000266
-0.24727629 0.18000270 0.00000557
-0.21820939 -0.46010727 0.00000000
-0.24113010 -0.43860927 0.43502194
-0.38572380 -0.10887044 0.69588697
-0.60457122 -0.00357236 -0.00000116
-0.10583724 -0.39173609 0.19094057
-0.35056627 -0.34685808 0.63245779
-0.31418663 0.43241218 0.00000011
-0.18945193 -0.51448959 0.34178957
-0.23610768 -0.41870081 0.42596099
-0.05216241 -0.23320666 0.09410602
-0.40673196 0.03767730 0.00000492
-0.28109655 -0.25412834 0.00000000
-0.02715005 0.32219881 0.04898132
-0.35796493 0.31105417 0.00000129
-0.05954369 -0.00393906 0.10742256
-0.13199256 -0.47667497 0.23812731
-0.04909673 -0.24825330 0.08857524
-0.78020495 -0.25794396 -0.00000136
-0.16017401 -0.78167832 0.28896937
-0.55407333 -0.18811375 -0.00000062
-0.49610618 0.13163756 0.00000164
-0.23032157 -0.26429251 0.00000000
-0.36828309 -0.51643395 0.00000000
-0.08774084 0.64272565 0.00000094
-0.17801192 -0.33800539 0.32115069
-0.26138449 -0.78762674 0.47156283
-0.07687821 -0.62297159 0.13869570
-0.16847572 -0.79081053 0.00000000
-0.01540426 0.10835448 0.02779076
-0.08256393 -0.04230394 0.14895329
-0.14338182 -0.79904288 0.25867462
-0.25392881 0.10691430 0.00000656
-0.25598222 0.00270656 0.00000810
-0.02906486 -0.33094719 0.05243581
-0.09897478 0.21688636 0.17856003
-0.15936884 0.17808925 0.28751749
-0.70719391 -0.76206267 -0.00000009
-0.14721446 0.41203949 0.26559049
-0.07408939 0.02927515 0.13366441
-0.14184143 0.20621102 0.25589609
-0.63890141 0.01798564 0.00000079
-0.55706298 -0.53880882 -0.00000001
-0.35960618 0.37850207 0.00000013
-0.05342895 -0.32889107 0.09639097
-0.76564848 -0.77604586 -0.00000006
-0.42928448 -0.01204856 -0.00000040
-0.37366930 0.00478510 0.67413986
-0.34478986 -0.49591038 0.00000000
-0.10125948 0.48697990 0.18268265
-0.22701912 -0.71378767 0.40956438
-0.24145436 -0.16419239 0.43560794
-0.56651598 -0.43361560 -0.00000024
-0.11729421 -0.63283312 0.21161005
-0.27380496 -0.44076678 0.49397105
-0.33957243 0.13408209 0.00000460
-0.28913856 -0.69502068 0.00000000
-0.26804200 -0.20384264 0.00000000
-0.20697519 0.22094209 0.37340504
-0.54989576 0.09529728 0.00000121
-0.09994004 -0.37796989 0.18030149
-0.04932522 0.26803240 0.08898746
-0.06846802 -0.02462991 0.12352291
-0.67514575 -0.57093608 -0.00000046
-0.41775516 0.26639313 0.00000089
-0.40186495 -0.71298158 0.00000000
-0.14552595 -0.59068346 0.26254284
-0.12148354 -0.14422517 0.21916801
-0.35457346 -0.77735972 0.63968486
-0.34659761 0.39394420 0.00000013
-0.23001595 -0.02904921 0.00000000
-0.21593191 0.20668200 0.38956395
-0.17245027 0.27267885 0.31111830
-0.69882929 -0.56810081 -0.00000056
-0.56293595 0.21793140 -0.00000109
-0.01791054 -0.60950327 0.03231234
-0.43441635 -0.01128314 -0.00000042
-0.46003753 -0.61865270 0.00000000
-0.79328126 -0.05635731 -0.00000186
-0.14530228 0.31447560 0.26214030
-0.25362456 -0.21394664 0.45756418
-0.02187842 -0.05298787 0.03947077
-0.38305414 -0.42920536 0.69106877
-0.13353904 0.63523817 0.00000019
-0.10816401 0.50681627 0.19513932
-0.08588630 0.18021090 0.15494716
-0.22089595 0.31339112 0.39852014
-0.03970202 -0.67412406 0.07162627
-0.19120915 -0.57579839 0.34495974
-0.22505039 -0.65092707 0.40601259
-0.01937250 0.44767916 0.03494986
-0.12811846 -0.37269962 0.23113804
-0.55427414 -0.76229548 0.00000000
-0.16882429 -0.05297724 0.30457529
-0.17611468 -0.66620791 0.31772786
-0.27599582 -0.63677031 0.49792305
-0.13384102 0.62668461 0.00000032
-0.72108549 -0.31846434 -0.00000110
-0.41417405 0.19302480 0.00000219
-0.11224116 0.38141835 0.20249446
-0.07747689 -0.08627115 0.13977578
-0.03396583 0.23903669 0.06127763
-0.58023673 -0.14569180 -0.00000080
-0.34440309 -0.17218007 0.62133944
-0.43494505 -0.34717327 0.00000000
-0.35687992 0.42356205 -0.00000057
-0.04100284 -0.78694105 0.07397307
-0.27121887 0.22568820 0.48930821
-0.62584203 -0.47798905 -0.00000041
-0.53368425 -0.65344262 0.00000000
-0.31339747 -0.70017803 0.56539947
-0.25827724 -0.51557660 0.46595702
-0.50694048 0.06102033 0.00000261
-0.03231533 -0.39662734 0.05829997
-0.08678277 -0.34405178 0.15656447
-0.21446569 0.06074221 0.38691816
-0.20684174 -0.26336566 0.37316242
-0.37999740 -0.17247793 0.68555564
-0.13937283 -0.09300846 0.25144202
-0.52873927 0.20032541 -0.00000014
-0.11077048 0.39427009 0.19984123
-0.04802222 -0.21483570 0.08663672
-0.02468887 0.64314371 0.04454110
-0.72122979 -0.25770181 -0.00000121
-0.11801114 -0.28864947 0.21290347
-0.18008266 0.17018972 0.32488760
-0.20316875 0.47586021 0.00000151
-0.03836281 0.53639531 0.06921021
-0.10182074 0.27698526 0.18369444
-0.27398536 0.01691361 0.49429840
-0.22060746 -0.26814383 0.39799726
-0.17088173 -0.05363260 0.30828711
-0.06271660 -0.49235007 0.11314679
-0.04621453 -0.65426242 0.08337546
-0.22238013 -0.27108836 0.40119535
-0.04893832 0.69355220 0.08829001
-0.00828021 0.29290199 0.01493830
-0.17638126 0.61751550 -0.00000034
-0.14661327 0.23344918 0.26450515
-0.09478324 0.09024492 0.17099810
-0.05715498 -0.55508667 0.10311309
-0.67596263 -0.48437956 -0.00000061
-0.48243704 -0.71615309 0.00000000
-0.09096245 -0.16664565 0.16410503
-0.59173536 -0.57137674 -0.00000010
-0.57093996 -0.15353483 -0.00000075
-0.56526554 -0.79302841 0.00000000
-0.24924627 0.10623992 0.44966656
-0.03432995 -0.55463588 0.06193453
-0.26850158 -0.53059906 0.48440275
-0.22760893 0.28284603 0.41063103
-0.77177072 -0.50129896 -0.00000075
-0.31067228 -0.72351009 0.00000000
-0.52936977 -0.68272489 0.00000000
-0.10830852 -0.68969744 0.19539902
-0.26840469 -0.63345230 0.00000000
-0.09979575 0.49507818 0.18004195
-0.14544205 0.42701173 0.26239294
-0.10326451 0.22098510 0.18629912
-0.42448068 -0.78937304 0.00000000
-0.14227279 -0.43861207 0.25667384
-0.47410417 0.21081536 0.00000074
-0.11317083 0.25723147 0.20417118
-0.37394965 -0.36323616 0.00000000
-0.25433865 -0.59759545 0.00000000
-0.20032084 -0.45170382 0.36139810
-0.33997685 -0.13922974 0.61335415
-0.33212885 -0.51152450 0.59919387
-0.67693251 -0.39118007 -0.00000078
-0.01185528 -0.02636593 0.02138807
-0.08357156 0.43210170 0.15077135
-0.12495414 -0.65662110 0.22542933
-0.15166713 -0.50824606 0.27362216
-0.68842703 0.11130334 -0.00000172
-0.24069047 -0.08242145 0.43423012
-0.08705247 0.53638953 0.15705176
-0.56137085 0.04483478 0.00000183
-0.03945828 -0.53491575 0.07118655
-0.03651148 -0.15097015 0.06587023
-0.44683096 -0.62272352 0.00000000
-0.34747389 -0.10870457 0.00000000
-0.57038915 -0.17481807 -0.00000071
-0.28226757 -0.58556992 0.00000000
-0.07880441 0.30653644 0.14217076
-0.36878616 -0.14902750 0.66532946
-0.34159413 0.02481511 0.61627257
-0.56390995 -0.63840395 0.00000000
-0.46442282 -0.68404680 0.00000000
-0.18994826 -0.78426063 0.34268498
-0.42542061 -0.75712872 0.00000000
-0.06602009 0.38012576 0.11910660
-0.29524621 -0.44583607 0.00000000
-0.21356401 0.07758616 0.38529146
-0.36798558 -0.14651497 0.00000000
-0.33572254 -0.19347775 0.00000000
-0.29682341 -0.60692137 0.00000000
-0.71109509 -0.08190688 -0.00000148
-0.40089017 -0.71267360 0.00000000
-0.56328642 -0.18242580 -0.00000067
-0.09967862 -0.57703334 0.17982984
-0.58615506 -0.44715449 -0.00000030
-0.00685755 -0.13113722 0.01237168
-0.29242781 -0.06194001 0.52757043
-0.50771713 -0.53310496 0.00000000
-0.15390170 -0.01751398 0.27765352
-0.14362730 -0.50369096 0.25911748
-0.25978965 -0.72895598 0.46868557
-0.24564786 -0.27049977 0.44317305
-0.27094987 -0.30670023 0.48882070
-0.06204396 -0.24633120 0.11193328
-0.35344508 -0.39708278 0.00000000
-0.08274311 0.19639099 0.14927654
-0.73348498 -0.22522245 -0.00000132
-0.21640562 -0.06856930 0.39041746
-0.06168321 0.73310655 -0.00000014
-0.08279407 -0.33871305 0.14936848
-0.10821131 0.09012810 0.19522363
-0.30344510 -0.61850691 0.54744458
-0.02706972 0.65220684 0.04883639
-0.00018325 0.09781750 0.00033061
-0.00078276 0.11293856 0.00141218
-0.21257560 -0.55615097 0.00000000
-0.16565025 -0.66815692 0.29884902
-0.25731626 -0.73338246 0.46422336
-0.21007361 -0.74310839 0.37899303
-0.37336656 -0.79065704 0.67358935
-0.66038370 0.00885765 0.00000053
-0.05082489 -0.77419317 0.09169300
-0.18590394 0.12546340 0.33538967
-0.07544693 0.59909487 0.13611425
-0.50729829 -0.42050382 -0.00000001
-0.25272003 0.16679594 0.45593387
-0.16887242 -0.49664548 0.30466211
-0.05298450 -0.47768405 0.09558914
-0.56066465 -0.46726975 -0.00000015
-0.31878445 -0.02862616 0.57512105
-0.00117352 -0.69235045 0.00211714
-0.00605113 -0.17755476 0.01091682
-0.62289250 -0.40205476 -0.00000053
-0.56891870 -0.15575729 -0.00000074
-0.72890753 -0.21564034 -0.00000132
-0.62850022 -0.32897970 -0.00000069
-0.05231643 0.31997120 0.09438388
-0.29035488 -0.64141148 0.00000000
-0.39036527 0.14043616 0.00000352
-0.71340340 -0.19542602 -0.00000128
-0.50148451 -0.05280308 -0.00000063
-0.32531643 -0.53255361 0.00000000
-0.20631933 -0.68104112 0.00000000
-0.48681051 -0.42600319 0.00000000
-0.09929745 0.58789456 0.17914332
-0.03730894 0.39261484 0.06730892
-0.05037869 -0.31913790 0.09088801
-0.33795628 -0.71320689 0.60970622
-0.66629273 -0.52016014 -0.00000051
-0.36414868 -0.45282948 0.65696132
-0.05385985 -0.18102470 0.09716837
-0.76281154 -0.79582661 -0.00000001
-0.59229803 -0.31259626 -0.00000056
-0.26802021 -0.63401133 0.48353431
-0.01622260 -0.71340728 0.02926713
-0.07724301 -0.20278589 0.13935384
-0.08938066 -0.03071794 0.16125134
-0.69687521 -0.31087679 -0.00000101
-0.02107106 -0.73385310 0.03801421
-0.36909074 -0.66714591 0.00000000
-0.31639513 -0.46298093 0.57080859
-0.10370200 -0.42732289 0.18708842
-0.24658614 0.13237219 0.00000629
-0.62345880 -0.41891509 -0.00000051
-0.25402915 -0.67765397 0.00000000
-0.47572666 -0.20985816 -0.00000025
-0.01378604 -0.62593079 0.02487134
-0.71941733 -0.48983991 -0.00000078
-0.72452897 -0.38769066 -0.00000099
-0.15970702 -0.61607438 0.28812686
-0.70979905 -0.03903565 -0.00000155
-0.55894828 -0.30257738 -0.00000044
-0.73204613 -0.43294284 -0.00000092
-0.29048461 0.31605491 0.00000251
-0.69928110 0.08530232 -0.00000149
-0.14981560 -0.72754329 0.27028182
-0.01022902 0.26710942 0.01845415
-0.33563796 -0.45744836 0.00000000
-0.19391683 -0.33998552 0.34984466
-0.52573144 -0.73407483 0.00000000
-0.25894842 -0.05948720 0.46716967
-0.10117602 -0.30678576 0.18253130
-0.24061491 -0.24482144 0.43409312
-0.19504024 0.08094397 0.35187244
-0.63352644 -0.26760873 -0.00000082
-0.75186121 -0.34084892 -0.00000115
-0.09724975 -0.67619783 0.17544793
-0.29588130 -0.52642298 0.53379899
-0.13508344 0.48088667 0.00000274
-0.61102849 0.02541964 0.00000120
-0.44190642 -0.44612753 0.00000000
-0.20880842 0.28466588 0.00000458
-0.20777781 0.21355040 0.00000566
-0.38166231 -0.08701797 -0.00000006
-0.32717475 0.11029526 0.59025872
-0.69958287 -0.78555131 -0.00000004
-0.22761945 -0.03827983 0.00000000
-0.68228614 -0.40848714 -0.00000078
-0.16480792 0.27571243 0.29733062
-0.25086328 -0.15752755 0.45258275
-0.03735086 0.61453611 0.06738456
-0.11459696 0.13290998 0.20674396
-0.12522478 -0.54484433 0.22591758
-0.08843366 -0.27750674 0.15954284
-0.23363025 0.40191734 0.00000216
-0.68550563 -0.08020308 -0.00000137
-0.25255007 0.10339444 0.45562696
-0.33623594 -0.24019377 0.60660470
-0.03787737 -0.52034426 0.06833442
-0.26632574 -0.63174725 0.48047730
-0.29140744 -0.41545716 0.52572811
-0.31081057 -0.30461687 0.56073403
-0.11488295 -0.05833263 0.20725992
-0.05158580 0.16164772 0.09306576
-0.57342666 -0.37600365 -0.00000037
-0.35883141 -0.07229294 0.64737022
-0.07980984 0.11267571 0.14398465
-0.69098091 -0.64002126 -0.00000040
-0.17223956 0.19588616 0.31073779
-0.25792095 -0.19713880 0.46531546
-0.78707057 -0.35433787 -0.00000111
-0.79894310 -0.28923500 -0.00000128
-0.32547101 -0.36705285 0.58718294
-0.57826573 -0.45216289 -0.00000025
-0.20633109 0.31092361 0.00000421
-0.17051363 -0.16244733 0.30762303
-0.29189116 -0.45432508 0.00000000
-0.00125580 0.73452556 0.00226558
-0.28222665 -0.12411867 0.00000000
-0.14771810 -0.65580213 0.26649770
-0.28002217 -0.78142911 0.00000000
-0.32095802 -0.51259899 0.00000000
-0.34763554 -0.36045420 0.62717038
-0.06692455 -0.45032522 0.12073835
-0.04601576 0.34419715 0.08301686
-0.39764178 -0.69481808 0.00000000
-0.28568453 0.18123509 0.51540577
-0.33932263 -0.78682196 0.61217082
-0.09619861 -0.27396503 0.17355157
-0.10635764 -0.71152264 0.19187944
-0.21950370 -0.16058396 0.00000000
-0.09485457 0.09552408 0.17112678
-0.14762145 -0.30028507 0.26632333
-0.27464932 0.23154923 0.00000422
-0.36370909 -0.29782686 0.00000000
-0.12991579 -0.17176738 0.23438060
-0.06986101 -0.54686546 0.12603599
-0.25936797 0.17579201 0.00000545
-0.16560039 0.29189736 0.29876038
-0.74522573 -0.48664007 -0.00000078
-0.14577210 -0.79458946 0.00000000
-0.17984489 -0.47016519 0.32445753
-0.32335547 -0.50278169 0.58336574
-0.17263360 -0.08173833 0.31144765
-0.14037625 -0.21678740 0.25325227
-0.38683039 -0.26130235 0.00000000
-0.18611310 0.39050013 0.33576813
-0.06634450 0.47388557 0.11969190
-0.38021684 -0.17325047 0.68595153
-0.22212420 -0.48481104 0.00000000
-0.22593878 0.56105781 -0.00000035
-0.29903600 0.03609693 0.53949279
-0.05033977 0.51010633 0.09081781
-0.13834444 -0.45333710 0.24958669
-0.38253626 -0.10633683 0.69013637
-0.00236277 -0.44318861 0.00426266
-0.12258648 0.55528909 0.00000173
-0.10929730 0.12516196 0.19718286
-0.18943155 -0.02899642 0.34175324
-0.68290001 -0.21131875 -0.00000113
-0.17318937 0.55128461 0.00000083
-0.02703475 0.09839131 0.04877329
-0.31195223 0.00181413 0.56279498
-0.38532916 -0.05425715 -0.00000013
-0.18555900 -0.03766949 0.33476669
-0.15451179 -0.04393864 0.27875417
-0.05522514 -0.12167550 0.09963147
-0.09470393 -0.18938728 0.17085503
-0.37667385 -0.35454720 0.00000000
