ply
format ascii 1.0
element vertex 1408
property float x
property float y
property float z
end_header
-0.51564360 0.28962484 0.00000000
0.33905056 -0.70557195 0.00000000
-0.21176596 0.61855286 0.00000000
0.22336736 -0.12824987 0.00000000
0.72086138 -0.37400422 0.00000000
-0.79208279 0.32555014 0.00000000
0.54518962 0.75004143 0.08730955
-0.69375676 0.01725380 0.00000000
-0.19839641 0.30525088 0.00000000
0.10298053 0.46140987 0.00000000
0.14295448 -0.33539474 0.00000000
-0.73281324 -0.58665776 0.00000000
-0.55039471 0.31337285 0.00000000
-0.46485165 -0.51658070 0.00000000
0.17490228 -0.54598379 0.00000000
0.79428530 -0.74453390 0.00000000
0.12024120 0.10277493 0.00000000
0.04721937 0.78865355 0.00632443
-0.05085505 -0.63178456 0.00000000
0.57742411 0.72902018 0.08928647
-0.21059208 0.30844089 0.00000000
-0.63345921 -0.66584414 0.00000000
0.35088930 0.76916170 0.05642519
0.25277680 -0.57304150 0.00000000
0.56179190 -0.69813532 0.00000000
-0.45442960 0.02197606 0.00000000
-0.48356688 -0.04334768 0.00000000
-0.71694028 -0.38877702 0.00000000
0.74311388 0.44224873 0.06793995
0.38033602 0.54658425 0.02237622
-0.14364125 -0.43341544 0.00000000
0.23810008 0.07330113 0.00000000
0.56115884 0.18502814 0.00000000
0.01309721 -0.60970724 0.00000000
-0.25906530 0.44811457 0.00000000
-0.19093354 0.27941895 0.00000000
-0.04327780 -0.36470968 0.00000000
-0.75677556 -0.31643924 0.00000000
-0.52231699 0.35587731 0.00000000
0.60966903 0.77293944 0.10271420
0.21852024 0.12515742 0.00000000
-0.18984649 0.16620237 0.00000000
-0.41030052 -0.18697254 0.00000000
-0.37654445 -0.79053241 0.00000000
0.49626073 0.44317803 0.02458324
0.75609124 0.16896026 0.02204675
0.36381215 -0.16794564 0.00000000
-0.53914398 -0.44518802 0.00000000
-0.76740319 -0.19453698 0.00000000
-0.36430404 -0.13065484 0.00000000
0.07605022 -0.01988192 0.00000000
0.70532572 -0.45582852 0.00000000
-0.08692602 0.53134423 0.00000000
0.76870120 -0.52436233 0.00000000
0.70123237 0.26526737 0.02935413
-0.64983606 0.18593328 0.00000000
0.44992930 -0.61735350 0.00000000
0.72345883 0.46043345 0.06768074
-0.37036094 -0.38312057 0.00000000
0.09864040 -0.72070956 0.00000000
-0.57682073 0.02090154 0.00000000
0.72407597 -0.75104225 0.00000000
0.53688419 -0.36300933 0.00000000
-0.34944856 0.31117868 0.00000000
-0.45421422 -0.11680477 0.00000000
-0.03031216 0.68089026 0.00000000
-0.32212842 -0.21057758 0.00000000
0.45698768 0.07094932 0.00000000
-0.71295720 0.21056259 0.00000000
-0.45647982 -0.64094949 0.00000000
0.51655149 -0.08053373 0.00000000
0.58622289 -0.02657671 0.00000000
-0.24147531 0.42677087 0.00000000
0.10739673 0.69652587 0.00069156
0.09751072 -0.01572516 0.00000000
-0.03704478 -0.54045546 0.00000000
-0.42468563 0.55348861 0.00000000
-0.01619959 -0.67459440 0.00000000
-0.51445580 -0.74103022 0.00000000
-0.67781782 -0.77677256 0.00000000
-0.24235988 0.65047562 0.00000000
-0.33115560 0.72394341 0.00000000
-0.24445266 -0.41758662 0.00000000
0.68403858 -0.37119943 0.00000000
0.41978166 0.11721569 0.00000000
0.35332322 -0.09734967 0.00000000
0.28431776 -0.37264496 0.00000000
0.19606668 -0.26713452 0.00000000
0.18319258 0.55479872 0.00000000
0.57140714 0.57311577 0.06073983
-0.29059386 -0.22170396 0.00000000
-0.69988227 -0.59614480 0.00000000
0.43263701 -0.34669071 0.00000000
0.61658674 -0.02520674 0.00000000
0.14027578 -0.02530015 0.00000000
0.07464010 -0.75552171 0.00000000
0.36164972 -0.31278074 0.00000000
-0.64614969 0.04794122 0.00000000
-0.69913465 0.03163206 0.00000000
0.19403362 -0.41386634 0.00000000
-0.01717069 0.38434786 0.00000000
-0.23582768 0.72767997 0.00000000
0.76300186 0.27614874 0.04216257
-0.20864071 0.37875387 0.00000000
0.56929374 0.07036859 0.00000000
0.25140738 0.51867712 0.00000000
-0.22165710 -0.36054739 0.00000000
-0.08785890 -0.73039472 0.00000000
-0.60251564 -0.14174555 0.00000000
-0.76767761 0.58228433 0.00000000
-0.56228584 -0.25939634 0.00000000
0.47758594 -0.58029926 0.00000000
-0.28667974 0.34840077 0.00000000
-0.52693772 -0.04237062 0.00000000
0.45721260 -0.68238741 0.00000000
0.64943403 -0.43022791 0.00000000
-0.46068674 -0.21546154 0.00000000
0.26216644 0.17380393 0.00000000
0.14829618 0.12491170 0.00000000
-0.76784396 0.68025285 0.00000000
0.55967784 0.51700866 0.04878020
-0.24535464 -0.50998229 0.00000000
-0.69130260 0.19086692 0.00000000
-0.29020378 0.32462701 0.00000000
0.19835693 -0.25393680 0.00000000
0.49593633 -0.20820391 0.00000000
-0.08808413 -0.65758657 0.00000000
-0.53069043 -0.25256720 0.00000000
0.69705105 -0.56875730 0.00000000
0.02185555 0.44234458 0.00000000
-0.02693943 0.68518353 0.00000000
-0.70187366 0.77426308 0.00000000
-0.05913265 0.27167132 0.00000000
0.56088263 -0.76398700 0.00000000
0.05098790 -0.69110465 0.00000000
-0.56150663 -0.02803873 0.00000000
0.24670233 -0.70544821 0.00000000
0.68032116 0.26928240 0.02637531
0.56397325 -0.71391052 0.00000000
-0.08753130 -0.07659955 0.00000000
-0.19099304 0.44075173 0.00000000
-0.19263473 -0.32124892 0.00000000
0.08236055 0.60118848 0.00000000
-0.64193034 -0.58394885 0.00000000
0.62272781 0.19969548 0.00395326
-0.39160120 -0.72812676 0.00000000
-0.23437837 0.76166946 0.00000000
0.07249068 -0.31744879 0.00000000
0.49254352 -0.59992886 0.00000000
-0.33883646 -0.79042840 0.00000000
0.49163029 0.12182377 0.00000000
-0.60800654 -0.24027602 0.00000000
-0.44715723 -0.31892684 0.00000000
-0.04895285 -0.36194453 0.00000000
-0.23022276 0.53748596 0.00000000
0.54104614 -0.43783891 0.00000000
-0.03840860 0.49436963 0.00000000
-0.55023754 0.19247940 0.00000000
-0.21989302 -0.53549862 0.00000000
0.43630025 0.08328500 0.00000000
-0.21201573 0.47741675 0.00000000
0.44954637 0.78262269 0.07619165
-0.27486604 0.26710203 0.00000000
-0.28264654 -0.35668281 0.00000000
0.61729628 0.50929415 0.05757834
-0.20176923 0.62359732 0.00000000
-0.60476768 -0.73585612 0.00000000
-0.01656972 0.71107721 0.00000000
-0.79527497 0.19362821 0.00000000
0.35801774 -0.16703220 0.00000000
-0.47568324 -0.65141046 0.00000000
0.32310870 0.60410362 0.02242770
-0.11290759 0.30850375 0.00000000
-0.32457039 -0.13278820 0.00000000
0.42797795 0.21111739 0.00000000
0.28008991 0.52768403 0.00137055
-0.55428678 0.55947644 0.00000000
0.79031724 0.09478207 0.01500312
0.57899100 0.12262460 0.00000000
-0.78572768 0.47559199 0.00000000
-0.72146797 -0.16939165 0.00000000
-0.38711157 -0.31684685 0.00000000
-0.30161676 0.13934481 0.00000000
-0.23478875 -0.61294746 0.00000000
-0.70327020 0.11656946 0.00000000
0.14227293 0.31020227 0.00000000
0.68606347 -0.58480704 0.00000000
-0.38314840 0.02433555 0.00000000
-0.09956918 0.70741063 0.00000000
-0.25333583 0.13538656 0.00000000
0.62453008 -0.57074404 0.00000000
-0.74266487 0.77944189 0.00000000
0.72348231 -0.59659696 0.00000000
-0.40796506 0.64128125 0.00000000
0.74345583 -0.13395724 0.00000000
0.16014984 -0.12477760 0.00000000
-0.57492101 0.32629830 0.00000000
0.18285446 0.19190241 0.00000000
0.57200050 -0.46224016 0.00000000
-0.42628458 -0.12045599 0.00000000
0.78319937 0.24620023 0.04044346
0.20796342 0.60513306 0.00230893
-0.41200936 -0.72960848 0.00000000
0.10045230 0.05214649 0.00000000
-0.58686769 -0.37468979 0.00000000
-0.18784218 0.46535546 0.00000000
0.11520418 -0.77895522 0.00000000
-0.23251462 0.78978056 0.00000000
-0.29703248 -0.47947493 0.00000000
0.20326312 -0.28972065 0.00000000
0.17142726 0.35571584 0.00000000
-0.14919759 0.35231829 0.00000000
-0.14883932 0.25436121 0.00000000
0.45228353 0.35958719 0.00209282
0.49440739 0.17367642 0.00000000
-0.77681303 0.32262516 0.00000000
0.45188510 -0.32016048 0.00000000
-0.03972069 -0.11726109 0.00000000
0.22033842 0.53436154 0.00000000
-0.14097598 -0.05500216 0.00000000
-0.19208691 -0.18125880 0.00000000
0.43773407 -0.43533716 0.00000000
-0.27929395 0.53376985 0.00000000
-0.07611437 0.09742553 0.00000000
-0.53262961 -0.46862087 0.00000000
0.24524271 0.47401601 0.00000000
-0.57336605 0.22126009 0.00000000
0.54453015 -0.29980603 0.00000000
0.15072149 -0.22111186 0.00000000
0.04506104 -0.53393203 0.00000000
0.15450919 -0.20109601 0.00000000
-0.05972259 0.65133256 0.00000000
0.23910233 -0.53419083 0.00000000
-0.40657347 0.37121004 0.00000000
0.37407181 -0.28134152 0.00000000
0.40136915 -0.07476392 0.00000000
0.55786246 0.46189886 0.03874422
0.16223302 0.17949583 0.00000000
-0.35918185 0.66754454 0.00000000
-0.05371827 -0.33788338 0.00000000
-0.32965806 -0.34820259 0.00000000
0.32159564 -0.70356297 0.00000000
-0.53940958 -0.60826904 0.00000000
-0.51414210 -0.43197161 0.00000000
-0.26839405 -0.59003979 0.00000000
-0.46649930 0.73586768 0.00000000
0.18339594 0.45552504 0.00000000
-0.40297538 -0.07624336 0.00000000
0.04478822 -0.19780409 0.00000000
-0.04032051 -0.34052795 0.00000000
0.33314794 -0.47470450 0.00000000
0.70787376 0.40517634 0.05519116
0.14966412 -0.10787085 0.00000000
-0.15163969 -0.32559603 0.00000000
0.00481899 -0.44160467 0.00000000
-0.47097078 -0.48568419 0.00000000
-0.20729044 0.78071547 0.00000000
0.32999855 0.07655342 0.00000000
-0.50011021 0.08926984 0.00000000
-0.49845132 -0.49182686 0.00000000
0.52974635 -0.74680179 0.00000000
-0.66760767 0.30992514 0.00000000
0.00308484 0.03071928 0.00000000
0.24490234 0.49561372 0.00000000
0.39533964 -0.30018887 0.00000000
0.56894243 -0.49637821 0.00000000
0.05642125 -0.09594909 0.00000000
0.39209911 -0.65306485 0.00000000
-0.23537800 0.17745382 0.00000000
0.22646765 0.29292688 0.00000000
-0.16974252 0.51572853 0.00000000
0.04319738 -0.56065935 0.00000000
-0.42137209 -0.55573833 0.00000000
-0.05541215 -0.09623104 0.00000000
0.17666017 -0.18609668 0.00000000
-0.26268122 0.51335204 0.00000000
-0.31754199 0.60171241 0.00000000
-0.23596101 -0.38087153 0.00000000
-0.34675905 -0.44962785 0.00000000
0.76918435 -0.65440124 0.00000000
-0.25323781 0.05838555 0.00000000
-0.03527986 0.01184323 0.00000000
0.24094795 -0.61640525 0.00000000
0.19087447 -0.19060136 0.00000000
0.36197618 -0.58643073 0.00000000
-0.36559826 0.44010904 0.00000000
-0.04093490 0.79542392 0.00000000
0.39882612 0.03267212 0.00000000
0.27186692 0.53461891 0.00114346
0.66531897 -0.37544087 0.00000000
0.78767323 0.46838462 0.08040362
0.34095335 0.67874515 0.03873311
0.21907103 0.39802429 0.00000000
-0.54273456 0.11221775 0.00000000
-0.20979118 0.28168416 0.00000000
-0.34175032 -0.50452125 0.00000000
0.57077080 0.55331981 0.05713761
-0.77443653 0.18050700 0.00000000
-0.76954925 -0.33270720 0.00000000
-0.48097771 -0.69367731 0.00000000
0.26741767 0.56162876 0.00512092
-0.72100949 -0.78370386 0.00000000
-0.46255732 0.58389199 0.00000000
-0.69099551 -0.50218475 0.00000000
-0.45460990 -0.33531043 0.00000000
-0.69507509 0.79723120 0.00000000
0.75329310 0.02932574 0.00000000
0.27111208 -0.26467469 0.00000000
0.46540749 0.34832564 0.00242117
-0.26166084 -0.70092207 0.00000000
-0.08654412 0.05612466 0.00000000
0.03587167 -0.10633239 0.00000000
-0.54710782 -0.61294007 0.00000000
-0.68141979 0.74968481 0.00000000
-0.00585258 0.24387021 0.00000000
0.36656842 0.24308398 0.00000000
0.72982639 -0.33955926 0.00000000
0.18084458 0.18803337 0.00000000
-0.00396880 0.51341939 0.00000000
-0.43732813 -0.35714677 0.00000000
-0.38689077 -0.71887237 0.00000000
-0.33882007 0.19439498 0.00000000
0.04230771 0.05819860 0.00000000
0.68696254 0.71851164 0.10674551
0.72337091 0.36798930 0.05136721
0.39240602 0.53062135 0.02168989
-0.08745814 0.47258121 0.00000000
0.27658993 -0.03132065 0.00000000
0.72214478 0.21927159 0.02493190
0.10467836 -0.55084497 0.00000000
0.68028253 -0.79311317 0.00000000
0.39411595 -0.43181053 0.00000000
0.32245389 0.28419217 0.00000000
0.64212352 0.43748540 0.04929544
0.09489298 0.77359259 0.01207407
0.30667728 -0.76475030 0.00000000
-0.23116691 -0.79027218 0.00000000
0.33173805 -0.77417076 0.00000000
0.01678920 -0.75575721 0.00000000
0.27237636 -0.09645290 0.00000000
0.72843021 -0.63872510 0.00000000
-0.07726417 -0.16975109 0.00000000
0.48896709 0.35411310 0.00759510
0.52821964 0.63275081 0.06363947
-0.29822236 -0.01973930 0.00000000
-0.55503327 0.44253096 0.00000000
0.41072059 0.22062321 0.00000000
-0.32626081 0.25896025 0.00000000
0.33308300 0.61699355 0.02645870
0.70944935 -0.10914980 0.00000000
-0.54847562 -0.59227282 0.00000000
0.67816824 0.39880016 0.04882991
-0.04844751 0.40876174 0.00000000
-0.51000941 -0.36647487 0.00000000
0.69918889 -0.67995733 0.00000000
-0.70855546 -0.14406133 0.00000000
0.21289037 -0.05613947 0.00000000
0.60016197 -0.47862858 0.00000000
-0.59588045 -0.68370563 0.00000000
-0.68970394 0.59478909 0.00000000
0.16393769 0.16184115 0.00000000
0.43995184 -0.62551773 0.00000000
0.01262139 -0.47081539 0.00000000
-0.72195268 -0.46974131 0.00000000
-0.15572195 0.14747429 0.00000000
-0.25795582 -0.31517303 0.00000000
-0.01989166 0.12763979 0.00000000
-0.66053814 -0.00717401 0.00000000
-0.61597180 0.53783786 0.00000000
-0.19276899 -0.11611304 0.00000000
-0.06807840 -0.68711185 0.00000000
-0.61218154 -0.48555809 0.00000000
0.63462168 0.78362489 0.10899720
0.29971951 -0.44919291 0.00000000
0.44409472 0.79200953 0.07688541
-0.16854268 -0.53267127 0.00000000
-0.12489128 0.06025769 0.00000000
-0.69967252 -0.67962462 0.00000000
-0.71582144 0.32321268 0.00000000
0.49446335 0.61095881 0.05384630
-0.07661461 -0.16565043 0.00000000
0.39430627 0.06673879 0.00000000
-0.35873666 0.28953427 0.00000000
0.25106961 -0.55681187 0.00000000
0.65221888 -0.33544832 0.00000000
-0.02934066 0.23328485 0.00000000
0.65508485 -0.62239289 0.00000000
0.29215381 -0.28643113 0.00000000
0.62744296 -0.10298272 0.00000000
-0.40409002 0.49489772 0.00000000
0.77681500 -0.62937784 0.00000000
-0.29270056 -0.08497111 0.00000000
-0.11713720 0.50401747 0.00000000
0.12451988 0.64004904 0.00000000
0.77954590 0.16014387 0.02462750
-0.32334077 0.78040773 0.00000000
-0.12235101 0.05770117 0.00000000
-0.28693232 -0.07148271 0.00000000
0.20981631 0.16644078 0.00000000
-0.08453148 0.70425647 0.00000000
0.26173246 0.78031534 0.04267317
0.59192723 0.29772010 0.01580495
-0.66616851 0.30591670 0.00000000
-0.72568911 -0.78866440 0.00000000
-0.56359273 0.70531046 0.00000000
0.64073431 -0.51220191 0.00000000
-0.27833799 0.65922928 0.00000000
-0.12321395 -0.29166767 0.00000000
0.46010426 -0.72042757 0.00000000
-0.06616275 0.07664446 0.00000000
0.06005721 0.50582570 0.00000000
-0.33353835 0.68134797 0.00000000
-0.50239676 0.12251577 0.00000000
0.58410156 0.65501052 0.07741585
-0.29911652 0.48723850 0.00000000
0.35929844 0.22087117 0.00000000
0.56739813 0.40432462 0.03027496
0.13270280 0.60962349 0.00000000
-0.21200128 -0.71195519 0.00000000
0.51309103 0.17347585 0.00000000
0.17993289 0.46703786 0.00000000
0.73714989 -0.71689773 0.00000000
-0.56165475 -0.44519973 0.00000000
-0.78300869 0.55141902 0.00000000
-0.29152414 0.16447677 0.00000000
0.07101558 0.09668136 0.00000000
-0.77769613 0.57327598 0.00000000
-0.44250038 -0.20855781 0.00000000
0.14489810 -0.37343997 0.00000000
-0.38922706 -0.07548324 0.00000000
-0.20331337 -0.17879584 0.00000000
0.59481698 -0.76022214 0.00000000
0.53524703 0.78678250 0.09203408
0.07795090 -0.77988690 0.00000000
0.18707268 -0.68262833 0.00000000
-0.23213883 -0.51379210 0.00000000
0.75485849 0.56108755 0.09096184
-0.67191964 0.48318553 0.00000000
0.28296566 -0.19937257 0.00000000
-0.35663331 0.11872865 0.00000000
-0.28007287 0.60641015 0.00000000
0.33420843 0.76340568 0.05246956
0.76871103 0.13117494 0.01761003
-0.28234839 0.03376821 0.00000000
-0.13931894 0.02251570 0.00000000
0.32657200 0.11124495 0.00000000
-0.20704369 0.73988223 0.00000000
0.52015692 0.05957975 0.00000000
-0.54372180 -0.69692713 0.00000000
0.18758830 0.46233559 0.00000000
-0.73974252 0.75613523 0.00000000
0.71085119 0.15164018 0.01101731
0.66905361 -0.29360676 0.00000000
-0.69267708 -0.21206026 0.00000000
0.10082212 0.48284519 0.00000000
0.37732959 0.44033715 0.00311467
-0.16434637 -0.62166250 0.00000000
0.34468570 0.49269003 0.00658939
0.20765190 -0.38847491 0.00000000
0.67677653 0.58284253 0.08103133
0.57062721 -0.21135776 0.00000000
-0.73382306 0.36994505 0.00000000
0.38278010 -0.26135039 0.00000000
0.03690018 -0.69239318 0.00000000
-0.12014060 0.35896054 0.00000000
-0.64893210 -0.45217890 0.00000000
0.26870507 -0.57314283 0.00000000
0.30541489 -0.31957275 0.00000000
-0.79567677 -0.39776459 0.00000000
-0.36100924 -0.26044625 0.00000000
0.10831243 0.45303524 0.00000000
-0.43366420 0.45445162 0.00000000
-0.45291090 -0.16855243 0.00000000
-0.54029167 -0.29647937 0.00000000
0.24062967 -0.50210422 0.00000000
-0.50726873 0.52403057 0.00000000
0.79274952 -0.24411011 0.00000000
0.25557497 0.77773660 0.04113298
-0.27258345 -0.08942854 0.00000000
0.30461431 0.50846064 0.00230512
0.16155224 0.21525720 0.00000000
0.52168572 -0.38354099 0.00000000
-0.22100164 -0.59779501 0.00000000
0.32673761 -0.50162601 0.00000000
-0.58787268 0.30184451 0.00000000
0.32394814 -0.34944022 0.00000000
-0.35175902 0.29152048 0.00000000
0.53885365 0.33503401 0.01302650
-0.15650356 0.61354381 0.00000000
-0.10700733 -0.39034751 0.00000000
0.24410719 0.46652052 0.00000000
0.76829886 -0.73030889 0.00000000
-0.13554651 0.42257300 0.00000000
0.25821820 -0.45409554 0.00000000
-0.29795918 0.11112013 0.00000000
-0.79609209 -0.03549525 0.00000000
0.32578588 0.04649153 0.00000000
0.55238223 -0.76537055 0.00000000
0.22966905 -0.15145563 0.00000000
0.63192892 0.07305006 0.00000000
-0.36300346 0.09203480 0.00000000
0.71712255 -0.46465567 0.00000000
0.53909260 0.21887265 0.00000000
-0.76488668 0.56914759 0.00000000
-0.08870998 -0.38794854 0.00000000
-0.75172567 -0.76971042 0.00000000
0.11531516 -0.22020769 0.00000000
-0.16606781 0.15452003 0.00000000
0.71656406 -0.55909789 0.00000000
0.27391091 0.65689832 0.02306185
-0.61692601 0.74616194 0.00000000
-0.27885753 -0.38267744 0.00000000
-0.30827042 0.35878414 0.00000000
-0.55426711 -0.67200387 0.00000000
-0.58446127 -0.39654633 0.00000000
-0.39661726 -0.05030302 0.00000000
0.13925496 0.29639131 0.00000000
-0.44356719 -0.63084435 0.00000000
-0.57878488 0.20808463 0.00000000
0.57427669 -0.58859718 0.00000000
0.56023985 -0.56151766 0.00000000
-0.09214029 0.45761147 0.00000000
0.20695344 0.15034480 0.00000000
0.12395367 0.47118297 0.00000000
-0.10227276 -0.17203856 0.00000000
-0.26566735 0.16277125 0.00000000
0.33902660 -0.20453337 0.00000000
0.60060412 -0.11852770 0.00000000
-0.20597982 -0.60582817 0.00000000
-0.00092242 -0.53292489 0.00000000
-0.59682184 0.53607315 0.00000000
0.78096557 -0.77475256 0.00000000
-0.54103982 0.49616554 0.00000000
0.32950097 -0.68465376 0.00000000
0.41257954 -0.20398720 0.00000000
-0.02312838 0.45951205 0.00000000
-0.12123409 0.40409380 0.00000000
0.49711519 0.42190117 0.02098275
-0.00808716 -0.08767996 0.00000000
-0.75026709 -0.23882911 0.00000000
0.70059079 0.77673602 0.11941310
0.22683333 -0.12796111 0.00000000
-0.29131740 -0.57002527 0.00000000
-0.16532564 -0.40716055 0.00000000
-0.17730749 -0.36809438 0.00000000
-0.57233298 -0.61130196 0.00000000
0.78722137 -0.68545395 0.00000000
0.54697257 0.06263477 0.00000000
0.65902668 -0.67626870 0.00000000
0.61547357 -0.65736604 0.00000000
-0.16138189 -0.70736754 0.00000000
0.59988642 -0.10886305 0.00000000
-0.14360648 -0.44219303 0.00000000
0.77091783 -0.49667025 0.00000000
0.08189792 -0.08424106 0.00000000
0.41724432 -0.07885421 0.00000000
-0.45464125 -0.01476800 0.00000000
-0.31711781 0.25017533 0.00000000
0.73244786 0.16722721 0.01757285
-0.77080798 -0.56631160 0.00000000
-0.06877001 0.40413705 0.00000000
0.67410111 -0.62113255 0.00000000
-0.43967971 -0.14396919 0.00000000
0.61019248 -0.75502247 0.00000000
0.02672059 -0.33768249 0.00000000
0.25798929 -0.13483296 0.00000000
0.59572572 0.00169690 0.00000000
-0.46040770 -0.75204003 0.00000000
-0.67594969 0.61832327 0.00000000
-0.57977080 0.03332683 0.00000000
-0.58986646 0.79243714 0.00000000
-0.20809408 0.77659953 0.00000000
0.70154989 0.03955363 0.00000000
0.64352036 0.02894701 0.00000000
0.55861437 0.66636014 0.07492338
-0.59350032 -0.45374784 0.00000000
0.09618906 0.43755198 0.00000000
-0.19404706 -0.60607445 0.00000000
0.65540797 0.50433606 0.06342336
0.13726898 0.02516387 0.00000000
-0.61182332 0.78939164 0.00000000
0.68810785 -0.43401062 0.00000000
0.65354455 0.73959017 0.10457002
-0.68104517 -0.60300577 0.00000000
-0.63607764 -0.73591185 0.00000000
-0.11607124 -0.53675365 0.00000000
0.21445967 0.27168214 0.00000000
-0.23799631 -0.66019219 0.00000000
0.58924407 0.49885818 0.05079282
0.54679918 -0.07674789 0.00000000
-0.10717088 -0.26380685 0.00000000
-0.21893169 0.62438786 0.00000000
-0.00682722 0.52503669 0.00000000
-0.75094336 0.08359363 0.00000000
-0.34894729 0.65407842 0.00000000
-0.59110838 0.58109349 0.00000000
0.36117715 0.67046672 0.04083908
0.66489053 -0.74516416 0.00000000
0.23141754 -0.36994565 0.00000000
0.07888367 0.14089780 0.00000000
-0.01664945 -0.28272966 0.00000000
-0.76299745 0.45730302 0.00000000
0.30085430 0.39158067 0.00000000
0.18179753 0.68556017 0.01187525
0.00646359 0.12686989 0.00000000
0.41644424 -0.30511194 0.00000000
0.48810744 0.54882568 0.04177163
-0.73767680 0.29247066 0.00000000
0.52959836 0.52332735 0.04459114
-0.40381560 0.51019168 0.00000000
-0.77910954 0.34835291 0.00000000
0.10541101 -0.75390303 0.00000000
0.79231864 -0.14285958 0.00000000
-0.51049829 0.44401601 0.00000000
-0.69368398 0.77635199 0.00000000
-0.03142812 -0.24461521 0.00000000
0.36103827 0.39542198 0.00000000
-0.56468707 0.78414375 0.00000000
0.59477037 -0.63192463 0.00000000
0.06755729 -0.34777939 0.00000000
-0.29016563 0.50277519 0.00000000
0.70134652 -0.50290924 0.00000000
-0.36781380 -0.76294774 0.00000000
-0.49402454 -0.60695201 0.00000000
-0.38194036 -0.59263408 0.00000000
0.10635811 0.73114824 0.00661242
0.39490196 -0.46345109 0.00000000
0.62546968 0.31634262 0.02500170
-0.64182353 -0.66548795 0.00000000
-0.59499323 -0.23762783 0.00000000
-0.36054766 -0.26801020 0.00000000
0.69683123 0.30067185 0.03482006
-0.26512319 0.66576135 0.00000000
0.54953861 0.03857062 0.00000000
-0.48002249 0.49708775 0.00000000
0.76387119 -0.57968819 0.00000000
-0.45207214 0.55186170 0.00000000
-0.54874867 0.02763361 0.00000000
0.77165002 -0.64275348 0.00000000
-0.68186164 -0.16459793 0.00000000
0.11382145 -0.48811677 0.00000000
0.19716197 -0.17047988 0.00000000
0.08779883 0.24306493 0.00000000
0.11166483 0.38001579 0.00000000
0.02064232 0.29381728 0.00000000
-0.47856754 -0.74078274 0.00000000
0.35518596 -0.10967854 0.00000000
-0.08723777 -0.43670940 0.00000000
0.78317499 0.36314252 0.06105626
0.44222504 0.29223260 0.00000000
0.52291512 0.41580486 0.02445652
-0.78340471 0.68728209 0.00000000
-0.03229844 0.79133707 0.00000000
-0.23745096 0.70246649 0.00000000
-0.76148891 -0.04704406 0.00000000
-0.57963443 -0.05754082 0.00000000
-0.76314819 0.28583419 0.00000000
0.15240866 -0.06069411 0.00000000
-0.54185277 -0.26280835 0.00000000
-0.47426701 0.78375119 0.00000000
-0.52746838 0.50309646 0.00000000
0.65222049 -0.10113706 0.00000000
0.04565925 -0.61241060 0.00000000
-0.51502067 0.67255163 0.00000000
0.33150697 0.19390491 0.00000000
0.21760905 -0.26896045 0.00000000
-0.60198319 -0.48051387 0.00000000
-0.05385966 0.76341432 0.00000000
-0.77335787 -0.64026129 0.00000000
0.52370906 0.63928241 0.06399577
0.34687468 -0.03694751 0.00000000
0.36873907 -0.11451938 0.00000000
0.41919529 0.05468894 0.00000000
-0.78282928 -0.08272546 0.00000000
-0.45685905 -0.62911487 0.00000000
-0.37672231 -0.44003680 0.00000000
-0.26423740 -0.61435378 0.00000000
0.20779513 -0.75094306 0.00000000
0.76908475 -0.70501417 0.00000000
0.45371422 -0.21654899 0.00000000
-0.74175692 -0.18052560 0.00000000
-0.75714642 -0.59000665 0.00000000
-0.58187532 0.77225041 0.00000000
-0.06229651 0.54505783 0.00000000
-0.30496791 -0.72785932 0.00000000
-0.76392287 -0.71238589 0.00000000
-0.13803257 -0.56714958 0.00000000
-0.21733409 -0.22282599 0.00000000
-0.16417275 -0.19347382 0.00000000
-0.77005535 -0.20434420 0.00000000
-0.12206748 0.05817631 0.00000000
-0.61248600 -0.15988508 0.00000000
-0.64034241 0.48676997 0.00000000
-0.55021012 -0.58035219 0.00000000
0.02401130 -0.67812550 0.00000000
-0.02345583 0.42003906 0.00000000
-0.59817678 0.28071949 0.00000000
0.71301949 -0.58777684 0.00000000
0.78415722 -0.08976309 0.00000000
0.26784492 0.31168735 0.00000000
0.61423534 0.03357921 0.00000000
0.16390073 0.68541300 0.00869408
-0.48244959 0.11511366 0.00000000
0.43882245 -0.12090641 0.00000000
-0.39948079 0.47402877 0.00000000
0.07699213 -0.37197223 0.00000000
0.05403662 -0.33628225 0.00000000
-0.10024163 -0.02201681 0.00000000
0.54420996 0.37543824 0.02109413
0.49002844 0.65268809 0.06042126
-0.35919476 0.12166497 0.00000000
-0.62232023 -0.64846468 0.00000000
0.40268895 0.63647234 0.04216445
0.59685439 0.55071825 0.06127752
0.06732104 0.38752162 0.00000000
-0.67365909 -0.54619962 0.00000000
0.75139034 0.10489156 0.00992257
-0.09433646 0.78570414 0.00000000
0.04995850 0.09753788 0.00000000
-0.50374496 -0.58921731 0.00000000
-0.34977093 -0.19542243 0.00000000
0.28644538 -0.66711062 0.00000000
-0.78506988 0.18688808 0.00000000
-0.65091550 -0.61502731 0.00000000
-0.14446057 -0.39056879 0.00000000
0.53920972 0.10995927 0.00000000
-0.25811896 -0.08275545 0.00000000
-0.30952534 0.21730693 0.00000000
0.00148080 0.33414978 0.00000000
-0.19820653 -0.21238068 0.00000000
0.08162083 -0.23122202 0.00000000
0.20815207 -0.29483494 0.00000000
-0.63949060 0.27857149 0.00000000
0.67918056 -0.53243077 0.00000000
0.22807822 -0.54825073 0.00000000
0.51504040 0.17674407 0.00000000
-0.52085644 0.48043743 0.00000000
-0.77551955 -0.46450511 0.00000000
0.29858512 -0.21585543 0.00000000
0.69326770 -0.64509332 0.00000000
0.00739545 -0.12287846 0.00000000
-0.49217191 0.43372807 0.00000000
-0.04565346 0.71942168 0.00000000
-0.77207911 -0.32117772 0.00000000
0.65748501 0.29182285 0.02632318
0.14923231 0.17805769 0.00000000
-0.41030854 -0.27867320 0.00000000
0.42397800 0.61420143 0.04199136
-0.54565972 -0.19910149 0.00000000
0.72586894 -0.73605376 0.00000000
-0.76957130 0.51535344 0.00000000
-0.49385655 0.47000530 0.00000000
-0.02683366 0.76046062 0.00000000
0.39447451 -0.23628353 0.00000000
0.33582029 0.79454619 0.05824379
0.28414455 -0.45651487 0.00000000
-0.50948155 -0.21036980 0.00000000
-0.10465734 -0.16265483 0.00000000
-0.41597614 0.15252928 0.00000000
-0.61804056 0.46564141 0.00000000
0.70970255 -0.33594376 0.00000000
-0.70201927 0.33828795 0.00000000
-0.36954045 0.19071576 0.00000000
0.67892110 -0.77757978 0.00000000
-0.64420432 -0.63584840 0.00000000
0.72199970 -0.39836690 0.00000000
-0.22903934 0.60451090 0.00000000
0.56114650 -0.68361938 0.00000000
0.54030484 0.62289768 0.06403299
-0.39344341 -0.55934173 0.00000000
0.01346144 -0.48205441 0.00000000
-0.18685655 -0.60064083 0.00000000
0.24258941 -0.02121596 0.00000000
0.11846286 0.06200928 0.00000000
0.00651598 -0.29343382 0.00000000
-0.50213951 0.65749687 0.00000000
0.77169555 -0.19037801 0.00000000
-0.58848882 0.57541084 0.00000000
-0.12990184 0.62902397 0.00000000
-0.61497837 0.32628047 0.00000000
0.52838206 -0.56598699 0.00000000
-0.09916202 0.66116798 0.00000000
-0.52776498 -0.58494413 0.00000000
-0.13331036 -0.73970574 0.00000000
0.32969376 0.05864767 0.00000000
0.29458770 -0.43114448 0.00000000
0.39940590 -0.41167349 0.00000000
-0.23717304 -0.40783685 0.00000000
0.12448901 0.75985116 0.01486926
-0.05816938 -0.64962286 0.00000000
-0.57530624 -0.36217493 0.00000000
-0.54037517 0.32704237 0.00000000
-0.05031200 -0.50640559 0.00000000
0.47213072 0.37015200 0.00745450
0.30782664 0.68912721 0.03472319
-0.73667502 0.32641667 0.00000000
0.12837794 -0.44334394 0.00000000
0.18479505 0.75393003 0.02445736
0.71706426 -0.70198208 0.00000000
0.63491774 -0.00173974 0.00000000
0.56238133 -0.55197448 0.00000000
-0.62785625 0.79414475 0.00000000
-0.42559108 -0.06224078 0.00000000
-0.24888609 -0.36187789 0.00000000
0.49259627 0.73731107 0.07579296
0.30046877 -0.06366393 0.00000000
-0.31825143 -0.26348528 0.00000000
0.50617528 -0.30243620 0.00000000
-0.52977014 0.29246089 0.00000000
0.47986314 0.44418517 0.02186989
-0.53418082 -0.57009012 0.00000000
0.30770531 -0.13813715 0.00000000
-0.67459643 -0.21221299 0.00000000
0.01620173 0.46537533 0.00000000
-0.72803938 0.74221969 0.00000000
-0.46241307 -0.27812591 0.00000000
0.12550116 -0.11106330 0.00000000
-0.54176760 -0.40126500 0.00000000
0.54294187 -0.57537347 0.00000000
0.73618108 0.15463729 0.01601140
0.77169561 0.55226082 0.09237407
0.39227128 -0.01842627 0.00000000
-0.76056701 0.45864964 0.00000000
-0.42547911 0.00394812 0.00000000
-0.07743545 -0.01562878 0.00000000
0.63098240 0.34193397 0.03048539
-0.63174963 0.45977867 0.00000000
-0.73954254 0.67251998 0.00000000
0.10891303 0.58947176 0.00000000
0.48504591 -0.43575954 0.00000000
0.35198665 -0.67965609 0.00000000
-0.68258923 0.15132789 0.00000000
-0.38593486 -0.23727065 0.00000000
0.43353418 0.56120515 0.03433281
0.60093451 0.41600394 0.03824655
0.41378504 0.72791797 0.06024250
-0.48227379 0.38381267 0.00000000
-0.38411194 -0.48325047 0.00000000
-0.22313698 0.42773670 0.00000000
0.43251041 0.19713776 0.00000000
-0.45915839 -0.49527121 0.00000000
-0.59565622 0.70901710 0.00000000
0.25292119 0.77127975 0.03952677
0.58273292 -0.18329692 0.00000000
0.11650754 0.17752339 0.00000000
0.31072849 0.65348721 0.02895145
-0.18878014 0.32599244 0.00000000
0.32973218 -0.50096881 0.00000000
0.04971946 0.68567455 0.00000000
0.63531411 -0.19121195 0.00000000
0.45238200 -0.05314969 0.00000000
-0.06961525 -0.77417624 0.00000000
-0.21923415 -0.46321905 0.00000000
0.07062025 0.31635576 0.00000000
0.61126822 0.27123269 0.01454503
0.50649554 -0.07790941 0.00000000
-0.58190566 0.14356866 0.00000000
-0.51751667 0.14122777 0.00000000
-0.60269713 -0.12428748 0.00000000
0.75590116 0.45023176 0.07160179
-0.34614980 -0.12988894 0.00000000
-0.30739841 0.59243476 0.00000000
0.00451039 0.78825259 0.00000000
-0.16148844 -0.01097939 0.00000000
-0.45468143 -0.33367348 0.00000000
-0.45032710 0.46387836 0.00000000
-0.43483710 0.35243082 0.00000000
0.09758661 0.79145223 0.01569760
0.69300324 -0.65705514 0.00000000
0.77820498 0.09762016 0.01336808
-0.34916499 -0.45862415 0.00000000
-0.12254253 0.77239835 0.00000000
-0.55337429 0.45944729 0.00000000
-0.32189772 -0.15375014 0.00000000
-0.24818297 0.41127291 0.00000000
-0.65802914 -0.39356938 0.00000000
-0.01659190 -0.14462785 0.00000000
-0.72539032 0.68463993 0.00000000
0.31098425 0.75892419 0.04758504
-0.71315116 -0.65333766 0.00000000
-0.18898498 0.43297291 0.00000000
0.17964962 -0.68887228 0.00000000
0.35431451 -0.26023528 0.00000000
-0.40510592 -0.20199288 0.00000000
0.24411424 -0.28849694 0.00000000
0.00869198 0.51127285 0.00000000
-0.47635323 0.06426868 0.00000000
-0.34727344 0.65791315 0.00000000
-0.36455908 0.12025166 0.00000000
-0.35490766 0.03454619 0.00000000
0.37623426 0.21829255 0.00000000
0.61165190 0.49998984 0.05494286
0.17191482 0.49486747 0.00000000
-0.04273365 0.35966429 0.00000000
-0.20982806 -0.22516617 0.00000000
-0.05369562 -0.63212293 0.00000000
-0.22968192 0.74077278 0.00000000
-0.27067369 -0.77094674 0.00000000
0.79379594 0.27322379 0.04707594
0.29384670 -0.55919719 0.00000000
0.09837966 -0.61293614 0.00000000
-0.39863554 -0.62415522 0.00000000
0.13793263 -0.74816012 0.00000000
-0.40257469 -0.58903331 0.00000000
-0.75529897 0.72729969 0.00000000
-0.10605519 -0.75761056 0.00000000
-0.33401549 0.19031082 0.00000000
0.12121023 -0.25827926 0.00000000
0.50010371 -0.08597081 0.00000000
0.43510520 0.60860890 0.04296713
-0.35921833 0.60790133 0.00000000
0.47828078 0.03919285 0.00000000
-0.18923296 0.12390208 0.00000000
-0.05355835 -0.61022449 0.00000000
-0.14387435 -0.62745839 0.00000000
0.13394007 0.70271784 0.00646284
-0.25699022 -0.74129623 0.00000000
-0.65232915 -0.18880218 0.00000000
0.13606587 0.19035587 0.00000000
0.39167571 -0.06628591 0.00000000
0.01733215 0.31194508 0.00000000
0.76205945 0.60349119 0.09970709
0.13316596 0.21282925 0.00000000
0.26727647 0.50861007 0.00000000
-0.23336127 0.79372960 0.00000000
0.38462886 -0.79083955 0.00000000
0.68732274 0.13880751 0.00460680
0.09574207 0.15590015 0.00000000
0.24966654 -0.03951124 0.00000000
0.19281618 0.44287896 0.00000000
-0.09184463 0.31883758 0.00000000
-0.03147238 -0.07148691 0.00000000
-0.28173104 -0.05984407 0.00000000
0.44403455 -0.56349307 0.00000000
0.47641972 -0.27545908 0.00000000
-0.29791903 0.52094388 0.00000000
0.43775743 -0.06506888 0.00000000
-0.23909871 0.48498809 0.00000000
0.39312288 0.53681755 0.02290868
0.32162669 -0.08896763 0.00000000
-0.34505504 -0.18534748 0.00000000
0.41559160 0.14320001 0.00000000
0.22514908 0.61379337 0.00686561
0.21930119 -0.47214103 0.00000000
0.50842524 0.04708509 0.00000000
-0.74907219 0.11246723 0.00000000
-0.36420169 0.28940302 0.00000000
-0.29121086 -0.38721237 0.00000000
-0.63011235 -0.21629182 0.00000000
0.44509003 -0.58462048 0.00000000
0.16655584 0.58380288 0.00000000
0.23132733 -0.58165514 0.00000000
-0.75170112 -0.56763089 0.00000000
-0.78007287 0.45163131 0.00000000
0.60767812 -0.71281767 0.00000000
0.29104683 -0.78256452 0.00000000
0.65600312 -0.30772942 0.00000000
-0.16521715 -0.72565609 0.00000000
-0.63609213 -0.22250451 0.00000000
0.07717932 -0.57941747 0.00000000
-0.40646917 0.44127432 0.00000000
0.58994526 -0.68065405 0.00000000
-0.68698603 -0.72336626 0.00000000
0.73935491 0.17223680 0.01967377
-0.12602703 -0.34995565 0.00000000
-0.47104165 0.41346884 0.00000000
0.79742128 -0.30870891 0.00000000
-0.38567111 0.13990080 0.00000000
0.63270003 0.11719947 0.00000000
0.31254983 0.19973773 0.00000000
0.63821810 0.49571350 0.05887260
-0.30602929 0.12878679 0.00000000
-0.61650807 0.44999516 0.00000000
-0.15525965 0.04014178 0.00000000
0.11571388 0.28804663 0.00000000
0.06005057 -0.29060870 0.00000000
-0.02408527 0.13202724 0.00000000
0.25621903 0.10067200 0.00000000
-0.31463253 0.07068240 0.00000000
0.58090055 -0.65740931 0.00000000
-0.52671701 0.75205529 0.00000000
0.39250833 -0.62221694 0.00000000
-0.12673450 0.31804505 0.00000000
0.28966948 0.76220363 0.04440540
-0.36630809 -0.70739990 0.00000000
-0.69328213 0.15105307 0.00000000
0.22924227 -0.57186997 0.00000000
-0.41388386 -0.50250399 0.00000000
-0.19118945 0.65060711 0.00000000
-0.13965280 0.44241875 0.00000000
-0.39027134 0.62648737 0.00000000
0.05520856 -0.45040917 0.00000000
0.13334760 0.29409820 0.00000000
0.52436072 0.63759100 0.06381246
-0.19657686 -0.40725955 0.00000000
0.26987883 -0.59253842 0.00000000
0.62912804 -0.26674339 0.00000000
0.78413200 -0.06393427 0.00000000
-0.06245576 -0.61105567 0.00000000
-0.49538273 -0.19388375 0.00000000
-0.63976902 -0.31055000 0.00000000
0.52458501 -0.17540209 0.00000000
-0.77053970 0.01227008 0.00000000
0.75586480 0.71094161 0.11755842
0.44056877 -0.19389290 0.00000000
-0.77117842 -0.59107667 0.00000000
-0.56028664 -0.44326746 0.00000000
0.54604894 -0.31140974 0.00000000
-0.24673860 0.74117935 0.00000000
0.63156718 0.35613456 0.03309207
-0.13818297 -0.56357509 0.00000000
-0.60631108 -0.03659505 0.00000000
0.51941144 -0.68949550 0.00000000
0.51939374 0.20941439 0.00000000
0.30175033 0.57626128 0.01375355
0.45094168 0.41331312 0.01132821
0.05172405 -0.37744448 0.00000000
-0.68243527 0.52277243 0.00000000
-0.09273736 -0.63655269 0.00000000
0.47479618 -0.13272031 0.00000000
0.36071271 0.56774205 0.02264675
0.24290089 0.73078901 0.03062169
-0.44382274 0.31878966 0.00000000
0.33077425 -0.70735496 0.00000000
-0.63593966 0.19523217 0.00000000
0.38672057 0.77936828 0.06454168
0.27344599 0.07515288 0.00000000
0.27304116 0.09102163 0.00000000
0.71144104 -0.38432589 0.00000000
0.61892408 0.40456027 0.03940060
0.55260664 0.08774384 0.00000000
0.60539436 -0.31212342 0.00000000
-0.60271031 -0.15484177 0.00000000
-0.20259939 0.41229895 0.00000000
-0.49448535 -0.44754761 0.00000000
-0.67166883 -0.56135291 0.00000000
0.08383454 -0.01722904 0.00000000
-0.60891259 0.70106626 0.00000000
0.14172983 -0.66146797 0.00000000
0.67430240 0.17965510 0.00951278
0.52912146 -0.37629640 0.00000000
-0.05972616 -0.08914574 0.00000000
0.44594583 -0.76518399 0.00000000
-0.46382770 -0.04158428 0.00000000
0.47072718 0.09905028 0.00000000
-0.26026529 0.38527513 0.00000000
0.51185542 0.09420631 0.00000000
0.21021360 0.08504933 0.00000000
0.07424406 0.41132790 0.00000000
-0.48243126 0.53316492 0.00000000
-0.62904817 0.76491708 0.00000000
0.69611728 -0.09772535 0.00000000
0.09218639 -0.27595982 0.00000000
0.57003331 0.00572765 0.00000000
-0.28289133 0.32981369 0.00000000
0.13827075 0.13520910 0.00000000
-0.77112180 0.48998350 0.00000000
0.61628985 0.66651571 0.08511902
-0.03901610 0.50692606 0.00000000
0.59651667 -0.52626634 0.00000000
0.48208711 0.34587201 0.00492923
0.58147836 -0.12684163 0.00000000
0.26595071 0.61039966 0.01346067
0.45261613 -0.15830070 0.00000000
0.35559320 -0.35260338 0.00000000
0.08674458 0.10660142 0.00000000
-0.13310322 0.30958191 0.00000000
0.36330566 0.27191070 0.00000000
-0.17630997 -0.08664231 0.00000000
0.57956684 0.53985399 0.05631433
0.24017537 0.60988516 0.00882574
0.65235418 0.25887606 0.01961005
0.59728956 -0.15758552 0.00000000
-0.30261707 -0.43960047 0.00000000
0.14375705 0.17643575 0.00000000
-0.77002847 0.02725928 0.00000000
0.33030859 -0.58862060 0.00000000
-0.39295486 0.58352160 0.00000000
-0.11316116 0.14417882 0.00000000
-0.48971808 0.77499586 0.00000000
0.38503030 0.23700564 0.00000000
-0.20033680 0.77074277 0.00000000
0.46105385 0.14589430 0.00000000
-0.04587814 0.72657984 0.00000000
0.05724507 0.04174474 0.00000000
-0.71534145 -0.10764946 0.00000000
0.58045709 0.43146896 0.03736285
0.67977399 0.52311319 0.07102954
0.33495915 -0.63021976 0.00000000
0.73376095 -0.20739426 0.00000000
-0.74858832 0.10644752 0.00000000
-0.68837440 0.17549726 0.00000000
-0.13391902 0.18890497 0.00000000
0.35474136 0.38371217 0.00000000
-0.73240870 0.07657483 0.00000000
0.66161823 -0.08047959 0.00000000
-0.48674431 0.02075353 0.00000000
0.25096905 -0.00598761 0.00000000
0.35597548 0.68782264 0.04298186
0.10831563 0.13925821 0.00000000
0.11133627 -0.47684175 0.00000000
-0.46907130 -0.35482571 0.00000000
0.46694446 -0.64663845 0.00000000
0.11584211 0.14122523 0.00000000
-0.40597561 0.12653072 0.00000000
-0.51600647 0.00984793 0.00000000
-0.11773459 -0.24299113 0.00000000
-0.38567463 -0.73644960 0.00000000
-0.51832306 0.13271876 0.00000000
-0.09013056 0.73971003 0.00000000
-0.53175515 0.28924254 0.00000000
-0.17269945 0.60808414 0.00000000
0.22096311 -0.29548636 0.00000000
0.46119162 -0.03569819 0.00000000
0.68297774 0.10658889 0.00000000
-0.62791955 0.40026352 0.00000000
0.30054596 0.41759077 0.00000000
0.05553274 0.63015372 0.00000000
0.32879043 0.45422876 0.00000000
0.12734160 -0.18177953 0.00000000
0.39370835 -0.66233319 0.00000000
-0.46023548 -0.58173794 0.00000000
0.35437354 -0.02688173 0.00000000
-0.16895732 0.66057688 0.00000000
-0.50741214 -0.39504209 0.00000000
-0.30707183 -0.25679168 0.00000000
0.49340159 -0.28159469 0.00000000
0.42112729 0.21758302 0.00000000
-0.33863661 0.21123663 0.00000000
0.62713045 -0.24891335 0.00000000
0.68406886 -0.75320035 0.00000000
0.47668520 -0.09623207 0.00000000
-0.44586697 -0.09159198 0.00000000
-0.31326792 -0.27046531 0.00000000
-0.11122204 0.21125595 0.00000000
-0.52995628 0.07706296 0.00000000
0.65862423 0.00142815 0.00000000
0.22161718 0.75375623 0.03091847
-0.13297246 -0.77163422 0.00000000
0.61646593 0.57382417 0.06880861
-0.09461504 -0.18946987 0.00000000
-0.73736072 0.00237429 0.00000000
0.25040460 -0.37651795 0.00000000
-0.48010445 -0.09037956 0.00000000
-0.14835180 0.53898048 0.00000000
0.70105737 0.23286819 0.02361126
-0.49028364 -0.55388224 0.00000000
0.32995623 0.47792974 0.00139030
0.29356444 -0.19289523 0.00000000
0.31395629 0.36516997 0.00000000
0.77387893 0.52473837 0.08790681
0.48198509 0.28552806 0.00000000
0.51176232 0.74749953 0.08096816
0.17265230 0.50451738 0.00000000
0.01711291 -0.60582668 0.00000000
0.63774973 0.34914920 0.03295054
-0.72416061 -0.66110724 0.00000000
-0.59082943 0.74046785 0.00000000
0.11697125 -0.14584190 0.00000000
0.75522023 0.11482629 0.01234930
-0.73316962 0.40165365 0.00000000
0.75279701 0.40589073 0.06323714
-0.25375772 0.03005626 0.00000000
-0.70451772 -0.76355517 0.00000000
-0.67721033 -0.30599567 0.00000000
0.18967132 -0.38737887 0.00000000
0.65049201 0.12394071 0.00000000
-0.33659935 0.16166949 0.00000000
-0.09211961 0.65299350 0.00000000
0.09733265 -0.33720654 0.00000000
-0.62673378 -0.36616912 0.00000000
0.54147571 -0.45116243 0.00000000
0.04191509 -0.36082044 0.00000000
-0.79641342 0.33388951 0.00000000
0.42806259 0.58276862 0.03716983
-0.20487778 -0.67244053 0.00000000
-0.75503689 0.20806611 0.00000000
-0.70948488 0.04324988 0.00000000
0.36817354 0.74140626 0.05457914
-0.22432709 -0.69160134 0.00000000
-0.07447642 0.12671328 0.00000000
-0.21231280 0.60480076 0.00000000
-0.07932454 0.31487250 0.00000000
-0.42704251 0.30692989 0.00000000
0.46171987 -0.08614656 0.00000000
0.58826733 0.05126616 0.00000000
0.57106072 -0.17925994 0.00000000
-0.49176103 0.58234203 0.00000000
0.05655101 0.38831428 0.00000000
0.13856168 -0.56449229 0.00000000
-0.46483517 0.43156308 0.00000000
-0.51386583 -0.31209803 0.00000000
-0.24146089 -0.32253131 0.00000000
0.19262329 0.21078946 0.00000000
0.65648800 -0.27418813 0.00000000
0.29792053 0.11314404 0.00000000
0.65127718 -0.78434438 0.00000000
-0.17116714 0.31177524 0.00000000
-0.13891317 0.55695057 0.00000000
0.13037108 -0.75073904 0.00000000
-0.05675482 0.34709725 0.00000000
-0.01128115 -0.22251005 0.00000000
-0.29636964 0.44344753 0.00000000
-0.48929840 -0.79515058 0.00000000
-0.64865959 -0.54239047 0.00000000
-0.41700584 0.31590831 0.00000000
-0.14073439 -0.51749325 0.00000000
-0.51896697 0.71256125 0.00000000
0.44674581 -0.69432181 0.00000000
-0.47637117 -0.26446977 0.00000000
-0.31898934 -0.72418582 0.00000000
0.57433355 -0.51637119 0.00000000
0.44896448 0.49153370 0.02477002
-0.51116914 0.13122861 0.00000000
0.18850805 0.13392571 0.00000000
-0.41819674 -0.70610356 0.00000000
-0.55311644 -0.70242673 0.00000000
-0.22513732 -0.08686242 0.00000000
0.68147177 0.62336159 0.08900259
-0.73159647 0.43696022 0.00000000
-0.45159993 -0.66273475 0.00000000
-0.09911484 -0.09380728 0.00000000
-0.62727970 0.15772645 0.00000000
0.31348026 0.12471891 0.00000000
-0.21877930 0.24291962 0.00000000
-0.60784608 -0.50253731 0.00000000
0.26951885 0.13088007 0.00000000
0.56853956 0.40906897 0.03131262
-0.54832774 -0.23303764 0.00000000
0.15683410 0.12300315 0.00000000
-0.73265696 0.10399191 0.00000000
0.06833118 -0.08919504 0.00000000
0.31207830 0.49261028 0.00082660
-0.78536087 -0.52079308 0.00000000
-0.07092143 -0.06992677 0.00000000
-0.61901933 0.55582041 0.00000000
-0.39352560 0.17543444 0.00000000
-0.49200729 -0.22861862 0.00000000
-0.43935028 0.63389957 0.00000000
-0.66052675 0.12427650 0.00000000
0.33087888 -0.74357992 0.00000000
-0.50009418 -0.08693312 0.00000000
0.00149191 -0.26170170 0.00000000
-0.72860366 -0.05169672 0.00000000
0.12890390 0.48629028 0.00000000
0.27472106 0.42538068 0.00000000
0.64256036 0.19065946 0.00585670
0.73325783 -0.19137436 0.00000000
0.37044692 -0.28160617 0.00000000
0.44446525 0.68112803 0.05740240
-0.47272840 -0.35296637 0.00000000
-0.00149849 -0.14566819 0.00000000
0.22056164 -0.69292510 0.00000000
-0.16484372 -0.29838234 0.00000000
0.44135106 -0.66877604 0.00000000
0.27921849 0.23816264 0.00000000
-0.70945579 0.03600279 0.00000000
-0.61271518 -0.57011288 0.00000000
0.74606121 0.09492409 0.00722576
-0.29741284 0.52204633 0.00000000
0.00529310 -0.18345669 0.00000000
0.05098541 0.78229260 0.00586695
0.16732275 0.46318436 0.00000000
-0.40242893 0.54063827 0.00000000
-0.13356356 0.43871182 0.00000000
0.67877978 0.27464178 0.02704843
-0.22869793 -0.19150887 0.00000000
0.24618366 -0.52690101 0.00000000
-0.30140874 -0.62971097 0.00000000
-0.36503541 0.01794209 0.00000000
-0.61011827 0.27648076 0.00000000
0.44004408 0.66427433 0.05365165
-0.44228438 -0.74727309 0.00000000
-0.17302626 -0.20202594 0.00000000
0.23432098 0.60092658 0.00621419
0.14079788 0.74604660 0.01531079
-0.20626892 0.58462286 0.00000000
-0.62127537 0.20159926 0.00000000
0.31760564 -0.62781096 0.00000000
-0.58285540 0.43669954 0.00000000
0.70540911 -0.39911512 0.00000000
0.63820040 -0.12763906 0.00000000
-0.78981936 0.69878578 0.00000000
-0.08712519 -0.28731346 0.00000000
-0.67486340 -0.50101787 0.00000000
-0.08094695 -0.28470901 0.00000000
0.29180554 0.73001140 0.03910652
0.05204685 0.27095005 0.00000000
-0.66957629 -0.58189833 0.00000000
0.69018388 -0.18468684 0.00000000
-0.37901178 0.65309066 0.00000000
-0.39304024 -0.51486337 0.00000000
0.71936607 -0.27710885 0.00000000
-0.57542843 0.27318200 0.00000000
-0.16313037 0.05559782 0.00000000
0.45441714 0.12824509 0.00000000
0.45514444 -0.03349451 0.00000000
0.07198746 0.48578051 0.00000000
-0.28687251 0.40770358 0.00000000
0.55498993 -0.45916820 0.00000000
-0.26236680 -0.60125494 0.00000000
-0.56678933 -0.07107484 0.00000000
0.55159163 0.70045239 0.07969571
0.04371418 0.55213952 0.00000000
0.56569499 -0.14502238 0.00000000
-0.08392983 -0.06556879 0.00000000
-0.55398703 -0.67315030 0.00000000
-0.62457478 0.57844466 0.00000000
-0.38228923 0.53434694 0.00000000
0.04181426 -0.18346457 0.00000000
-0.03912683 0.60090232 0.00000000
-0.25791433 0.00066563 0.00000000
0.62599427 -0.39358050 0.00000000
0.74980217 -0.54747128 0.00000000
-0.48148027 0.28125057 0.00000000
-0.46344131 0.26385844 0.00000000
0.43139464 -0.45930558 0.00000000
-0.48491073 0.52888852 0.00000000
0.53588700 0.42101732 0.02766245
-0.55694920 -0.64349669 0.00000000
-0.26490903 -0.17970058 0.00000000
0.01824596 -0.13762686 0.00000000
0.71897197 0.43134129 0.06176071
-0.41770303 -0.57647961 0.00000000
0.03253250 0.76913577 0.00029411
0.70192623 -0.29065889 0.00000000
-0.45540631 -0.31762931 0.00000000
-0.23868360 0.35898635 0.00000000
-0.38079396 0.46335500 0.00000000
0.57243162 0.25062728 0.00406531
0.62903464 0.33052927 0.02813133
-0.22741139 -0.66298747 0.00000000
-0.01702103 -0.61533755 0.00000000
0.70769364 0.44027540 0.06134742
0.00699116 0.69840091 0.00000000
0.67062604 -0.26446328 0.00000000
-0.38740325 0.43258756 0.00000000
-0.06385585 0.27466998 0.00000000
-0.44424888 0.10970117 0.00000000
-0.06076685 -0.24105383 0.00000000
-0.53388858 -0.01201320 0.00000000
-0.20860334 -0.37613386 0.00000000
-0.26066804 0.57831854 0.00000000
0.65354407 0.09686384 0.00000000
0.48015249 -0.28273058 0.00000000
-0.05491511 -0.19586401 0.00000000
0.75360280 0.55762422 0.09012986
-0.31618142 -0.27849460 0.00000000
0.12108709 -0.27660078 0.00000000
0.34088987 0.77927458 0.05644518
-0.23837504 -0.06399826 0.00000000
0.31645122 -0.37962750 0.00000000
-0.47075769 -0.63497156 0.00000000
0.46904087 -0.18690726 0.00000000
-0.12578639 -0.07657840 0.00000000
0.47966263 0.17970701 0.00000000
0.44920540 0.16348322 0.00000000
0.73336238 0.67742383 0.10768207
-0.52067566 -0.36056334 0.00000000
-0.35370088 -0.36024675 0.00000000
-0.36756507 0.68309098 0.00000000
0.77401799 0.30545908 0.04927219
0.74981070 -0.02318195 0.00000000
0.66401476 0.15103692 0.00265363
-0.10350771 -0.33519685 0.00000000
-0.31811684 0.28238806 0.00000000
0.07626188 0.72387445 0.00002403
0.34448490 -0.60045695 0.00000000
-0.43066141 -0.12522973 0.00000000
0.02793358 -0.78833610 0.00000000
0.25340080 0.67493439 0.02262567
-0.30281952 -0.53231740 0.00000000
-0.55520850 0.57159328 0.00000000
0.30667776 -0.36685213 0.00000000
-0.49629998 -0.73179376 0.00000000
-0.74556035 0.51863974 0.00000000
0.37812138 -0.77605903 0.00000000
0.56431460 -0.12855099 0.00000000
0.09868118 -0.74964964 0.00000000
-0.44740295 -0.15216359 0.00000000
-0.21367712 -0.69815886 0.00000000
0.15573530 0.12526651 0.00000000
-0.13309115 -0.74670303 0.00000000
-0.27428803 0.40841642 0.00000000
-0.11384488 -0.30215105 0.00000000
0.42789707 -0.18223344 0.00000000
-0.52406627 0.04713229 0.00000000
-0.51122463 -0.06839704 0.00000000
-0.40661454 0.37961301 0.00000000
-0.57924283 -0.67278743 0.00000000
0.78399807 0.19810919 0.03210577
-0.21238291 0.58480173 0.00000000
-0.23513941 0.38660216 0.00000000
-0.58032715 0.62334609 0.00000000
-0.44191894 0.66359740 0.00000000
-0.51966161 0.27291733 0.00000000
-0.29774711 -0.31475887 0.00000000
-0.48467425 -0.31795168 0.00000000
-0.56122166 -0.57932681 0.00000000
-0.37266988 -0.36642763 0.00000000
-0.74872053 0.61770105 0.00000000
0.51272243 0.68577003 0.07025457
-0.24013829 0.50507146 0.00000000
-0.12668227 0.70264012 0.00000000
0.39983618 -0.40904579 0.00000000
-0.19456273 -0.68409920 0.00000000
0.45803544 0.73118579 0.06861998
-0.13893953 -0.29162943 0.00000000
