ply
format ascii 1.0
element vertex 1375
property float x
property float y
property float z
end_header
-0.43627793 -0.35210106 -0.00000028
-0.28456742 0.28263697 -0.00000060
-0.77758187 -0.71202505 0.00000000
0.02960109 0.57587022 0.00000220
-0.67143029 0.11756702 -0.00000016
-0.57101178 -0.26047182 -0.00000020
0.61412263 -0.14911875 -0.00000111
-0.24835543 -0.55964291 -0.00000015
-0.41725260 -0.70483595 -0.00000006
-0.67017984 -0.01243628 -0.00000014
-0.16985530 -0.40436906 -0.00000025
0.67699021 -0.23659904 -0.00000114
-0.72680444 -0.39324310 -0.00000001
0.00888651 0.13458180 0.00000968
0.60741407 0.06814622 0.00000048
-0.57062900 0.23209535 0.00611016
-0.56370306 -0.49605149 -0.00000016
0.55822039 -0.20320177 -0.00000083
0.58846176 -0.06241162 -0.00000120
-0.77921498 0.03203772 0.02523724
-0.23643690 -0.75315195 -0.00000003
-0.21486449 -0.42581758 -0.00000023
-0.29617333 0.27002892 -0.00000059
0.15485577 0.53700286 0.00000075
-0.37072596 -0.43786696 -0.00000023
-0.65515405 -0.31938675 -0.00000010
0.11913936 -0.21916804 -0.00000036
-0.00926555 0.55465901 -0.00000085
0.34082809 -0.70363528 -0.00000006
0.56316316 -0.53922200 -0.00000019
0.31964219 0.08806459 0.00000564
-0.27225745 0.65042353 0.27512130
0.32839996 0.19512907 0.00000355
0.32789403 -0.54276413 -0.00000016
0.44119826 0.13215807 0.00000252
-0.06283498 -0.72840446 -0.00000004
-0.48217174 -0.19433945 -0.00000030
-0.37388256 -0.26920992 -0.00000033
-0.15855113 0.04656571 -0.00000053
-0.46323529 0.46739122 0.29294097
-0.33328322 0.26282492 -0.00000055
-0.70961469 -0.12764890 -0.00000007
-0.05109299 -0.36730808 -0.00000027
0.02549433 -0.29185382 -0.00000032
-0.59723759 0.36096305 0.35477912
-0.72472733 -0.44863570 0.00000000
-0.49372414 0.32141125 0.03394249
-0.40175202 -0.72178733 -0.00000005
-0.34923893 0.43029612 -0.00000056
-0.55048895 0.38915455 0.31316292
-0.54333055 0.41565573 0.35654074
0.33000106 -0.06724174 -0.00000046
-0.61942267 -0.47401419 -0.00000011
-0.33244103 0.59208411 0.27925739
0.68233347 0.02377001 -0.00000017
0.23196614 -0.29999244 -0.00000031
0.04915756 0.53153002 0.00000262
0.26276803 -0.79198611 -0.00000001
0.00429551 -0.42433980 -0.00000023
0.41427001 -0.35498455 -0.00000028
-0.19281776 -0.63026792 -0.00000011
0.25237513 -0.16936956 -0.00000039
0.31210175 0.00524319 0.00000721
0.50826681 -0.35981578 -0.00000036
0.42572311 -0.03489622 -0.00000073
-0.33991930 -0.76733249 -0.00000002
-0.54742599 -0.13497347 -0.00000024
0.37176377 0.10407920 0.00000436
-0.57421052 -0.67579782 -0.00000008
-0.71523142 -0.32072306 -0.00000003
-0.12398207 -0.05088104 -0.00000047
-0.53102469 0.29486996 0.05807136
-0.67152900 0.16301823 0.07747637
-0.00318449 -0.76756614 -0.00000002
0.29077274 -0.76101619 -0.00000002
0.06008027 -0.09219042 -0.00000044
-0.78643560 -0.50986522 0.00000000
-0.10682148 -0.74268943 -0.00000004
-0.03340715 -0.24984340 -0.00000034
0.43337291 0.24946801 0.00000056
-0.60283381 0.34504998 0.33164272
-0.70122576 -0.13048381 -0.00000008
-0.01946423 0.33789322 -0.00000071
-0.22795631 0.16096322 -0.00000060
0.60833824 -0.23752938 -0.00000092
0.14396766 0.22164096 0.00000623
0.60412520 0.08020179 0.00000032
-0.52968627 0.31670070 0.10402707
-0.03585886 0.13431318 -0.00000058
0.24393632 -0.02673332 -0.00000048
-0.17951621 0.66278231 0.09485597
-0.56658965 0.39893979 0.37121451
-0.29984838 -0.60248142 -0.00000012
-0.74445480 -0.48892850 0.00000000
-0.28361568 0.43469316 -0.00000063
-0.23758727 -0.58903575 -0.00000013
-0.38752222 0.05531018 -0.00000045
-0.24836463 0.30621848 -0.00000064
-0.26815116 -0.57631153 -0.00000014
0.11434213 -0.18439671 -0.00000038
-0.47910041 0.03596697 -0.00000035
-0.18146592 0.67214161 0.12021738
-0.64514494 -0.24348737 -0.00000012
0.78869551 -0.17974345 -0.00000155
-0.30630162 0.60897356 0.25851336
0.34619275 0.23391409 0.00000252
0.51514024 -0.17785649 -0.00000074
-0.11898323 0.69518411 0.03176906
-0.52256560 0.38601956 0.24351166
-0.03433094 0.59863490 -0.00000087
-0.64617991 0.22696853 0.16404273
-0.47212291 -0.71326852 -0.00000005
-0.79787815 -0.17836381 0.00000000
-0.40517873 0.12979342 -0.00000045
-0.19637248 0.28554690 -0.00000068
-0.21282765 -0.64583433 -0.00000010
0.20419291 -0.76225191 -0.00000002
0.57639545 0.17271212 -0.00000081
0.12826321 0.22806717 0.00000636
-0.75232059 -0.62198681 0.00000000
-0.36490509 0.09080639 -0.00000048
-0.54847032 0.12101250 -0.00000029
0.22378708 -0.06658210 -0.00000046
-0.50551814 -0.45855689 -0.00000021
-0.22302619 -0.57028419 -0.00000014
-0.48404786 0.40551111 0.20084362
0.11891614 -0.67937696 -0.00000008
-0.29820085 0.13310768 -0.00000056
0.33777013 -0.22477765 -0.00000036
-0.69216532 -0.60885745 -0.00000000
-0.58708638 -0.66305071 -0.00000009
-0.52320862 0.29212260 0.03438188
-0.49784482 -0.37233770 -0.00000025
-0.65585065 0.03470959 -0.00000016
0.00400126 -0.59845519 -0.00000013
-0.72182232 0.12723830 0.11002429
-0.11365599 -0.17351352 -0.00000039
-0.52233130 -0.07891784 -0.00000028
-0.27687064 -0.26464620 -0.00000033
-0.35764268 -0.24545527 -0.00000035
-0.21971732 0.15640515 -0.00000060
-0.52458674 -0.11708631 -0.00000027
0.41230121 0.27097484 0.00000058
-0.58759457 0.27162039 0.13279530
0.64831227 0.02661802 0.00000044
-0.76912349 -0.15242602 -0.00000001
0.51275426 -0.66472977 -0.00000008
-0.52325618 0.41763976 0.31597140
-0.16115427 -0.08848303 -0.00000044
0.39784631 -0.22190677 -0.00000036
0.63552856 0.03618167 0.00000051
-0.50282615 0.47019643 0.38801819
-0.25495887 0.02376567 -0.00000051
-0.24499992 0.36275166 -0.00000066
-0.55574006 -0.25513658 -0.00000021
-0.39195043 0.37065449 -0.00000050
0.49042243 0.14817373 0.00000128
0.62216884 -0.00309746 -0.00000142
-0.27052498 0.22230248 -0.00000061
-0.50138807 0.11427970 -0.00000034
0.04362482 -0.70144081 -0.00000006
-0.36382300 0.44328734 0.01594478
0.14645085 -0.30671883 -0.00000031
0.32404682 -0.71892452 -0.00000005
-0.57280731 0.17245062 -0.00000027
-0.70949346 -0.40034291 -0.00000002
0.57014358 -0.45311019 -0.00000038
-0.56420988 0.18070067 -0.00000028
0.52329713 -0.15667447 -0.00000081
-0.60574156 -0.05719381 -0.00000020
-0.68365675 -0.33532017 -0.00000006
-0.07936367 0.73896217 0.04109460
0.70638108 -0.44589737 -0.00000083
-0.36581686 -0.51378500 -0.00000018
0.50566518 -0.72281677 -0.00000005
0.21223693 -0.77134466 -0.00000002
0.36440575 -0.04051854 -0.00000053
-0.51747692 0.37717760 0.21227102
0.20522569 0.34040403 0.00000331
-0.11704333 0.17633213 -0.00000061
0.17825820 0.01971754 0.00000899
0.30235326 -0.61790705 -0.00000011
0.21244660 -0.54649872 -0.00000016
-0.62739503 0.26765576 0.21316053
0.13264675 0.22415976 0.00000636
0.14780430 0.44299853 0.00000257
-0.79590553 -0.36634129 0.00000000
0.56197250 -0.30162242 -0.00000065
0.07935548 0.39651632 0.00000436
-0.49923402 0.47872233 0.39908257
0.14177927 -0.71774828 -0.00000005
-0.19887309 0.42306328 -0.00000072
0.15405083 0.54766059 0.00000057
0.20776471 0.18927231 0.00000579
0.08312450 0.67549133 -0.00000036
-0.13257913 -0.53661078 -0.00000016
0.30430517 -0.70768112 -0.00000006
-0.21992353 0.27209279 -0.00000067
0.71434003 -0.69096118 -0.00000027
0.29597190 0.35052410 0.00000139
-0.11329786 -0.59155756 -0.00000013
-0.54955322 -0.09933572 -0.00000025
-0.49572030 -0.34891155 -0.00000026
0.14694764 0.07288889 0.00000860
-0.65129519 -0.58600879 -0.00000005
-0.56783456 0.29073212 0.13134126
0.34626517 -0.65431023 -0.00000009
-0.75475729 -0.07577329 -0.00000003
0.29270321 -0.15741491 -0.00000040
0.00660702 -0.30953860 -0.00000031
0.06853159 0.04623053 0.00001021
0.22434112 0.05636163 0.00000770
-0.48772809 0.32456708 0.02757302
-0.11473952 0.13515206 -0.00000058
0.11982194 -0.41188410 -0.00000024
0.78101546 -0.48496780 -0.00000079
0.03966163 0.30454743 0.00000645
0.06524294 0.69010323 -0.00000028
-0.69685405 0.14328405 0.09001454
-0.02655103 0.29526851 -0.00000068
-0.10555055 0.49707049 -0.00000081
0.13485597 -0.60240525 -0.00000012
0.03751249 0.34088784 0.00000589
-0.34993356 0.37996146 -0.00000055
0.21819797 -0.71022350 -0.00000006
0.46966583 -0.72930461 -0.00000004
0.58059573 -0.74716598 -0.00000003
-0.76299447 -0.42020023 0.00000000
-0.08456937 0.53015560 -0.00000083
0.63331991 0.03570680 0.00000056
-0.06712095 0.26668653 -0.00000067
0.66129595 -0.51700836 -0.00000055
0.55867463 -0.20941234 -0.00000082
-0.46249866 0.49225852 0.34705618
-0.53488028 0.35766682 0.20754506
0.37289292 -0.23233774 -0.00000035
0.31343594 -0.09724353 -0.00000044
-0.37013850 -0.11881819 -0.00000043
-0.47004306 0.40096933 0.15925118
-0.52134645 -0.13264173 -0.00000027
-0.68656158 -0.45109126 -0.00000004
0.06227190 -0.49006546 -0.00000019
-0.57292169 -0.12282214 -0.00000022
-0.66436106 -0.59477544 -0.00000004
0.21456636 -0.52436680 -0.00000017
-0.30335829 0.21234432 -0.00000057
-0.67738032 -0.52683651 -0.00000003
-0.43596828 0.11508044 -0.00000041
-0.43870780 0.17774431 -0.00000042
0.62191278 -0.13813682 -0.00000116
-0.60429329 -0.24085267 -0.00000016
-0.08104236 -0.57441998 -0.00000014
0.42128840 -0.68001926 -0.00000007
-0.77386695 -0.12994032 -0.00000000
0.25582913 -0.28186780 -0.00000032
0.39555782 -0.19997939 -0.00000038
-0.01141291 -0.25498733 -0.00000034
-0.06464379 0.62617737 -0.00000089
-0.37438136 0.49585313 0.15750603
0.31022176 0.35016498 0.00000112
-0.55300015 -0.34619364 -0.00000020
-0.02742187 0.01875102 -0.00000051
-0.05719411 0.38148311 -0.00000074
-0.49063578 0.19438726 -0.00000037
0.73279870 -0.56927294 -0.00000058
-0.54087216 0.36747229 0.24297202
0.70412046 -0.76483154 -0.00000009
0.61286777 -0.68742234 -0.00000007
-0.13923369 -0.12922218 -0.00000042
0.38389111 -0.42569515 -0.00000023
-0.05720884 0.34219426 -0.00000071
0.02609688 0.23840250 0.00000773
0.37909254 0.19150013 0.00000265
-0.48986462 0.11325718 -0.00000035
0.29978922 0.19477373 0.00000411
-0.73686111 -0.13028184 -0.00000004
-0.75567430 0.01296287 -0.00000005
0.64513743 -0.46349457 -0.00000060
-0.12274396 -0.44113359 -0.00000022
-0.15884155 0.34770235 -0.00000072
-0.30229017 -0.68654585 -0.00000007
-0.33120361 -0.46982211 -0.00000021
0.49519923 0.11807202 0.00000173
0.63752609 -0.26639292 -0.00000096
-0.11234382 -0.14218013 -0.00000041
0.58976537 -0.17675808 -0.00000098
0.40235233 -0.68652612 -0.00000007
-0.32603902 -0.31588876 -0.00000030
-0.61751020 -0.57504308 -0.00000009
0.50697708 -0.76943350 -0.00000002
-0.48813057 -0.38741428 -0.00000026
-0.32381117 -0.55211902 -0.00000015
-0.04720540 -0.44755301 -0.00000022
-0.77179021 -0.24343260 0.00000000
0.40176725 -0.22548416 -0.00000036
-0.72138846 -0.67322147 0.00000000
0.65917432 -0.03606125 -0.00000148
-0.41135189 0.48120460 0.20756528
0.57713127 -0.33704180 -0.00000063
-0.37641874 -0.27356511 -0.00000033
-0.45727429 0.55412614 0.47408372
0.51564658 -0.75412905 -0.00000003
-0.68162280 0.01636883 -0.00000013
-0.12821282 -0.62388653 -0.00000011
-0.04797774 0.02192462 -0.00000051
0.55013704 -0.05196817 -0.00000110
-0.36561611 0.51708192 0.18545651
0.18137716 -0.77586162 -0.00000002
-0.43974912 0.42797095 0.15186778
-0.36328533 0.52875465 0.20640668
0.48889714 -0.65177804 -0.00000009
0.32700846 -0.13567305 -0.00000042
-0.09004726 -0.20203120 -0.00000037
-0.00908332 -0.79532301 -0.00000000
-0.11492174 -0.13030262 -0.00000042
0.41944653 0.19752686 0.00000176
-0.25169802 0.34085843 -0.00000065
0.07837970 0.11805340 0.00000890
-0.56504548 0.11803100 -0.00000027
-0.00043517 -0.57159096 -0.00000014
-0.27458298 0.57263881 0.10589739
-0.32363734 0.54073703 0.14436392
0.09451203 -0.78714520 -0.00000001
-0.25023851 0.49146402 -0.00000068
-0.65215379 0.21354897 0.14734514
-0.54136777 -0.71177584 -0.00000006
-0.62777007 -0.09559151 -0.00000017
-0.04649598 0.55540454 -0.00000085
0.05622006 0.68162173 0.00000005
-0.51693863 0.42363751 0.31525427
0.08910329 0.45349434 0.00000329
0.45060110 -0.71517694 -0.00000005
-0.04637021 -0.55389357 -0.00000015
-0.45926115 -0.11152235 -0.00000034
-0.75013345 -0.30317575 0.00000000
-0.48059413 0.43776867 0.26543859
-0.58110160 -0.56695640 -0.00000013
-0.22778888 0.32911950 -0.00000067
0.49439341 0.08685769 0.00000231
0.32492170 0.40760371 -0.00000019
0.59484082 0.06942320 0.00000069
-0.01125105 0.19363873 -0.00000062
-0.22277126 -0.35319099 -0.00000028
-0.24068815 0.59688401 0.08425718
-0.18367574 -0.63796371 -0.00000010
0.31887516 -0.10127285 -0.00000044
-0.51416832 0.34517062 0.13307284
0.69980115 0.04367157 -0.00000086
0.47743309 0.23496069 -0.00000002
0.19000976 -0.52108115 -0.00000017
-0.15009134 0.71479750 0.14551659
-0.37928137 0.44140971 0.04640083
-0.19892243 0.44125718 -0.00000072
-0.56576014 -0.06205111 -0.00000024
-0.42509887 -0.39058805 -0.00000026
0.38865396 0.18102506 0.00000265
0.73753136 -0.46780834 -0.00000083
0.13908824 0.02258507 0.00000953
0.50962251 -0.21383174 -0.00000065
-0.65843922 0.16887148 0.06124776
-0.52971578 -0.05041288 -0.00000028
-0.01526791 -0.69277322 -0.00000007
0.05013318 0.32800931 0.00000591
-0.20201083 0.44848058 -0.00000072
0.41142076 -0.42908224 -0.00000023
0.01827459 0.67558652 0.00000075
0.42746928 -0.32931644 -0.00000029
-0.43622220 -0.24970210 -0.00000034
-0.71519780 0.11529972 0.06839490
0.01044644 -0.41581976 -0.00000024
0.28886196 0.17211013 0.00000473
0.59309250 -0.23469219 -0.00000088
0.35108185 -0.06503438 -0.00000046
-0.03289240 0.31725702 -0.00000070
0.45544297 -0.09874720 -0.00000070
0.14477582 0.45077536 0.00000249
0.52602160 -0.49815273 -0.00000019
0.75820547 -0.54782063 -0.00000063
-0.46480602 -0.46370259 -0.00000021
0.20798825 0.49418584 0.00000050
0.28646365 -0.74312186 -0.00000004
0.32677075 0.24193901 0.00000274
-0.65499771 -0.30683368 -0.00000010
-0.43175530 -0.06325772 -0.00000038
-0.73677021 -0.55888724 0.00000000
0.53888041 -0.48591560 -0.00000022
-0.29240909 -0.60872334 -0.00000012
0.16878082 0.20502049 0.00000612
0.43622220 0.21654917 0.00000110
-0.71866286 -0.30070299 -0.00000003
0.54806900 0.06385936 0.00000169
-0.39623654 0.12581681 -0.00000045
-0.59845918 -0.67433167 -0.00000008
-0.38822886 -0.35882384 -0.00000028
0.12988418 0.13332365 0.00000787
0.01884506 0.60730720 0.00000185
0.54642010 -0.26485702 -0.00000067
-0.62446117 0.28797123 0.25214013
-0.57886422 -0.23102362 -0.00000019
-0.37563995 -0.36396176 -0.00000027
-0.54934353 -0.78785712 -0.00000001
-0.31789115 -0.30623788 -0.00000031
-0.51057154 0.51643825 0.50908929
-0.02535929 0.56285077 -0.00000085
0.68671191 -0.52538306 -0.00000061
-0.07267157 0.36561379 -0.00000073
-0.13557324 0.59200835 -0.00000082
0.55124390 -0.61822957 -0.00000011
-0.38583863 0.47243652 0.13068628
-0.17014477 -0.48625934 -0.00000020
-0.36380213 -0.26755428 -0.00000033
0.43711111 -0.27610800 -0.00000033
0.13059688 0.20171607 0.00000675
0.79432255 -0.78891426 -0.00000003
0.06709828 -0.28266394 -0.00000032
0.01392588 -0.67944312 -0.00000008
0.16311938 0.18541867 0.00000653
0.14646265 0.48944560 0.00000176
-0.13627724 0.31823322 -0.00000070
-0.46478751 -0.64734983 -0.00000010
0.64752579 -0.71897638 -0.00000011
-0.46690232 0.46365100 0.29277694
0.10497749 -0.01759487 -0.00000049
-0.68379933 0.15081079 0.07761756
-0.37800044 0.42239392 0.00088376
0.32494685 0.35930586 0.00000067
0.29790053 0.34378520 0.00000147
-0.40745810 -0.20076641 -0.00000037
0.06206348 -0.71282291 -0.00000005
0.15632869 -0.29663926 -0.00000031
-0.61660630 0.27624837 0.20823543
0.47355244 -0.53984952 -0.00000016
0.67030734 -0.22370167 -0.00000115
-0.22430940 0.38025782 -0.00000068
-0.20837902 0.66106546 0.15573335
0.63357639 -0.49469057 -0.00000050
-0.52063185 0.08336823 -0.00000031
0.14322788 -0.78397483 -0.00000001
-0.56697226 0.22292148 -0.00000029
0.61919826 -0.59909904 -0.00000025
0.14143629 -0.30427894 -0.00000031
-0.31515750 0.16306004 -0.00000055
-0.57763219 -0.73201537 -0.00000004
0.32282186 -0.31279758 -0.00000030
-0.33319357 0.50870895 0.09396901
-0.45655277 0.34344426 -0.00000043
-0.34349868 0.50318015 0.10468023
0.56547713 -0.44158646 -0.00000039
-0.20991629 -0.79908586 -0.00000000
0.66420603 -0.77243918 -0.00000006
0.65387315 -0.26004687 -0.00000102
0.18276995 -0.26836717 -0.00000033
-0.69378930 -0.36113569 -0.00000005
-0.45122597 0.40596676 0.12825938
-0.65416551 -0.50746304 -0.00000006
-0.13555756 -0.29480857 -0.00000032
-0.20674191 0.59561336 0.00528014
0.42258444 -0.50573719 -0.00000018
0.41627243 -0.19103834 -0.00000040
0.61828983 -0.20787007 -0.00000101
-0.55573225 0.25136670 0.01592056
-0.21893257 -0.20771712 -0.00000037
0.13393439 -0.70093364 -0.00000006
-0.40668303 -0.31155661 -0.00000031
0.77227694 -0.14232472 -0.00000163
0.22385299 -0.31769705 -0.00000030
0.01058472 -0.47288179 -0.00000020
0.43705478 -0.50347644 -0.00000019
-0.78309590 -0.05084598 -0.00000001
-0.58051640 -0.62028295 -0.00000011
0.35730383 0.03781265 0.00000582
-0.55789644 -0.48567712 -0.00000017
0.34351671 0.10366025 0.00000491
-0.68375462 -0.15676963 -0.00000010
0.01974838 0.77745897 -0.00000102
-0.73295182 0.11015839 0.09668002
0.49029398 -0.68488413 -0.00000007
0.13641714 0.55528593 0.00000077
0.71709132 -0.30830619 -0.00000113
-0.43247092 0.23943754 -0.00000044
-0.36913273 0.25704283 -0.00000051
0.30274668 0.26180342 0.00000285
0.60014731 0.10238550 -0.00000000
-0.67345816 -0.54616731 -0.00000004
0.23609658 -0.03765977 -0.00000048
-0.72341168 -0.69639176 0.00000000
0.50832319 -0.74619287 -0.00000003
-0.07462295 -0.73399055 -0.00000004
0.33203548 -0.42893735 -0.00000023
-0.15829456 0.02951428 -0.00000052
-0.70306116 0.08514803 -0.00000012
0.38624451 -0.51024789 -0.00000018
-0.74065012 -0.78988248 0.00000000
-0.30786729 -0.56082141 -0.00000015
-0.48907572 -0.24109045 -0.00000029
0.52432519 -0.23210330 -0.00000066
-0.16396433 0.26380315 -0.00000066
0.38705167 -0.52307862 -0.00000017
0.31763023 -0.52048141 -0.00000017
0.74990624 -0.58243364 -0.00000054
0.11753642 -0.46510512 -0.00000021
0.66717744 -0.15962347 -0.00000126
-0.18143119 -0.49064079 -0.00000019
-0.55334687 -0.77778077 -0.00000001
-0.10743500 -0.40230754 -0.00000025
-0.49018559 -0.08382189 -0.00000032
-0.02686282 -0.20173226 -0.00000037
-0.30022058 0.18743184 -0.00000057
0.73047531 -0.47324926 -0.00000082
-0.02774134 0.73386419 -0.00000096
-0.46853560 -0.59030932 -0.00000013
0.13496231 -0.45375785 -0.00000022
0.04137771 0.56035239 0.00000227
-0.08370640 0.39537752 -0.00000075
-0.25763968 0.35949951 -0.00000064
0.46344149 -0.62161708 -0.00000011
0.73495662 -0.69184041 -0.00000027
-0.71107078 -0.27404314 -0.00000004
-0.59820622 -0.74681377 -0.00000003
0.44688746 0.07483579 0.00000344
-0.16426846 0.69160384 0.12529626
-0.49047577 0.08157380 -0.00000035
0.40738252 -0.60206646 -0.00000012
0.15363459 0.04646652 0.00000893
-0.60661215 -0.15112449 -0.00000018
-0.43438011 0.51122576 0.32653335
-0.12513800 -0.58102542 -0.00000014
-0.51063001 0.50117540 0.47499219
0.05581955 0.59309024 0.00000152
-0.10507513 -0.53762823 -0.00000016
-0.29409093 0.51234376 0.01442904
-0.31309104 0.04396813 -0.00000053
0.07035039 0.50165278 0.00000279
0.26617122 0.48900774 -0.00000053
0.57803833 -0.56162268 -0.00000019
-0.24026711 -0.58266252 -0.00000014
0.33775467 -0.40835360 -0.00000024
0.11331776 0.02294660 0.00000992
0.62265635 -0.16958001 -0.00000110
-0.61298370 0.29654148 0.24562038
-0.04852689 0.77344835 0.04927843
-0.10306339 0.46567595 -0.00000079
0.23691528 0.19000977 0.00000534
0.47937733 -0.24645694 -0.00000049
-0.53778058 0.07400072 -0.00000029
-0.54472744 0.45149463 0.44004533
0.06739627 0.31001177 0.00000595
0.46184927 -0.11198494 -0.00000070
0.39250639 -0.48296002 -0.00000020
-0.21400179 0.39553285 -0.00000070
-0.04984623 0.48423886 -0.00000080
0.08851852 -0.58552575 -0.00000013
-0.27953812 0.54839975 0.06265163
0.34734148 -0.46141377 -0.00000021
-0.72728854 -0.18998960 -0.00000004
0.56475770 -0.55843776 -0.00000016
0.11479823 0.56147838 0.00000108
0.02584925 -0.63959628 -0.00000010
0.13014024 -0.12641610 -0.00000042
-0.60796833 0.00849037 -0.00000021
-0.10843143 -0.65232503 -0.00000009
-0.16813549 0.44143248 -0.00000075
-0.18844120 -0.33995992 -0.00000029
0.34771946 -0.36468348 -0.00000027
-0.14151177 -0.63456893 -0.00000010
-0.74612218 -0.40028504 0.00000000
0.31369415 0.42994517 -0.00000038
0.60797793 -0.11671858 -0.00000116
0.12355053 0.62699485 -0.00000027
-0.03027948 -0.39454979 -0.00000025
0.41387832 -0.55214661 -0.00000015
0.47208038 -0.49643672 -0.00000019
0.21160349 -0.11477611 -0.00000043
0.73017782 0.03474616 -0.00000128
-0.74685293 -0.06323200 -0.00000005
0.04084554 0.27786425 0.00000687
-0.09304578 0.28315029 -0.00000068
-0.45812368 0.47031850 0.28804240
-0.07920472 -0.34112340 -0.00000029
-0.13841210 0.39239234 -0.00000075
0.00258503 0.17931455 0.00000905
-0.18856031 0.54460502 -0.00000075
-0.07620092 -0.33139712 -0.00000029
-0.19907561 -0.59050703 -0.00000013
-0.50021011 0.47881809 0.40148625
-0.58664852 -0.77363777 -0.00000002
0.01244913 -0.36399865 -0.00000027
-0.61313528 0.10643115 -0.00000022
-0.22909509 0.66057599 0.20109341
0.41573849 -0.12307957 -0.00000053
-0.75511080 -0.71992302 0.00000000
-0.70543844 -0.09884139 -0.00000008
0.39261422 -0.09304738 -0.00000051
-0.01618350 0.55485278 -0.00000085
-0.15557827 -0.06890846 -0.00000046
0.62402970 -0.58806998 -0.00000029
-0.60709828 0.28674951 0.21046244
-0.10892977 -0.26779959 -0.00000033
-0.52389282 -0.77250624 -0.00000002
-0.04685891 0.62280869 -0.00000089
-0.11603169 0.66393161 -0.00000085
0.00478750 -0.79399264 -0.00000000
-0.68632191 0.04505836 -0.00000013
-0.31130785 0.56143957 0.16314104
-0.40617064 0.42245281 0.06418996
0.46427292 -0.25432521 -0.00000043
-0.03346672 -0.58224750 -0.00000014
0.23640805 -0.20842826 -0.00000037
0.69041723 -0.57500744 -0.00000053
0.32357818 0.21143761 0.00000335
-0.67028046 -0.01331538 -0.00000014
0.25400746 -0.68196094 -0.00000007
0.77505106 -0.68330711 -0.00000029
0.73281962 -0.23104808 -0.00000133
0.72177911 -0.51448202 -0.00000071
0.68528110 -0.79175282 -0.00000002
0.73117965 0.06768022 -0.00000191
-0.20847768 -0.20917401 -0.00000037
0.28220138 0.05092860 0.00000691
0.49270353 -0.30830720 -0.00000041
-0.43448067 0.38254216 0.03817489
-0.35922870 0.00233761 -0.00000047
0.18348493 -0.61645514 -0.00000011
0.28252617 -0.43555686 -0.00000023
0.52939498 -0.68573296 -0.00000007
0.30359319 0.22468200 0.00000350
-0.19407189 -0.22143568 -0.00000036
0.01173194 0.51116323 0.00000352
-0.28318965 -0.50952971 -0.00000018
-0.56249136 -0.57759637 -0.00000014
0.78523839 -0.11674473 -0.00000171
-0.52460122 -0.30284482 -0.00000024
0.03392716 -0.60519558 -0.00000012
0.00132108 -0.07853988 -0.00000045
-0.16977996 0.17533576 -0.00000061
-0.28442127 -0.24056496 -0.00000035
0.13124847 -0.22473221 -0.00000036
-0.69958556 0.16412744 0.14288323
0.54966426 -0.36665490 -0.00000048
-0.20155589 0.69018006 0.20572400
0.14593729 -0.58424377 -0.00000013
0.77993619 -0.59374928 -0.00000052
-0.06052304 -0.22227702 -0.00000036
0.54579514 -0.42976126 -0.00000035
-0.51225966 -0.54221237 -0.00000016
-0.33572617 0.11744407 -0.00000052
-0.32042331 0.32831061 -0.00000057
-0.19094564 -0.43768126 -0.00000023
0.47689551 0.19919854 0.00000063
-0.49025744 0.41211015 0.22956805
0.00692796 -0.03492483 -0.00000048
-0.52709264 -0.15178515 -0.00000026
0.55456609 -0.02983348 -0.00000116
0.35359582 -0.29752123 -0.00000031
0.02990226 -0.78968084 -0.00000001
0.36038384 0.42430162 -0.00000118
0.45581391 -0.39021936 -0.00000026
0.79287899 -0.46907452 -0.00000083
-0.01218189 -0.06085723 -0.00000046
-0.74499315 -0.49265876 0.00000000
-0.09620661 -0.25482866 -0.00000034
-0.29486242 -0.58494490 -0.00000013
-0.14054658 0.20200443 -0.00000063
-0.15836117 -0.12013570 -0.00000042
-0.69297975 -0.25151795 -0.00000007
-0.55794609 -0.30137691 -0.00000020
0.00265962 0.53581685 0.00000325
0.10431628 0.26909530 0.00000605
0.01135511 0.39498538 0.00000541
0.58284825 -0.43836972 -0.00000045
-0.24250713 0.31374419 -0.00000065
0.35892290 0.00859954 0.00000632
-0.62004244 0.12695077 -0.00000022
0.21555239 -0.66627401 -0.00000008
-0.45900285 -0.73498243 -0.00000004
0.53573579 0.21021578 -0.00000070
0.51410264 -0.25919035 -0.00000058
-0.14421041 0.68010163 0.05451948
0.39262772 -0.32087076 -0.00000030
-0.38637280 0.29162508 -0.00000049
-0.20954394 -0.54104197 -0.00000016
-0.16378310 -0.21008804 -0.00000037
0.06560201 0.23181587 0.00000724
0.27854300 0.46433941 -0.00000032
-0.10327086 0.32268953 -0.00000070
0.58588779 -0.03657425 -0.00000124
-0.47924820 0.21336345 -0.00000038
-0.69216406 0.17788196 0.15708554
0.77618957 -0.21266419 -0.00000147
0.26709548 -0.53117085 -0.00000017
0.12539281 0.43170115 0.00000309
0.09642948 0.27772027 0.00000603
-0.11709294 -0.11462759 -0.00000043
-0.31105188 -0.70815480 -0.00000006
0.59501851 -0.39191541 -0.00000058
-0.79842597 -0.35115591 0.00000000
0.08050146 0.68249404 -0.00000044
0.34277427 0.08373871 0.00000528
-0.74550509 -0.63103282 0.00000000
-0.27446574 0.55223995 0.05988842
-0.09036729 0.52592331 -0.00000083
-0.77443051 -0.77410626 0.00000000
-0.50746632 0.47773641 0.41533324
0.31691277 0.15213563 0.00000455
0.53460544 -0.19094636 -0.00000078
-0.18074745 0.36552948 -0.00000073
-0.57256407 0.25932398 0.07151221
-0.06955674 0.74558008 0.03394279
-0.22921208 -0.01120867 -0.00000049
0.44236296 -0.48933962 -0.00000019
-0.20112804 -0.70396721 -0.00000006
0.21938656 -0.54295295 -0.00000016
-0.09436716 0.74289906 0.08357010
-0.35470709 0.28223771 -0.00000053
-0.35335839 0.31026858 -0.00000053
0.02680270 -0.71455210 -0.00000005
-0.51193953 -0.57756209 -0.00000014
-0.42507598 -0.23034640 -0.00000036
-0.70625669 -0.74586433 0.00000000
-0.11571679 -0.53488135 -0.00000017
0.72007811 -0.74074155 -0.00000015
0.17288437 0.02364734 0.00000901
0.50396222 -0.68483603 -0.00000007
-0.76992178 -0.25825477 0.00000000
0.58643097 -0.73167193 -0.00000004
-0.19233282 0.60360032 -0.00000076
-0.21818867 -0.21417928 -0.00000037
-0.59191132 0.29263574 0.18960474
-0.00055293 0.34193876 -0.00000071
-0.66340947 0.06158117 -0.00000016
-0.64972836 0.17187737 0.04845387
-0.72647887 -0.31510174 -0.00000002
0.13227569 -0.04709829 -0.00000047
-0.55866271 0.35995367 0.26600775
-0.07630540 0.68502295 -0.00000090
-0.34885117 -0.51155192 -0.00000018
-0.74959022 -0.55482984 0.00000000
-0.11573777 -0.70917749 -0.00000006
0.12954883 0.17803816 0.00000715
-0.17031059 0.25799629 -0.00000066
-0.46075851 -0.19921745 -0.00000033
-0.31923926 0.52918088 0.10858522
-0.44240269 0.36403394 0.01443449
-0.26442951 0.15792565 -0.00000060
-0.13353246 0.61151260 -0.00000082
-0.32907107 -0.09095987 -0.00000044
0.66926956 -0.48094735 -0.00000064
-0.54085153 -0.56700689 -0.00000015
0.16369253 -0.61433852 -0.00000012
0.24948993 0.12017672 0.00000628
0.15256824 -0.68141472 -0.00000007
-0.43735307 -0.55029672 -0.00000016
0.15271898 0.01161468 0.00000951
-0.21652895 -0.28195816 -0.00000032
0.50831044 -0.05753436 -0.00000095
-0.78130013 -0.50683504 0.00000000
0.59958631 -0.12392444 -0.00000112
-0.23249966 0.44595602 -0.00000069
0.19089098 0.05274418 0.00000826
0.25301725 0.54435623 -0.00000127
0.17736565 0.34508345 0.00000372
-0.30902281 0.53195119 0.09188650
0.57375932 -0.49979624 -0.00000030
0.00352029 0.30531013 0.00000699
-0.64947736 -0.48464417 -0.00000007
0.61700636 -0.12826841 -0.00000116
0.26123467 -0.73755324 -0.00000004
-0.28106257 -0.00210547 -0.00000050
-0.28206560 0.38446984 -0.00000062
-0.11294759 -0.10428904 -0.00000043
0.04305909 -0.28935570 -0.00000032
0.36441126 0.30169404 0.00000095
0.39580998 0.17903227 0.00000255
0.04264820 -0.77517766 -0.00000002
-0.59178495 -0.39452979 -0.00000015
0.59196335 -0.20822695 -0.00000093
0.48620883 -0.21588543 -0.00000057
0.73578268 -0.77979064 -0.00000005
-0.10188518 -0.02145917 -0.00000049
0.14307284 0.47429577 0.00000210
0.27739313 -0.45907363 -0.00000021
0.37867668 0.05103188 0.00000518
-0.65090996 0.25793266 0.24408995
-0.49093327 -0.00726174 -0.00000033
0.50640070 0.16125438 0.00000074
0.24597596 -0.67750287 -0.00000008
0.77811176 -0.64746684 -0.00000038
0.69142926 -0.65369296 -0.00000037
0.11138089 0.40063852 0.00000381
-0.53186977 0.36504412 0.21733788
-0.00316202 -0.35617363 -0.00000028
-0.77843261 -0.12389180 -0.00000000
-0.58409303 0.37917012 0.36613220
-0.51553530 0.05817787 -0.00000031
-0.41269681 -0.02081575 -0.00000041
-0.63295698 0.12617484 -0.00000020
-0.19477996 0.59135389 -0.00000075
-0.74442148 0.07789228 0.05004227
0.75877160 -0.32839531 -0.00000118
0.46087587 0.12336578 0.00000230
0.28436545 0.30071083 0.00000250
0.15172300 -0.08873213 -0.00000044
0.12974174 0.36225331 0.00000416
-0.34651691 0.53617138 0.18543456
0.03403977 -0.30373043 -0.00000031
-0.38822079 -0.37799644 -0.00000026
-0.47350577 -0.54072583 -0.00000016
-0.26750487 0.46461928 -0.00000065
0.45384601 -0.79081589 -0.00000001
-0.50629234 0.05360967 -0.00000032
0.62551814 0.11222894 -0.00000066
-0.11688851 0.32968444 -0.00000071
0.23135799 0.17509048 0.00000566
0.41359550 -0.49302885 -0.00000019
-0.25277767 0.36570778 -0.00000065
-0.45292971 0.48929489 0.31895065
-0.21673347 0.55563682 -0.00000072
0.49938914 -0.51793289 -0.00000018
-0.25808421 0.63794559 0.21535362
-0.62721717 -0.38948604 -0.00000011
0.07039780 0.49239609 0.00000294
0.21964265 -0.15319936 -0.00000040
-0.52058560 -0.31364712 -0.00000024
-0.52198452 -0.75138772 -0.00000003
-0.02742907 -0.26684982 -0.00000033
0.58904821 -0.56901634 -0.00000021
-0.34727886 0.08923585 -0.00000050
-0.01858214 -0.07091927 -0.00000046
-0.77609473 -0.47240460 0.00000000
-0.64688361 -0.79910421 -0.00000000
0.03146702 0.74084598 -0.00000054
-0.70456600 -0.65026522 0.00000000
-0.42516109 0.47554439 0.22584024
0.11686753 0.31283143 0.00000515
-0.19341382 0.35686606 -0.00000071
0.08710356 -0.41093025 -0.00000024
-0.22372238 0.01819299 -0.00000051
-0.03516121 0.62753290 -0.00000089
-0.64498806 -0.65321356 -0.00000005
-0.49007216 -0.10427109 -0.00000031
0.72510511 -0.68449587 -0.00000029
-0.10045527 0.48984221 -0.00000081
0.21893398 0.47714493 0.00000059
-0.57488620 -0.05272816 -0.00000023
-0.26572499 -0.35863709 -0.00000028
0.68932283 -0.04254453 -0.00000156
-0.38377967 0.52576005 0.24565150
0.21428934 -0.77637595 -0.00000001
0.33303320 0.22549352 0.00000292
-0.53889996 0.09257746 -0.00000030
-0.65855819 -0.61289901 -0.00000004
-0.11202945 0.60087228 -0.00000084
-0.67725933 -0.74219888 0.00000000
0.75168097 -0.70640922 -0.00000023
-0.30572930 0.42431796 -0.00000061
-0.17633422 0.53069061 -0.00000076
-0.50651854 0.45496812 0.36214793
-0.56950247 -0.49566033 -0.00000016
0.42228010 -0.27460226 -0.00000033
0.24898972 0.07278491 0.00000706
0.70598221 -0.24656457 -0.00000122
0.41507250 -0.30053863 -0.00000031
-0.24136467 0.60737610 0.10930362
0.47364292 -0.59259117 -0.00000013
-0.39149451 0.52297485 0.25670663
-0.25787741 0.17556787 -0.00000061
0.34280786 -0.44431967 -0.00000022
0.30785471 -0.74886137 -0.00000003
-0.47651279 -0.46735033 -0.00000021
-0.48703092 -0.24760883 -0.00000029
0.74390864 -0.05431413 -0.00000171
0.36376145 0.17468134 0.00000324
-0.55142784 -0.15543912 -0.00000024
-0.51755214 0.50334734 0.49538645
-0.06384790 0.03565867 -0.00000052
-0.41869444 0.45017883 0.15445375
0.20580766 0.23097689 0.00000514
-0.06262161 0.53860992 -0.00000084
0.49884725 0.27764806 -0.00000120
0.46122146 0.20061889 0.00000090
0.48122746 -0.11051146 -0.00000076
0.48270327 -0.09890794 -0.00000079
-0.76273191 -0.74574417 0.00000000
-0.59091365 -0.67603052 -0.00000008
-0.48649773 0.35565636 0.09453412
0.73484439 -0.47693253 -0.00000081
-0.30351830 -0.74448198 -0.00000003
-0.34263957 0.14234704 -0.00000051
-0.17475161 -0.12348445 -0.00000042
-0.18685196 -0.07971445 -0.00000045
0.48511928 -0.14690508 -0.00000071
-0.61362177 0.32598045 0.31307068
-0.72301942 -0.35284951 -0.00000002
-0.63863927 -0.08126641 -0.00000016
0.61935049 -0.07844977 -0.00000127
-0.33124128 -0.58141971 -0.00000014
-0.50057149 0.32764626 0.06328080
0.12977885 0.57829964 0.00000049
-0.64733833 0.06731745 -0.00000018
-0.06690912 -0.35091302 -0.00000028
-0.05937680 -0.14948058 -0.00000041
0.38034689 -0.58109701 -0.00000014
-0.52449417 -0.38997385 -0.00000022
-0.02692809 0.77126849 -0.00000097
0.06521661 0.19148239 0.00000790
0.17212731 0.36153761 0.00000353
0.37109482 -0.44127375 -0.00000022
0.46182984 0.17235243 0.00000140
0.61015373 -0.10978601 -0.00000118
0.65634513 0.00575581 0.00000066
-0.67042756 0.15302557 0.05259696
-0.46818414 -0.45141602 -0.00000022
0.17063563 0.17665389 0.00000655
-0.44493529 -0.16041021 -0.00000035
-0.22549766 0.64633572 0.16109085
0.07755507 0.50471550 0.00000263
0.05720026 0.40966603 0.00000448
-0.59824675 0.08766665 -0.00000023
0.71477610 -0.77541137 -0.00000006
0.63799280 0.15812474 -0.00000173
0.63499492 -0.55077833 -0.00000040
-0.45008704 -0.11828617 -0.00000035
0.33087057 -0.58788890 -0.00000013
-0.65721405 0.14384528 0.00237686
-0.30726734 0.56415731 0.16017464
0.20948155 -0.01322323 -0.00000049
-0.70026982 -0.21074907 -0.00000007
0.50432336 -0.14714359 -0.00000077
-0.76797920 0.03836228 0.01422329
-0.56634170 0.41696098 0.41107252
0.69421488 -0.36798042 -0.00000094
-0.45744187 0.55310422 0.47216776
0.55069804 -0.49571836 -0.00000023
-0.39315030 -0.28629777 -0.00000032
0.07942138 -0.06271247 -0.00000046
-0.51086062 0.50885063 0.49272183
-0.67054987 0.09638172 -0.00000016
0.05915281 0.10382074 0.00000942
0.32300606 -0.48347545 -0.00000020
-0.06435775 -0.17708512 -0.00000039
0.67931908 -0.46485811 -0.00000071
0.64129841 -0.14824267 -0.00000120
0.34296811 0.22821295 0.00000268
0.09546493 -0.66614294 -0.00000008
-0.40139297 -0.52212274 -0.00000017
0.38649091 -0.59344149 -0.00000013
-0.25422364 0.52638102 -0.00000068
-0.68840128 -0.39530936 -0.00000005
-0.69628102 -0.02424754 -0.00000011
-0.22933896 0.57255876 0.00425404
-0.30110016 0.17762305 -0.00000056
-0.28761399 -0.33389157 -0.00000029
0.07373299 0.27398485 0.00000644
-0.32156420 0.61765969 0.31222054
0.20922238 0.35115182 0.00000304
0.13853832 0.36777073 0.00000393
0.27038026 0.10328921 0.00000624
0.69862610 -0.50221336 -0.00000070
0.79069698 -0.30822369 -0.00000123
0.35311037 -0.73628032 -0.00000004
0.06396885 -0.56573790 -0.00000015
0.33172470 0.30155441 0.00000158
-0.72481322 -0.52586740 0.00000000
-0.23130728 0.49912605 -0.00000070
0.00285298 -0.71900582 -0.00000005
0.35490930 -0.08160494 -0.00000045
-0.36222449 0.52977991 0.20632698
-0.04555347 0.30519196 -0.00000069
-0.49255610 -0.24206863 -0.00000028
-0.56993043 -0.66725725 -0.00000008
-0.15920067 0.66763443 0.06017780
-0.56741071 0.30179653 0.15520371
0.16906856 -0.75691992 -0.00000003
-0.64480752 0.19659427 0.09284808
-0.12899616 0.72482026 0.12068560
0.27179793 0.38963521 0.00000115
0.62684333 -0.62415940 -0.00000023
0.32917854 -0.71469212 -0.00000005
0.25847560 0.01434397 0.00000787
-0.13340440 0.56965506 -0.00000082
0.78736579 -0.04623576 -0.00000187
-0.22156543 -0.22471972 -0.00000036
-0.57727933 0.15788184 -0.00000027
0.11101559 -0.35350850 -0.00000028
-0.46242425 -0.76429123 -0.00000002
-0.01548250 0.39970246 -0.00000075
0.17953375 -0.22493716 -0.00000036
-0.47135159 -0.13177964 -0.00000033
-0.34334421 0.30565879 -0.00000054
-0.03737113 0.51726645 -0.00000082
-0.01602440 -0.60792547 -0.00000012
0.25901949 -0.10481828 -0.00000043
-0.42843750 -0.24141781 -0.00000035
-0.46556604 0.54531330 0.47291511
-0.35398954 -0.08288368 -0.00000045
0.51787168 0.11376819 0.00000138
0.25451273 -0.17900003 -0.00000039
-0.63106859 0.20244651 0.07516140
-0.02144787 0.54124039 -0.00000084
-0.34236467 -0.41020912 -0.00000024
-0.39421380 -0.24343325 -0.00000035
-0.36439952 -0.52030915 -0.00000017
-0.01196324 -0.51979584 -0.00000018
-0.59878361 0.35462284 0.34402791
-0.48074660 0.50480920 0.41612491
0.09517171 0.14712203 0.00000817
0.58619791 -0.52862555 -0.00000028
-0.37975898 0.47967836 0.13329260
-0.55928707 0.27472535 0.07627633
0.58644158 -0.21386495 -0.00000090
-0.03341672 0.37328559 -0.00000073
0.17422684 -0.66125584 -0.00000009
-0.50574595 0.38411200 0.20151424
0.17626394 -0.24102627 -0.00000035
-0.03593257 -0.24505469 -0.00000035
-0.19887777 0.62856627 0.06154368
0.47251853 -0.32424539 -0.00000032
0.25673744 0.21948151 0.00000449
-0.18745326 0.67163354 0.13250521
0.69016844 -0.31907681 -0.00000103
-0.38265032 -0.75373775 -0.00000003
0.34585920 0.00913328 0.00000656
0.19159746 0.60200709 -0.00000112
-0.41289851 0.38840845 0.00293051
0.22942804 0.36245033 0.00000245
-0.67603022 0.19361065 0.15617689
0.64406687 -0.27812660 -0.00000096
-0.07458722 0.75226200 0.06020887
-0.51640159 -0.04981836 -0.00000029
0.33494386 -0.39933631 -0.00000025
0.73760557 -0.65306681 -0.00000037
-0.26121336 0.12381767 -0.00000058
-0.23929282 -0.63713688 -0.00000010
0.05865955 0.23744360 0.00000726
-0.64001542 0.18676881 0.06006704
0.09684604 0.68310440 -0.00000076
0.78308457 -0.38895527 -0.00000103
-0.56654507 -0.27600214 -0.00000020
-0.09259763 -0.59121180 -0.00000013
-0.72821182 -0.07602892 -0.00000006
0.57028067 0.00415821 0.00000234
-0.64557683 -0.52804387 -0.00000007
-0.27335274 -0.50808138 -0.00000018
0.25670034 -0.04823243 -0.00000047
0.11419133 0.43462843 0.00000321
0.13242210 0.55757010 0.00000081
0.17094554 -0.67173529 -0.00000008
0.38708791 -0.40178880 -0.00000025
0.66487879 -0.21805343 -0.00000114
-0.51699531 0.29282695 0.02202754
0.14371113 -0.76248258 -0.00000002
-0.65903163 -0.61759984 -0.00000004
0.02653621 0.08783521 0.00001017
0.70813602 -0.53156179 -0.00000067
0.15318953 -0.50534534 -0.00000018
-0.65930551 0.07337794 -0.00000016
0.21951608 0.14894013 0.00000627
0.09303776 0.52007413 0.00000214
-0.22864154 0.29420409 -0.00000066
0.69478995 0.01945400 -0.00000033
0.10959987 -0.36225265 -0.00000027
-0.48033911 -0.54904944 -0.00000016
-0.69969136 0.10766280 0.01649387
0.33306399 0.03141659 0.00000640
0.54963362 -0.02146708 -0.00000116
-0.48528713 0.44014272 0.28128713
-0.35960194 0.59358311 0.34352988
-0.12825897 -0.78830558 -0.00000001
0.59966654 -0.44304994 -0.00000049
-0.14154319 -0.06340967 -0.00000046
-0.52265668 0.30951446 0.07214682
0.38293663 0.16818732 0.00000299
-0.53562289 0.40150762 0.30752715
0.42303485 -0.34445000 -0.00000028
-0.11155125 -0.34351048 -0.00000029
-0.59123915 -0.19537604 -0.00000019
-0.64164644 -0.05813265 -0.00000016
-0.44536328 0.09524805 -0.00000040
0.02262623 -0.36563048 -0.00000027
-0.79828990 -0.56360602 0.00000000
-0.67888248 0.18958281 0.15354057
-0.02054465 -0.61863530 -0.00000011
-0.59966516 0.34396982 0.32211444
-0.57975197 -0.33038861 -0.00000017
0.44628653 -0.62716156 -0.00000011
-0.17571495 0.62907326 0.01073599
-0.58673227 0.34281847 0.29052925
0.47201923 -0.17521054 -0.00000061
0.16986988 0.16807738 0.00000671
-0.01156601 -0.28554150 -0.00000032
-0.57849503 -0.38435453 -0.00000017
0.45265073 -0.47788024 -0.00000020
0.34609494 0.16999452 0.00000366
-0.56703490 0.25885752 0.05806650
-0.06530317 -0.51220363 -0.00000018
0.75762337 -0.33762568 -0.00000116
-0.76960129 -0.69314325 0.00000000
0.50222343 -0.43211624 -0.00000023
-0.50499600 0.24806976 -0.00000036
-0.04765074 0.02750350 -0.00000052
0.53099757 -0.79281157 -0.00000000
-0.32083994 -0.00266674 -0.00000050
-0.76378733 0.01514922 -0.00000004
-0.27563232 -0.11852740 -0.00000043
0.27414134 0.17206214 0.00000501
-0.07096949 -0.16832657 -0.00000039
0.22777133 -0.53384483 -0.00000017
-0.09132884 0.72358078 0.03343340
0.29213610 -0.50365883 -0.00000019
-0.58549500 0.36140776 0.32944268
-0.76262420 -0.21445338 -0.00000000
-0.69714493 -0.49698815 -0.00000002
-0.44287315 -0.32113606 -0.00000030
-0.54263222 -0.16168053 -0.00000024
0.66602117 -0.72599667 -0.00000015
0.70121521 -0.55080760 -0.00000061
0.10959468 0.25687850 0.00000617
-0.04341266 -0.36346796 -0.00000027
0.26084340 0.46657011 -0.00000002
-0.24702458 0.64341664 0.20282070
-0.76157248 -0.58275282 0.00000000
0.43969616 0.11449624 0.00000286
0.49805400 -0.59926820 -0.00000013
0.69772589 0.00415973 -0.00000011
0.65396070 -0.31266117 -0.00000092
0.05575662 -0.36893514 -0.00000027
-0.03309005 -0.06665340 -0.00000046
-0.09917893 -0.68880618 -0.00000007
0.68655002 -0.17043455 -0.00000130
0.12461193 -0.38480178 -0.00000026
-0.63037461 0.14496610 -0.00000021
0.53297770 -0.34399295 -0.00000047
0.20971020 -0.44175655 -0.00000022
0.23604754 0.49658933 -0.00000009
-0.00541342 -0.60108131 -0.00000012
-0.04192398 -0.63408417 -0.00000010
-0.03090756 0.59496629 -0.00000087
0.03544278 -0.66817164 -0.00000008
-0.41925174 -0.47280252 -0.00000020
0.01767655 -0.44801545 -0.00000022
0.25839052 -0.16563264 -0.00000040
0.51887405 0.18401214 0.00000010
-0.06356194 0.46289176 -0.00000079
-0.60533690 -0.42595202 -0.00000013
-0.67803180 -0.71661246 0.00000000
0.47524700 -0.71746707 -0.00000005
-0.11197763 -0.18588187 -0.00000038
0.07176307 0.07490068 0.00000970
0.00995419 0.47073632 0.00000420
0.75408423 -0.56873298 -0.00000058
-0.02099130 -0.05264933 -0.00000047
0.55326396 -0.65110910 -0.00000009
0.46894339 0.07325458 0.00000304
-0.62621361 -0.76143712 -0.00000002
-0.12544836 0.09898589 -0.00000056
0.24354120 -0.25678065 -0.00000034
0.78749079 -0.59753299 -0.00000051
-0.11813934 0.19628540 -0.00000062
-0.44363326 -0.49139708 -0.00000019
0.78914475 -0.28706026 -0.00000128
0.27467251 -0.52285725 -0.00000017
0.51300681 0.08418021 0.00000200
0.42986345 -0.78677833 -0.00000001
-0.57394004 0.33139956 0.23623364
0.60276079 -0.22577386 -0.00000093
-0.11807213 -0.71224576 -0.00000005
-0.03324696 -0.41049585 -0.00000024
0.69976091 -0.60548878 -0.00000049
-0.09095312 0.45869911 -0.00000079
-0.32547432 0.41420624 -0.00000058
0.07407200 -0.15969311 -0.00000040
-0.60261607 0.15828562 -0.00000024
0.05454522 -0.36194256 -0.00000027
0.17210832 0.36685038 0.00000344
-0.18861583 -0.28387797 -0.00000032
-0.25490367 0.44471297 -0.00000066
0.03948802 -0.34421691 -0.00000028
-0.23112091 -0.60767370 -0.00000012
0.60672152 -0.59656215 -0.00000022
-0.02234005 -0.74275821 -0.00000004
-0.30558556 0.07683881 -0.00000054
-0.51087546 0.39346442 0.23399118
-0.62533790 0.28732359 0.25265393
-0.38908651 -0.06324787 -0.00000043
0.27964813 -0.44407913 -0.00000022
0.09714441 -0.66944778 -0.00000008
-0.41434824 0.44711694 0.13784041
0.07984254 0.11934747 0.00000886
-0.07622351 -0.31389335 -0.00000030
-0.50361866 0.33557516 0.08789559
0.37711474 0.41971993 -0.00000147
-0.57462275 -0.57562906 -0.00000014
0.31049648 0.09545928 0.00000569
-0.20850825 -0.02923818 -0.00000048
0.06769160 -0.76010799 -0.00000002
0.07819433 -0.11649909 -0.00000043
0.02837092 -0.77447778 -0.00000002
-0.56365925 -0.46528530 -0.00000017
0.60316455 -0.37078813 -0.00000065
0.64061266 -0.31002185 -0.00000089
0.78161174 -0.42330578 -0.00000094
-0.10903614 0.07991751 -0.00000055
-0.54182178 -0.24285279 -0.00000023
0.28502777 -0.09964019 -0.00000044
0.12019720 -0.53300393 -0.00000017
-0.09497492 -0.23420264 -0.00000035
-0.27009431 0.63511920 0.23594892
0.05436642 0.06670459 0.00001010
-0.73587686 -0.45110491 0.00000000
0.53706253 -0.66171747 -0.00000009
-0.67605513 0.20992982 0.19282982
0.70989621 -0.70437968 -0.00000024
0.15683363 -0.76098192 -0.00000002
0.21843036 -0.28521147 -0.00000032
0.13054316 -0.37691057 -0.00000026
-0.14751163 -0.67693126 -0.00000008
-0.69129658 -0.34774214 -0.00000005
-0.62017363 -0.22876807 -0.00000015
0.20970832 0.18942054 0.00000576
0.01155952 -0.17442562 -0.00000039
-0.39890441 -0.08994396 -0.00000041
0.58367014 -0.25334877 -0.00000081
0.05520936 0.58436835 0.00000167
-0.58969170 -0.04839229 -0.00000022
-0.75578517 -0.09233138 -0.00000003
-0.18499009 0.29413167 -0.00000068
-0.48045850 0.03858062 -0.00000035
-0.28938660 0.27389979 -0.00000059
-0.56213963 0.26544318 0.06185736
0.55502743 -0.11824095 -0.00000099
-0.31463772 0.08380950 -0.00000053
-0.48731583 0.48715386 0.39126334
-0.17099418 0.60257894 -0.00000078
0.66696829 -0.28579533 -0.00000102
0.72238529 -0.36984938 -0.00000103
-0.61754423 -0.44222805 -0.00000011
-0.16365100 -0.16800088 -0.00000039
-0.37507403 0.23088074 -0.00000050
-0.13200170 -0.41515058 -0.00000024
0.29690999 -0.34538490 -0.00000028
0.10298938 0.40262869 0.00000390
-0.56008399 0.24139754 0.00332307
-0.21679924 0.05998517 -0.00000054
-0.39295146 0.51618713 0.24475203
-0.11306827 0.42975008 -0.00000077
-0.50227308 0.30112195 0.00761385
-0.32688701 0.54290539 0.15651441
-0.04593136 0.25395608 -0.00000066
-0.70840418 0.10509745 0.03028017
-0.64672434 -0.49036223 -0.00000007
0.12040432 -0.48599023 -0.00000020
-0.48911518 0.18675442 -0.00000037
-0.27248630 -0.53394771 -0.00000017
-0.06819293 -0.75828159 -0.00000003
0.72545981 -0.79831725 -0.00000000
-0.29700339 0.38414258 -0.00000061
0.06760934 -0.49354741 -0.00000019
-0.61909539 -0.27734408 -0.00000014
-0.09425271 -0.58283842 -0.00000014
0.67871326 -0.09421931 -0.00000143
-0.73563057 -0.21703796 -0.00000003
0.21509086 0.32233319 0.00000345
-0.18820702 -0.50851542 -0.00000018
0.48725429 -0.22666249 -0.00000056
-0.40433806 0.46658278 0.15904549
-0.37252524 0.58946502 0.36327654
0.45725638 -0.77568042 -0.00000002
0.50044036 0.02266876 0.00000335
0.05208432 -0.30332789 -0.00000031
0.00652405 0.51007670 0.00000361
-0.08009163 0.26233941 -0.00000066
0.06324896 0.22952241 0.00000732
0.52764750 -0.37250951 -0.00000040
0.54805613 -0.05989355 -0.00000108
-0.00892610 0.10074590 -0.00000056
0.09756868 0.48921958 0.00000258
-0.16506240 0.37487119 -0.00000073
-0.37524208 -0.56906694 -0.00000014
0.07212707 -0.21333537 -0.00000037
-0.51134557 -0.04471116 -0.00000030
-0.30331406 0.01663918 -0.00000051
-0.62507063 0.31667128 0.31786919
0.76389641 -0.29472879 -0.00000126
0.58038545 -0.18825039 -0.00000093
-0.27222845 0.01371528 -0.00000051
0.11127426 -0.15986590 -0.00000040
0.50570321 -0.49101806 -0.00000019
0.49197736 -0.06603733 -0.00000089
0.72442061 0.05114059 -0.00000147
-0.10135801 -0.08949243 -0.00000044
0.39796507 -0.29912403 -0.00000031
-0.49347308 0.53380167 0.50968349
0.64682072 -0.31456682 -0.00000090
-0.12365745 -0.47328630 -0.00000020
0.21442486 0.04418232 0.00000805
-0.54324961 0.08756789 -0.00000029
0.76551378 -0.21766521 -0.00000146
-0.13393892 0.49132204 -0.00000080
-0.37136570 0.51275623 0.18864971
-0.61720031 -0.35026607 -0.00000013
-0.55748183 0.37290677 0.29240802
-0.55288047 -0.79722285 -0.00000000
-0.66515183 0.22128105 0.19383435
0.77843499 -0.49543568 -0.00000076
0.06879164 0.68795067 -0.00000031
0.03736163 0.14116319 0.00000914
0.03202436 0.64007908 0.00000112
-0.43859664 0.52266061 0.36163309
-0.14923635 0.71068603 0.13437890
-0.76938230 -0.14955220 -0.00000001
-0.46770534 0.54744440 0.48249197
0.10515311 -0.54034877 -0.00000016
0.03158228 0.38491178 0.00000527
-0.30061638 -0.37507221 -0.00000027
-0.09191416 -0.14405392 -0.00000041
-0.11346822 0.58056939 -0.00000084
0.45857257 -0.46455607 -0.00000021
0.70270890 -0.06490359 -0.00000156
-0.06468203 -0.10268508 -0.00000044
-0.62223095 -0.32720229 -0.00000013
0.63918948 -0.45489478 -0.00000060
-0.71873820 0.10114370 0.04458853
0.02097918 -0.10670713 -0.00000043
-0.00468834 -0.20108552 -0.00000037
0.33362904 0.36142141 0.00000047
0.52192217 0.03736784 0.00000267
-0.79263335 -0.63643599 0.00000000
-0.72632354 -0.46228659 0.00000000
0.52049512 0.23166583 -0.00000079
-0.79741538 -0.44204885 0.00000000
-0.07879182 -0.18927173 -0.00000038
-0.13115630 0.08114613 -0.00000055
-0.11161940 0.44124815 -0.00000078
0.58431649 -0.19826441 -0.00000092
0.61361045 -0.79719198 -0.00000000
-0.74025834 0.10527878 0.10212262
0.61762619 -0.17983018 -0.00000107
-0.19378798 -0.60981029 -0.00000012
-0.36590806 0.02729309 -0.00000047
0.10938813 -0.13823485 -0.00000041
0.16968592 0.49514502 0.00000121
0.35883698 -0.24623454 -0.00000035
-0.48524490 0.07771469 -0.00000035
-0.23820549 -0.15647510 -0.00000040
-0.41536775 -0.33033088 -0.00000029
-0.73978126 -0.61899060 0.00000000
0.33318040 0.30880550 0.00000142
-0.45476377 -0.66615093 -0.00000008
-0.04744017 -0.24498509 -0.00000035
0.31989133 -0.56360477 -0.00000015
-0.66700971 0.22688089 0.21055886
-0.35898143 0.57244706 0.29473889
-0.39816955 -0.04651100 -0.00000042
0.01778244 0.62047744 0.00000165
0.58853817 -0.27208239 -0.00000079
0.49835327 -0.08758599 -0.00000086
-0.08361850 -0.69318289 -0.00000007
-0.48980498 0.22623524 -0.00000037
-0.53448457 0.25990790 -0.00000033
-0.49791917 0.39111391 0.19966429
-0.34431064 -0.26303610 -0.00000034
-0.39899811 -0.70858455 -0.00000006
-0.56243956 0.41082060 0.38855127
0.23952340 0.21298464 0.00000492
-0.70579523 0.13313209 0.08729928
-0.52913302 0.45205709 0.40633482
-0.48191884 -0.13484257 -0.00000031
-0.43701953 -0.78822207 -0.00000001
-0.06216773 -0.61791617 -0.00000011
0.59407908 -0.44591916 -0.00000047
0.45874056 -0.58387345 -0.00000014
0.62888187 -0.49790829 -0.00000048
-0.37275395 -0.12018882 -0.00000042
-0.20253713 0.14287943 -0.00000059
0.66653103 -0.65910327 -0.00000029
