ply
format ascii 1.0
element vertex 1373
property float x
property float y
property float z
end_header
-0.62955338 -0.75619334 -0.00000003
0.59162223 0.02680504 0.00000152
-0.30768812 -0.26108807 -0.00000034
-0.51925701 0.39659581 0.17567410
-0.49273416 0.56453663 0.39011505
-0.51442337 -0.43423167 -0.00000023
-0.03077931 -0.53633112 -0.00000016
0.52270573 -0.63356543 -0.00000010
0.29332870 0.07586177 0.00000634
-0.61577779 0.29706472 0.17110990
0.46759081 -0.65822303 -0.00000009
-0.66366607 0.21202399 0.11477382
0.59190321 -0.05477381 -0.00000123
0.72286063 -0.65481824 -0.00000036
0.10123427 0.33052000 0.00000510
-0.07476406 0.01025211 -0.00000051
-0.23859471 -0.57092035 -0.00000014
0.12390679 0.23310027 0.00000634
0.57138968 -0.16369508 -0.00000095
-0.68771851 0.21077807 0.14935675
0.57916683 -0.42835733 -0.00000046
-0.37440401 -0.75675875 -0.00000003
0.59015834 -0.10482046 -0.00000112
0.05131800 0.47335556 0.00000353
-0.39115757 0.21598710 -0.00000048
-0.67952186 0.14364353 0.03512788
-0.23511469 -0.04437544 -0.00000047
-0.61414564 -0.14495134 -0.00000017
0.70323426 -0.40064591 -0.00000091
0.43143198 0.00482608 0.00000499
-0.48143113 -0.10974008 -0.00000032
-0.11922042 0.32294229 -0.00000070
0.68786675 -0.07662195 -0.00000149
0.36712649 -0.29130816 -0.00000032
-0.61310554 0.34882319 0.24554202
-0.07160978 0.70940799 -0.00000091
-0.43944046 -0.57103491 -0.00000014
-0.04118606 0.21244419 -0.00000063
0.24045148 -0.25535992 -0.00000034
-0.74318349 -0.06049689 -0.00000005
-0.11255875 0.74423009 0.08611039
-0.03292821 -0.70807564 -0.00000006
-0.78650922 -0.58829623 0.00000000
-0.61314684 -0.71797329 -0.00000005
-0.56760997 0.23678522 0.00666497
-0.22107051 -0.40660620 -0.00000025
-0.25789496 0.67432398 0.20049027
-0.73397201 0.13739353 0.10821665
-0.62232870 -0.38420203 -0.00000012
-0.47621083 -0.40650800 -0.00000025
-0.43771124 0.59768540 0.35694575
-0.53355229 0.49694410 0.34951526
-0.23783752 -0.69010192 -0.00000007
-0.50885922 -0.75279629 -0.00000003
-0.04011042 0.22942609 -0.00000064
-0.12517370 0.11069457 -0.00000057
-0.62061274 -0.31385574 -0.00000013
-0.32392392 -0.40608785 -0.00000025
-0.25239354 0.49494743 -0.00000067
0.03774699 -0.73694623 -0.00000004
-0.01603776 0.50136822 -0.00000081
-0.34654805 0.55672228 0.15659373
0.38407621 -0.24256799 -0.00000035
-0.00598904 -0.08615197 -0.00000045
-0.41797909 0.38798806 0.00904789
0.17200565 0.02952738 0.00000892
-0.65335441 0.32275176 0.26704028
-0.70170689 -0.36556643 -0.00000004
-0.05912888 0.22505499 -0.00000064
0.02964149 0.33635607 0.00000609
-0.22061329 0.21262756 -0.00000063
-0.43311501 0.57724655 0.31898338
-0.10433915 0.19622774 -0.00000062
0.01729993 0.34239385 0.00000618
-0.78419322 -0.30975655 0.00000000
-0.25916797 -0.60430223 -0.00000012
-0.23270655 0.63647467 0.10490196
-0.33125800 -0.59160608 -0.00000013
-0.07104061 0.26206684 -0.00000066
0.02254801 -0.52442282 -0.00000017
0.39581168 0.32961294 -0.00000016
0.76091969 -0.39503992 -0.00000101
0.05711977 -0.32755336 -0.00000030
0.40260711 0.23490223 0.00000141
-0.32212460 0.08834407 -0.00000053
0.56809109 0.12423482 0.00000022
-0.48736849 0.21183273 -0.00000037
0.25505081 0.38238490 0.00000160
0.73038274 -0.44056827 -0.00000090
-0.26423654 0.50819898 -0.00000066
-0.22983527 0.69600725 0.19082119
-0.11613142 0.21080706 -0.00000063
0.78420919 0.00705510 -0.00000182
0.61019319 -0.44463947 -0.00000053
-0.15670875 0.72590697 0.12527341
-0.71115696 -0.36015508 -0.00000003
-0.30616847 -0.49962565 -0.00000019
0.34182665 -0.19300643 -0.00000038
0.07741806 0.32451171 0.00000556
-0.47421467 -0.06747579 -0.00000034
-0.34949693 0.33891350 -0.00000054
0.33320549 -0.05892185 -0.00000046
-0.48904631 -0.14811392 -0.00000030
-0.06418785 0.73940134 0.00544029
-0.70025146 0.13790300 0.05785672
-0.40488362 0.43265194 0.05691674
-0.30704358 -0.51782888 -0.00000018
-0.10496940 0.47860077 -0.00000080
-0.58549923 0.49201775 0.42081586
-0.73288262 -0.25920808 -0.00000002
-0.21701349 -0.58145303 -0.00000014
0.23698707 -0.41491267 -0.00000024
-0.08369252 -0.64415962 -0.00000010
0.49265444 -0.67746311 -0.00000008
-0.18465269 0.52416289 -0.00000075
-0.31965214 0.56495184 0.12828872
-0.21678045 -0.32725161 -0.00000030
0.58999783 0.05828425 0.00000099
0.19491506 0.51934808 0.00000030
-0.12090896 -0.30133700 -0.00000031
-0.63394284 0.36548483 0.30240393
0.07052788 0.09832841 0.00000934
0.17219213 -0.44976297 -0.00000022
-0.41756418 -0.71530110 -0.00000005
0.00436857 0.67326570 0.00000099
-0.63940907 -0.42608735 -0.00000009
-0.35803077 0.12359961 -0.00000049
-0.57527351 0.28050366 0.08457835
0.32671282 0.39163402 0.00000006
0.17661807 -0.50610435 -0.00000018
-0.48250872 -0.18445066 -0.00000030
-0.46743047 0.44464809 0.16995072
0.11965333 0.43734777 0.00000309
0.78942919 -0.19337876 -0.00000152
-0.38245907 0.48863646 0.10780547
-0.23779429 0.48409376 -0.00000069
0.55841851 0.19933218 -0.00000094
-0.38268128 0.55577791 0.20995298
-0.12224141 0.37005344 -0.00000073
0.58345163 0.20693716 -0.00000156
-0.19227578 -0.70487982 -0.00000006
-0.28540900 0.60035843 0.13005275
0.55405706 -0.00044311 -0.00000121
0.28924316 -0.21339287 -0.00000037
-0.08409305 -0.35158154 -0.00000028
0.16968291 -0.72609967 -0.00000005
0.48488733 0.06751950 0.00000284
-0.61548972 -0.45183238 -0.00000011
-0.38173568 -0.31853130 -0.00000030
-0.54394311 0.44503161 0.28655326
-0.66562581 0.32264110 0.28548029
-0.14974816 -0.76768667 -0.00000002
0.17889732 0.31505293 0.00000418
0.67632216 -0.02630720 -0.00000155
0.71797395 -0.49270493 -0.00000077
-0.44402492 0.38373876 0.04209931
0.50520462 -0.53956687 -0.00000016
0.76127845 -0.06974111 -0.00000174
-0.59381598 -0.27317840 -0.00000017
-0.61633229 0.24390675 0.09134433
0.30897054 0.31633019 0.00000175
0.15115930 0.06725238 0.00000863
0.18459468 0.55908561 -0.00000022
-0.72566718 -0.07338661 -0.00000007
0.25211412 0.31114355 0.00000294
-0.53977549 -0.22602347 -0.00000024
0.35646254 -0.59237134 -0.00000013
-0.45834047 0.57230353 0.34973907
0.07292881 -0.50125492 -0.00000019
-0.26737511 -0.23540387 -0.00000035
-0.08930825 -0.15998708 -0.00000040
-0.47983485 0.22750501 -0.00000038
0.21412334 0.33220831 0.00000329
-0.63699436 -0.62562704 -0.00000006
-0.55290622 0.23356862 -0.00000031
0.56299096 -0.57479990 -0.00000014
0.21324188 -0.04267644 -0.00000047
0.78227293 -0.60729980 -0.00000048
0.32335147 -0.69520450 -0.00000007
0.07684155 0.33211747 0.00000544
-0.27400279 -0.52416950 -0.00000017
-0.11595578 0.33713424 -0.00000071
-0.37423953 0.56958556 0.21808966
-0.16994807 0.63894039 0.01347635
-0.33540455 -0.17316832 -0.00000039
-0.78148097 -0.07456872 -0.00000001
-0.34421968 -0.65918535 -0.00000009
0.69188225 -0.00830796 -0.00000164
0.58576846 -0.60613996 -0.00000013
0.03991374 0.37385938 0.00000532
-0.62136936 -0.00596979 -0.00000019
0.17256314 0.39469540 0.00000296
-0.64405036 -0.39867017 -0.00000009
-0.15869614 0.69671839 0.08402649
-0.58493078 0.07482791 -0.00000024
0.52638984 0.02834701 0.00000275
0.12636375 0.38792160 0.00000379
0.62264389 0.07098292 0.00000013
-0.38196370 0.47220495 0.08213832
-0.16864176 -0.11091062 -0.00000043
-0.06021962 -0.09127029 -0.00000044
-0.74307430 -0.24616733 -0.00000002
-0.18812019 -0.09782675 -0.00000044
-0.52057314 0.30093470 0.03261363
-0.02061536 -0.25538793 -0.00000034
0.03227101 -0.55571878 -0.00000015
0.75312817 -0.33997029 -0.00000115
-0.53789264 0.47205293 0.31835276
-0.00919885 0.58009607 -0.00000086
0.64364427 -0.13678302 -0.00000123
-0.61990082 0.30418649 0.18816105
0.30173635 -0.48899770 -0.00000019
0.19279812 0.27077591 0.00000469
0.37440541 0.09710388 0.00000443
0.48258874 0.14142774 0.00000156
-0.20072950 0.30865097 -0.00000069
-0.38589236 0.27754289 -0.00000049
0.55823851 0.05735066 0.00000161
-0.27594203 0.38064891 -0.00000063
-0.29671758 0.56095809 0.08745575
-0.78553951 -0.45085311 0.00000000
-0.62045211 -0.23646803 -0.00000015
-0.14756933 -0.15259072 -0.00000040
0.63076836 -0.34777519 -0.00000078
0.70333362 -0.55862796 -0.00000060
-0.60593480 -0.53058392 -0.00000011
-0.08493242 0.06782925 -0.00000054
0.50839978 -0.40697491 -0.00000027
-0.51962143 0.38922846 0.16505525
-0.00048075 0.43406132 -0.00000077
-0.76844084 0.06780514 0.05496310
0.51815015 -0.63961345 -0.00000010
-0.03587285 0.44568548 -0.00000078
0.19494623 -0.15689552 -0.00000040
-0.00707364 -0.25874364 -0.00000034
-0.51658493 -0.78555989 -0.00000001
-0.25584722 -0.53101647 -0.00000017
-0.52227950 -0.04194374 -0.00000029
-0.22342888 -0.72435820 -0.00000005
-0.02361238 0.13253018 -0.00000058
-0.68072909 -0.71130157 0.00000000
0.11162625 -0.03155851 -0.00000048
-0.32456645 -0.31072587 -0.00000031
0.08538713 -0.29116139 -0.00000032
-0.09868970 -0.32341114 -0.00000030
0.61854023 -0.48222575 -0.00000048
0.52326059 -0.56005692 -0.00000015
0.03995391 0.24336435 0.00000744
0.12238085 -0.30180478 -0.00000031
0.04059271 0.24242181 0.00000745
-0.26774675 0.30480823 -0.00000062
-0.22995643 0.33946124 -0.00000067
0.41488382 -0.49588591 -0.00000019
0.54917401 0.09969861 0.00000103
0.63944536 -0.60328323 -0.00000031
0.42975444 -0.38597265 -0.00000026
0.70027465 -0.05377367 -0.00000158
-0.44272032 0.52662587 0.25678906
0.44964966 0.32236984 -0.00000106
0.67475486 0.00397506 0.00000033
-0.33977073 0.23624226 -0.00000053
-0.23356438 0.68231380 0.17571162
-0.07272057 0.37155586 -0.00000073
-0.62762040 -0.02620750 -0.00000018
-0.15772437 -0.68304557 -0.00000007
0.24434996 -0.51054090 -0.00000018
0.22340581 -0.22783415 -0.00000036
0.35503528 0.25937578 0.00000189
-0.29177016 -0.70057446 -0.00000006
-0.36578542 -0.08725932 -0.00000045
-0.47381550 0.54534268 0.33232236
-0.28219175 -0.78604972 -0.00000001
-0.33698893 -0.37661415 -0.00000026
0.17005360 0.49809811 0.00000115
-0.34232399 0.51814079 0.09168528
-0.44303083 0.54373485 0.28320339
-0.34694734 -0.37325367 -0.00000027
0.47376662 -0.32741275 -0.00000032
-0.04472974 -0.17786129 -0.00000039
0.18143164 0.55113888 -0.00000002
0.21807732 -0.11565934 -0.00000043
-0.58894873 -0.25182477 -0.00000018
-0.02406520 0.24865697 -0.00000066
0.58675808 0.17399099 -0.00000103
-0.15607128 -0.11323049 -0.00000043
0.22851788 0.38801965 0.00000201
-0.15186498 -0.59690720 -0.00000013
-0.14905173 0.36637852 -0.00000073
-0.46690640 0.37403178 0.06207665
0.31372911 -0.37284502 -0.00000027
0.26234645 -0.10637358 -0.00000043
0.18390502 -0.31741118 -0.00000030
-0.02007801 -0.28676900 -0.00000032
-0.62533927 -0.76736099 -0.00000002
-0.46956706 0.41243237 0.12434009
0.00766620 0.31955776 0.00000669
0.22641300 -0.52549297 -0.00000017
-0.55413681 0.17414789 -0.00000029
-0.32779744 0.49372742 0.03263847
-0.05248859 0.09282400 -0.00000056
-0.57223791 0.43359980 0.31212381
-0.70345032 0.13510126 0.05845888
0.17166236 -0.41682759 -0.00000024
0.45335874 0.27587861 -0.00000030
-0.27359563 -0.69474500 -0.00000007
-0.39829147 -0.28427792 -0.00000032
-0.53944844 -0.45554274 -0.00000019
-0.02563201 0.19049495 -0.00000062
-0.03538344 -0.24601884 -0.00000035
0.58901805 -0.33339226 -0.00000067
-0.11621490 0.19978321 -0.00000062
-0.57757497 0.22623083 0.00577130
0.11627013 -0.26741186 -0.00000033
-0.14614038 0.33836406 -0.00000071
-0.05452267 -0.65126920 -0.00000009
-0.75930959 -0.25017586 0.00000000
-0.28149378 0.31524193 -0.00000061
0.09708277 0.66783130 -0.00000049
0.06228503 0.01350241 0.00001084
-0.17747371 0.56318319 -0.00000077
-0.30488127 0.55118316 0.08501256
0.15078732 -0.28930417 -0.00000032
-0.20754381 0.36729324 -0.00000070
-0.43327427 0.11432423 -0.00000041
-0.39718279 0.60964239 0.31362090
-0.49572480 0.51115125 0.31369823
-0.11491566 0.11583455 -0.00000057
0.15183777 -0.63487393 -0.00000010
-0.12263769 0.35100651 -0.00000072
-0.27128288 -0.11551836 -0.00000043
-0.24059160 0.17851786 -0.00000061
-0.51724225 -0.55763298 -0.00000015
-0.56961870 0.44000193 0.31786010
-0.36312050 0.31405383 -0.00000052
0.28746080 0.18410322 0.00000454
0.03019355 -0.62568414 -0.00000011
-0.03253362 0.36974129 -0.00000073
0.65650278 -0.63672346 -0.00000030
-0.04636646 -0.65952241 -0.00000009
0.36408067 -0.46140939 -0.00000021
-0.63337415 0.30378461 0.20798200
-0.32037520 -0.58635253 -0.00000013
-0.51064086 0.48804075 0.30127239
0.74674356 -0.54213232 -0.00000064
-0.03361958 0.04780439 -0.00000053
-0.47049928 0.45874569 0.19598109
-0.11191069 0.53377360 -0.00000083
0.11836554 0.50129080 0.00000207
-0.54791832 -0.27392840 -0.00000022
-0.70838821 -0.42343855 -0.00000002
-0.24668492 -0.19002256 -0.00000038
-0.34242702 0.49534157 0.05726982
0.64389080 -0.30852151 -0.00000090
-0.61573380 -0.15790612 -0.00000017
-0.52697116 -0.30142188 -0.00000024
0.33848903 -0.58514667 -0.00000013
-0.75147575 -0.69263989 0.00000000
-0.55996335 -0.11826554 -0.00000023
-0.31295928 0.24157707 -0.00000056
0.34460557 0.38186455 -0.00000011
-0.09625448 -0.73779029 -0.00000004
0.12980795 0.15967163 0.00000745
0.06529191 -0.72073501 -0.00000005
-0.21399672 0.68853080 0.15546715
-0.39311612 0.61633164 0.31759769
-0.45198089 -0.17500731 -0.00000034
0.22677565 -0.66467786 -0.00000008
-0.51795077 0.49675339 0.32556850
-0.05132579 -0.69338375 -0.00000007
-0.18175112 -0.07872975 -0.00000045
0.14224908 -0.77016658 -0.00000002
-0.41592830 0.45062307 0.10091510
-0.53601378 -0.25265086 -0.00000024
-0.20745713 0.63939887 0.07104886
0.19929199 0.21916074 0.00000543
0.01079672 -0.62900674 -0.00000011
-0.32410747 -0.44606897 -0.00000022
-0.41632473 -0.39542794 -0.00000025
0.59847081 -0.47170568 -0.00000043
0.25069293 -0.36861029 -0.00000027
0.44190744 0.32095146 -0.00000089
-0.58894241 -0.67370588 -0.00000008
0.09849486 -0.52374166 -0.00000017
0.79121113 -0.41816840 -0.00000095
-0.68463612 -0.40878427 -0.00000005
0.27251059 -0.73447853 -0.00000004
0.09310062 -0.17529082 -0.00000039
0.78234202 -0.71322685 -0.00000022
-0.29597685 -0.66955602 -0.00000008
0.64708853 -0.24228805 -0.00000104
-0.58515888 0.25671956 0.06350302
-0.42429280 0.10856465 -0.00000042
0.55888891 -0.08837969 -0.00000106
0.23601152 0.35134345 0.00000252
0.22628601 0.51844370 -0.00000029
-0.24859007 -0.32406959 -0.00000030
0.60308170 -0.60169041 -0.00000020
-0.46135640 0.13141266 -0.00000039
-0.10895102 -0.16096693 -0.00000040
0.25652161 -0.44353321 -0.00000022
-0.52557266 -0.54552490 -0.00000016
-0.57520288 0.42676285 0.30625245
0.21401501 0.11498452 0.00000690
0.18561628 0.23090957 0.00000545
-0.13037197 0.65292728 -0.00000083
0.79821616 -0.58197206 -0.00000055
-0.66624475 0.29466984 0.24400446
-0.17651866 0.63229060 0.01335631
0.76630718 -0.32627290 -0.00000118
-0.16694434 -0.53240663 -0.00000017
-0.21659271 -0.36888164 -0.00000027
-0.11749569 -0.74959362 -0.00000003
0.67951423 -0.14614022 -0.00000133
-0.34277496 0.27929759 -0.00000054
0.37816542 0.37029237 -0.00000055
-0.36248541 -0.03452406 -0.00000046
-0.21846858 -0.48383087 -0.00000020
-0.74938983 -0.58849758 0.00000000
-0.12263513 -0.72955483 -0.00000004
-0.21144740 -0.44912285 -0.00000022
-0.56604111 0.49114010 0.38997936
0.09232133 -0.13207833 -0.00000042
0.00552423 -0.13496262 -0.00000042
0.47024751 -0.49900439 -0.00000019
-0.43461275 0.58927274 0.33949062
-0.39636576 -0.41898796 -0.00000024
-0.45932183 -0.20534042 -0.00000033
-0.12671608 -0.52833611 -0.00000017
-0.25254333 0.48015067 -0.00000067
-0.44837716 0.58645838 0.35609490
-0.32364598 0.35725802 -0.00000057
0.06626782 -0.56682587 -0.00000015
-0.34899348 -0.45829275 -0.00000021
-0.50108451 0.21163927 -0.00000036
-0.23953246 0.09199630 -0.00000056
0.52837658 -0.16710185 -0.00000080
0.77841938 -0.66051811 -0.00000035
0.24125957 -0.79535085 -0.00000000
0.64851707 -0.08392199 -0.00000135
0.18711016 -0.30274484 -0.00000031
-0.17129312 -0.42282331 -0.00000024
0.14132708 0.40719649 0.00000325
-0.44724077 0.55387151 0.30495811
0.16367668 -0.07060772 -0.00000046
0.77667350 -0.43216673 -0.00000092
-0.07230496 -0.06284156 -0.00000046
0.49962577 0.05036979 0.00000286
-0.63333470 -0.49098536 -0.00000009
0.78248066 0.01315504 -0.00000197
0.66997278 -0.29613447 -0.00000101
-0.01488301 -0.33475626 -0.00000029
-0.01755102 -0.36478254 -0.00000027
0.73158908 0.06544820 -0.00000191
0.08140414 -0.64132792 -0.00000010
-0.65465581 -0.42242330 -0.00000008
0.03979413 -0.31875089 -0.00000030
0.08051674 -0.19934963 -0.00000038
-0.27756134 -0.27255148 -0.00000033
-0.19731420 0.17883015 -0.00000061
-0.41295540 -0.42607266 -0.00000023
0.54843491 -0.28763035 -0.00000063
0.79611862 -0.27546415 -0.00000131
0.32940009 0.18233722 0.00000376
-0.16322115 0.66488773 0.04262133
0.44041300 -0.07915013 -0.00000069
0.71703678 -0.12418087 -0.00000149
-0.34721068 0.16502807 -0.00000051
0.09612084 -0.17278768 -0.00000039
-0.09530082 -0.26461107 -0.00000033
-0.60954225 -0.40885407 -0.00000013
0.28046864 -0.79204047 -0.00000000
-0.38590103 -0.27899694 -0.00000033
0.00058291 0.15679272 0.00000944
-0.66292077 -0.63950902 -0.00000003
-0.44205317 0.50571543 0.22406955
0.06254198 -0.41263384 -0.00000024
-0.63439596 -0.55689287 -0.00000007
0.76796842 -0.25917354 -0.00000135
-0.36578754 0.18488225 -0.00000050
-0.22669758 0.64804137 0.11332949
-0.11629588 -0.10702264 -0.00000043
-0.52038246 -0.66051096 -0.00000009
-0.13944826 0.01248126 -0.00000051
-0.25253576 0.21110488 -0.00000062
0.34828135 0.35561532 0.00000029
0.02699369 0.26708546 0.00000725
0.55392456 0.01894324 0.00000239
0.11172657 -0.61254990 -0.00000012
-0.50036198 0.50059217 0.30471841
-0.02937972 -0.36903903 -0.00000027
0.09657465 0.18694288 0.00000750
-0.35109407 -0.03653800 -0.00000047
0.14517380 -0.44458696 -0.00000022
0.46700698 -0.55990803 -0.00000015
-0.25777119 -0.70618314 -0.00000006
-0.37109789 -0.45412004 -0.00000022
0.45657405 0.27243912 -0.00000030
0.20495437 -0.38832796 -0.00000026
0.15208153 -0.44766343 -0.00000022
0.34589535 -0.11368143 -0.00000043
-0.11700765 -0.17638883 -0.00000039
-0.46845382 0.51287109 0.27495325
0.10209240 0.15198033 0.00000799
-0.35392627 0.63546377 0.28718272
-0.49791369 -0.37424642 -0.00000025
0.12401303 -0.61450803 -0.00000012
-0.54535639 0.07017634 -0.00000028
0.74705017 -0.08141123 -0.00000167
0.01054262 0.77102363 -0.00000069
-0.27224410 0.20026626 -0.00000060
0.32206687 -0.69751608 -0.00000006
-0.19317974 0.03566674 -0.00000052
-0.28159013 -0.76011676 -0.00000002
-0.18780945 -0.48889533 -0.00000019
-0.49506789 -0.08532439 -0.00000031
-0.54450101 0.41267559 0.23833576
0.52048779 -0.12250201 -0.00000087
-0.44045153 0.28086382 -0.00000044
0.72777998 -0.51722080 -0.00000071
-0.03559513 0.76311982 -0.00000096
-0.10597786 0.70965588 0.02370435
-0.62516922 -0.27464655 -0.00000014
-0.26803708 -0.42861417 -0.00000023
0.27231359 0.27724656 0.00000316
-0.58413887 -0.67352265 -0.00000008
0.68834853 -0.67432296 -0.00000031
-0.79115659 -0.18719241 0.00000000
-0.01614175 0.03782742 -0.00000052
-0.70644957 -0.36340696 -0.00000003
-0.24960326 0.61284947 0.09469919
0.51488018 0.06419687 0.00000232
0.09529934 0.31615975 0.00000542
-0.52700907 0.55353606 0.42540750
-0.37078220 0.60784686 0.27086520
-0.10692679 0.25297919 -0.00000066
-0.75740439 -0.77614933 0.00000000
-0.24975304 -0.58250326 -0.00000014
0.34054631 -0.36230680 -0.00000027
0.02662269 -0.09077475 -0.00000044
-0.66334140 0.24639063 0.16639349
0.54866642 -0.60634208 -0.00000012
-0.25155604 0.24266689 -0.00000063
-0.57428771 -0.65944970 -0.00000009
0.13278227 -0.67400521 -0.00000008
0.62360698 -0.11154596 -0.00000122
-0.00706846 -0.38188288 -0.00000026
0.16220407 0.62608498 -0.00000099
0.75519389 -0.48090443 -0.00000080
-0.58710945 -0.38627028 -0.00000016
-0.77110302 -0.34164786 0.00000000
0.06587684 0.59445488 0.00000135
-0.13448519 -0.03786968 -0.00000048
-0.56744903 -0.03268270 -0.00000024
0.54026270 0.07776157 0.00000159
-0.12519930 0.70635247 0.04784177
-0.63597035 0.14893226 -0.00000020
0.00041020 -0.71066499 -0.00000006
0.60639101 -0.23208931 -0.00000093
-0.19388849 -0.09240815 -0.00000044
-0.26324570 -0.56295192 -0.00000015
0.47178912 -0.49228510 -0.00000019
-0.63500422 0.29922953 0.20354673
0.02318505 0.32610691 0.00000635
0.50332272 -0.07995628 -0.00000089
0.26741707 0.07852862 0.00000669
-0.67036307 0.00154092 -0.00000014
0.61324954 -0.73803031 -0.00000004
-0.03820163 0.15088966 -0.00000059
0.57227552 -0.41494972 -0.00000046
0.52010107 -0.51824772 -0.00000018
0.61974567 -0.14218467 -0.00000115
-0.19530092 0.24014205 -0.00000065
-0.42217886 0.35631359 -0.00000047
0.51103586 -0.58332258 -0.00000014
0.21467420 0.15290628 0.00000628
0.28135106 -0.45553839 -0.00000022
0.08728715 0.30780387 0.00000568
-0.38778210 -0.42134082 -0.00000024
-0.43060163 0.48768568 0.17936519
0.76382202 -0.70581532 -0.00000024
-0.05094096 0.61343879 -0.00000088
0.56524837 -0.10636225 -0.00000104
-0.44767863 -0.73550320 -0.00000004
0.66108716 -0.33221158 -0.00000091
0.00354430 -0.46601051 -0.00000021
0.71020120 -0.56022835 -0.00000060
-0.32009828 0.63485175 0.23495902
-0.76742089 -0.76356608 0.00000000
-0.36825854 -0.30102012 -0.00000031
-0.17341433 -0.23326972 -0.00000035
-0.41516006 0.51809168 0.20205659
-0.51610261 0.38887355 0.15918124
0.06007303 -0.55113083 -0.00000016
0.58740228 0.06692035 0.00000088
-0.07393269 0.32390720 -0.00000070
0.18682075 -0.30693406 -0.00000031
-0.37641248 0.09410859 -0.00000047
0.45670921 -0.68421471 -0.00000007
0.74356949 -0.47893375 -0.00000080
0.16426060 0.25618368 0.00000536
0.49342054 -0.73485917 -0.00000004
0.61892146 -0.30929235 -0.00000082
0.55930930 -0.31198528 -0.00000062
-0.61488849 -0.46354616 -0.00000011
-0.59925634 -0.22299579 -0.00000017
-0.23249552 -0.30318284 -0.00000031
-0.54391307 -0.49943593 -0.00000018
-0.56027895 0.42571992 0.28204080
-0.33690414 0.42855403 -0.00000057
-0.33199701 -0.11127477 -0.00000043
0.16621442 -0.47200310 -0.00000020
-0.35728499 0.50312322 0.09159955
-0.26962492 -0.69370526 -0.00000007
-0.49206349 0.42740369 0.18115461
0.72919780 -0.03462009 -0.00000171
-0.61764652 0.19032712 0.01209147
-0.41598234 -0.58993518 -0.00000013
-0.76631957 -0.22122076 0.00000000
-0.57646918 -0.69038832 -0.00000007
-0.53335446 0.32389528 0.08681110
-0.51931494 -0.39783338 -0.00000023
-0.13955797 0.48861924 -0.00000079
-0.63575131 -0.34798083 -0.00000011
-0.30775759 0.60793895 0.17543633
0.57129824 -0.16916329 -0.00000094
0.78088266 -0.32488018 -0.00000119
-0.48543581 -0.59668565 -0.00000013
0.30834028 -0.36484736 -0.00000027
-0.78868252 -0.10763178 0.00000000
0.19001929 -0.77321976 -0.00000002
0.45876446 0.18816860 0.00000117
-0.62862021 0.35220402 0.27419436
0.56715661 0.15977757 -0.00000040
-0.32597059 -0.68461913 -0.00000007
0.20732626 -0.71103925 -0.00000006
0.35033768 -0.00589566 -0.00000055
-0.78895718 0.01443672 0.00514777
-0.09663151 0.39804381 -0.00000075
0.55811864 -0.23599704 -0.00000077
-0.70681661 -0.37633714 -0.00000003
0.10914913 -0.28147551 -0.00000032
-0.28569984 -0.38021243 -0.00000026
-0.71504360 -0.05652965 -0.00000008
0.71901643 -0.68259758 -0.00000029
-0.04755040 -0.09968462 -0.00000044
-0.54760319 -0.29479060 -0.00000022
-0.27258545 -0.41951403 -0.00000024
-0.10361594 0.73497432 0.05851462
0.38462716 -0.70020413 -0.00000006
0.10393391 -0.56653410 -0.00000015
-0.70764554 0.14627796 0.08176818
0.47425351 -0.18859136 -0.00000059
-0.77633864 -0.55507421 0.00000000
-0.53433740 0.35019034 0.12817419
-0.61167997 0.30551511 0.17770988
-0.20262723 -0.54810739 -0.00000016
0.70729357 -0.47842491 -0.00000077
-0.13238657 0.18765642 -0.00000062
-0.75577945 0.09139016 0.07152711
-0.70524561 -0.03119006 -0.00000010
-0.54970574 -0.57650208 -0.00000014
-0.77355349 0.05096099 0.03717406
0.24305549 -0.50371486 -0.00000019
0.25901198 -0.07186167 -0.00000046
-0.26270774 0.38945067 -0.00000064
0.15994971 -0.30822572 -0.00000031
-0.65277833 -0.17673376 -0.00000012
-0.14138758 -0.10890372 -0.00000043
-0.57181937 -0.03848210 -0.00000024
0.35411346 0.09988740 0.00000477
-0.44057524 0.51699847 0.23893765
-0.22164117 -0.69608557 -0.00000006
-0.43102801 -0.36852410 -0.00000027
0.22409755 -0.24239878 -0.00000035
0.68931478 -0.72110730 -0.00000020
-0.11781166 -0.35750163 -0.00000028
0.59509867 -0.60746580 -0.00000016
-0.27332115 0.30997479 -0.00000062
-0.06261954 0.39875814 -0.00000075
-0.76024276 -0.24105473 0.00000000
-0.40974364 0.24315763 -0.00000046
-0.64763200 -0.62422860 -0.00000005
0.47032034 -0.79726601 -0.00000000
-0.13243024 0.06494978 -0.00000054
-0.44527119 0.45707706 0.15519603
0.27565786 -0.21198848 -0.00000037
-0.49894503 -0.50376141 -0.00000019
0.16802023 0.54817545 0.00000029
0.68536299 -0.47134814 -0.00000071
-0.22038113 -0.39049137 -0.00000026
-0.56935298 -0.34616020 -0.00000018
-0.48373494 0.25039184 -0.00000038
-0.60638887 -0.67390198 -0.00000008
-0.64416736 -0.46121314 -0.00000008
0.05931360 -0.22660722 -0.00000036
-0.14551525 0.72967577 0.11401484
-0.55371720 0.27354008 0.04133192
0.44351029 0.06002070 0.00000377
-0.46081755 -0.48841229 -0.00000019
-0.72525465 -0.14310516 -0.00000005
-0.64553666 -0.73352814 -0.00000003
-0.52607363 0.19724952 -0.00000033
-0.40980166 -0.09648601 -0.00000040
-0.53150207 -0.70376152 -0.00000006
-0.62319690 0.22265944 0.06953513
-0.14321668 -0.19604264 -0.00000038
0.42565462 0.28178251 0.00000013
0.30435386 -0.09359900 -0.00000044
0.77408570 -0.70078343 -0.00000025
0.32571653 0.28527883 0.00000199
0.26358077 -0.16961348 -0.00000039
-0.06074269 -0.06690993 -0.00000046
-0.30032551 0.50961614 0.01507406
-0.61588275 0.27647164 0.14004263
0.74359781 -0.78523785 -0.00000004
-0.08012783 0.73927814 0.02942416
0.13110887 -0.63610148 -0.00000010
-0.44346216 -0.69294804 -0.00000007
0.53097254 -0.53542143 -0.00000017
0.12670419 -0.08228500 -0.00000045
0.54987037 0.07716527 0.00000142
-0.47196048 -0.33871576 -0.00000029
-0.12582508 -0.50518274 -0.00000018
0.44527602 -0.00599458 -0.00000085
-0.14978340 -0.34068853 -0.00000029
-0.62210488 0.29175988 0.17266001
0.04901695 -0.38603055 -0.00000026
0.75309855 -0.50420451 -0.00000074
-0.78122926 -0.28997070 0.00000000
-0.56407446 -0.15879168 -0.00000022
-0.16557787 -0.52118587 -0.00000017
0.14248665 0.27677578 0.00000535
-0.47979662 0.17076929 -0.00000037
0.69307846 -0.12602568 -0.00000141
-0.45404714 -0.12079120 -0.00000035
-0.56375253 -0.16998789 -0.00000022
-0.41386393 -0.10053253 -0.00000039
0.34193841 -0.22469530 -0.00000036
-0.21590327 -0.41769028 -0.00000024
-0.34703910 0.46665406 0.02076287
-0.22840963 -0.35044336 -0.00000028
-0.61824656 -0.65668511 -0.00000007
0.26874593 0.38588655 0.00000127
-0.53904897 0.10726753 -0.00000030
-0.35860753 0.10706617 -0.00000049
0.29776940 0.49741283 -0.00000136
0.00477338 -0.08493316 -0.00000045
-0.56141400 0.25669819 0.02746482
0.47552800 -0.46359810 -0.00000021
-0.12010751 0.12323334 -0.00000058
0.60838836 0.10032459 -0.00000012
-0.41410601 -0.03834874 -0.00000040
0.20546041 0.16406859 0.00000623
0.39953509 -0.67006254 -0.00000008
0.42001545 0.37920329 -0.00000152
-0.55146021 -0.23615663 -0.00000022
-0.45133623 -0.72464752 -0.00000005
-0.09711025 -0.08223397 -0.00000045
-0.51441729 -0.56665295 -0.00000015
-0.42853495 -0.07608070 -0.00000038
-0.03178715 0.07765490 -0.00000055
-0.60392678 0.42685565 0.34994915
-0.74358094 0.07768283 0.03224466
0.14846139 0.16915546 0.00000701
-0.07979097 0.42838666 -0.00000077
-0.13012631 -0.62056768 -0.00000011
0.42866591 -0.75064468 -0.00000003
0.48172140 -0.69483352 -0.00000007
0.41146657 0.07408673 0.00000413
0.00962338 0.56052703 0.00000275
0.47533187 -0.50376815 -0.00000019
0.62460476 0.16809976 -0.00000165
0.34846097 -0.15776217 -0.00000040
-0.60852093 0.26157320 0.10628810
0.25341344 -0.20593598 -0.00000037
0.09736093 0.25132528 0.00000645
0.06285038 -0.79764724 -0.00000000
0.10929021 -0.20240881 -0.00000037
-0.08446338 -0.19507274 -0.00000038
0.18260704 0.50577110 0.00000078
-0.04490622 -0.37773526 -0.00000026
-0.23461981 0.01886493 -0.00000051
-0.15337618 -0.04079338 -0.00000047
-0.14747335 0.34334460 -0.00000071
-0.23853622 -0.63237107 -0.00000010
0.02179193 -0.59986198 -0.00000013
0.03868608 -0.01610287 -0.00000049
-0.01009051 -0.42839089 -0.00000023
-0.48374811 0.43330431 0.17749295
-0.25140500 -0.12948640 -0.00000042
0.54232073 -0.66045362 -0.00000009
0.38288283 -0.76916510 -0.00000002
-0.28691673 0.07789373 -0.00000055
0.04169723 -0.46665004 -0.00000021
0.14793055 -0.34255508 -0.00000029
-0.06708474 0.19553469 -0.00000062
0.69578934 -0.43016109 -0.00000083
-0.21674833 0.24013159 -0.00000065
-0.56350559 -0.46151787 -0.00000017
0.04543161 -0.43181038 -0.00000023
0.23750015 -0.62799209 -0.00000011
0.41475248 -0.68735242 -0.00000007
-0.39909664 -0.58467716 -0.00000013
-0.54748309 0.11643109 -0.00000029
-0.30952558 0.62152368 0.19871671
0.04495344 -0.60746741 -0.00000012
-0.61031580 0.04832242 -0.00000021
0.39389566 -0.52998102 -0.00000017
-0.09007437 0.64716780 -0.00000088
-0.57135373 -0.62737107 -0.00000011
0.42164943 -0.29729259 -0.00000031
-0.45413548 0.53746736 0.29053837
0.67987418 -0.58935314 -0.00000047
-0.61189616 0.01048798 -0.00000020
0.10196827 0.04969824 0.00000965
-0.29921111 -0.64850497 -0.00000009
-0.48369241 -0.77303481 -0.00000002
-0.04162057 0.11507890 -0.00000057
0.41565964 0.32401040 -0.00000044
0.72864413 -0.00947585 -0.00000175
0.11461322 0.05181970 0.00000943
0.41901252 0.33529440 -0.00000070
-0.79141390 -0.28376299 0.00000000
-0.44823074 0.32382935 -0.00000043
-0.62296605 -0.67140156 -0.00000007
-0.45050311 -0.28112298 -0.00000032
0.35384151 -0.54141593 -0.00000016
0.25730732 0.22347657 0.00000441
-0.61435795 -0.67370945 -0.00000007
-0.15149748 0.40560088 -0.00000075
0.31385821 0.06678795 0.00000614
-0.73692089 -0.03452696 -0.00000006
0.04084297 0.66434658 0.00000059
-0.73334736 -0.30351469 -0.00000002
-0.42274922 -0.26962304 -0.00000033
0.29867414 -0.47107437 -0.00000021
-0.63634998 -0.05447563 -0.00000016
0.36162001 -0.15694451 -0.00000040
0.19460919 -0.27319691 -0.00000033
0.40651467 0.30432633 0.00000009
0.24343617 0.43685070 0.00000085
-0.42837718 -0.35044515 -0.00000028
0.45956266 -0.36095920 -0.00000027
0.52817249 -0.24974230 -0.00000064
-0.26699287 -0.30401480 -0.00000031
0.07854426 -0.18014863 -0.00000039
0.76842153 -0.54613787 -0.00000063
0.02184384 -0.73423272 -0.00000004
-0.44868967 0.36492148 0.02063906
-0.07895371 0.20132826 -0.00000063
-0.64086026 0.17296837 0.02096981
-0.47024563 0.52356350 0.29388386
-0.66645563 -0.73500913 -0.00000001
0.14148973 -0.47736913 -0.00000020
0.45253587 0.04133120 0.00000393
0.72053713 -0.08062128 -0.00000159
0.18641813 -0.20138629 -0.00000037
-0.21448545 0.21835200 -0.00000064
0.44959363 0.04697463 0.00000389
-0.16688703 0.08654950 -0.00000055
-0.47383776 -0.03491744 -0.00000034
0.07558089 -0.40400052 -0.00000025
-0.69585347 0.10210533 -0.00000013
-0.46451262 0.21105468 -0.00000040
0.33697945 -0.14485498 -0.00000041
-0.29923168 0.21608590 -0.00000057
-0.32833707 0.50580329 0.05176801
0.21398392 0.57300663 -0.00000103
0.23915765 -0.68114889 -0.00000007
-0.37889895 0.45864525 0.05692970
-0.37656319 -0.57262903 -0.00000014
-0.03362827 0.69139755 -0.00000093
0.13839979 -0.48468268 -0.00000020
-0.36875558 -0.06723637 -0.00000045
0.05741555 0.69035715 -0.00000013
-0.04168402 -0.29751775 -0.00000031
0.06134159 -0.72530538 -0.00000005
-0.41829288 0.10730572 -0.00000043
-0.06359477 0.66878265 -0.00000091
-0.06650602 0.06161454 -0.00000054
0.36840272 -0.32664272 -0.00000030
-0.01149003 0.78668541 -0.00000099
-0.17246725 -0.65187794 -0.00000009
-0.44834200 -0.79257137 -0.00000000
-0.50597781 0.34023702 0.07007812
0.74375337 -0.24663866 -0.00000134
0.19730707 -0.55906659 -0.00000015
0.00471047 0.44470656 0.00000470
0.35918537 0.12132220 0.00000429
-0.66342920 -0.09591484 -0.00000013
-0.55282152 -0.15620428 -0.00000024
-0.05476654 0.63299125 -0.00000090
0.60794210 -0.62000179 -0.00000018
0.35333329 0.36389062 0.00000004
0.29111770 -0.29677111 -0.00000031
-0.60561293 0.16801251 -0.00000024
0.23648532 0.45371014 0.00000068
-0.06421161 -0.46258464 -0.00000021
0.53452468 -0.09900450 -0.00000096
-0.75990033 -0.35184154 0.00000000
-0.37449798 0.61994213 0.29484060
-0.17116901 0.70812905 0.12024271
0.71480113 -0.62965751 -0.00000043
-0.55154252 0.35977164 0.16879199
0.57137841 -0.60167664 -0.00000012
-0.60140997 0.23219183 0.05095280
-0.55850810 0.26654461 0.03798905
-0.38764083 0.24085277 -0.00000048
0.68028980 -0.54937571 -0.00000055
0.33809227 -0.39628705 -0.00000025
0.21441860 -0.04560246 -0.00000047
0.14006573 -0.07731038 -0.00000045
-0.22746566 -0.73863542 -0.00000004
-0.05501426 -0.07905339 -0.00000045
-0.04566877 0.56270230 -0.00000085
-0.53875774 0.25776884 -0.00000033
-0.57450622 -0.12317609 -0.00000022
-0.16261557 -0.71384788 -0.00000005
-0.16784136 0.31842569 -0.00000070
0.52551949 -0.31965554 -0.00000050
0.32541773 -0.48916453 -0.00000019
-0.18537480 0.06019750 -0.00000054
0.22569463 0.47395110 0.00000052
0.41326511 -0.16850317 -0.00000043
0.60707819 -0.30180347 -0.00000079
0.42148817 0.29777393 -0.00000008
0.31619775 0.22999904 0.00000316
-0.07068490 0.17295679 -0.00000061
-0.73451179 0.14542529 0.12121417
0.75083023 -0.63897026 -0.00000040
-0.06228385 -0.06417569 -0.00000046
-0.45105851 -0.45838428 -0.00000021
-0.50710267 -0.69033068 -0.00000007
-0.75918651 0.07675054 0.05449461
0.29466653 -0.77470702 -0.00000002
-0.23958872 -0.44777179 -0.00000022
0.46645975 0.00245628 0.00000436
-0.74778324 -0.21843027 -0.00000002
0.41387370 -0.05329408 -0.00000066
-0.40256083 -0.33163843 -0.00000029
0.41318411 -0.56632984 -0.00000015
0.00588888 -0.75530797 -0.00000003
-0.45606676 -0.69050914 -0.00000007
0.37434816 -0.53633171 -0.00000016
-0.53422403 0.50575793 0.36389893
-0.20848469 -0.10851094 -0.00000043
-0.51238209 0.42107695 0.20237137
-0.20841552 0.31124553 -0.00000069
-0.65932173 -0.00454488 -0.00000015
-0.11937085 0.66350263 -0.00000085
0.48526490 -0.78684849 -0.00000001
-0.42811623 -0.66067868 -0.00000009
0.49641281 -0.74113816 -0.00000004
-0.62128896 -0.39281467 -0.00000012
-0.67398441 -0.01849945 -0.00000013
0.45443594 -0.41992906 -0.00000024
-0.56630504 -0.47433600 -0.00000016
-0.04097076 -0.34841818 -0.00000028
0.03612560 0.75155783 -0.00000082
0.10208759 0.19243854 0.00000733
-0.45423511 -0.74381644 -0.00000004
-0.43078870 -0.19872305 -0.00000036
-0.50738388 0.45376194 0.24435443
-0.11611437 0.38088587 -0.00000074
-0.48082125 -0.08734429 -0.00000032
-0.28109461 0.54671580 0.04216932
-0.04746271 0.46604845 -0.00000079
-0.12881684 0.24339780 -0.00000065
-0.55693203 0.00319804 -0.00000026
0.17287840 -0.44432142 -0.00000022
-0.08001873 0.30834490 -0.00000069
-0.33695483 -0.09387441 -0.00000044
-0.45940024 -0.51313835 -0.00000018
-0.69083202 -0.56510210 -0.00000001
-0.31460547 -0.53508449 -0.00000017
0.52551782 0.09894897 0.00000149
-0.43476668 0.43887398 0.11166503
-0.06723010 0.12203371 -0.00000058
0.15657578 -0.20749345 -0.00000037
-0.34763080 -0.53736621 -0.00000016
0.43336385 -0.62603664 -0.00000011
0.44532239 0.07545908 0.00000346
-0.56315112 0.33565325 0.14982279
0.48545370 0.17709923 0.00000086
-0.29187417 0.66552240 0.23866883
-0.76913363 -0.40925875 0.00000000
0.34330639 -0.51216352 -0.00000018
0.50800282 -0.11521283 -0.00000084
-0.45532531 -0.53306347 -0.00000017
-0.44234759 -0.13327800 -0.00000036
-0.09764039 -0.75966281 -0.00000003
0.67817253 -0.64252728 -0.00000036
0.56602961 0.21078098 -0.00000129
-0.08639901 0.43602079 -0.00000077
0.14361012 0.00896252 0.00000969
-0.42503121 0.02140959 -0.00000040
-0.13603012 0.35134700 -0.00000072
-0.53724921 0.38068098 0.17882425
0.12988929 0.29327127 0.00000527
-0.10236085 -0.67928225 -0.00000008
-0.28800011 -0.65776563 -0.00000009
0.74006021 -0.54327106 -0.00000064
0.63456279 -0.33640799 -0.00000081
0.51012391 0.22928663 -0.00000055
0.18112695 -0.33341286 -0.00000029
0.53211969 0.07071043 0.00000187
0.24601439 -0.26173103 -0.00000034
-0.40843409 -0.38352028 -0.00000026
0.42954284 0.04321729 0.00000434
0.08557990 0.36968526 0.00000470
-0.07808013 -0.09292583 -0.00000044
0.43626186 -0.00522040 -0.00000083
0.78798723 -0.50733852 -0.00000073
0.67514116 -0.04304831 -0.00000152
0.55552351 -0.01882526 -0.00000118
0.43142608 -0.67835659 -0.00000008
-0.16285264 0.43674508 -0.00000076
-0.31859517 -0.33108008 -0.00000029
-0.01106265 -0.72764713 -0.00000005
-0.15387149 0.72234547 0.11557060
-0.07598752 0.72190362 -0.00000090
-0.48227876 -0.16522747 -0.00000031
0.10807493 -0.03605202 -0.00000048
0.15043981 0.42166829 0.00000288
0.47057599 0.12994397 0.00000199
-0.33321980 -0.19596837 -0.00000038
-0.36023962 -0.03900373 -0.00000046
0.43488798 0.20111586 0.00000140
0.13337199 -0.21214080 -0.00000037
-0.37672970 -0.43725553 -0.00000023
-0.12163342 -0.35637420 -0.00000028
0.16887273 -0.14934325 -0.00000041
-0.09046573 0.29967251 -0.00000069
0.64732993 -0.12986173 -0.00000126
0.29387018 -0.10146363 -0.00000044
-0.17296857 0.15835834 -0.00000060
-0.71618134 -0.59393901 0.00000000
0.14097248 -0.16389334 -0.00000040
-0.26387307 -0.19437149 -0.00000038
0.16372322 -0.27801919 -0.00000033
0.56500423 0.13735206 0.00000005
-0.44770989 0.43828642 0.13040066
-0.04291803 0.07753487 -0.00000055
-0.07745946 0.22208004 -0.00000064
-0.23915540 0.62117934 0.09148753
-0.59367532 0.25419909 0.07259504
0.05374640 0.06767697 0.00001009
-0.28869894 -0.79640377 -0.00000000
-0.10917551 0.64647961 -0.00000086
-0.74883759 -0.18406957 -0.00000002
0.19815847 -0.72421879 -0.00000005
-0.76022631 -0.27788410 0.00000000
-0.11474758 -0.64814913 -0.00000009
0.25380665 -0.25387484 -0.00000034
0.01426507 -0.15176922 -0.00000041
-0.65611064 -0.06791037 -0.00000014
0.54495829 0.22523274 -0.00000115
0.02726826 -0.06160537 -0.00000046
-0.47190601 -0.31693250 -0.00000029
0.65438759 -0.15376702 -0.00000123
-0.30734113 0.19057207 -0.00000056
-0.71600896 -0.01240611 -0.00000009
-0.03086881 -0.41402614 -0.00000024
-0.14560106 0.40398422 -0.00000075
0.00302072 0.61717772 0.00000193
0.24654622 -0.28494859 -0.00000032
-0.74048078 0.09072553 0.04732108
0.74560523 -0.30641136 -0.00000123
0.03184717 0.02555804 0.00001110
0.70216608 -0.22706962 -0.00000124
-0.47852555 0.47298181 0.22973894
-0.76682776 -0.08432336 -0.00000002
0.58796471 -0.41068849 -0.00000052
0.67779493 -0.60354149 -0.00000043
-0.35691816 0.52604336 0.12579845
-0.03851211 -0.46696132 -0.00000021
0.67327213 -0.19239256 -0.00000122
0.16623877 -0.73139709 -0.00000004
-0.64800215 0.35157120 0.30262488
-0.62413436 0.17789853 0.00308324
0.32995522 -0.73982173 -0.00000004
-0.05538259 0.46091121 -0.00000079
-0.37843123 0.54127222 0.18151237
-0.29388589 0.52322644 0.02594728
0.22286634 -0.13461645 -0.00000042
-0.32997030 -0.32509962 -0.00000030
0.46440431 0.14591925 0.00000183
-0.08903334 -0.19601645 -0.00000038
-0.24435912 0.40677571 -0.00000067
0.09487198 0.26756880 0.00000622
-0.26981285 -0.01160861 -0.00000049
-0.72476232 -0.44797933 0.00000000
0.06776759 -0.67447585 -0.00000008
0.10215841 -0.17406216 -0.00000039
0.00008086 0.59565347 0.00000232
-0.59366614 0.47180098 0.40254381
-0.50801659 0.27125329 -0.00000036
0.12266928 0.25569972 0.00000599
-0.24103938 -0.45996311 -0.00000021
-0.37971202 0.39893854 -0.00000052
-0.33406529 0.50964272 0.06627603
0.23127422 -0.42977875 -0.00000023
0.20255940 0.52337003 0.00000008
-0.03146895 0.45115575 -0.00000078
-0.74995399 -0.07756806 -0.00000004
0.08787857 0.53224158 0.00000203
-0.32203275 0.61676610 0.21046789
-0.71443230 -0.13890360 -0.00000007
-0.57463259 0.51929677 0.44570300
0.18489656 0.06688333 0.00000812
-0.19797613 0.10640534 -0.00000057
-0.27928185 -0.47594342 -0.00000020
-0.60177594 -0.65636241 -0.00000009
-0.14943713 -0.60427433 -0.00000012
0.67086643 -0.56419188 -0.00000049
0.33229119 -0.36256954 -0.00000027
-0.62591290 0.26460367 0.13725586
0.19385770 -0.25472757 -0.00000034
-0.51811337 0.43178970 0.22730637
-0.28500098 0.51540005 0.00060706
-0.30297014 -0.34693694 -0.00000028
-0.49868730 0.22356325 -0.00000036
-0.25987044 -0.72618353 -0.00000005
-0.21631108 -0.25870949 -0.00000034
-0.28624111 -0.35376480 -0.00000028
-0.35918933 -0.05107206 -0.00000046
0.64036077 -0.04687978 -0.00000140
-0.43190405 0.50322646 0.20490555
-0.02435944 -0.04960613 -0.00000047
-0.33664125 -0.37622976 -0.00000026
-0.11214822 0.46363208 -0.00000079
-0.68113029 0.11671224 -0.00000015
-0.13052644 0.44518977 -0.00000078
0.26169959 -0.62198359 -0.00000011
0.37139064 0.30849245 0.00000069
0.19931458 0.34745130 0.00000330
0.71629971 -0.68223089 -0.00000029
-0.53841394 -0.23881748 -0.00000024
0.07630728 -0.31335080 -0.00000030
-0.15650077 0.73581916 0.13998856
-0.08527465 0.40745792 -0.00000075
-0.69358855 -0.10774625 -0.00000009
0.29341456 -0.02927852 -0.00000048
0.12804580 0.08903143 0.00000862
-0.09619454 0.27598169 -0.00000067
-0.02477649 0.78031981 0.00772540
0.06086018 0.12941328 0.00000898
-0.33956400 0.47640899 0.02421988
0.58883637 -0.02605146 -0.00000127
0.75658584 -0.77685827 -0.00000006
0.11045656 -0.32600713 -0.00000030
-0.09879045 -0.53770667 -0.00000016
-0.50397784 0.33118775 0.05332349
0.26371679 -0.67612261 -0.00000008
0.62777758 -0.26699048 -0.00000093
-0.14804840 0.05733889 -0.00000054
0.65162724 -0.21946837 -0.00000110
0.31573769 -0.72998011 -0.00000004
-0.42251799 0.36499172 -0.00000047
0.04655437 0.05520758 0.00001040
0.39699683 -0.25724211 -0.00000034
-0.12662517 -0.60207123 -0.00000012
-0.41008472 -0.26511580 -0.00000033
0.13433442 -0.39290607 -0.00000025
-0.26589352 -0.22881450 -0.00000036
-0.00730867 0.05427065 -0.00000053
0.33115509 -0.40746066 -0.00000025
0.78267032 -0.47534731 -0.00000081
0.02215317 0.47485620 0.00000395
-0.39626008 0.47542509 0.10869963
-0.60548365 -0.79242319 -0.00000000
-0.00250327 -0.34239972 -0.00000029
-0.29021984 0.25376594 -0.00000059
-0.21125735 0.62228853 0.05086596
0.03932581 0.23928934 0.00000752
-0.71784490 -0.23885883 -0.00000004
-0.73558396 -0.56509155 0.00000000
-0.78089279 -0.27635732 0.00000000
-0.27581111 0.18108052 -0.00000059
-0.42761865 0.52970153 0.23855329
-0.51739573 0.10073848 -0.00000032
-0.02846664 -0.08439964 -0.00000045
0.07765373 -0.44195861 -0.00000022
0.08567479 0.08977471 0.00000925
-0.19806226 0.15476996 -0.00000060
-0.62060624 0.37431824 0.29557541
-0.50818253 0.22755358 -0.00000035
0.12276106 0.46857882 0.00000253
-0.48410985 0.59359944 0.42110729
-0.23226330 0.54261339 -0.00000071
0.63888478 -0.60339034 -0.00000031
-0.54912096 0.07596759 -0.00000028
0.07669531 -0.35663304 -0.00000028
-0.30524743 0.62111616 0.19161148
-0.47438151 0.01632428 -0.00000035
-0.13537274 -0.04046131 -0.00000047
0.39099044 -0.41398346 -0.00000024
-0.40884367 0.43794885 0.07095360
0.14850853 0.40468380 0.00000318
0.10127174 0.03060412 0.00000997
-0.47674552 0.43887398 0.17532010
0.48564032 -0.36659968 -0.00000028
-0.50920677 0.46562794 0.26511177
0.52157575 -0.55846196 -0.00000015
-0.26198849 0.03512549 -0.00000052
-0.38174421 -0.63401443 -0.00000010
0.53942394 -0.64816368 -0.00000009
-0.10768869 0.10784110 -0.00000057
-0.76807922 0.03565842 0.00566898
0.41320387 0.13520803 0.00000300
-0.60364300 0.09440150 -0.00000023
-0.16677760 -0.16044286 -0.00000040
0.38095719 -0.77180219 -0.00000002
-0.52216715 -0.77591914 -0.00000002
-0.17398901 -0.32485703 -0.00000030
-0.07073167 0.61509639 -0.00000088
-0.47493991 0.11375177 -0.00000037
0.33432522 -0.63543463 -0.00000010
0.70657784 -0.11605411 -0.00000147
-0.23288880 -0.33850232 -0.00000029
0.57119972 0.03391124 0.00000179
-0.51197070 0.46015251 0.26100016
-0.53749192 0.53115928 0.40737200
-0.01051337 0.27681142 -0.00000067
0.26109532 0.06521122 0.00000700
-0.28925130 0.46982613 -0.00000063
-0.08737207 -0.51964861 -0.00000018
-0.06154389 -0.60940766 -0.00000012
0.53121740 -0.11120881 -0.00000092
-0.63276690 -0.00378228 -0.00000018
-0.32862753 0.24678478 -0.00000055
-0.25914243 0.43831429 -0.00000066
-0.50958651 0.02702805 -0.00000031
0.09222198 0.58827180 0.00000103
0.42579606 -0.42883250 -0.00000023
-0.17937952 -0.20093270 -0.00000037
-0.21021597 0.22373937 -0.00000064
-0.41884238 0.61571366 0.35567105
0.31735799 0.02293182 0.00000684
-0.27447450 0.04556336 -0.00000053
0.20201902 -0.22163951 -0.00000036
-0.26495194 -0.25672778 -0.00000034
0.11182432 0.30937150 0.00000529
-0.66270310 0.26469129 0.19317593
0.14620452 0.03845490 0.00000917
-0.68499154 -0.48638767 -0.00000003
-0.59339744 0.38488775 0.27034411
0.33089468 -0.47253796 -0.00000020
-0.09008276 -0.75029761 -0.00000003
-0.44930789 -0.61773527 -0.00000011
-0.13659793 -0.72376704 -0.00000005
0.68256092 -0.40305549 -0.00000084
0.59426439 -0.07109477 -0.00000120
-0.18513638 -0.53334916 -0.00000017
0.18974183 -0.13706249 -0.00000041
-0.67158133 0.17697755 0.07363334
-0.39457506 -0.45977530 -0.00000021
-0.39977622 0.32094342 -0.00000049
-0.53718841 0.24416988 -0.00000033
0.54706126 -0.67259324 -0.00000008
0.26476586 -0.60130095 -0.00000012
0.77198893 -0.79579723 -0.00000001
0.02508005 -0.29707226 -0.00000031
-0.01925443 -0.13760439 -0.00000041
0.00236057 -0.18288454 -0.00000039
-0.56002253 -0.62476337 -0.00000011
-0.07535243 -0.25838703 -0.00000034
-0.06018095 -0.75670803 -0.00000003
0.65946299 -0.65305775 -0.00000028
0.26681641 -0.04270957 -0.00000047
0.59808803 -0.68007511 -0.00000007
-0.68166971 -0.49190509 -0.00000004
-0.58567929 -0.53556454 -0.00000013
-0.42620295 -0.33545244 -0.00000029
0.12885819 0.57813907 0.00000051
0.26399434 -0.17982659 -0.00000039
-0.59001529 0.30197024 0.13948318
-0.01266320 -0.02752641 -0.00000048
0.15822683 -0.01890095 -0.00000049
-0.26467532 0.05483653 -0.00000053
0.70343745 -0.32096010 -0.00000106
-0.08151013 0.53392053 -0.00000083
0.06841902 0.02882571 0.00001050
0.54738647 -0.60457057 -0.00000012
0.31211862 -0.76615208 -0.00000002
-0.11441099 -0.72427130 -0.00000005
0.23708390 0.10976743 0.00000664
-0.24390610 0.16468716 -0.00000060
-0.55044258 -0.75538898 -0.00000003
0.02863709 0.48530591 0.00000368
-0.60328287 0.24992678 0.08068520
-0.57350421 0.38728598 0.24381539
0.01020880 0.06781613 0.00001074
0.02530842 0.32392552 0.00000635
0.35957444 -0.65338629 -0.00000009
0.38761416 0.27206498 0.00000103
0.20316981 0.26348549 0.00000465
0.43588251 -0.37549612 -0.00000027
0.55760401 -0.24537487 -0.00000075
-0.13858186 0.65094090 -0.00000082
0.56093395 0.16382734 -0.00000035
0.23285215 -0.74104458 -0.00000004
0.18431896 -0.31566745 -0.00000030
-0.41829124 -0.42207935 -0.00000024
-0.03433686 -0.18561135 -0.00000038
-0.11799620 0.34988058 -0.00000072
0.24567066 -0.67341089 -0.00000008
-0.27283910 -0.03440628 -0.00000048
0.23753461 -0.71955377 -0.00000005
0.39474386 -0.27634478 -0.00000033
0.10032944 -0.56527084 -0.00000015
-0.59052247 -0.40714946 -0.00000015
-0.08957456 0.49089026 -0.00000081
0.04143327 -0.70645982 -0.00000006
-0.22711384 -0.34081697 -0.00000029
0.77354801 -0.25373077 -0.00000137
0.75115520 -0.13918971 -0.00000157
-0.59538680 -0.23767684 -0.00000017
0.39164752 -0.78513056 -0.00000001
0.39586055 -0.46909478 -0.00000021
0.22350068 0.36640579 0.00000249
0.79466736 -0.10749264 -0.00000173
0.52535743 0.11863517 0.00000114
-0.57947630 0.32164577 0.15333734
0.23338287 0.36188006 0.00000238
0.28010011 -0.20707119 -0.00000037
-0.07961697 -0.71551001 -0.00000005
0.40814918 0.31991291 -0.00000022
-0.42700291 -0.77120459 -0.00000002
0.18214890 0.13336591 0.00000708
0.71747214 -0.02922042 -0.00000168
-0.73432362 -0.67802900 0.00000000
-0.60477942 0.20166098 0.00976645
-0.45813921 0.32956350 -0.00000043
-0.58656228 -0.24693561 -0.00000018
-0.09993501 -0.42260203 -0.00000024
0.51167381 -0.60819477 -0.00000012
-0.60374200 0.33449796 0.20962141
0.66280419 -0.44392121 -0.00000069
-0.59955418 -0.03274773 -0.00000021
-0.06279700 0.75259525 0.02333789
0.13786812 -0.58062166 -0.00000014
0.14845578 -0.49533945 -0.00000019
0.33413947 0.27087596 0.00000208
-0.73967826 -0.23622756 -0.00000002
0.79657936 -0.04042090 -0.00000190
-0.63443065 -0.18933398 -0.00000014
0.00694769 0.70232463 0.00000048
-0.46773481 -0.66541433 -0.00000008
0.02765525 -0.02886901 -0.00000048
0.33997366 -0.09702476 -0.00000044
-0.60143173 0.43248171 0.35469696
-0.48353967 0.34440523 0.04237427
0.43169558 -0.46575749 -0.00000021
0.32722935 0.04646550 0.00000625
-0.52731830 -0.20286931 -0.00000025
-0.62726712 0.35258454 0.27271962
0.49652830 -0.64855647 -0.00000009
-0.63477027 0.30683938 0.21473125
-0.03475806 0.00640217 -0.00000050
0.00111276 0.66544175 0.00000117
-0.04144008 -0.25698763 -0.00000034
-0.64151978 -0.21111821 -0.00000013
0.74574059 -0.65268755 -0.00000037
-0.25503427 -0.57945848 -0.00000014
-0.70215899 -0.44117081 -0.00000002
-0.10403975 -0.73825932 -0.00000004
0.76566464 -0.76411921 -0.00000009
0.56404769 -0.64243275 -0.00000010
0.39379805 -0.32777902 -0.00000030
-0.30867562 -0.57932228 -0.00000014
-0.32802135 0.01136042 -0.00000051
-0.02894052 -0.48857033 -0.00000019
