ply
format ascii 1.0
element vertex 1367
property float x
property float y
property float z
end_header
-0.31972921 -0.44504219 0.00000304
-0.68857425 -0.27162036 -0.17662118
-0.64576060 -0.18134849 -0.17270765
-0.17138810 0.23114827 0.00000739
-0.44907269 0.02302934 -0.09183732
-0.45150515 -0.66873682 0.00000314
-0.13256326 0.47996220 0.02600120
-0.43837854 -0.25835231 0.13980757
-0.15102854 -0.64590871 0.00000139
-0.43060926 0.28952718 -0.15819339
-0.01233300 0.21599327 0.00000992
-0.61643761 -0.68822342 0.12968004
-0.67225260 -0.41696978 -0.12138201
-0.21147627 -0.57498473 0.00000198
-0.13424373 -0.09342988 0.00000302
-0.04893527 0.74130893 -0.01777094
-0.38509697 -0.12972455 0.28010809
-0.08797280 0.69066036 -0.03080560
-0.01709887 0.61084503 0.00000640
-0.22689076 0.25223613 0.06293044
-0.42823306 -0.35680991 0.00000397
-0.25008434 0.19622760 0.24973039
-0.03386909 0.67026252 0.00000562
-0.47761697 -0.20283391 -0.04491420
-0.16843286 -0.01036135 0.00000348
-0.15450552 0.42698038 0.14141078
-0.45789894 -0.30548304 0.24415876
-0.48339587 -0.36703676 0.20735252
-0.49063757 0.22636580 -0.18263865
-0.60679179 -0.53497535 -0.03884870
-0.20189539 0.47876754 -0.04968260
-0.00970922 -0.23715882 0.00000182
-0.05482464 -0.11555848 0.00000247
-0.06926373 0.22213677 0.00000901
-0.23292644 -0.62725484 0.00000195
-0.48614594 -0.75775594 0.00000307
-0.18564764 0.49435470 -0.04261497
-0.45672220 -0.16489702 -0.04117461
-0.72300458 -0.34665808 -0.17903757
-0.01223067 -0.08509633 0.00000231
-0.16991195 0.38979009 0.09804105
-0.11756593 0.02715360 0.00000999
-0.24500543 -0.05998481 0.00000379
-0.38316125 -0.12504634 0.15634781
-0.38220191 0.23938140 -0.10825741
-0.12571761 0.49648967 0.01510775
-0.73022360 -0.54375064 -0.12531947
-0.64948916 -0.65641958 -0.03335808
-0.05521902 -0.74406952 0.00000051
-0.57860422 -0.49717689 -0.02980363
-0.06925095 -0.38173687 0.00000173
-0.19093513 -0.24325237 0.00000289
-0.36983883 -0.09289030 0.36787477
-0.20297702 -0.68961722 0.00000157
-0.65684897 -0.20599928 -0.17334117
-0.49366841 -0.39183185 0.08211995
-0.60644025 -0.66408539 0.02252325
-0.42941788 0.11157616 -0.10412552
-0.47057968 -0.33609119 0.09644625
-0.55552036 -0.76887149 0.00000345
-0.45682940 -0.76600993 0.00000286
-0.28222159 0.11864113 0.26851109
-0.67787278 -0.57114911 -0.07934088
-0.32210213 0.02237522 0.11225600
-0.12619297 0.52889609 -0.01002635
-0.45677429 -0.09194851 -0.06302299
-0.46487802 -0.10935251 -0.06366884
-0.49710304 0.10667663 -0.15151823
-0.48608285 -0.37352321 0.19467340
-0.03626627 -0.64714175 0.00000070
-0.43441024 0.16237943 -0.12291952
-0.18788318 -0.29267183 0.00000272
-0.05023857 -0.17984377 0.00000224
-0.49462095 -0.39413297 0.11911435
-0.44991249 -0.28620443 0.30520073
-0.70027560 -0.05502950 -0.24982570
-0.14461531 -0.64810127 0.00000135
-0.37562028 -0.10684304 0.21234573
-0.45152950 -0.78542870 0.00000277
-0.63429177 -0.36441478 -0.10969442
-0.27153105 0.43282878 -0.08621240
-0.27593374 0.13384108 0.02247154
-0.72721541 -0.60482383 -0.10488785
-0.00870122 0.59283555 0.00000668
-0.65659410 -0.49058679 -0.08806872
-0.37871855 -0.11432110 0.16653530
-0.00657087 -0.43320203 0.00000111
-0.06183461 -0.18359450 0.00000230
-0.47907785 0.03208662 -0.11620432
-0.30120358 0.42362007 -0.10487771
-0.57604325 0.03037746 -0.18568651
-0.29401764 -0.12064072 0.00000390
-0.56087554 -0.51089400 -0.01290542
-0.45135072 -0.28967631 0.29715502
-0.39774457 0.07288542 -0.06969388
-0.15792020 0.36047092 0.00000646
-0.51957595 0.00733350 -0.13803610
-0.17922996 0.29362383 0.00000673
-0.08695616 0.62629050 -0.01082499
-0.28533453 0.25674942 -0.04352801
-0.51118207 -0.43411362 0.08026829
-0.28263345 0.43926868 -0.09615209
-0.72307497 -0.70385075 -0.07229123
-0.35504475 -0.54307091 0.00000295
-0.17219739 0.48301283 -0.02951483
-0.20246533 0.31120428 0.05199963
-0.41061467 -0.19132185 0.08029668
-0.46217960 0.16445050 -0.14358371
-0.50229156 -0.78321701 0.00000308
-0.70109719 -0.15911067 -0.21929960
-0.13069421 0.48447326 0.04023250
-0.39168066 -0.09732296 -0.01443015
-0.10618355 -0.74135637 0.00000082
-0.21148428 -0.73178488 0.00000149
-0.44419900 -0.09883244 -0.05188767
-0.14665556 -0.31392184 0.00000240
-0.46918896 -0.33273548 0.14157277
-0.13310485 0.05667670 0.00000950
-0.21849220 0.27250728 0.11747367
-0.44104347 -0.45548639 0.00000374
-0.04143808 0.40463716 0.00000783
-0.53428513 -0.48988745 0.03031941
-0.25547060 -0.74503773 0.00000171
-0.53940505 0.03737795 -0.16133286
-0.28627002 0.10887986 0.11644222
-0.35876098 0.16138010 -0.06801424
-0.49063975 -0.38452372 0.17488585
-0.25358722 0.18777438 0.20873813
-0.00219089 0.06893693 0.00001136
-0.63118303 -0.36051053 -0.10861782
-0.54073775 -0.07816134 -0.12775175
-0.70062172 -0.42597434 -0.13916688
-0.64091480 -0.55226243 -0.05831074
-0.29571757 0.14122051 -0.01647937
-0.30904660 0.05389633 0.07814054
-0.54865891 -0.58364630 0.00000399
-0.31819490 -0.14932953 0.00000395
-0.30002710 0.07566825 0.11163303
-0.16124940 0.11732778 0.00000854
-0.14690945 -0.65575677 0.00000134
-0.56203556 -0.54502910 -0.00353674
-0.27463853 -0.28307417 0.00000327
-0.04571099 -0.42074782 0.00000146
-0.39822990 -0.09135374 -0.02094226
-0.30337739 -0.65169954 0.00000229
-0.24456321 -0.79310662 0.00000150
-0.30890679 0.05423331 0.08450974
-0.08123314 0.60388178 0.02963746
-0.37388682 -0.34882864 0.00000367
-0.65758026 -0.01757632 -0.23020469
-0.43219119 -0.10087487 -0.04260952
-0.38951239 -0.14038861 0.40360579
-0.51186359 -0.43576571 0.26094541
-0.11649026 -0.41919777 0.00000189
-0.65089434 -0.77140725 0.09644144
-0.43704048 0.24760126 -0.15029970
-0.14050891 -0.13613422 0.00000292
-0.39061549 0.11928345 -0.07842100
-0.03614214 0.14230749 0.00001021
-0.35562685 -0.49350512 0.00000310
-0.48484397 0.12958039 -0.14951748
-0.74456018 -0.46408123 -0.15948799
-0.39986098 -0.16535874 0.04704647
-0.64059341 -0.17869838 -0.16977024
-0.63345158 -0.59110415 -0.04131038
-0.71579564 -0.50344628 -0.12695602
-0.04611551 -0.04623414 0.00000263
-0.29195535 -0.14989626 0.00000379
-0.56683242 -0.74092454 0.00000361
-0.15322773 -0.29779163 0.00000249
-0.29639763 -0.58633280 0.00000246
-0.15333980 0.42980114 0.06096441
-0.26776028 -0.26687038 0.00000328
-0.04751788 -0.10491965 0.00000246
-0.22401293 0.52558154 -0.07964539
-0.43914756 0.04570345 -0.09145262
-0.65201026 -0.76744598 -0.00198218
-0.10951067 0.02607606 0.00001012
-0.56518435 -0.54356408 -0.00624765
-0.19944566 -0.04083045 0.00000358
-0.69974566 -0.07512212 -0.24343570
-0.11555752 -0.13160880 0.00000279
-0.07559257 0.46851256 0.00000676
-0.40792000 0.28573862 -0.14068265
-0.70350420 -0.61844879 -0.08369942
-0.28124604 0.12101507 0.03693584
-0.58164412 -0.23668379 -0.10988241
-0.08856917 0.54998761 0.00000585
-0.65994644 -0.18848389 -0.18081389
-0.29686591 0.36497799 -0.08421247
-0.36417761 0.29319203 -0.11133633
-0.56925738 -0.57431954 0.06596084
-0.24114993 -0.68590879 0.00000181
-0.38570452 -0.34538493 0.00000375
-0.17897333 0.15512288 0.00000794
-0.47712299 -0.35188916 0.12095368
-0.15473934 0.42642495 0.02999010
-0.46443382 -0.32125440 0.11340668
-0.08982038 -0.27142060 0.00000219
-0.23849817 0.22421069 0.10110725
-0.72202259 -0.74137944 -0.06031091
-0.72942680 -0.50419825 -0.13657011
-0.36991665 -0.22398682 0.00000403
-0.59998673 -0.78319424 0.00000367
-0.10197281 -0.12259425 0.00000273
-0.12147986 -0.00228086 0.00000323
-0.56594843 -0.10821615 -0.13696329
-0.13345052 0.47781202 0.12647717
-0.03938649 0.00524195 0.00001136
-0.54094118 -0.56061536 0.00000401
-0.57646245 0.02305835 -0.18380070
-0.16098195 -0.63822567 0.00000148
-0.36745811 -0.70547628 0.00000251
-0.73168385 -0.66962069 -0.08873956
-0.27702922 0.21250916 -0.02430495
-0.19270644 -0.34387672 0.00000259
-0.72674674 -0.26379633 -0.20651352
-0.12600937 0.36553603 0.00000690
-0.00762477 0.47631130 0.00000772
-0.05914220 -0.39143667 0.00000163
-0.41429657 -0.35190725 0.00000390
-0.28668579 -0.20526956 0.00000359
-0.13164686 -0.00961298 0.00000326
-0.36732042 0.03934996 -0.03770540
-0.47186780 -0.33920926 0.30210555
-0.29467079 -0.44816798 0.00000288
-0.20006847 -0.49388182 0.00000216
-0.44059753 -0.26371744 0.33839971
-0.55483484 -0.53950495 0.24658424
-0.01845560 0.77179545 -0.00488514
-0.50757313 0.20296596 -0.18786673
-0.17169324 -0.04552669 0.00000339
-0.32787782 0.02176605 -0.00397660
-0.47158280 0.16807787 -0.15145591
-0.65047044 -0.47618970 -0.08795307
-0.41262668 -0.19618256 0.16147448
-0.44086316 0.15765610 -0.12616520
-0.71386248 -0.34550485 -0.17278364
-0.57486552 0.12520927 -0.21319146
-0.44436637 -0.27281275 0.25198868
-0.03052322 0.51542491 0.00000703
-0.47684130 -0.08506289 -0.07956650
-0.34877205 -0.46677178 0.00000315
-0.24499322 0.20853654 0.02694407
-0.36352021 -0.07763143 0.31127471
-0.61324209 -0.17529397 -0.15104534
-0.47779474 -0.49407014 0.00000384
-0.67276126 -0.75164604 -0.02168454
-0.22582723 -0.70097983 0.00000167
-0.14504702 -0.18387450 0.00000280
-0.37648004 0.26382297 -0.11143525
-0.20974767 -0.10453079 0.00000344
-0.55444115 -0.03496121 -0.15055956
-0.01220878 -0.47814700 0.00000108
-0.31765920 -0.69852906 0.00000223
-0.70340180 -0.79867256 -0.02974036
-0.48396522 -0.32702318 -0.01236528
-0.45591012 -0.67156976 0.00000315
-0.08479288 0.34412095 0.00000771
-0.24734929 0.20283146 0.23769429
-0.44120228 -0.20799612 -0.01708586
-0.18444172 0.42758280 -0.02177950
-0.49006766 -0.18669195 -0.05872761
-0.64375073 -0.75416148 0.11958208
-0.57792926 -0.64877909 0.00000396
-0.44697917 0.05848093 -0.10092628
-0.56897986 -0.57364953 0.06533653
-0.64091039 -0.50605172 -0.07212401
-0.28574803 0.28510767 -0.05230568
-0.04383029 -0.75997347 0.00000039
-0.04005507 0.74551821 -0.01261947
-0.28637671 0.25355938 -0.04332647
-0.28681189 0.10757236 0.10816874
-0.27971926 0.17044234 -0.01366862
-0.26030564 0.17155319 0.23002107
-0.38202423 -0.12230743 0.36141637
-0.46606830 -0.32520640 0.26209202
-0.20623115 0.13518924 0.00000771
-0.58059007 -0.37958929 -0.06639440
-0.55230218 0.02613257 -0.16728009
-0.57456762 -0.42866611 -0.04737389
-0.35055715 0.38398799 -0.12865293
-0.68589598 -0.41705313 -0.13120516
-0.35087770 -0.04710897 0.29592836
-0.35026219 0.10395761 -0.04471002
-0.05454844 -0.37984982 0.00000164
-0.26035321 0.17144912 0.09745979
-0.37141010 -0.09668033 0.25146341
-0.07384554 -0.54185081 0.00000125
-0.36365026 -0.07794133 0.12617306
-0.56227350 -0.55745810 0.04456943
-0.11014113 0.39205661 0.00000691
-0.41465512 -0.20108205 0.22109129
-0.73281616 -0.61334455 -0.10638287
-0.58496433 -0.22771685 -0.11496003
-0.25177699 0.05449711 0.00000772
-0.09146861 0.02885892 0.00001037
-0.48810557 -0.37840489 0.15537013
-0.64204508 -0.27111635 -0.14318615
-0.58221787 -0.68886429 0.00000386
-0.64195347 -0.71484655 -0.01044963
-0.69258916 -0.41818377 -0.13569830
-0.11655268 0.51861167 0.06099671
-0.73979765 -0.44426963 -0.16197389
-0.19679295 0.32488778 0.18254808
-0.09154762 -0.39466804 0.00000182
-0.24526022 -0.79045212 0.00000151
-0.41299033 -0.40223011 0.00000374
-0.35901630 -0.69361699 0.00000250
-0.22374412 -0.20450620 0.00000321
-0.20679411 0.01080864 0.00000879
-0.37498495 -0.10531057 0.24637063
-0.45917952 -0.59126019 0.00000342
-0.53059584 -0.25062257 -0.06886716
-0.32355884 0.01885967 0.09764648
-0.42533550 -0.22686502 0.17613973
-0.14470357 0.49473292 -0.01317311
-0.55558878 -0.14589787 -0.11821910
-0.06929904 -0.17910840 0.00000236
-0.04705240 0.15505445 0.00000993
-0.13747858 -0.57167536 0.00000154
-0.36289909 -0.07612933 0.27920017
-0.36870944 0.22753897 -0.09497713
-0.03645657 -0.69294876 0.00000055
-0.13735995 0.20366637 0.00000815
-0.01038170 0.77493155 0.00505658
-0.06114024 0.65238708 0.06006335
-0.42251158 -0.62245917 0.00000310
-0.26104838 -0.52802414 0.00000243
-0.04548676 -0.04040913 0.00000265
-0.03489076 0.60384279 0.00000619
-0.37006691 0.23376773 -0.09781942
-0.39832643 -0.50173700 0.00000334
-0.31825858 0.03164497 0.22603990
-0.50538379 -0.10157486 -0.09523217
-0.31676674 0.03523798 0.33159745
-0.12205270 -0.18345645 0.00000266
-0.11286726 -0.13567826 0.00000276
-0.29099447 -0.55413145 0.00000252
-0.67468697 -0.77881932 -0.01494997
-0.31451240 -0.69882017 0.00000221
-0.22542988 0.44482419 -0.05652152
-0.15333818 0.44304094 -0.00394983
-0.18771730 -0.52922249 0.00000198
-0.31567115 0.03789445 0.18960387
-0.05140237 -0.39530861 0.00000157
-0.31142494 -0.33188492 0.00000334
-0.67446214 -0.74745226 -0.02416614
-0.20871533 -0.19010566 0.00000317
-0.53034115 -0.07468902 -0.12128549
-0.20353374 -0.07070453 0.00000351
-0.63985193 -0.30539566 -0.13135394
-0.17701785 0.37263143 0.14419153
-0.07548732 0.14693052 0.00000958
-0.56098300 -0.09927034 -0.13605389
-0.70520341 -0.50784844 -0.11799436
-0.20044191 -0.55635566 0.00000197
-0.39080837 0.18833461 -0.09920673
-0.34584010 -0.03494195 0.08258271
-0.72583282 -0.36234701 -0.17638816
-0.11704127 -0.47631922 0.00000172
-0.24609467 -0.18297277 0.00000341
-0.40906605 -0.18759578 0.39453247
-0.25041151 -0.77899176 0.00000158
-0.36367580 -0.74514478 0.00000237
-0.01463532 -0.21615088 0.00000191
-0.73374629 -0.29462963 -0.20234694
-0.60391194 -0.22881295 -0.12830907
-0.70659846 -0.02746964 -0.26262975
-0.08999879 0.17805316 0.00000908
-0.29155365 -0.66021955 0.00000220
-0.33659142 -0.56616390 0.00000276
-0.60226321 -0.47594246 -0.05323005
-0.20283797 -0.56716102 0.00000195
-0.11103734 -0.67581487 0.00000106
-0.45421803 -0.04541847 -0.07508981
-0.12198006 -0.23959529 0.00000249
-0.17203625 0.38466430 0.06548532
-0.64566058 -0.20335835 -0.16605473
-0.18972628 0.00115927 0.00000913
-0.71412706 -0.68814319 -0.07052905
-0.18127321 0.03095694 0.00000899
-0.66851014 -0.42044529 -0.11764148
-0.14886995 -0.62396181 0.00000145
-0.68544388 -0.69024181 -0.04919810
-0.56702012 -0.50119013 -0.02024208
-0.13118406 0.13379373 0.00000885
-0.37899849 0.28330460 -0.11907823
-0.56112975 -0.44833472 -0.03179345
-0.63253546 -0.72708607 0.08346660
-0.36332446 -0.67185926 0.00000259
-0.40447050 -0.56850290 0.00000316
-0.63540947 -0.11108040 -0.18624538
-0.69780362 -0.18043298 -0.21054710
-0.09584021 0.14165914 0.00000931
-0.30445597 -0.19668229 0.00000372
-0.66675365 -0.32371721 -0.14529420
-0.24890053 0.06246335 0.00000770
-0.34348294 -0.61768770 0.00000264
-0.40188286 -0.03241001 -0.04120256
-0.65163577 -0.77319717 0.07770099
-0.04989184 0.13694698 0.00001005
-0.15938327 0.09221401 0.00000879
-0.60825682 -0.14441873 -0.15667821
-0.02147629 -0.76916337 0.00000023
-0.52177399 0.06695992 -0.15745121
-0.17397651 0.37998301 0.03049545
-0.33804730 0.21927328 -0.07037257
-0.03491986 -0.65754652 0.00000066
-0.60922682 -0.60589790 -0.01940130
-0.14630719 -0.74680966 0.00000105
-0.48911580 -0.64755493 0.00000343
-0.68137848 -0.07604660 -0.22990149
-0.33869594 -0.45760772 0.00000311
-0.06415961 -0.48952025 0.00000136
-0.10574582 -0.49063092 0.00000161
-0.04498887 -0.12736954 0.00000237
-0.31002200 -0.71298534 0.00000214
-0.00203778 -0.19610251 0.00000187
-0.24456862 0.20955247 0.13968047
-0.46551925 0.04081471 -0.10902694
-0.20753354 0.29927382 -0.00008327
-0.30760783 0.34616378 -0.08634088
-0.65556484 -0.04543935 -0.22041988
-0.33076108 -0.44284055 0.00000311
-0.55513161 -0.61797678 0.00000392
-0.25043342 0.33441454 -0.04155720
-0.20917428 0.02748809 0.00000860
-0.10260563 0.18120715 0.00000887
-0.47375369 -0.34375536 0.13201292
-0.48452875 0.15394728 -0.15657569
-0.54185134 -0.20034903 -0.09202285
-0.27742553 0.13024065 0.00994744
-0.13283403 -0.35900021 0.00000218
-0.08277209 -0.65746105 0.00000095
-0.74443656 -0.56855112 -0.12816323
-0.17646161 -0.16112155 0.00000306
-0.56335682 -0.33352122 -0.06772895
-0.57246017 -0.17748895 -0.12095183
-0.50352550 -0.41562781 0.05124773
-0.67269945 -0.62707567 -0.05888526
-0.25309509 -0.57592005 0.00000223
-0.63352376 0.02918338 -0.22682109
-0.60465527 -0.11432421 -0.16307646
-0.23120698 -0.25956362 0.00000308
-0.12959222 0.42948937 0.00000629
-0.31512406 0.18452375 -0.04343550
-0.48372206 -0.48664525 0.00000390
-0.57454818 0.07428018 -0.19773439
-0.28306779 -0.78285980 0.00000176
-0.34237111 0.12815046 -0.04624767
-0.71853602 -0.68952811 -0.07329736
-0.58191830 -0.70041406 0.00000382
-0.21315485 -0.18880416 0.00000320
-0.28672081 0.32425165 -0.06471204
-0.60619462 -0.15564445 -0.15183333
-0.03940898 -0.23110858 0.00000202
-0.32793665 0.39427027 -0.11539897
-0.00990148 -0.59716344 0.00000069
-0.43825805 0.28241280 -0.16158734
-0.33259326 0.09161149 -0.02826437
-0.09874442 -0.76668584 0.00000070
-0.59626228 -0.34486407 -0.08808942
-0.37996259 -0.11732370 0.14716513
-0.29344696 0.37424839 -0.08451642
-0.37496316 0.14392227 -0.07448964
-0.30055353 -0.25499478 0.00000352
-0.43845734 -0.23777746 -0.00620021
-0.28857133 -0.39210448 0.00000302
-0.26838458 0.15205447 0.16561157
-0.48823997 -0.69195431 0.00000328
-0.15977295 0.17929299 0.00000802
-0.27006686 0.43571892 -0.08601965
-0.68335968 -0.30185303 -0.16381796
-0.66963226 -0.25818858 -0.16696440
-0.20559858 0.30362785 0.20230027
-0.13006946 0.62080991 -0.04030706
-0.51738036 0.06544478 -0.15382671
-0.19418927 -0.42304435 0.00000235
-0.64959478 -0.24527627 -0.15636154
-0.02390528 0.02847376 0.00001139
-0.22319949 -0.75554574 0.00000149
-0.42376229 -0.68631548 0.00000291
-0.26560330 0.15878204 0.00426990
-0.06952507 0.63214892 0.00720397
-0.65691364 -0.02209720 -0.22837171
-0.01319485 0.11501499 0.00001079
-0.12415491 0.55204439 -0.01547663
-0.61383069 -0.13490584 -0.16354582
-0.43090993 -0.76415634 0.00000271
-0.19509271 0.32899034 0.20847836
-0.03364716 0.37750310 0.00000819
-0.06606350 -0.23911569 0.00000215
-0.36735815 0.08547879 -0.05152529
-0.12474873 0.29557225 0.00000753
-0.54203552 -0.74100292 0.00000346
-0.23320296 0.37545234 -0.04139003
-0.28688803 -0.11331760 0.00000388
-0.25338882 -0.33524051 0.00000298
-0.30522779 0.06309694 0.30802169
-0.42445856 -0.22475661 0.40209401
-0.38081333 -0.04735602 -0.02152546
-0.22354102 -0.13144901 0.00000344
-0.24145977 -0.51996982 0.00000233
-0.34984687 -0.72666711 0.00000234
-0.00058237 -0.57621634 0.00000070
-0.05100562 -0.35168248 0.00000171
-0.46145827 -0.39141473 0.00000406
-0.15068565 0.37371886 0.00000646
-0.54651773 -0.51411700 -0.00157801
-0.47390676 -0.53330553 0.00000369
-0.67218232 -0.63511235 -0.05610908
-0.46376377 -0.63243341 0.00000332
-0.19409935 0.33140498 0.00546232
-0.10811622 0.16440868 0.00000893
-0.29925185 0.07754426 0.05730946
-0.65517831 -0.22213830 -0.16730984
-0.47879410 -0.05180191 -0.09092073
-0.47261390 -0.26003116 -0.02420152
-0.02484474 0.37129414 0.00000838
-0.57482511 -0.23926117 -0.10418971
-0.35640335 0.31946740 -0.11358100
-0.15681922 -0.60898435 0.00000154
-0.01397590 0.16216812 0.00001037
-0.14556482 0.44856945 0.08397881
-0.30857721 -0.36545187 0.00000322
-0.50635248 -0.19370715 -0.06838488
-0.30469963 0.18816310 -0.03699894
-0.45259646 -0.41936204 0.00000392
-0.30530089 -0.37670159 0.00000317
-0.28258434 0.11777458 0.15518910
-0.57939112 -0.54923302 -0.01480742
-0.40478128 -0.17725261 0.42407337
-0.54202896 -0.44262350 -0.01971370
-0.00995669 0.63689584 0.00000628
-0.42809373 0.01148359 -0.07324172
-0.43982971 -0.26186001 0.24550138
-0.01876454 -0.02052821 0.00000255
-0.60740101 0.08002507 -0.22316654
-0.42962557 -0.23721953 0.11009148
-0.47171250 0.21545982 -0.16571689
-0.36721963 -0.72303271 0.00000246
-0.06128876 0.17892160 0.00000951
-0.29873231 0.07880060 0.03152013
-0.25234321 -0.76695138 0.00000163
-0.73273671 -0.80509543 -0.04899381
-0.01494198 0.27272403 0.00000939
-0.27819669 0.46983367 -0.10208857
-0.58957344 -0.33812737 -0.08527547
-0.59551215 0.02287965 -0.19749805
-0.60503197 -0.05277991 -0.18174946
-0.45638189 -0.62149245 0.00000331
-0.68198752 -0.12440993 -0.21588098
-0.67597961 -0.45290235 -0.11332882
-0.40140229 -0.58486331 0.00000309
-0.03315937 0.36643335 0.00000829
-0.63408923 -0.30397654 -0.12761860
-0.24277724 0.21387441 0.17337227
-0.28777853 -0.42535701 0.00000291
-0.67648071 -0.25378889 -0.17322321
-0.37150657 -0.09690865 0.13733724
-0.53689480 -0.45722964 -0.01164068
-0.60024744 -0.78841645 0.00000366
-0.06036356 0.39770290 0.00000761
-0.69926709 -0.72270918 -0.04946822
-0.59340066 -0.63260686 0.06912106
-0.56683397 0.11331229 -0.20383668
-0.21703340 0.27603188 0.08293137
-0.25817490 0.22929874 -0.01571534
-0.68535429 -0.05088743 -0.24029359
-0.01099275 -0.17074940 0.00000203
-0.22919495 -0.76523489 0.00000149
-0.40603325 -0.18027270 0.36373460
-0.60490310 -0.48546737 -0.05228773
-0.06767340 -0.16536871 0.00000239
-0.31752062 0.03344010 0.05930780
-0.54534227 -0.07238379 -0.13280284
-0.52800250 -0.33987358 -0.04031019
-0.23671402 0.45287558 -0.06707422
-0.01252866 0.21613130 0.00000992
-0.58043379 -0.77733833 0.00000357
-0.68072057 -0.22400136 -0.18518974
-0.57505000 -0.72081053 0.00000372
-0.37693071 -0.43663847 0.00000341
-0.24873681 0.20101292 -0.00044502
-0.14831385 0.12184469 0.00000870
-0.10134866 0.33043915 0.00000758
-0.52125371 0.01731732 -0.14223236
-0.21715638 0.27573884 0.03556378
-0.19070582 0.33958593 0.14881960
-0.47615504 -0.34954804 0.01423699
-0.40432006 -0.75023687 0.00000260
-0.37111220 -0.30362621 0.00000379
-0.23985115 0.22093952 0.16088162
-0.49270362 -0.38951063 0.31825182
-0.36745012 -0.68996346 0.00000256
-0.44838998 -0.16406758 -0.03540824
-0.48105872 -0.36139187 0.14643300
-0.05536660 0.34196955 0.00000817
-0.30753881 -0.22208308 0.00000366
-0.20660773 -0.19296640 0.00000314
-0.08582505 -0.66386694 0.00000094
-0.34792125 -0.03997425 0.32876259
-0.48304871 -0.36620221 0.31031868
-0.48671836 -0.32810298 -0.01402971
-0.28826767 -0.52296472 0.00000261
-0.58025521 -0.30887797 -0.08729461
-0.47117463 -0.33752993 0.15656407
-0.56846386 -0.26267937 -0.09259625
-0.38009292 -0.11764429 0.35376143
-0.36254647 -0.57179016 0.00000290
-0.68536013 -0.53597301 -0.09526254
-0.35662937 -0.06099936 0.35581613
-0.43021572 -0.68906289 0.00000294
-0.41104361 0.24705569 -0.13137107
-0.30878872 -0.52234793 0.00000273
-0.47688028 -0.01495715 -0.10055548
-0.22362481 0.26012379 0.02484773
-0.31541482 0.03852562 0.03789321
-0.13714400 -0.69716847 0.00000115
-0.26317903 0.46068293 -0.08851207
-0.24401455 -0.40124184 0.00000272
-0.28902066 -0.57737505 0.00000244
-0.04435178 0.00064039 0.00001133
-0.37218431 0.21074519 -0.09246403
-0.34337544 -0.42064178 0.00000326
-0.31173235 0.04739481 0.29549688
-0.16018626 0.45620692 -0.01282970
-0.60623384 -0.57818907 -0.02552549
-0.42499429 -0.22604559 0.28341889
-0.20843066 0.14374115 0.00000760
-0.45864376 -0.30727422 0.07077935
-0.24835236 0.35305187 -0.04562762
-0.34926349 -0.04320490 0.03688759
-0.37183392 -0.09770001 0.28481215
-0.01409869 -0.43717942 0.00000122
-0.50703979 -0.25342143 -0.05102708
-0.03056278 -0.19781724 0.00000207
-0.14077283 -0.56269187 0.00000159
-0.50050724 -0.40834394 0.12293133
-0.07143204 0.37783951 0.00000762
-0.56271070 -0.66977191 0.00000380
-0.49071825 -0.47310388 0.00000398
-0.64980692 -0.28635165 -0.14423361
-0.35750011 -0.23964238 0.00000391
-0.43564028 0.06289146 -0.09406021
-0.62320054 -0.07754672 -0.18745889
-0.12215283 -0.64647204 0.00000122
-0.20111065 0.54656231 -0.06938698
-0.41232851 -0.49358201 0.00000345
-0.10368907 0.60278690 -0.01587578
-0.49143896 -0.13898982 -0.07397986
-0.43889764 -0.53952676 0.00000346
-0.16719338 0.28505683 0.00000698
-0.22935131 0.24629372 0.08997313
-0.36402047 0.23776259 -0.09464934
-0.10935334 -0.09822825 0.00000285
-0.38757166 -0.13569704 0.23055014
-0.14165612 -0.56846207 0.00000158
-0.13537718 0.18505579 0.00000834
-0.58550513 0.01346225 -0.18745875
-0.23931986 -0.07902810 0.00000370
-0.25802881 0.17706814 0.00505305
-0.39935711 -0.56363237 0.00000315
-0.59068269 -0.62604624 0.09846699
-0.24992530 -0.67193019 0.00000191
-0.71497804 -0.08893291 -0.25030139
-0.44290894 -0.54927623 0.00000346
-0.30802581 0.15282106 -0.02883253
-0.46379253 -0.31971434 0.31533706
-0.42689595 0.11880397 -0.10446623
-0.50566924 -0.42080975 0.21330146
-0.65370667 -0.33040789 -0.13387620
-0.57031488 -0.08148361 -0.14810784
-0.15009008 -0.53995699 0.00000172
-0.69134325 -0.59944063 -0.08060492
-0.26367149 -0.54525155 0.00000239
-0.11747567 -0.46038470 0.00000177
-0.49406123 -0.39278749 0.26229271
-0.42052180 -0.21523908 0.06151265
-0.65979797 -0.54802048 -0.07320930
-0.02539056 0.30180663 0.00000898
-0.08027425 -0.55533504 0.00000125
-0.30173880 0.40464202 -0.09958957
-0.51176047 -0.34064633 -0.02835532
-0.35238564 -0.05074289 0.04708052
-0.46681315 0.00323334 -0.09872398
-0.51560485 -0.29230666 -0.04558326
-0.07376356 -0.50767905 0.00000136
-0.11072034 0.58637094 -0.01604279
-0.25283951 0.23969597 -0.01497285
-0.00710667 -0.39246401 0.00000123
-0.16569066 0.39998704 0.02351576
-0.16345541 0.40537998 0.06475188
-0.03020359 -0.44021395 0.00000131
-0.28578326 0.11004746 0.20920868
-0.49382022 -0.30136490 -0.02715037
-0.09992531 0.61861426 -0.01789138
-0.46094441 -0.49247265 0.00000374
-0.22910714 0.24688147 0.11130716
-0.74646550 -0.47897744 -0.15640938
-0.31942245 0.42488176 -0.11840601
-0.16541415 0.52817363 -0.03812166
-0.11481633 0.63002354 -0.03205168
-0.51570511 -0.44503510 0.12687127
-0.16741516 0.39582175 0.04915572
-0.08729698 -0.59623802 0.00000116
-0.44136930 -0.06678838 -0.05942596
-0.45262399 0.22287709 -0.15415587
-0.30277839 -0.21567471 0.00000365
-0.11720790 0.43837219 0.00000640
-0.24474239 -0.20175599 0.00000335
-0.30492964 0.44217059 -0.11311398
-0.67505693 -0.25663507 -0.17134450
-0.13898849 -0.28866628 0.00000244
-0.52029091 -0.17833392 -0.08304236
-0.07190736 -0.50467783 0.00000136
-0.25004673 0.50458384 -0.09215924
-0.56820387 -0.75655794 0.00000357
-0.15268990 -0.53532332 0.00000175
-0.37970158 -0.11669632 0.31433070
-0.26384628 0.16302201 0.02648627
-0.60174650 -0.26162401 -0.11693588
-0.33642513 0.29823980 -0.09281285
-0.05530727 -0.14359838 0.00000239
-0.26358739 -0.35056406 0.00000300
-0.50582647 -0.17344424 -0.07406357
-0.59395856 -0.02535152 -0.18195722
-0.48716727 -0.58331758 0.00000362
-0.11133318 0.21004534 0.00000848
-0.23541023 -0.23586263 0.00000318
-0.55242586 -0.50961679 -0.00718815
-0.71826673 -0.73195779 -0.06041690
-0.46887401 -0.33197257 0.07796987
-0.69656557 -0.36928105 -0.15318990
-0.57841605 -0.48425299 -0.03353192
-0.10070609 0.22387412 0.00000852
-0.18698113 0.34857887 0.13793468
-0.39280501 0.13549265 -0.08484809
-0.62568200 -0.71053874 0.01123886
-0.47785091 -0.27426705 -0.02372534
-0.52596712 -0.46107286 -0.00260378
-0.55333489 -0.53588378 0.19884397
-0.39178076 -0.51420158 0.00000326
-0.16547453 0.47325185 -0.02174346
-0.00367742 -0.51459819 0.00000087
-0.36320990 -0.07688046 0.18276539
-0.38162839 -0.12134919 0.24333616
-0.58596230 -0.41325426 -0.06020677
-0.05254111 0.01272287 0.00001110
-0.44748366 -0.28034118 0.31667319
-0.01081997 0.20855922 0.00001001
-0.36265829 -0.06863844 -0.00205757
-0.28528595 0.11126178 0.04010971
-0.12024883 -0.53729820 0.00000155
-0.19206411 0.24002732 0.00000700
-0.68412274 -0.24523893 -0.18129571
-0.29434958 -0.19410560 0.00000367
-0.31428096 -0.32782921 0.00000337
-0.52854848 -0.05030485 -0.12728210
-0.45210081 -0.29147604 0.01923839
-0.51425850 -0.20406155 -0.07099576
-0.21544757 0.38973492 -0.03284405
-0.58296174 0.02732735 -0.18976855
-0.57885849 -0.40981472 -0.05610746
-0.43186909 0.12040900 -0.10853594
-0.24908701 -0.70150012 0.00000181
-0.49246186 -0.38891643 0.01797579
-0.15337397 -0.35264629 0.00000232
-0.12177468 -0.26908618 0.00000239
-0.01673338 -0.57309973 0.00000081
-0.53898454 -0.06295232 -0.13103360
-0.01927791 -0.17624106 0.00000207
-0.29906705 -0.48518229 0.00000279
-0.17755242 -0.74788958 0.00000123
-0.58900142 -0.04867749 -0.17140484
-0.09111827 -0.65133208 0.00000101
-0.32402205 0.01772256 0.32920599
-0.21090567 0.54767019 -0.07678866
-0.27039233 0.27247643 -0.03744459
-0.15062404 -0.08834107 0.00000313
-0.01658953 0.00405524 0.00001171
-0.01372002 -0.60003453 0.00000071
-0.21601978 -0.04862926 0.00000365
-0.00924879 0.25768360 0.00000961
-0.39289251 -0.75345659 0.00000252
-0.07266529 -0.66989309 0.00000085
-0.28758422 0.10570609 0.12945370
-0.16896468 -0.02049816 0.00000346
-0.33888978 -0.01817050 0.32683185
-0.40449169 -0.00234828 -0.05206911
-0.46916252 -0.60728604 0.00000343
-0.28340885 -0.46076286 0.00000277
-0.35157588 -0.04878146 0.13564242
-0.27998281 -0.43880284 0.00000282
-0.01098145 0.37280467 0.00000857
-0.69162995 -0.64715093 -0.06654695
-0.54570299 -0.51745743 0.14879479
-0.05583021 -0.00256132 0.00000283
-0.39027673 -0.14222254 0.10373196
-0.43683729 -0.75570863 0.00000277
-0.03950824 -0.21946152 0.00000205
-0.29022560 0.09932176 0.22312497
-0.47059122 -0.42745093 0.00000400
-0.71324408 -0.19716708 -0.21668884
-0.41719624 -0.20721710 0.22621544
-0.16425116 -0.69893384 0.00000131
-0.00098595 -0.27845499 0.00000162
-0.14391255 -0.33841506 0.00000231
-0.05255282 0.01616440 0.00001107
-0.24926533 0.19821461 0.12937985
-0.49143443 -0.64677197 0.00000344
-0.31608370 -0.50428009 0.00000283
-0.34569228 -0.03459171 0.31148612
-0.04208026 0.69840515 0.01149376
-0.31014156 0.08678831 -0.01061576
-0.04426978 0.72228551 -0.00871515
-0.03615915 0.23269662 0.00000942
-0.46637785 -0.48773670 0.00000379
-0.24054034 -0.51888531 0.00000233
-0.01223180 -0.60103935 0.00000070
-0.70628601 -0.77072489 -0.04017826
-0.66238981 -0.79915911 0.10924966
-0.44008014 -0.26245624 0.03781824
-0.00721500 0.04049074 0.00001154
-0.39255306 -0.14772700 0.32489997
-0.26179025 0.16797799 0.12030348
-0.49216768 -0.27767709 -0.03303991
-0.41707319 -0.20692456 0.33918053
-0.27196825 0.31508139 -0.05132116
-0.08144782 -0.63725841 0.00000100
-0.37833253 0.19075207 -0.09092404
-0.13971855 0.46268183 0.10280454
-0.13781062 0.30955261 0.00000721
-0.32747081 -0.13741668 0.00000405
-0.41925508 -0.21219327 0.36761567
-0.40580428 -0.17971866 0.33295798
-0.42140403 -0.08628011 -0.03918680
-0.34605214 0.08807201 -0.03692120
-0.32109752 0.18296982 -0.04728275
-0.24015480 -0.66104662 0.00000188
-0.19658932 0.32538003 0.17439012
-0.00885134 -0.08407995 0.00000229
-0.70575577 -0.49040124 -0.12360959
-0.50874358 -0.42823353 0.26517290
-0.41068551 0.24108921 -0.12932859
-0.51443934 -0.44197628 0.05276540
-0.11797279 0.52723759 -0.00359682
-0.32651427 -0.32361969 0.00000346
-0.12559450 0.03698436 0.00000978
-0.53685278 -0.30212918 -0.05798365
-0.11261893 0.32804582 0.00000743
-0.40974885 -0.44463328 0.00000358
-0.13820589 0.14351118 0.00000866
-0.08692599 -0.52569312 0.00000138
-0.40571034 -0.17948107 0.06349789
-0.43676293 -0.77714860 0.00000271
-0.41114452 -0.19260038 0.06385122
-0.23019169 -0.43815517 0.00000252
-0.01682668 -0.69397032 0.00000043
-0.24575460 0.35515106 -0.04438012
-0.47159261 -0.27902633 -0.01778500
-0.31013808 0.05124400 0.29109129
-0.35430518 -0.05084134 -0.00134924
-0.16934180 0.22359870 0.00000749
-0.10510866 -0.63185978 0.00000116
-0.37939322 -0.71998078 0.00000254
-0.72536582 -0.70884556 -0.07245135
-0.58928716 -0.39488289 -0.06809955
-0.49249023 -0.38899231 0.20214476
-0.00569071 0.12169373 0.00001085
-0.20079647 0.15834880 0.00000758
-0.00039760 -0.75307190 0.00000015
-0.40610689 -0.61172724 0.00000304
-0.43231902 -0.33153316 0.00000407
-0.22614282 -0.02559851 0.00000378
-0.17526597 0.37686563 0.08450823
-0.21084687 -0.18634602 0.00000319
-0.37456569 -0.32418111 0.00000375
-0.42864859 -0.23486127 0.11930159
-0.53357631 0.09443842 -0.17418672
-0.51229388 -0.43680450 0.25811696
-0.50694776 0.20081387 -0.18677181
-0.14717413 -0.10229097 0.00000307
-0.25482085 -0.31233025 0.00000306
-0.37941068 -0.11598966 0.10655285
-0.39408949 -0.15143406 0.27010196
-0.48107493 -0.36142892 0.09396283
-0.44621655 -0.26836535 -0.00265554
-0.02835562 0.40762758 0.00000801
-0.30848715 0.05523552 0.21856700
-0.21259092 -0.54445761 0.00000208
-0.49452686 0.11969219 -0.15355033
-0.68445641 -0.46635336 -0.11542580
-0.16720687 -0.62094373 0.00000157
-0.05788094 -0.39084369 0.00000163
-0.04730203 0.68579698 0.03482214
-0.03817157 -0.68111914 0.00000060
-0.23728281 -0.45178461 0.00000252
-0.39660093 0.23104320 -0.11615802
-0.03338314 -0.25060818 0.00000192
-0.34758225 0.34951642 -0.11619835
-0.63767821 0.05497622 -0.23753206
-0.37408921 -0.10314787 0.24133587
-0.41206777 -0.18272309 -0.00361232
-0.05162713 0.67535496 0.04093210
-0.18081690 0.54593909 -0.05455186
-0.41954949 -0.21288989 0.01593268
-0.51507843 -0.75291473 0.00000326
-0.29464996 0.08864303 0.19255854
-0.00312752 0.62229848 0.00000651
-0.13840617 -0.07783512 0.00000309
-0.41888541 -0.79431593 0.00000255
-0.29196915 -0.69306141 0.00000210
-0.43105724 -0.24067378 0.05653083
-0.29749009 0.30305734 -0.06614854
-0.19564040 0.09316271 0.00000823
-0.64892536 -0.49385253 -0.08155682
-0.26016778 -0.48617813 0.00000255
-0.65281558 -0.49602851 -0.08371430
-0.52833545 -0.73266804 0.00000340
-0.06461879 0.51603037 0.00000651
-0.68180227 -0.10501024 -0.22154757
-0.47418216 -0.25870723 -0.02572937
-0.37005216 -0.08841857 -0.00148058
-0.71512228 -0.16442224 -0.22783493
-0.29551351 0.08657082 0.03820588
-0.29621786 -0.18398492 0.00000371
-0.33435944 0.27163890 -0.08336802
-0.52686965 -0.00668743 -0.13910867
-0.63105160 -0.15886152 -0.16881377
-0.09996772 -0.69811440 0.00000092
-0.35307649 -0.60484445 0.00000274
-0.22999308 0.24473745 0.17555176
-0.65372717 -0.14134856 -0.19041762
-0.75250155 -0.54868275 -0.13992497
-0.29024103 0.37680206 -0.08296580
-0.34808040 0.03541682 -0.02264121
-0.07263705 0.00751144 0.00001084
-0.23042864 0.24368298 0.21167050
-0.19130059 -0.19884877 0.00000303
-0.11079136 -0.09730930 0.00000286
-0.51063991 0.02356193 -0.13643809
-0.52699983 -0.00168209 -0.14069927
-0.34316954 0.24926406 -0.08303733
-0.02854001 0.73853600 -0.00221976
-0.50555402 -0.77186418 0.00000314
-0.67870826 -0.20771202 -0.18860756
-0.03144701 -0.17033163 0.00000216
-0.53541118 -0.31204140 -0.05397941
-0.52423102 -0.18889637 -0.08272835
-0.14603305 0.57198817 -0.03723233
-0.53845096 -0.20917565 -0.08692929
-0.07879506 -0.45083451 0.00000157
-0.03234697 0.73178238 -0.00294842
-0.21926142 -0.00423785 0.00000381
-0.42604318 0.07576279 -0.09098122
-0.02511929 0.16368549 0.00001019
-0.59118420 -0.62725782 0.20518140
-0.69233721 -0.13345961 -0.22064586
-0.04746395 0.49239188 0.00000698
-0.30690554 -0.53195876 0.00000269
-0.15639639 -0.58457601 0.00000162
-0.60532010 0.03473448 -0.20812243
-0.03884176 -0.64537460 0.00000072
-0.46329701 -0.31850708 0.04290004
-0.11982069 -0.06940589 0.00000301
-0.41222659 -0.19521707 0.17215817
-0.12460168 0.49917588 0.11175486
-0.33824882 0.06778690 -0.02522316
-0.04268286 0.28989002 0.00000882
-0.40763357 -0.18412587 0.10593711
-0.27085426 0.14610359 0.02539110
-0.13307565 0.40409246 0.00000646
-0.33026773 -0.61480743 0.00000257
-0.42300040 -0.62961596 0.00000309
-0.45679224 -0.30281025 0.22056639
-0.12414048 0.30884925 0.00000742
-0.12395409 -0.36286521 0.00000211
-0.04222000 -0.21413805 0.00000209
-0.17002971 -0.21895944 0.00000284
-0.11189080 0.52986252 0.10737730
-0.57390195 0.07527647 -0.19756579
-0.00024822 -0.75980806 0.00000012
-0.03952968 -0.22222131 0.00000204
-0.07741892 -0.20227061 0.00000234
-0.33018494 0.00286582 0.06423008
-0.32109237 0.19653261 -0.05133434
-0.26236787 0.16658133 0.14682502
-0.45436987 -0.08206536 -0.06424239
-0.68711042 -0.33746982 -0.15587628
-0.48750803 0.17656770 -0.16548982
-0.48231605 0.22280028 -0.17556573
-0.43360952 -0.41326413 0.00000383
-0.34040982 -0.02182053 0.08536438
-0.39052346 -0.26174271 0.00000404
-0.05671004 -0.57697082 0.00000104
-0.40338826 -0.17387608 0.08921653
-0.71938777 -0.53706938 -0.11949583
-0.34369466 0.37771463 -0.12182349
-0.49670148 -0.39916205 0.30703723
-0.49899283 -0.76831752 0.00000311
-0.03506972 0.16495514 0.00001003
-0.31748703 -0.06684900 0.00000421
-0.15269865 0.51712406 -0.02563928
-0.29804757 0.08045620 0.00078520
-0.18577492 -0.36668354 0.00000248
-0.42067942 -0.43510848 0.00000368
-0.66192138 -0.08612713 -0.21284299
-0.36257774 -0.07536219 0.38589010
-0.32672283 0.01120916 0.24619545
-0.37117407 0.15680633 -0.07560692
-0.28651488 0.10828235 0.19507796
-0.45131889 -0.69285089 0.00000306
-0.40307733 -0.17313267 0.26907429
-0.05856437 0.15917882 0.00000972
-0.32629350 0.01225567 0.12295339
-0.26867905 -0.24793904 0.00000335
-0.58629113 -0.10210613 -0.15347394
-0.10890867 0.45203975 0.00000640
-0.70990068 -0.12671684 -0.23533952
-0.44892809 -0.04810384 -0.07046851
-0.41460383 -0.20096359 0.35421866
-0.05085603 -0.43743634 0.00000144
-0.23632702 0.22944513 0.18859997
-0.27128232 0.27137345 -0.03775722
-0.32180759 0.05004259 -0.00804967
-0.51696432 -0.18584719 -0.07839477
-0.24659128 -0.02424642 0.00000391
-0.11462584 0.29240590 0.00000771
-0.51434290 -0.03733645 -0.12090563
-0.63889652 -0.03729548 -0.21082327
-0.05253008 -0.52475196 0.00000118
-0.04044508 -0.40137774 0.00000149
-0.26216993 0.16705672 0.17770283
-0.20616350 0.30226460 0.19562297
-0.58318061 -0.60793447 0.09603613
-0.40963811 -0.46298856 0.00000353
-0.02242240 0.35124224 0.00000859
-0.15732498 -0.36197281 0.00000232
-0.74752462 -0.76662552 -0.07116988
-0.19046319 0.34018299 0.00928869
-0.19024169 0.34071165 0.08403327
-0.16510415 -0.41671473 0.00000219
-0.13599269 -0.68980986 0.00000117
-0.08282386 -0.19086903 0.00000240
-0.24694398 0.26798534 -0.01917585
-0.53196466 0.09490011 -0.17316145
-0.60204887 -0.07614982 -0.17260885
-0.26895091 0.15069319 0.09230775
-0.56236106 -0.38502416 -0.05161137
-0.21899210 0.34700078 -0.02262499
-0.18914302 0.01836934 0.00000899
-0.55154467 0.14311652 -0.20171183
-0.62455094 -0.33473217 -0.11153809
-0.44821763 -0.28211343 0.32391396
-0.60794985 -0.33080786 -0.10072837
-0.52930707 -0.09258768 -0.11518756
-0.11854474 0.15455036 0.00000886
-0.61992162 -0.69663405 0.06370148
-0.03530997 0.46049091 0.00000744
-0.54822773 -0.52354926 0.06346434
-0.37920481 0.00764148 -0.03680305
-0.61491561 0.00795171 -0.20704068
-0.56004149 -0.55207181 0.10160937
-0.05067054 -0.14478590 0.00000235
-0.44462568 0.13247727 -0.12135257
-0.28905216 0.10215479 0.22109979
-0.76241535 -0.68631679 -0.10592949
-0.40950084 0.09720120 -0.08545049
-0.55278981 -0.70924634 0.00000362
-0.26870492 -0.00994090 0.00000409
-0.19122380 -0.13894819 0.00000322
-0.57405323 -0.58590108 0.24164306
-0.09933300 0.28853127 0.00000798
-0.28327897 -0.78709936 0.00000175
-0.25966537 0.34368268 -0.05099234
-0.27029470 0.14744779 0.10788812
-0.53998357 -0.50364804 0.11296142
-0.15917102 -0.19631355 0.00000285
-0.43898350 -0.01959065 -0.07181543
-0.03215706 -0.54517889 0.00000099
-0.25103614 0.19392978 0.25001287
-0.34890872 -0.04234901 0.05091472
-0.32938594 0.14295606 -0.04130141
-0.34935045 -0.04342752 0.36531374
-0.14436314 0.19337970 0.00000813
-0.31358784 0.04292652 0.15756886
-0.48618785 -0.05708538 -0.09467800
-0.38073400 0.22929411 -0.10418169
-0.41238138 -0.19558775 0.09715583
-0.41814193 -0.66423464 0.00000295
-0.63582146 -0.55379760 -0.05417527
-0.05527621 -0.63253945 0.00000086
-0.05008759 0.36955935 0.00000801
-0.04462410 0.32392532 0.00000849
-0.60517079 -0.46516901 -0.05854991
-0.15857480 -0.62662029 0.00000150
-0.45248261 -0.76246339 0.00000285
-0.54572833 -0.51751512 0.06255105
-0.02417199 0.38200954 0.00000829
-0.33782986 -0.65683252 0.00000249
-0.39739642 -0.15942058 0.34110332
-0.12921993 0.48803252 0.03896654
-0.31103447 0.04908476 0.23227128
-0.37199482 -0.09808262 0.01897280
-0.03675495 0.21948840 0.00000952
-0.27938613 0.39326334 -0.08005232
-0.21405073 0.28322694 0.15262628
-0.07037396 0.47700638 0.00000676
-0.59704155 0.04403611 -0.20492788
-0.68954629 -0.62276506 -0.07233414
-0.16734427 0.46447805 -0.02046972
-0.14845885 -0.58917087 0.00000155
-0.62386036 -0.65934801 -0.01398310
-0.42859635 -0.15569259 -0.02362482
-0.32766753 -0.64186877 0.00000247
-0.06318599 0.06552237 0.00001047
-0.06787337 0.04226349 0.00001061
-0.57604229 -0.59069741 0.00546926
-0.55141550 -0.53124309 0.00948789
-0.47930536 -0.35716414 0.27739799
-0.45495704 -0.29838103 0.25422630
-0.58734095 -0.01266637 -0.18097138
-0.35149622 -0.52656281 0.00000298
-0.27268934 0.16434245 -0.00677027
-0.33947039 -0.58184105 0.00000273
-0.05472262 -0.48005825 0.00000133
-0.09664880 0.56666106 0.08664409
-0.55921525 -0.63541585 0.00000389
-0.52340353 -0.67333245 0.00000355
-0.16966456 0.27070767 0.00000707
-0.17151351 -0.64740199 0.00000151
-0.31869519 0.03060742 0.02308213
-0.40568992 -0.17944220 0.32264861
-0.05598308 -0.35519823 0.00000173
-0.12483208 -0.24520832 0.00000249
-0.49452326 -0.39390275 0.25886750
-0.37257060 -0.59977609 0.00000287
-0.28347319 -0.15316084 0.00000373
-0.52423143 -0.65469480 0.00000362
-0.44023708 -0.64815938 0.00000313
-0.00709350 -0.67721647 0.00000034
-0.71486771 -0.56439185 -0.10806408
-0.04665169 0.68736768 0.02669940
-0.00349901 -0.08269496 0.00000226
-0.30345336 0.06738376 0.27076039
-0.60767758 -0.52242869 -0.04323937
-0.26982003 -0.28013486 0.00000325
-0.36748892 0.34472257 -0.12913436
-0.43316630 -0.58010489 0.00000330
-0.56892735 -0.37585539 -0.05909241
-0.08259288 0.62258577 -0.00656768
-0.15859620 -0.67044282 0.00000136
-0.17401803 0.37987328 0.14767323
-0.44452652 -0.06739174 -0.06152451
-0.60881007 -0.34134230 -0.09819962
-0.19577897 0.32734275 0.09580230
-0.02224041 -0.16132157 0.00000213
-0.54163605 -0.08456591 -0.12648530
-0.73367965 -0.49618998 -0.14203422
-0.50908726 -0.64620352 0.00000355
-0.27884975 -0.32179385 0.00000318
-0.49850163 0.16495314 -0.16995262
-0.73321754 -0.77574193 -0.05811733
-0.27876723 -0.22724107 0.00000347
-0.01837298 -0.57188624 0.00000082
-0.26838660 -0.58553863 0.00000229
-0.16308333 0.40627113 0.15278894
-0.49736303 0.15077344 -0.16489096
-0.30025765 0.07510128 0.23969539
-0.40982252 -0.18941355 0.18204230
-0.14696887 0.44518661 0.00035273
-0.12767193 0.49177229 0.00670339
-0.29747745 0.17932962 -0.02914446
-0.37574607 -0.51469439 0.00000316
-0.01636786 0.03771160 0.00001142
-0.66768974 -0.39732686 -0.12396146
-0.37197894 -0.61362296 0.00000283
-0.28639296 -0.56211644 0.00000247
-0.00828738 -0.01912224 0.00000249
-0.09630649 0.45127133 0.00000660
-0.48184684 -0.31527761 -0.01434799
-0.55513155 0.15177126 -0.20688879
-0.55345535 -0.27265552 -0.07878002
-0.34092712 0.34219682 -0.10920585
-0.06218861 -0.12599063 0.00000248
-0.75518250 -0.67521417 -0.10402841
-0.67951316 -0.56925750 -0.08109050
-0.24395262 -0.37605596 0.00000280
-0.27750513 -0.68469423 0.00000204
-0.11620535 0.51944596 0.11312104
-0.09636450 -0.66238815 0.00000101
-0.60194671 -0.54756981 -0.03158582
-0.57077318 -0.02592130 -0.16505118
-0.22665040 -0.62192583 0.00000192
-0.73565054 -0.64352679 -0.09940451
-0.04990189 -0.58655024 0.00000097
-0.19538523 0.32829916 0.02347023
-0.39007685 0.12955910 -0.08110464
-0.23423500 -0.63763708 0.00000192
-0.50826240 -0.42706648 0.11961590
-0.34412593 -0.03080740 0.27617037
-0.32146481 0.19822264 -0.05210852
-0.10920722 0.04110713 0.00000999
-0.19364467 0.50592023 -0.05184567
-0.57269835 0.09942086 -0.20391625
-0.67248040 -0.56329417 -0.07779705
-0.24800768 0.20126019 0.01331104
-0.20871253 0.52511728 -0.06846219
-0.13052209 0.40948334 0.00000645
-0.13903128 0.23562320 0.00000784
-0.15601987 -0.29037252 0.00000253
-0.28833589 -0.51536846 0.00000263
-0.42047071 -0.21512064 0.18320766
-0.43682608 -0.55554330 0.00000340
-0.33882695 -0.01801454 0.27392140
-0.34110844 -0.02351524 0.18519264
-0.05370611 -0.06689196 0.00000262
-0.66513205 -0.61075521 -0.05830254
-0.05817359 0.53343683 0.00000645
-0.15929998 -0.41001785 0.00000218
-0.24160507 0.21671414 0.05124034
-0.67033285 -0.37300199 -0.13314214
-0.37438774 -0.10387439 0.39549616
-0.11708018 0.43200475 0.00000645
-0.47803006 -0.35408190 0.19289042
-0.05945768 0.04661125 0.00001070
-0.10656569 -0.61146832 0.00000123
-0.07402681 0.71350902 -0.02757070
-0.73324150 -0.36912569 -0.17970894
-0.73679602 -0.67198592 -0.09172230
-0.37931821 -0.75675416 0.00000242
-0.66837096 -0.54720920 -0.07964003
-0.25473312 -0.19679967 0.00000342
-0.14026555 -0.45622858 0.00000192
-0.27882904 -0.24934784 0.00000340
-0.02111011 0.33748850 0.00000873
-0.60100567 -0.49040985 -0.04799673
-0.21231142 -0.60006195 0.00000191
-0.68770486 -0.01877556 -0.25159118
-0.36227384 0.16228853 -0.07082158
-0.33383739 0.24861659 -0.07610745
-0.63058501 -0.05731155 -0.19883926
-0.35491812 0.25059211 -0.09191499
-0.36662978 -0.53553349 0.00000304
-0.09742770 0.46982256 0.00000642
-0.33283669 -0.00355422 0.28875694
-0.34494990 -0.19856419 0.00000396
-0.34117243 0.27528492 -0.08937606
-0.43056813 -0.23949099 0.00807010
-0.06824378 0.47340915 0.00000683
-0.67388105 -0.44964859 -0.11278687
-0.43551782 0.11726440 -0.11022948
-0.43906879 -0.47226107 0.00000367
-0.13310489 -0.44315073 0.00000192
-0.09049653 -0.10153776 0.00000273
-0.39649013 -0.35297203 0.00000379
-0.19554950 -0.58763218 0.00000184
-0.58766383 -0.36824363 -0.07489264
-0.01878331 -0.37593925 0.00000144
-0.39639947 -0.15700080 0.01897892
-0.57735884 0.00221105 -0.17821434
-0.53769875 0.06725601 -0.16903485
-0.53605598 -0.42194396 -0.02158523
-0.34030288 -0.57556963 0.00000276
-0.46081957 -0.31253597 0.29147041
-0.47080085 -0.33663261 0.28260648
-0.29662281 -0.37157488 0.00000313
-0.73345435 -0.40543377 -0.16900682
-0.32543573 0.12036238 -0.03169442
-0.37998334 -0.11737056 0.06648124
-0.02937118 0.54952270 0.00000675
-0.48288688 -0.48131758 0.00000391
-0.74876148 -0.79905504 -0.06236652
-0.28192237 0.41273326 -0.08770461
-0.40602309 0.30873752 -0.14619012
-0.50883186 0.15209351 -0.17356431
-0.62644023 -0.38463312 -0.09798195
-0.22065867 0.53986090 -0.08149374
-0.30589828 0.08064147 -0.00571488
-0.28712481 -0.79955524 0.00000173
-0.32888186 0.30660680 -0.08986961
-0.06304849 0.00110979 0.00001104
-0.35881642 -0.06627281 0.27623782
-0.72245580 -0.60108888 -0.10256909
-0.02070226 0.65436780 0.00000596
-0.51898563 -0.08412180 -0.11026853
-0.52511275 -0.22054677 -0.07390167
-0.36007872 -0.79903650 0.00000218
-0.25015172 -0.64993435 0.00000198
-0.04504930 0.13759799 0.00001012
-0.58254957 -0.57179439 -0.01034164
-0.30639279 0.38309956 -0.09650771
-0.30650008 0.06003846 0.14737993
-0.35493252 0.23832713 -0.08825811
-0.02585084 -0.58249485 0.00000084
-0.00632047 -0.44969425 0.00000106
-0.69689691 -0.64916492 -0.06974651
-0.49646136 -0.39857852 0.17819406
-0.49862009 0.13409761 -0.16081224
-0.31192404 -0.38928446 0.00000317
-0.71949351 -0.65141106 -0.08538508
-0.09213911 -0.62206131 0.00000111
-0.57704204 -0.05372997 -0.16126169
-0.12240020 0.35396084 0.00000706
-0.27457124 -0.22812843 0.00000344
-0.59944838 -0.36328185 -0.08488248
-0.46545026 -0.73370147 0.00000302
-0.44906238 -0.28415158 0.29205209
-0.49737856 -0.33857578 -0.01859321
-0.53238773 -0.44848973 -0.01100053
-0.15640649 0.02868098 0.00000939
-0.50436020 -0.37399960 -0.01304137
-0.33931619 0.01836044 -0.01121496
-0.22711767 -0.40630046 0.00000260
-0.59388900 -0.43320704 -0.05996278
-0.55205953 -0.53280491 0.22697172
-0.63436157 -0.35851035 -0.11151019
-0.47125894 -0.01014979 -0.09793152
-0.32158419 0.02361821 0.20313665
-0.34365368 -0.41967008 0.00000326
-0.42346272 -0.37085587 0.00000390
-0.32584792 -0.21267097 0.00000380
-0.49811760 -0.75269729 0.00000315
-0.16187070 0.31570610 0.00000680
-0.51173449 -0.60939723 0.00000368
-0.17608359 -0.30780086 0.00000260
-0.73202205 -0.60254449 -0.10903880
-0.33208695 -0.00172183 0.01324394
-0.45320123 0.19201413 -0.14534444
-0.28086916 -0.47640306 0.00000271
-0.21966355 -0.69074869 0.00000167
-0.45863044 0.21398154 -0.15583174
-0.32742715 -0.23420854 0.00000374
-0.60328233 -0.08590016 -0.17058393
-0.35075805 -0.54163986 0.00000292
-0.74085957 -0.44654375 -0.16206042
-0.33408093 -0.79592299 0.00000203
-0.23288058 0.23778008 0.00855916
-0.56423354 0.07310072 -0.18993625
-0.21377882 -0.03325843 0.00000369
-0.23507580 -0.03139100 0.00000382
-0.19111210 0.10377315 0.00000821
-0.32601523 0.05405416 -0.01228635
-0.71955013 -0.66269356 -0.08205258
-0.10186063 -0.21852750 0.00000243
-0.09106763 -0.32238576 0.00000204
-0.05089270 -0.62871265 0.00000084
-0.26744267 0.15434062 0.01476907
-0.57247716 0.03677291 -0.18502465
-0.26197463 -0.12366063 0.00000369
-0.37372878 -0.09098867 -0.00336600
-0.37528616 -0.57716984 0.00000296
-0.40037096 -0.49208325 0.00000338
-0.50706321 -0.61394852 0.00000364
-0.63341963 -0.33462584 -0.11797146
-0.43653974 -0.25391030 0.07133800
-0.35466725 0.15320989 -0.06261632
-0.12811096 0.57322854 -0.02466638
-0.25200760 -0.33420369 0.00000298
-0.56326580 0.09707222 -0.19640525
-0.60432482 -0.78715330 0.00000369
-0.53446913 -0.49033311 0.06625182
-0.08485065 0.52517134 0.00000612
-0.15218478 -0.03964819 0.00000329
-0.19340630 0.18795973 0.00000744
