ply
format ascii 1.0
element vertex 1372
property float x
property float y
property float z
end_header
-0.63862604 -0.26322517 -0.00000012
0.60752380 -0.02859627 -0.00000076
0.33720550 0.43193096 0.01964954
0.25905195 0.11908679 -0.00000057
-0.02889938 0.30267897 -0.00000069
-0.73894840 0.54126155 -0.00000008
-0.27812922 0.67789978 -0.00000065
0.23009706 -0.04478891 -0.00000047
-0.51018846 -0.61729026 -0.00000011
0.05744582 0.45807305 -0.00000079
-0.39377224 -0.74553525 -0.00000003
-0.29854921 -0.15614706 -0.00000040
0.04966468 -0.39639902 -0.00000025
-0.35203299 -0.57526869 -0.00000014
-0.41389674 -0.06018996 -0.00000040
-0.19291653 0.08705970 -0.00000055
-0.27465647 -0.53176367 -0.00000017
-0.77943832 0.56743443 -0.00000003
0.08318638 -0.27770975 -0.00000033
0.22440289 -0.43197250 -0.00000023
0.06028137 0.52679461 -0.00000083
-0.28578451 0.62266159 -0.00000064
-0.62182689 0.14988586 -0.00000022
-0.59196526 0.61814278 -0.00000026
0.22739974 0.54656601 0.01657470
-0.56833827 -0.38684335 -0.00000018
0.04259753 0.33920005 -0.00000071
0.64436454 0.10178424 0.03428606
-0.32681969 0.36450735 -0.00000057
-0.72019023 -0.74683368 0.00000000
-0.17999044 -0.59283966 -0.00000013
-0.78225887 0.22876073 -0.00000002
0.08208418 0.54236513 0.11177285
0.42115912 -0.40717006 -0.00000025
-0.31542125 -0.15607692 -0.00000040
0.24130362 -0.66299564 -0.00000009
-0.30850753 0.52211845 -0.00000061
0.28667063 -0.50202203 -0.00000019
0.45006087 0.09930919 -0.00000073
-0.45086014 0.16011010 -0.00000040
0.59894246 -0.40857631 -0.00000035
0.25864992 0.12006656 -0.00000058
-0.55150098 -0.54182440 -0.00000016
-0.00400938 0.66635549 -0.00000092
0.40659532 -0.69788009 -0.00000006
0.18817934 -0.42826071 -0.00000023
0.01232454 0.15834029 -0.00000060
-0.10933231 -0.51747555 -0.00000018
0.44721571 -0.00348833 -0.00000062
0.52000308 -0.15293398 -0.00000054
0.41833201 -0.11731558 -0.00000047
0.11335912 -0.13894626 -0.00000041
0.20018171 0.24257109 0.22746065
-0.04410822 -0.41478422 -0.00000024
-0.59445608 -0.18037610 -0.00000019
-0.73255175 -0.02900705 -0.00000007
0.77908468 -0.69820750 -0.00000013
-0.45624566 0.46988466 -0.00000043
0.03123319 -0.74989021 -0.00000003
-0.76487786 -0.71408159 0.00000000
-0.01194632 0.69134802 -0.00000093
-0.52923745 -0.23189299 -0.00000025
0.71748674 -0.52820814 -0.00000034
0.02420151 0.24840784 -0.00000066
0.09375388 0.48644701 -0.00000080
-0.37857616 0.30639395 -0.00000051
-0.33949193 -0.57727814 -0.00000014
-0.04345026 0.04317159 -0.00000053
-0.63035905 0.66141617 -0.00000021
-0.63005322 -0.09715365 -0.00000016
-0.74250960 0.49396783 -0.00000007
-0.65239841 0.45226854 -0.00000018
-0.56158680 -0.54876429 -0.00000015
0.25496691 0.49552631 0.03151990
-0.01640774 0.18783717 -0.00000062
-0.41262376 -0.46102461 -0.00000021
-0.20519575 -0.48404175 -0.00000020
-0.69570673 0.56811577 -0.00000013
-0.12824675 -0.00885385 -0.00000049
-0.36615178 0.48842025 -0.00000054
-0.40809450 0.04870190 -0.00000043
-0.14301161 -0.02968076 -0.00000048
-0.54840267 -0.17622148 -0.00000024
0.79686272 -0.53120917 -0.00000034
0.15554509 -0.70982283 -0.00000006
-0.30675504 0.46610689 -0.00000061
0.07363233 -0.07033011 -0.00000046
0.26893124 0.11714869 0.26354495
0.00577312 0.77933764 -0.00000099
0.56994975 -0.69942236 -0.00000006
-0.67390215 -0.21168454 -0.00000010
-0.26537928 -0.23522034 -0.00000035
-0.75519925 0.03396551 -0.00000005
0.72565997 -0.45736831 -0.00000043
-0.54628634 0.28964716 -0.00000032
0.08170832 0.50269198 0.13727230
-0.19496202 0.04646108 -0.00000053
-0.56896031 0.60230148 -0.00000029
-0.24107447 0.67363656 -0.00000070
0.45836401 0.10806078 -0.00000075
-0.24995492 -0.54489154 -0.00000016
-0.68025213 0.71584684 -0.00000015
0.50665706 -0.76293546 -0.00000002
-0.36491331 0.06853993 -0.00000048
-0.09204413 0.01533151 -0.00000051
0.37518343 -0.36705843 -0.00000027
-0.41594785 0.66403943 -0.00000048
-0.11116345 0.23100565 -0.00000064
-0.42296368 0.40024802 -0.00000047
-0.48731077 0.71181518 -0.00000039
0.06590195 -0.69920146 -0.00000006
0.48518580 0.07131580 0.15503661
0.11545651 0.24060294 -0.00000065
-0.67082196 -0.44532958 -0.00000006
0.48480809 0.23126110 0.05343808
0.00952839 0.39619461 -0.00000075
-0.33747414 -0.45061800 -0.00000022
0.48544034 -0.73537523 -0.00000004
0.42111689 0.16660517 0.13515820
0.58184469 -0.24907267 -0.00000050
-0.72110862 0.42046604 -0.00000010
-0.49058855 -0.28264865 -0.00000028
-0.30009386 -0.53874791 -0.00000016
-0.47722828 -0.12635842 -0.00000032
0.37568501 -0.75692552 -0.00000003
0.41987410 -0.55340177 -0.00000015
0.06210398 0.62065947 0.07464383
0.26934972 -0.75976062 -0.00000003
-0.61258173 -0.58006072 -0.00000009
-0.72720802 0.52423650 -0.00000009
-0.02586115 0.33366165 -0.00000071
0.18101002 0.17119721 -0.00000061
0.36989406 -0.16858464 -0.00000039
-0.10627220 0.13079748 -0.00000058
0.27955571 -0.60809332 -0.00000012
0.54031366 -0.43432605 -0.00000026
-0.54324901 0.53453684 -0.00000032
0.36162153 -0.44983125 -0.00000022
0.42558852 0.17948091 0.12411293
0.09004879 0.51310277 -0.00000082
-0.65979224 0.46640968 -0.00000018
0.16984801 -0.32664451 -0.00000030
0.22922079 0.08187631 -0.00000055
-0.43861130 -0.49549878 -0.00000019
-0.01540463 0.63383114 -0.00000090
0.11391400 0.35437745 0.21119958
-0.49909431 -0.49408886 -0.00000019
0.18234825 0.25058275 0.23371415
-0.35460889 0.25608608 -0.00000052
-0.49263591 -0.74248016 -0.00000004
-0.31728691 0.55749142 -0.00000060
0.64907086 -0.01371284 -0.00000082
0.58433002 0.17733300 0.02440797
0.76267409 -0.18137085 -0.00000077
0.28204212 0.43479329 0.05295023
-0.61565959 0.20961761 -0.00000023
0.53110862 -0.68323827 -0.00000007
-0.16271606 0.09372414 -0.00000056
-0.13127214 -0.29896697 -0.00000031
0.01186109 0.74132168 0.02980720
-0.18257442 0.72625571 -0.00000077
0.40018728 -0.48946276 -0.00000019
-0.65924019 0.06170636 -0.00000016
-0.13069369 -0.64821082 -0.00000009
-0.15004148 -0.50124043 -0.00000019
-0.48137760 0.00935866 -0.00000034
0.02556398 0.17132264 -0.00000061
0.68068624 -0.12142277 -0.00000074
-0.60431647 -0.60668874 -0.00000010
0.04686819 0.27760032 -0.00000067
0.24328934 0.30027983 -0.00000073
0.07943168 0.68449354 0.02296761
0.67260551 -0.63285196 -0.00000019
-0.61908656 0.15451054 -0.00000022
-0.72042936 0.66575414 -0.00000010
-0.34252220 0.58407629 -0.00000057
-0.10527435 0.76883954 -0.00000087
-0.29574847 -0.01672715 -0.00000049
0.07821575 -0.10320104 -0.00000044
-0.67127985 0.79294151 -0.00000016
-0.08443703 0.25912398 -0.00000066
-0.48106536 -0.23933266 -0.00000030
-0.60514247 -0.19002818 -0.00000017
0.39620206 0.15016940 -0.00000073
-0.58416063 -0.06582570 -0.00000022
0.10392537 0.27150866 0.27032232
-0.75154579 -0.00822787 -0.00000005
-0.01756852 -0.23966584 -0.00000035
-0.16481987 -0.08653116 -0.00000045
0.20059353 0.30711585 -0.00000069
0.34443873 -0.16616780 -0.00000040
0.18176714 0.19078326 0.27215880
0.55458391 -0.72718054 -0.00000005
0.22132666 -0.40394995 -0.00000025
-0.56527877 0.11522763 -0.00000027
0.25545886 0.53202361 0.00796845
-0.34287575 0.30882871 -0.00000054
-0.78850901 -0.72407305 0.00000000
-0.57032484 -0.58865130 -0.00000013
0.13674729 -0.62979692 -0.00000011
0.36208081 0.33935666 0.06275427
0.58292800 0.07448473 0.09078533
-0.36471590 0.17634141 -0.00000050
0.22550286 0.14789872 0.27161708
-0.23124132 0.28202507 -0.00000066
-0.77071226 -0.69729877 0.00000000
0.52930230 -0.41558191 -0.00000027
0.56590658 -0.13342832 -0.00000061
0.21712092 -0.05541391 -0.00000047
0.31854835 0.08494496 -0.00000058
-0.76626629 -0.57419914 0.00000000
-0.25227362 -0.78992254 -0.00000001
-0.41441643 -0.35323256 -0.00000028
0.39772463 -0.14879560 -0.00000041
0.78062284 0.00763108 -0.00000099
-0.39503711 -0.76467550 -0.00000002
0.07463225 0.57244998 -0.00000086
-0.11919360 0.37374377 -0.00000073
-0.49415550 0.39927164 -0.00000038
0.16953485 0.30699387 0.20595518
-0.34777641 -0.31447273 -0.00000030
-0.60027367 0.29520658 -0.00000025
0.17552283 0.10085358 0.33339322
0.19764245 0.16602629 -0.00000060
0.36150628 0.12584488 -0.00000067
0.08956376 0.31282705 -0.00000070
0.05387858 -0.67556328 -0.00000008
0.54697317 -0.31760487 -0.00000039
0.08483634 -0.16947979 -0.00000039
0.18694653 0.37183961 0.15358156
0.46712473 -0.27127409 -0.00000036
0.37831602 0.07795330 0.21885563
0.28412929 0.45071653 0.04148279
-0.21079339 0.19956155 -0.00000062
-0.44506148 -0.77620924 -0.00000001
0.58958101 -0.23504578 -0.00000052
-0.56539774 -0.63182676 -0.00000011
-0.03970912 0.64958441 -0.00000091
0.11697025 0.25071910 0.27525347
-0.51001549 0.07928101 -0.00000032
-0.72577822 0.21245299 -0.00000009
-0.38076305 0.75705558 -0.00000052
-0.64093113 0.24190995 -0.00000020
0.73485255 0.04533568 0.01261275
-0.73633236 0.79642200 -0.00000008
-0.74196595 -0.28940102 -0.00000001
0.57333565 0.22401880 0.00168282
0.35401922 0.07243059 0.23784173
-0.17217790 0.65656096 -0.00000078
-0.45244831 0.39418373 -0.00000043
-0.11386988 -0.55666870 -0.00000015
-0.04097234 -0.79091150 -0.00000001
0.23064291 0.15785518 -0.00000060
0.16866112 0.33525628 -0.00000071
-0.09716161 0.64363611 -0.00000087
0.11073795 0.33452582 -0.00000071
0.64844620 -0.58760113 -0.00000021
-0.58299637 -0.59388059 -0.00000012
-0.30231363 0.50644088 -0.00000062
0.58222121 0.06039286 -0.00000083
0.06519147 -0.71239561 -0.00000005
-0.54790092 -0.50035518 -0.00000018
0.20632841 0.13358481 -0.00000058
-0.70908177 -0.11425120 -0.00000008
0.30156365 0.12360256 -0.00000060
-0.22523929 0.30102870 -0.00000067
0.55387950 -0.42437667 -0.00000028
0.17958824 0.53664583 0.05333311
0.19143791 0.05069630 -0.00000053
0.33582783 0.09365181 0.23591252
-0.32271942 0.03284812 -0.00000052
-0.72324985 -0.24075268 -0.00000004
0.67427099 -0.56178159 -0.00000027
-0.52782959 0.28131962 -0.00000034
0.04781211 0.66710442 0.05417172
-0.28865167 -0.31211087 -0.00000030
0.65370369 -0.55356181 -0.00000025
-0.63787627 -0.40928558 -0.00000010
0.79057044 -0.20948081 -0.00000074
0.72886682 -0.41806972 -0.00000048
0.26451099 0.39371496 0.09026754
0.68153238 0.05696846 0.03915561
-0.63696539 0.30067387 -0.00000020
-0.15358315 -0.32655641 -0.00000030
-0.15415689 0.29654670 -0.00000069
0.22292499 0.36976776 0.13199323
-0.10596257 0.31411943 -0.00000070
-0.64127618 -0.43012014 -0.00000009
-0.78291154 -0.72740334 0.00000000
-0.76227301 0.35411823 -0.00000005
-0.06293857 0.72370601 -0.00000092
-0.42161354 0.43905967 -0.00000047
0.21860164 0.44281226 0.08823775
-0.24092709 0.46064317 -0.00000068
0.22768030 0.21023962 0.23053794
0.60168874 0.19681740 0.00094953
0.06130291 -0.13993596 -0.00000041
0.13672476 0.18039177 0.30745357
0.36569944 0.17201947 0.16699578
-0.21930085 -0.18494949 -0.00000038
-0.61256641 0.56493539 -0.00000023
0.57415879 0.17837296 0.03022197
0.46369818 0.33607805 0.00014084
-0.42710391 0.56387144 -0.00000047
-0.39008516 0.31874076 -0.00000050
-0.68099010 -0.06791027 -0.00000011
0.58801311 -0.75127912 -0.00000003
0.30072758 -0.65152365 -0.00000009
0.40543768 -0.01690408 -0.00000056
0.07638022 0.59311920 0.08308921
-0.32376784 -0.56833315 -0.00000014
-0.49616414 0.20023231 -0.00000036
0.04898368 -0.03852910 -0.00000048
0.13290240 0.18340984 0.30796564
-0.01497837 -0.74632478 -0.00000003
-0.74900132 0.70941949 -0.00000006
-0.54363787 0.02197215 -0.00000028
0.74267703 -0.25758481 -0.00000066
-0.54753363 0.18388283 -0.00000030
0.15745410 -0.34705651 -0.00000028
-0.40801644 0.28557962 -0.00000047
-0.51699573 0.07364388 -0.00000032
0.51454222 -0.38338670 -0.00000029
0.68187654 -0.10340537 -0.00000076
-0.28348273 -0.00193736 -0.00000050
0.45622182 0.14049266 0.12943260
0.15255930 0.15805674 0.31159255
-0.65775913 0.25003037 -0.00000018
0.21196449 0.50199181 0.05478339
0.05112792 -0.00099936 -0.00000050
-0.51318842 0.10033244 -0.00000032
0.33566090 -0.34262025 -0.00000029
-0.73030555 0.55863738 -0.00000009
0.43754530 0.02830418 -0.00000064
-0.01426580 -0.23810622 -0.00000035
0.11387332 -0.00031990 -0.00000050
0.35948837 0.18002468 0.16585343
0.38736066 -0.55704123 -0.00000015
0.21686155 0.25997853 -0.00000066
-0.38274243 -0.63013035 -0.00000011
-0.31161612 -0.15310763 -0.00000040
-0.07835670 0.15681764 -0.00000060
-0.30843392 0.60705012 -0.00000061
-0.55677181 0.75121421 -0.00000030
-0.14466967 0.18078145 -0.00000061
0.10533924 -0.72905731 -0.00000004
-0.59462857 -0.61157858 -0.00000011
0.11004779 0.30767131 0.24339922
0.43911976 0.05712170 -0.00000068
0.03842620 -0.67509842 -0.00000008
0.66179967 -0.43175852 -0.00000039
0.48746628 0.10659130 0.13112430
-0.34500077 0.56293529 -0.00000057
-0.36646357 0.08818346 -0.00000048
0.00651237 -0.78568465 -0.00000001
-0.63314837 0.10114306 -0.00000020
-0.69387209 -0.39279225 -0.00000004
-0.20161545 0.08299618 -0.00000055
-0.05141760 0.42029941 -0.00000076
0.66569585 0.05460107 -0.00000091
-0.68852174 0.40129215 -0.00000014
0.27886778 -0.21368542 -0.00000037
-0.19460402 -0.58272916 -0.00000014
-0.54798597 0.33731124 -0.00000032
0.75087398 -0.15625174 -0.00000078
0.54125667 -0.73777544 -0.00000004
-0.66936237 0.59100580 -0.00000016
0.49892867 -0.10000820 -0.00000057
-0.18159568 -0.45845056 -0.00000021
-0.58040559 0.77093214 -0.00000027
0.20967022 0.57725173 0.00832531
0.48981655 -0.54907358 -0.00000016
-0.64642096 0.17590845 -0.00000019
-0.39251578 -0.40891376 -0.00000024
0.09135006 0.39730400 -0.00000075
-0.08456744 0.26531553 -0.00000067
0.60104084 -0.72155058 -0.00000005
-0.08866236 -0.15304083 -0.00000040
0.51067299 0.00560248 -0.00000070
-0.27363458 0.26278844 -0.00000061
0.76595271 -0.47005129 -0.00000041
0.04194468 0.40417922 -0.00000075
-0.69907081 -0.37517074 -0.00000004
-0.21263099 -0.65122414 -0.00000009
0.26501861 0.24546196 0.18433841
-0.72666496 -0.09333951 -0.00000006
0.12162371 -0.11018698 -0.00000043
0.29618955 0.11694994 0.24631613
0.15436073 0.43125132 0.13650118
0.26803029 0.01621039 -0.00000051
-0.04371145 -0.32715735 -0.00000030
0.24390966 -0.77928036 -0.00000001
0.49896297 0.03637484 -0.00000072
-0.17343639 0.15411147 -0.00000060
0.22778575 0.43900526 0.08481408
-0.70422161 -0.07394301 -0.00000009
-0.31480020 0.13544329 -0.00000054
-0.61480623 -0.43844253 -0.00000012
0.35228711 0.18266442 -0.00000072
-0.65998304 0.53276747 -0.00000018
0.79973406 -0.39192462 -0.00000051
-0.30799156 -0.34176818 -0.00000029
-0.26976976 -0.06558911 -0.00000046
-0.34025946 -0.53955358 -0.00000016
-0.47848579 -0.26051056 -0.00000030
0.66024333 -0.25718254 -0.00000058
0.63878423 0.05061429 0.07041960
-0.45550126 0.57742542 -0.00000043
-0.55133992 0.51303720 -0.00000031
-0.73329192 0.22148091 -0.00000008
-0.07591662 0.52706146 -0.00000083
-0.45699647 -0.20684806 -0.00000033
0.21560600 0.17317553 0.26182452
0.06225106 -0.53019112 -0.00000017
0.58754390 -0.31411064 -0.00000044
-0.18495940 0.29764020 -0.00000069
-0.59447247 -0.68711042 -0.00000007
0.64074022 -0.68609172 -0.00000010
0.44971132 0.17377774 0.11238493
-0.44296661 -0.13755299 -0.00000036
-0.30319646 0.25683591 -0.00000058
0.10157402 -0.20403637 -0.00000037
0.67542124 -0.00281422 -0.00000086
-0.00902709 -0.32579991 -0.00000030
-0.09143156 0.16386098 -0.00000060
-0.24864033 -0.57668233 -0.00000014
0.04278644 0.65673035 -0.00000091
-0.46161255 0.53373420 -0.00000042
0.24265248 0.46509168 0.05873875
0.36421674 -0.66382861 -0.00000009
0.07388451 0.14038257 -0.00000059
0.04075996 0.71976125 0.02513494
-0.77328706 0.47942048 -0.00000003
-0.27702093 -0.53589851 -0.00000017
0.13475886 0.41709581 -0.00000076
0.37447351 -0.79240626 -0.00000000
-0.78906411 -0.57249826 0.00000000
0.03329094 0.22987300 -0.00000064
-0.36758173 0.69381601 -0.00000054
-0.63235754 -0.45197329 -0.00000010
0.28758502 -0.48893934 -0.00000019
0.24099249 0.20719695 -0.00000063
0.29296711 -0.45728835 -0.00000021
-0.36524042 -0.27475941 -0.00000033
-0.15866943 0.49430743 -0.00000077
-0.57692969 -0.66978556 -0.00000008
-0.22381628 -0.44730219 -0.00000022
0.06210382 0.64239866 -0.00000090
-0.27926195 0.04684195 -0.00000053
-0.77546251 -0.72160488 0.00000000
-0.53760678 0.34110776 -0.00000033
-0.78020793 0.52065235 -0.00000002
-0.35001776 -0.72836500 -0.00000004
0.45527565 0.28185162 0.04003016
-0.42925987 -0.76704818 -0.00000002
-0.48113436 -0.45266765 -0.00000022
0.44159031 0.17342146 0.11778253
-0.02734601 0.59659094 -0.00000087
0.74771994 -0.18059774 -0.00000075
-0.39865783 -0.42479506 -0.00000023
0.34581518 -0.23002163 -0.00000036
-0.36726859 0.55454385 -0.00000054
-0.27252612 0.18522479 -0.00000060
-0.52907979 0.39025900 -0.00000034
-0.60880530 0.43300486 -0.00000024
-0.08846343 -0.38689357 -0.00000026
-0.79156846 0.63968885 -0.00000001
-0.46253213 0.21558580 -0.00000040
-0.64213967 0.27806500 -0.00000020
-0.02495777 -0.72849643 -0.00000004
0.44735721 -0.71850479 -0.00000005
-0.21015778 -0.23863900 -0.00000035
-0.53704131 0.61405146 -0.00000033
0.29324949 0.50215137 0.00292669
-0.45281857 0.02936580 -0.00000038
-0.05569537 -0.21393248 -0.00000037
-0.23116979 -0.19957301 -0.00000038
-0.26025164 0.70294774 -0.00000067
0.03346049 0.69524968 0.04538919
-0.11953287 0.20697591 -0.00000063
0.16575183 0.24541020 -0.00000065
-0.35333210 -0.08891694 -0.00000044
0.40093529 -0.55532569 -0.00000015
-0.33750585 0.41900566 -0.00000057
0.04606205 0.62909436 0.07948718
0.02028876 -0.47120231 -0.00000021
0.28523472 0.05526204 -0.00000053
-0.35712352 0.72485375 -0.00000055
0.59264809 -0.17324898 -0.00000059
-0.14220276 -0.49091068 -0.00000019
0.60388756 -0.54338264 -0.00000021
0.36140633 0.14329188 -0.00000068
-0.39083681 -0.41583428 -0.00000024
0.27922547 0.36453521 0.09947774
-0.38108933 -0.67815942 -0.00000008
0.54820365 0.19087219 0.03878948
0.28426069 0.20997137 0.19468403
-0.27439621 0.73091716 -0.00000066
-0.36484921 0.60184735 -0.00000054
0.33688706 0.16410340 0.19038120
-0.79620486 -0.70376241 0.00000000
-0.35297623 0.23272696 -0.00000052
-0.35285211 -0.12064121 -0.00000042
-0.40959892 0.44322580 -0.00000049
0.63665277 -0.25243101 -0.00000056
-0.53723812 0.39130941 -0.00000033
-0.22435266 0.68976426 -0.00000072
-0.49237600 -0.12349465 -0.00000031
0.38739747 0.09859966 0.19992764
-0.14189944 0.13225996 -0.00000058
0.02437353 -0.46559581 -0.00000021
0.08686581 0.26978642 0.28228068
-0.33092496 0.49501798 -0.00000059
0.71363503 -0.17416622 -0.00000072
0.42659703 -0.45126247 -0.00000022
-0.27767754 0.36695680 -0.00000062
0.38288423 0.25760368 0.10156158
-0.45151955 -0.71520102 -0.00000005
-0.54785711 0.06252986 -0.00000028
0.36702996 -0.42563996 -0.00000023
0.59952110 -0.38284960 -0.00000038
0.02258070 0.73738396 -0.00000096
0.75282884 -0.56785572 -0.00000029
-0.74884671 0.43389428 -0.00000006
0.76765800 0.01148233 0.01327997
0.01670699 0.75363564 0.01888145
0.74016261 -0.54184324 -0.00000032
-0.10020825 -0.70079929 -0.00000006
0.25734735 0.12378781 0.26669326
-0.33412781 -0.54834718 -0.00000016
-0.59429097 -0.03228742 -0.00000021
-0.72074771 0.43543637 -0.00000010
-0.43868506 -0.12203702 -0.00000036
0.22074549 0.26303425 -0.00000066
0.09190420 -0.12802197 -0.00000042
0.76220107 -0.57275134 -0.00000028
0.02745489 -0.07579626 -0.00000045
-0.06177029 -0.35013330 -0.00000028
-0.40842402 0.12872235 -0.00000044
-0.69212180 0.44487187 -0.00000013
-0.31434453 -0.78978801 -0.00000001
0.42744112 -0.10507823 -0.00000049
-0.17415752 -0.23027045 -0.00000036
-0.61606842 0.71720219 -0.00000023
0.68174416 -0.00937355 -0.00000086
0.34487116 -0.51905137 -0.00000018
0.23656131 -0.70439291 -0.00000006
0.00535916 -0.63239193 -0.00000010
-0.04724311 0.00031666 -0.00000050
0.00155287 -0.39186308 -0.00000026
0.13057226 0.09861000 -0.00000056
-0.11751060 0.23461100 -0.00000065
0.41121969 -0.49619767 -0.00000019
-0.28894487 -0.45416287 -0.00000022
0.11023942 0.61006969 0.05073850
-0.15281104 0.15172710 -0.00000059
-0.54241914 -0.24181153 -0.00000023
-0.03864534 0.49647656 -0.00000081
-0.24606630 0.54407114 -0.00000069
0.37499711 -0.60381335 -0.00000012
-0.41324008 -0.36194441 -0.00000027
0.09145911 -0.77671647 -0.00000001
0.67114353 0.04545101 0.05310361
-0.05854744 0.15715592 -0.00000060
-0.07954236 0.49573520 -0.00000081
0.18589088 0.42740291 0.11887623
-0.51487947 -0.45637265 -0.00000021
0.10340406 0.47465530 0.14130971
-0.43234348 0.25831425 -0.00000044
-0.52841526 0.68123049 -0.00000034
0.42281953 -0.18498707 -0.00000040
-0.66171509 0.74746013 -0.00000017
0.08141557 0.35368043 -0.00000072
-0.42944112 0.70287859 -0.00000046
0.25365448 0.14113750 -0.00000059
-0.08517452 -0.12132937 -0.00000042
-0.29491013 -0.60913587 -0.00000012
0.01633512 0.55312830 -0.00000085
0.66708606 0.04132950 0.05831125
-0.16307716 -0.00567222 -0.00000050
0.52925414 -0.70604473 -0.00000006
0.45099071 -0.11880072 -0.00000050
0.09654802 0.42779663 -0.00000077
-0.40100673 0.31983811 -0.00000048
-0.21335325 -0.19276008 -0.00000038
-0.09761363 0.61451846 -0.00000086
0.20063885 0.24769185 -0.00000065
-0.45110768 0.26594290 -0.00000042
0.53265715 -0.55130464 -0.00000016
-0.71626073 0.06201686 -0.00000010
0.25616008 -0.77786595 -0.00000001
-0.49481478 0.72624797 -0.00000038
-0.54135752 -0.35461512 -0.00000021
0.22928441 0.18198632 -0.00000061
0.21857759 0.34647343 0.14959285
0.01998404 -0.05303345 -0.00000047
0.35295561 -0.08902835 -0.00000044
-0.03011329 0.21127012 -0.00000063
-0.71861744 0.45197478 -0.00000010
0.12056480 -0.43839315 -0.00000023
0.57881129 -0.42566511 -0.00000031
0.33206117 -0.34145874 -0.00000029
0.54127949 -0.56390965 -0.00000015
0.33796820 0.28629291 0.11189335
-0.23507933 0.75498557 -0.00000071
-0.41691297 -0.31053418 -0.00000031
-0.23133686 -0.52805662 -0.00000017
-0.11370142 -0.03218857 -0.00000048
-0.20238490 -0.53038925 -0.00000017
0.25461048 0.23000783 -0.00000066
-0.43910840 -0.37498859 -0.00000027
-0.67946440 -0.72803360 0.00000000
0.34840330 -0.78257579 -0.00000001
-0.38693291 -0.58736670 -0.00000013
0.16811953 -0.54825377 -0.00000016
0.22836494 -0.61176336 -0.00000012
-0.43428737 -0.39823446 -0.00000025
-0.22166981 -0.56397033 -0.00000015
-0.03164383 -0.62340367 -0.00000011
-0.65780526 -0.64912856 -0.00000003
-0.39182711 0.64808840 -0.00000051
0.51942235 0.08088445 -0.00000079
-0.19057021 -0.26227239 -0.00000034
-0.19610634 0.77553618 -0.00000075
-0.66194803 0.53718036 -0.00000017
0.76215357 -0.40451616 -0.00000049
0.00700293 -0.01046640 -0.00000049
0.62535357 -0.56494409 -0.00000021
-0.19028890 0.38732904 -0.00000072
0.33666527 0.14840944 -0.00000066
-0.75706315 0.07959795 -0.00000005
-0.29000318 0.12969904 -0.00000057
0.30462328 0.21740337 -0.00000070
0.53978682 0.08394911 0.11222773
-0.67123562 0.78804648 -0.00000016
0.64211833 -0.16234575 -0.00000066
-0.00694513 -0.73747480 -0.00000004
-0.56525886 -0.34555814 -0.00000019
0.14443620 0.32022709 0.21350981
-0.28798896 0.15863653 -0.00000058
-0.10614206 -0.73272479 -0.00000004
0.42233300 -0.24920462 -0.00000034
-0.32038909 0.70515132 -0.00000060
-0.29829526 -0.07857243 -0.00000045
0.56983143 0.21703443 0.00836105
-0.49705842 -0.74829870 -0.00000003
-0.08164160 -0.42435265 -0.00000023
0.53499758 -0.54216748 -0.00000016
0.76640755 -0.03732490 -0.00000092
0.66124260 -0.10733076 -0.00000074
-0.53292549 -0.63698590 -0.00000010
-0.47341675 0.19587252 -0.00000038
-0.77051425 -0.53473383 0.00000000
0.01799979 -0.29650059 -0.00000031
0.53189033 -0.74801511 -0.00000003
0.31944272 0.21111535 0.17155518
0.31026173 0.46457052 0.01602298
-0.09466667 -0.38340312 -0.00000026
-0.31938583 0.79020077 -0.00000060
0.07259071 -0.19872983 -0.00000038
0.67868477 -0.22536869 -0.00000063
-0.11450412 0.75785458 -0.00000086
-0.52339691 -0.37241256 -0.00000023
-0.53627849 0.22984043 -0.00000032
-0.05392312 0.27750936 -0.00000067
0.37422600 0.39556712 0.01923143
-0.68985271 0.47873428 -0.00000014
-0.05042139 0.12582061 -0.00000058
0.23680124 -0.59104055 -0.00000013
-0.79485160 -0.17492822 0.00000000
-0.51268059 -0.58630848 -0.00000013
0.74373221 0.04353881 0.00810306
-0.74218631 0.49458858 -0.00000007
0.77151430 -0.20478208 -0.00000074
0.07712532 0.61932629 0.06592862
-0.57184863 0.60815173 -0.00000029
0.01984583 0.74428606 0.02283590
-0.26862749 0.14546134 -0.00000059
-0.05586156 -0.15279579 -0.00000040
-0.56183702 0.10843804 -0.00000027
-0.24596028 0.08924700 -0.00000056
-0.47322294 0.02756467 -0.00000035
0.37471116 -0.78331918 -0.00000001
0.15837856 -0.66741031 -0.00000008
0.21830228 0.54857522 0.02108785
0.17547552 -0.42367673 -0.00000024
-0.09755424 -0.50056702 -0.00000019
0.08019813 0.34102443 0.24116839
-0.38561988 0.69982457 -0.00000052
-0.12608977 -0.66496754 -0.00000008
-0.79835814 -0.38024917 0.00000000
-0.36578783 0.17637347 -0.00000050
0.24828635 0.34710589 0.13027450
0.21753503 0.55089247 0.02010094
-0.68410313 -0.26508018 -0.00000008
-0.77310205 -0.49511021 0.00000000
-0.41057175 -0.26616234 -0.00000033
-0.23681974 -0.37526676 -0.00000027
0.04018478 0.28422946 -0.00000068
-0.78522015 -0.58850479 0.00000000
-0.02672485 -0.39089414 -0.00000026
-0.48963901 -0.38097680 -0.00000026
-0.21322981 0.19528005 -0.00000062
0.15314144 -0.33896393 -0.00000029
0.54248464 -0.37137115 -0.00000033
-0.06065144 0.23106362 -0.00000064
0.20906065 -0.06209898 -0.00000046
-0.21125115 0.49282363 -0.00000072
-0.08932346 -0.65861428 -0.00000009
-0.66273379 -0.73137444 -0.00000001
0.28780147 -0.54419804 -0.00000016
0.51284873 0.12300696 0.10451094
-0.03219539 0.63447821 -0.00000090
-0.05521349 0.38390157 -0.00000074
-0.55504423 -0.09209914 -0.00000024
-0.79175925 0.59719253 -0.00000001
0.39996392 -0.78079259 -0.00000001
-0.75577462 0.08784489 -0.00000006
0.26954469 -0.75786477 -0.00000003
-0.57029992 -0.39014834 -0.00000017
0.15805325 -0.05373712 -0.00000047
-0.18576519 -0.00723802 -0.00000050
-0.78152430 -0.40249789 0.00000000
0.14702293 0.24706234 0.25844720
-0.03395582 -0.30796269 -0.00000031
0.64128870 -0.43036646 -0.00000037
-0.47325069 -0.21420206 -0.00000031
-0.02273728 -0.62577850 -0.00000011
-0.00989981 -0.69239992 -0.00000007
0.18640248 0.21024825 -0.00000063
-0.54660559 0.71258157 -0.00000032
0.76502520 -0.65947831 -0.00000018
-0.75447607 0.45390099 -0.00000006
-0.23837079 -0.57282954 -0.00000014
-0.16734543 -0.30283573 -0.00000031
0.05331003 0.00601251 -0.00000050
0.66442043 -0.01742436 -0.00000084
0.32103622 0.47196272 0.00445604
-0.18841620 -0.57591081 -0.00000014
-0.77731466 -0.68545628 0.00000000
-0.04577387 0.60517257 -0.00000088
0.63007319 -0.51314938 -0.00000027
-0.49766341 0.31312075 -0.00000038
0.69717777 -0.75614172 -0.00000005
-0.22611290 -0.04291254 -0.00000047
-0.44163957 -0.72198534 -0.00000005
0.55905068 0.04954557 -0.00000080
-0.48394701 0.15948930 -0.00000037
0.23025875 -0.75241619 -0.00000003
0.26793626 -0.33605555 -0.00000029
-0.22916257 -0.64950335 -0.00000009
0.08383096 0.34028590 -0.00000071
0.37689143 -0.05864687 -0.00000049
-0.00637633 0.37113905 -0.00000073
-0.10496738 -0.33972692 -0.00000029
-0.08291740 -0.61728072 -0.00000011
-0.07546492 0.30493918 -0.00000069
-0.35343796 0.63089198 -0.00000056
0.67365986 0.09506987 0.01990849
0.04739572 -0.44667375 -0.00000022
0.45476881 -0.49571961 -0.00000019
0.06536085 0.54311746 0.12194161
-0.78989005 0.40921080 -0.00000001
0.41542485 -0.02610857 -0.00000056
-0.62870002 0.34997389 -0.00000021
-0.75532329 0.71448487 -0.00000006
0.13958588 -0.04529389 -0.00000047
-0.65961778 -0.43585247 -0.00000007
-0.07923737 -0.56568599 -0.00000015
-0.18189138 -0.18056889 -0.00000039
-0.62242794 0.50544131 -0.00000022
0.53179181 -0.68095648 -0.00000007
-0.74036354 -0.22611062 -0.00000002
-0.67705691 -0.50909293 -0.00000004
0.69149172 -0.41141587 -0.00000045
-0.77935553 0.04674770 -0.00000003
0.28864345 0.07660788 0.27680674
0.70749712 -0.53180802 -0.00000033
0.69010615 -0.37256014 -0.00000049
-0.18134588 -0.69266313 -0.00000007
-0.09448476 0.46532485 -0.00000079
-0.18127552 0.08824739 -0.00000056
-0.22596262 -0.13743328 -0.00000041
0.11041417 -0.09408820 -0.00000044
-0.30283368 -0.77170581 -0.00000002
-0.77761120 -0.49595177 0.00000000
-0.20453681 -0.20788139 -0.00000037
0.01640710 0.42367765 -0.00000076
0.47784579 0.29199478 0.01920123
-0.27122828 0.70696151 -0.00000066
0.14431991 -0.00194030 -0.00000050
0.23771070 0.41870251 0.09142175
-0.33936131 0.20794275 -0.00000053
-0.54520798 -0.11433704 -0.00000025
0.07663917 0.47434217 -0.00000080
-0.15125583 0.58086771 -0.00000080
-0.72699201 -0.33320722 -0.00000002
0.35460567 -0.73969442 -0.00000004
-0.40218058 -0.44529977 -0.00000022
-0.10262843 0.58880013 -0.00000085
0.07007093 -0.44779792 -0.00000022
0.58638221 -0.14078972 -0.00000062
-0.00100380 -0.67236704 -0.00000008
0.17049493 0.20454650 0.27057266
0.11579065 0.53092736 0.09759447
-0.37442952 -0.58429062 -0.00000013
-0.50757432 0.15490791 -0.00000034
-0.19447157 0.44065440 -0.00000073
0.51463330 0.08641643 -0.00000079
-0.33168003 -0.62898654 -0.00000011
-0.13444085 0.22701314 -0.00000064
0.41822141 -0.26354554 -0.00000034
0.66952348 -0.62053037 -0.00000020
0.12179423 0.35070476 -0.00000072
-0.79639846 -0.35473052 0.00000000
-0.12465128 0.07648751 -0.00000055
0.03078594 0.43566987 -0.00000077
-0.78127110 0.71550184 -0.00000002
0.26876578 0.42603105 0.06698244
-0.65485066 0.70959103 -0.00000018
0.19291402 -0.26372808 -0.00000034
0.29883066 -0.27055100 -0.00000033
-0.66288263 0.09401669 -0.00000016
0.12491919 0.27785382 -0.00000067
0.42355397 0.02897838 -0.00000063
-0.03488917 -0.71241498 -0.00000005
-0.42225137 -0.55844718 -0.00000015
-0.78756952 0.34416971 -0.00000002
-0.44601741 -0.10662258 -0.00000036
-0.69315594 0.51412779 -0.00000013
-0.33531290 0.08489329 -0.00000051
0.56690538 0.19463669 0.02448499
0.19617227 -0.50888664 -0.00000018
0.67196554 -0.79782939 -0.00000000
-0.54352492 -0.25931111 -0.00000023
-0.52819932 0.14578886 -0.00000032
0.25183135 0.09525096 0.28837484
-0.51341707 0.79776454 -0.00000036
-0.66603595 -0.51251274 -0.00000005
-0.49673849 0.73802006 -0.00000038
0.53696966 -0.56752664 -0.00000015
0.50157320 -0.38601136 -0.00000027
0.05211065 0.45339066 -0.00000078
0.02476184 0.66115582 0.07263532
0.66263831 -0.27205265 -0.00000056
0.15410800 0.24743789 0.25369704
-0.12619577 -0.03131458 -0.00000048
0.55814910 -0.75029254 -0.00000003
-0.71318138 -0.44898635 -0.00000001
0.16179463 0.21037191 0.27240306
-0.74692243 0.34395215 -0.00000007
-0.34595737 -0.41467148 -0.00000024
-0.04418227 -0.40500444 -0.00000025
-0.44907382 0.77696913 -0.00000044
0.33171970 -0.34919181 -0.00000028
-0.09751812 0.70240122 -0.00000088
-0.41508836 0.21924943 -0.00000045
-0.00901912 0.02092680 -0.00000051
0.41082096 0.17911161 -0.00000078
0.16389050 -0.20472255 -0.00000037
0.08091443 0.59986055 -0.00000087
0.07556404 -0.03510355 -0.00000048
-0.03405413 -0.52167827 -0.00000017
-0.45563629 -0.19677474 -0.00000033
-0.54903692 0.17810521 -0.00000030
-0.49642774 -0.54370111 -0.00000016
-0.23820110 0.03612972 -0.00000052
0.55471051 -0.09719333 -0.00000063
-0.71233422 -0.70075631 0.00000000
-0.78178805 0.07275224 -0.00000002
0.32596415 -0.22345927 -0.00000036
-0.58217543 -0.04431938 -0.00000022
0.07861552 -0.21913718 -0.00000036
-0.40102780 0.16912372 -0.00000046
0.32071570 -0.12891141 -0.00000042
0.37531263 -0.26661995 -0.00000033
-0.63678265 -0.16739552 -0.00000014
0.23086426 -0.58999217 -0.00000013
0.59277028 -0.68185627 -0.00000007
0.53088558 -0.37142748 -0.00000032
0.13800383 -0.37855306 -0.00000026
-0.60628599 0.24404883 -0.00000024
0.30292460 -0.18368840 -0.00000039
0.24601345 -0.73337048 -0.00000004
-0.27022606 -0.64869285 -0.00000009
-0.40529144 0.28624719 -0.00000047
0.71252513 -0.21294706 -0.00000068
0.26245800 -0.42952093 -0.00000023
-0.17943601 0.47091487 -0.00000075
0.02388686 -0.24944004 -0.00000034
-0.46141300 -0.20273758 -0.00000032
-0.74893188 0.53884280 -0.00000006
0.76727462 -0.37360132 -0.00000053
-0.56353641 -0.52818286 -0.00000016
-0.71038860 0.37444127 -0.00000011
0.46871588 0.13140485 0.12726381
0.27245182 0.15036330 0.24015549
-0.50935215 -0.09257347 -0.00000029
0.09742709 -0.50737393 -0.00000018
0.43604538 -0.13918610 -0.00000046
0.39598948 -0.22734562 -0.00000036
-0.34705153 0.26917565 -0.00000053
-0.77190453 0.04068155 -0.00000004
-0.71074826 0.65004712 -0.00000011
-0.68887967 0.06627584 -0.00000013
0.17063348 0.10908477 -0.00000057
0.46410513 0.14663188 -0.00000080
0.09162920 -0.55866724 -0.00000015
-0.46203569 0.39996532 -0.00000042
-0.77616525 0.09821468 -0.00000003
0.17211233 -0.37617466 -0.00000026
0.25593588 0.50097209 0.02743556
-0.07352989 0.06713724 -0.00000054
0.15414879 0.55886549 0.05538321
-0.04861302 -0.04626667 -0.00000047
0.35573626 0.22341850 0.14061309
0.11565423 -0.14821135 -0.00000041
-0.51021391 -0.49498197 -0.00000019
0.37116382 -0.09380320 -0.00000044
0.27638102 -0.27652201 -0.00000033
0.23595095 0.04541632 -0.00000053
-0.00102924 -0.04144525 -0.00000047
0.54431123 0.10555551 0.09558996
0.51906711 -0.48678926 -0.00000020
0.23950662 -0.08075735 -0.00000045
0.27217850 -0.57755107 -0.00000014
-0.29563284 0.18155691 -0.00000057
0.60028052 -0.08063260 -0.00000070
0.24125578 -0.68500286 -0.00000007
0.32819873 0.34058931 0.08354254
0.38595277 0.29246464 0.07741143
0.13460524 -0.33324412 -0.00000029
-0.76164514 0.52648628 -0.00000005
0.25235209 -0.69749075 -0.00000006
-0.61148691 -0.50107682 -0.00000011
-0.09839235 0.41481420 -0.00000076
-0.69973850 -0.68037182 0.00000000
-0.02103728 0.06369488 -0.00000054
0.46009243 0.32066071 0.01225307
-0.13714957 0.32075220 -0.00000070
0.11433652 0.17030685 0.32812926
-0.22946958 0.25573182 -0.00000066
-0.51102370 -0.75510055 -0.00000003
-0.55922478 -0.74249315 -0.00000004
0.10220552 -0.51866913 -0.00000018
-0.38231370 -0.13011472 -0.00000042
-0.73664194 -0.56679130 0.00000000
-0.33418697 -0.44378108 -0.00000022
-0.73347843 -0.61314881 0.00000000
-0.16483378 -0.54771012 -0.00000016
-0.65725398 -0.73459345 -0.00000002
0.12843943 0.44698164 -0.00000078
-0.59125972 0.79267442 -0.00000026
-0.08790174 -0.34953284 -0.00000028
-0.11248367 -0.19840033 -0.00000038
0.13070790 0.07868442 -0.00000055
-0.28816190 0.59251273 -0.00000064
0.33599424 -0.57210189 -0.00000014
0.54172158 -0.22870596 -0.00000048
-0.65262336 0.62865096 -0.00000018
-0.18519285 -0.32129684 -0.00000030
-0.28227186 0.73046929 -0.00000065
0.62631875 -0.49091074 -0.00000029
-0.76687562 0.07698489 -0.00000004
-0.51641804 0.75942630 -0.00000035
0.66169143 -0.14091866 -0.00000070
0.35109052 -0.16175711 -0.00000040
-0.31636539 -0.34224257 -0.00000029
-0.54546672 -0.43583685 -0.00000019
-0.59349281 -0.03139772 -0.00000021
-0.58022326 -0.19300416 -0.00000020
-0.24181484 0.38601467 -0.00000067
0.59989023 0.05299546 0.09366777
-0.52690309 0.22831813 -0.00000033
0.44376707 -0.62817085 -0.00000011
0.02211828 -0.15677720 -0.00000040
-0.43570694 -0.69829166 -0.00000006
-0.05048230 0.27204341 -0.00000067
0.19901647 0.19065955 -0.00000062
-0.17794143 -0.54413968 -0.00000016
-0.38515419 0.57003522 -0.00000052
-0.59313816 -0.54804122 -0.00000012
-0.76608688 -0.56357372 0.00000000
-0.71429259 0.68988979 -0.00000011
-0.01821510 0.20788088 -0.00000063
0.49679980 0.11139795 -0.00000080
0.62589288 -0.46088025 -0.00000032
0.21969411 -0.76738715 -0.00000002
-0.55268788 0.36649790 -0.00000031
-0.72405678 -0.50671041 0.00000000
-0.39270708 0.05571542 -0.00000044
-0.67639112 0.66468519 -0.00000015
-0.16626997 0.22016916 -0.00000064
0.01783784 0.01446479 -0.00000051
0.74205852 -0.77654183 -0.00000003
0.61006808 -0.72562730 -0.00000005
-0.27552205 0.21927346 -0.00000060
-0.36633915 0.52578163 -0.00000054
0.72251576 -0.13917615 -0.00000077
-0.01409840 -0.60992140 -0.00000012
0.00732468 0.51203871 -0.00000082
0.26767194 -0.71985489 -0.00000005
-0.35536599 0.15785806 -0.00000050
0.39381713 -0.62477976 -0.00000011
0.52422339 -0.25985262 -0.00000043
0.11607527 0.39815110 0.18195258
0.36389488 0.20787838 0.14531298
-0.43346053 -0.69654369 -0.00000006
0.23921300 0.47581348 0.05410198
0.19682257 0.59733874 0.00371592
0.40646997 -0.06103751 -0.00000052
-0.79439205 0.51696485 -0.00000001
-0.54960620 0.17352279 -0.00000030
-0.53624845 -0.71095484 -0.00000006
0.58223474 -0.07436668 -0.00000069
-0.46687418 -0.53191185 -0.00000017
0.58858889 -0.06447796 -0.00000071
0.41394216 0.34727636 0.02469100
0.58324122 0.10355195 0.07207845
0.20234519 -0.58454287 -0.00000013
0.12233815 0.49410835 -0.00000081
-0.66051447 -0.06892042 -0.00000014
0.52514625 -0.15190221 -0.00000054
-0.68458796 -0.20536639 -0.00000009
-0.51768947 -0.71322143 -0.00000005
-0.33331901 -0.75881290 -0.00000003
-0.70960754 -0.03105996 -0.00000009
-0.52273810 0.50461596 -0.00000035
0.61819988 -0.68831116 -0.00000007
0.76689929 -0.54261088 -0.00000032
-0.40724069 0.24240035 -0.00000046
-0.18213767 -0.17033347 -0.00000039
-0.07236127 -0.31578144 -0.00000030
0.22983220 -0.01697182 -0.00000049
-0.41709429 -0.78373462 -0.00000001
0.20811918 -0.14622265 -0.00000041
0.42824706 -0.69002497 -0.00000007
0.01359086 -0.17490566 -0.00000039
0.28141475 0.04289702 -0.00000053
0.77909452 -0.11484552 -0.00000086
0.21759798 0.39139077 0.12161746
-0.67823303 0.32370549 -0.00000015
-0.15357630 -0.71921706 -0.00000005
0.64432955 -0.71031767 -0.00000008
-0.15219302 -0.66638952 -0.00000008
0.59036666 -0.14054886 -0.00000063
0.42704138 0.12344550 0.15886627
0.65857220 0.09918855 0.02689259
-0.41110787 -0.22202910 -0.00000036
-0.20951962 0.23613369 -0.00000065
-0.06478181 0.22469933 -0.00000064
-0.66411519 -0.12205740 -0.00000012
-0.10154011 0.68502718 -0.00000087
-0.65158063 -0.57677239 -0.00000005
0.18418683 0.31355026 0.19245178
-0.21092379 -0.79542869 -0.00000000
-0.19905037 -0.38896859 -0.00000026
-0.05498729 -0.33349544 -0.00000029
0.52183694 -0.48696896 -0.00000020
-0.21893755 0.01190420 -0.00000051
0.07436002 0.52471787 -0.00000083
-0.34334821 -0.33016840 -0.00000029
-0.48627129 0.28826734 -0.00000039
0.32945943 0.36484894 0.06729346
-0.68059933 -0.78005981 0.00000000
0.68257523 -0.03306758 -0.00000084
-0.69561893 -0.08713286 -0.00000010
-0.51665777 -0.49170709 -0.00000019
-0.62286299 0.31115732 -0.00000022
0.38138095 0.16412470 -0.00000073
0.28252831 -0.47402889 -0.00000020
0.10257249 0.12530670 0.36427125
0.42438993 -0.19829032 -0.00000039
-0.08552218 0.21676099 -0.00000064
-0.12649588 0.42623323 -0.00000077
-0.52733141 -0.31345779 -0.00000023
-0.28026822 -0.35373142 -0.00000028
0.40658742 0.17112081 -0.00000076
-0.79932106 0.03931608 -0.00000000
-0.44448781 0.79899484 -0.00000044
0.36291754 0.05004984 -0.00000059
0.43427840 0.05866887 -0.00000067
-0.58160865 0.56582183 -0.00000027
0.52628905 0.14821310 0.07990432
0.32866925 -0.53445524 -0.00000017
-0.11374599 -0.01815899 -0.00000049
0.18049341 -0.54504442 -0.00000016
0.08358522 -0.46506053 -0.00000021
-0.15346684 -0.16801700 -0.00000039
0.02174907 0.75816184 0.01278933
0.65922606 0.03189256 -0.00000088
0.38140953 0.30007070 0.07546127
-0.63108504 0.71009910 -0.00000021
-0.64403367 -0.07247696 -0.00000015
0.36995035 -0.27953136 -0.00000033
0.55070573 -0.54934335 -0.00000016
0.74246675 -0.79415184 -0.00000001
-0.49389458 -0.42870590 -0.00000023
-0.29021826 -0.04490483 -0.00000047
-0.17602611 -0.28453717 -0.00000032
0.30567631 0.42264140 0.04563930
0.39305830 -0.49164760 -0.00000019
-0.35421640 0.32976207 -0.00000054
0.22606489 -0.13261588 -0.00000042
-0.58094251 0.74669051 -0.00000027
-0.50824195 -0.30706176 -0.00000026
-0.51318073 0.26076192 -0.00000035
-0.58090675 -0.34005630 -0.00000017
-0.58711672 -0.03035496 -0.00000022
-0.05971235 -0.37405938 -0.00000027
-0.39511344 -0.20568439 -0.00000037
0.45949772 -0.01686889 -0.00000062
0.39178562 0.29248044 0.07368750
-0.52289778 -0.02983600 -0.00000029
0.10090345 0.31629735 0.24372919
-0.57036811 -0.46205798 -0.00000016
0.58633465 -0.69340807 -0.00000007
-0.09778612 -0.31442890 -0.00000030
-0.11102692 0.45816600 -0.00000079
0.69641250 -0.69537234 -0.00000013
-0.49315783 -0.19898874 -0.00000029
-0.52528107 0.40257365 -0.00000034
0.00374728 -0.65156347 -0.00000009
-0.17558210 -0.45305207 -0.00000022
-0.03262392 0.76147109 -0.00000096
-0.01148365 -0.07457975 -0.00000045
0.09210395 0.19383995 0.32730108
0.30152312 0.30004063 0.12634502
0.01444545 -0.49099165 -0.00000019
-0.54001653 -0.61359328 -0.00000012
-0.31673071 0.19477108 -0.00000055
-0.77507073 -0.12249063 -0.00000000
-0.21695057 0.39869064 -0.00000070
0.54156595 -0.24768013 -0.00000046
0.64716351 -0.70475435 -0.00000009
0.55323273 0.09469260 0.09682609
0.31543103 -0.64661646 -0.00000010
-0.59718907 0.72904563 -0.00000025
-0.65273631 -0.30880609 -0.00000010
-0.23817511 0.45589471 -0.00000068
-0.17747256 -0.26633710 -0.00000033
0.07785871 -0.06926243 -0.00000046
-0.72346216 0.08385450 -0.00000010
0.06194187 0.40633035 -0.00000075
-0.28905550 -0.50600898 -0.00000018
-0.59232801 -0.01417578 -0.00000022
-0.14437585 0.68114191 -0.00000082
0.49561092 -0.60796201 -0.00000012
-0.65384763 0.00401541 -0.00000016
-0.42601946 0.33231562 -0.00000046
0.10143947 0.33436742 -0.00000071
-0.07464549 0.14439929 -0.00000059
-0.12788247 -0.03258674 -0.00000048
0.20499785 0.18082307 0.26370949
0.73681617 -0.20656234 -0.00000071
0.18321002 0.32857245 0.18350901
-0.39346266 0.76296026 -0.00000051
-0.54493445 -0.66400898 -0.00000008
-0.66397625 -0.50460023 -0.00000005
0.47859028 -0.32051715 -0.00000032
-0.21466376 -0.71606457 -0.00000005
0.19193351 0.29152319 0.20154423
0.54655963 0.13840777 0.07324098
0.08996963 0.67591637 0.02171914
0.07955401 -0.52113599 -0.00000017
0.07002491 0.38104573 0.22216392
-0.46937069 0.48158729 -0.00000041
-0.77263969 0.16717382 -0.00000003
0.45158985 0.17155540 0.11260384
-0.24503168 0.40965289 -0.00000067
0.75084782 -0.19636670 -0.00000074
-0.05008610 -0.40818384 -0.00000024
0.62265152 -0.32485667 -0.00000046
0.73127031 0.02500378 0.02783916
-0.44698331 -0.06117118 -0.00000037
-0.48216197 -0.09659326 -0.00000032
0.13296621 0.40119573 0.16925959
0.17988117 0.36569622 -0.00000073
-0.21214816 0.53948754 -0.00000073
-0.65879291 0.57130677 -0.00000018
0.15314730 0.45172265 -0.00000079
0.41560134 0.33228984 0.03317666
-0.18869863 0.66839927 -0.00000076
0.67435247 0.08564823 0.02546640
-0.36179906 -0.39284480 -0.00000025
0.56869215 -0.26560125 -0.00000047
-0.58320695 0.74829775 -0.00000027
-0.34099716 -0.00036207 -0.00000049
-0.62631232 0.26397082 -0.00000022
-0.56611174 0.29260248 -0.00000029
-0.40184128 -0.41620213 -0.00000024
-0.03179651 -0.63347960 -0.00000010
0.32335722 0.07645722 -0.00000057
0.35456535 0.16044477 -0.00000070
0.04485731 -0.10915793 -0.00000043
-0.79721993 -0.35079217 0.00000000
0.58559525 -0.45618826 -0.00000028
-0.34418732 0.31640717 -0.00000054
-0.11459155 -0.55206573 -0.00000015
-0.51492149 0.33339536 -0.00000036
0.01514332 0.22075941 -0.00000064
-0.28578320 -0.30976146 -0.00000031
-0.17191663 -0.41581485 -0.00000024
0.66764027 -0.50821197 -0.00000032
-0.42740810 -0.44960380 -0.00000022
0.12612318 0.61075139 0.04019106
-0.55637389 -0.27761099 -0.00000021
-0.27772275 -0.44891232 -0.00000022
-0.60039365 -0.33168843 -0.00000015
0.09103623 -0.17288929 -0.00000039
-0.31307843 -0.62033159 -0.00000011
-0.16245084 -0.31213957 -0.00000030
-0.69775563 -0.43390381 -0.00000003
0.48939696 0.29776904 0.00816992
0.20241594 0.41093501 0.11883993
-0.30610618 -0.56890178 -0.00000014
-0.08539921 0.41988492 -0.00000076
0.28036162 0.20188642 -0.00000066
0.22986495 -0.69723213 -0.00000006
0.04625405 -0.52088678 -0.00000017
0.12949719 -0.28869480 -0.00000032
0.44159490 0.28290841 0.04806800
-0.20723405 0.24092533 -0.00000065
0.25560877 0.33405527 0.13392171
0.09990227 -0.21895418 -0.00000036
-0.58217174 -0.71903497 -0.00000005
-0.20452286 -0.66124314 -0.00000009
0.42057905 -0.25937942 -0.00000034
0.36146891 -0.35479444 -0.00000028
0.21122000 0.12147351 -0.00000058
0.35701141 -0.56447309 -0.00000015
-0.07133385 -0.20710498 -0.00000037
-0.06551684 -0.78165632 -0.00000001
-0.65815318 0.76045495 -0.00000018
-0.02305987 -0.07894926 -0.00000045
-0.39801723 -0.59919691 -0.00000013
0.45265087 0.32747194 0.01265442
-0.78728873 -0.75326180 0.00000000
-0.76398575 0.35322019 -0.00000005
0.25260943 0.11830290 0.27320215
-0.61795783 0.52601045 -0.00000023
-0.54784483 0.16138884 -0.00000030
-0.48185852 -0.66739374 -0.00000008
-0.52173322 -0.00693517 -0.00000030
-0.64438218 -0.12901200 -0.00000014
0.30214387 0.49656123 0.00082284
0.15931273 0.39908287 0.15383007
0.00302063 -0.69181538 -0.00000007
-0.26268059 -0.13279273 -0.00000042
-0.23079631 -0.18168519 -0.00000039
-0.58323920 -0.74719894 -0.00000003
0.07200957 -0.18667901 -0.00000038
0.04284251 0.27679005 -0.00000067
0.68857610 -0.74238497 -0.00000007
0.40663704 -0.71157861 -0.00000006
-0.78862059 -0.11362584 0.00000000
0.05723321 0.65076065 0.05857948
0.22911723 -0.40690887 -0.00000025
-0.43133551 0.67287219 -0.00000046
-0.19686574 -0.33887562 -0.00000029
-0.12319512 0.34571391 -0.00000072
0.21867110 0.17171443 -0.00000061
-0.16582939 0.73415917 -0.00000079
0.57467592 -0.23779485 -0.00000051
-0.78396344 0.34980521 -0.00000002
0.54337889 0.02343317 -0.00000075
-0.77019298 0.15906845 -0.00000004
-0.78478813 0.79209602 -0.00000002
-0.55039883 -0.62291569 -0.00000011
0.07319583 0.21974462 -0.00000064
0.21390377 0.43850881 0.09396900
-0.72118664 0.54410988 -0.00000010
-0.06720222 -0.03392682 -0.00000048
-0.19559310 -0.74920905 -0.00000003
-0.71930921 0.00436016 -0.00000009
0.27547440 -0.78298390 -0.00000001
-0.75138319 0.39508653 -0.00000006
0.57191944 -0.70421702 -0.00000006
-0.35316411 -0.16900741 -0.00000039
0.28853488 -0.23440751 -0.00000035
0.51766795 0.20984145 0.04615398
-0.14641897 -0.04814010 -0.00000047
-0.72231245 0.11189733 -0.00000010
0.68902147 -0.08478878 -0.00000079
0.32805300 -0.61833686 -0.00000011
0.15202834 -0.79993308 -0.00000000
0.23999763 0.30190697 -0.00000072
0.13044678 0.03853808 -0.00000052
0.75445694 0.01479548 0.01957573
-0.22359636 0.78017730 -0.00000072
-0.64207703 -0.40552315 -0.00000009
-0.44997385 0.21535717 -0.00000041
0.68274528 -0.57875037 -0.00000026
0.03101351 0.24704552 -0.00000065
0.01142515 0.24115688 -0.00000065
-0.18417102 0.64108962 -0.00000077
0.29857555 -0.62286931 -0.00000011
-0.37637606 0.68360949 -0.00000053
0.69706041 -0.63977891 -0.00000020
-0.39831227 0.35297003 -0.00000049
-0.12989546 -0.78668261 -0.00000001
-0.14935111 0.74091566 -0.00000081
-0.07374220 0.35448733 -0.00000072
-0.18885262 0.63745368 -0.00000076
0.17767444 -0.63409394 -0.00000010
0.07972639 -0.40928018 -0.00000024
0.24737492 0.20557041 0.22097129
0.00693982 0.26637065 -0.00000067
-0.24213775 0.64054167 -0.00000070
-0.37590268 -0.16171370 -0.00000040
0.29390642 -0.41567817 -0.00000024
-0.16678779 -0.66027427 -0.00000009
0.26965493 0.17123523 0.22864701
0.31535509 -0.22097008 -0.00000036
0.03283350 0.66532308 -0.00000092
-0.36367959 -0.61959314 -0.00000011
-0.36525247 -0.36663434 -0.00000027
-0.09790680 -0.22265838 -0.00000036
-0.49644339 0.74800128 -0.00000038
0.15627445 -0.33551076 -0.00000029
-0.72517800 0.34657985 -0.00000009
0.76620662 -0.03289303 -0.00000093
-0.26339808 0.53454196 -0.00000067
-0.41171086 0.37549481 -0.00000048
-0.18449570 -0.69309962 -0.00000007
-0.41303357 -0.21637458 -0.00000036
-0.26254067 0.52466029 -0.00000067
0.69320881 -0.39811808 -0.00000046
0.24063887 0.47330591 0.05479072
-0.77731168 0.30377275 -0.00000003
0.79694772 -0.19680735 -0.00000075
-0.61568606 -0.44735968 -0.00000011
0.09455786 0.39119548 -0.00000074
-0.18468031 0.19773144 -0.00000062
0.08507438 0.71172655 0.00203524
0.07101921 0.40903574 0.20370944
-0.68642724 -0.42187780 -0.00000004
-0.39619321 -0.50310284 -0.00000019
-0.50817811 0.29614782 -0.00000036
-0.51279914 -0.46549839 -0.00000021
-0.54574919 0.62382263 -0.00000032
0.48921400 -0.76766336 -0.00000002
-0.09256671 0.01623957 -0.00000051
0.59102982 -0.64296889 -0.00000010
-0.79366225 -0.74233234 0.00000000
0.36158714 -0.34192410 -0.00000029
-0.68246472 -0.60598034 -0.00000001
0.20639619 0.47875619 0.07312317
-0.54469073 0.39987385 -0.00000032
-0.61998981 -0.42289910 -0.00000011
-0.41650218 0.78637367 -0.00000048
-0.36045858 0.30932871 -0.00000053
0.07452163 -0.39658931 -0.00000025
0.45153803 -0.10959564 -0.00000051
0.58545375 -0.54222226 -0.00000019
0.25353456 0.24050704 0.19480512
0.26340395 0.23702674 0.19073720
-0.70683032 -0.57870936 0.00000000
0.20544574 -0.67372555 -0.00000008
-0.13877653 -0.52062774 -0.00000017
0.60044301 -0.50477505 -0.00000025
0.14083821 -0.49674821 -0.00000019
-0.57489640 0.46091476 -0.00000028
-0.41690344 0.28609660 -0.00000046
0.20167823 -0.19484799 -0.00000038
0.12113923 -0.46413308 -0.00000021
-0.48360634 -0.64636070 -0.00000010
0.77084333 -0.02663557 -0.00000094
0.22625554 -0.77796525 -0.00000001
0.28175256 -0.24885613 -0.00000034
0.34538320 -0.56590313 -0.00000015
-0.37669668 0.76629424 -0.00000053
