ply
format ascii 1.0
element vertex 1409
property float x
property float y
property float z
end_header
0.05796180 -0.12366623 0.00000000
-0.77654094 -0.33094150 0.00000000
-0.48221573 0.33119518 0.00000000
-0.13030063 -0.05413870 0.00000000
-0.50910085 0.72940558 0.00000000
0.54217768 -0.59273815 0.00000000
0.49310413 -0.16353297 0.00000000
-0.06428933 0.56200045 0.00000000
-0.09554118 0.41635591 0.00000000
0.64889759 -0.78921890 0.00000000
-0.72142720 0.66048819 0.00000000
-0.25056872 0.24885619 0.00000000
-0.57030851 0.50815183 0.00000000
0.34086466 -0.50433981 0.00000000
-0.52176899 0.71238095 0.00000000
-0.14536765 -0.25851479 0.00000000
0.71355927 0.64259994 0.03095043
0.54883569 -0.24378046 0.00000000
-0.52323294 -0.13406847 0.00000000
-0.22135957 -0.48662585 0.00000000
0.18147852 0.15846072 0.00000000
-0.60447413 0.14820716 0.00000000
0.78516501 -0.20398355 0.00000000
-0.56215960 0.37598544 0.00000000
-0.36582920 0.44108793 0.00000000
-0.42711702 0.63955510 0.00000000
-0.11017911 -0.17786224 0.00000000
0.21284319 -0.44181603 0.00000000
-0.39455369 -0.42782995 0.00000000
-0.76980191 0.48920000 0.00000000
0.60126579 0.13223676 0.00000000
-0.25946501 0.72601801 0.00000000
-0.26277980 0.78595877 0.00000000
-0.77398062 0.14745733 0.00000000
-0.62907332 0.22667170 0.00000000
0.66902620 0.19050644 0.00331301
-0.39513099 -0.54627460 0.00000000
0.14714584 -0.19800200 0.00000000
0.50723040 0.76166528 0.02609419
0.49077204 0.40708667 0.00544587
0.21842705 -0.08396845 0.00000000
-0.59005022 0.12123437 0.00000000
0.53797829 0.44322696 0.01008413
0.74616891 -0.54662931 0.00000000
-0.00638116 -0.26227778 0.00000000
0.20547061 0.24954955 0.00000000
-0.25715163 0.08665285 0.00000000
0.35796767 -0.50606155 0.00000000
-0.24499945 -0.20446274 0.00000000
0.59120572 -0.12754185 0.00000000
-0.22315004 -0.57463777 0.00000000
0.41017988 -0.00624061 0.00000000
-0.36654845 0.57685328 0.00000000
0.59684199 0.08387287 0.00000000
-0.21816938 -0.69124806 0.00000000
0.54193485 0.13714322 0.00000000
-0.74855989 -0.64432460 0.00000000
-0.29945421 -0.21284905 0.00000000
-0.44578242 0.49562296 0.00000000
0.57420403 0.51442242 0.01606215
-0.39774978 -0.00992570 0.00000000
0.70032454 0.01962849 0.00000000
-0.75208253 -0.23407289 0.00000000
0.23885970 -0.12228597 0.00000000
0.52747715 0.49264938 0.01225011
0.41869184 -0.07456984 0.00000000
0.42539665 0.52199852 0.00820259
0.02028925 0.74175280 0.00000000
0.78193402 -0.03080301 0.00000000
0.44047830 0.73026133 0.02063177
-0.39643309 0.70237303 0.00000000
0.69671279 0.06330875 0.00000000
0.01356316 -0.01644892 0.00000000
0.63802546 -0.61633968 0.00000000
-0.05262252 -0.04074892 0.00000000
0.50896293 0.16939957 0.00000000
-0.26022559 -0.27525687 0.00000000
0.05643810 0.75723553 0.00076094
0.34750047 -0.34907544 0.00000000
0.04572912 -0.50493318 0.00000000
-0.02226569 -0.51633519 0.00000000
0.32624692 -0.72461420 0.00000000
-0.53266698 -0.20837504 0.00000000
-0.72187227 -0.43475351 0.00000000
0.11978952 0.10741170 0.00000000
-0.73631239 -0.60277975 0.00000000
0.33362135 0.22592928 0.00000000
0.10335080 0.26979420 0.00000000
-0.79432738 -0.33168820 0.00000000
0.71615148 -0.24466769 0.00000000
-0.70798945 0.35483709 0.00000000
-0.03885318 -0.50111973 0.00000000
0.01139683 0.11163329 0.00000000
-0.15598953 0.48052102 0.00000000
0.53001004 0.20822328 0.00000000
0.62848234 0.72248477 0.03066149
0.70179701 -0.60120726 0.00000000
0.24917276 0.00628675 0.00000000
0.23787738 0.39216000 0.00000000
-0.04134977 -0.79286569 0.00000000
-0.02533988 0.09573715 0.00000000
0.45160553 -0.71702284 0.00000000
0.40833718 0.40166861 0.00055682
0.42431206 -0.46663821 0.00000000
-0.21645145 0.75002235 0.00000000
0.12026246 0.59442449 0.00000000
0.67516470 -0.35784087 0.00000000
0.50301343 0.30079564 0.00021198
-0.20689934 0.49920362 0.00000000
0.26764429 -0.12948751 0.00000000
0.46145925 0.36373481 0.00140206
0.17185853 -0.75438946 0.00000000
-0.63892674 -0.09144640 0.00000000
0.64193815 0.06268289 0.00000000
0.15393817 0.18485364 0.00000000
0.17708275 0.46265176 0.00000000
-0.17001142 -0.07972838 0.00000000
0.51213628 -0.60827458 0.00000000
0.35890132 0.25354043 0.00000000
0.46069551 -0.74611449 0.00000000
-0.26842993 0.76176947 0.00000000
0.26960906 -0.58988178 0.00000000
-0.30840465 0.62110287 0.00000000
-0.56961572 -0.12466427 0.00000000
0.17677158 -0.05332813 0.00000000
-0.71668023 0.58524716 0.00000000
-0.56407797 0.76311249 0.00000000
0.15785138 -0.26764116 0.00000000
-0.23436245 -0.39535806 0.00000000
0.23221101 -0.23603795 0.00000000
-0.57920170 0.30337948 0.00000000
-0.53513914 0.77143532 0.00000000
0.74035430 -0.25999922 0.00000000
0.45516777 -0.53110141 0.00000000
-0.49989748 -0.40560949 0.00000000
0.06170696 0.44389451 0.00000000
0.07062944 0.63830560 0.00000000
-0.56043094 0.41711706 0.00000000
-0.73182714 0.50701201 0.00000000
0.56280911 -0.66303027 0.00000000
0.19631311 -0.79886496 0.00000000
-0.47459742 -0.15523411 0.00000000
-0.50822574 -0.63834316 0.00000000
-0.13366011 0.36463308 0.00000000
0.61100179 -0.51347190 0.00000000
0.34650901 0.33955070 0.00000000
0.40859848 0.64547467 0.01413925
0.40974647 -0.28162327 0.00000000
0.62475967 -0.62989575 0.00000000
0.23977733 0.09435624 0.00000000
0.61566043 0.49452803 0.01726209
0.07364248 -0.72919643 0.00000000
0.10346764 0.28469422 0.00000000
0.76210868 0.33343607 0.01644716
0.62258381 0.69614238 0.02886727
-0.68064237 -0.31815577 0.00000000
0.28820181 -0.30852890 0.00000000
0.53827697 -0.77092361 0.00000000
0.21595085 -0.26116544 0.00000000
0.18295997 0.21694629 0.00000000
0.45859137 0.52338505 0.01012705
-0.06474475 0.13913697 0.00000000
0.27894145 0.37199935 0.00000000
-0.31174311 0.42251086 0.00000000
-0.07278002 0.05681922 0.00000000
-0.01812253 -0.74260378 0.00000000
0.55882740 -0.34914353 0.00000000
-0.34874290 -0.70574766 0.00000000
-0.30145106 -0.72007042 0.00000000
-0.60411412 0.25117221 0.00000000
0.13485318 0.63412821 0.00000000
0.41791415 0.02504901 0.00000000
0.43024737 0.74599129 0.02093779
0.15446492 0.50301450 0.00000000
0.41362062 0.26189411 0.00000000
-0.13950829 -0.65214199 0.00000000
-0.43263349 0.71977788 0.00000000
-0.13677619 0.77603638 0.00000000
0.16306737 0.53159988 0.00000000
0.32330787 -0.49364355 0.00000000
-0.12260161 0.30602857 0.00000000
-0.38749754 -0.55757070 0.00000000
-0.11640831 -0.62448925 0.00000000
-0.73581594 -0.43734244 0.00000000
-0.11968327 -0.75241828 0.00000000
0.39281273 -0.02512534 0.00000000
-0.47023499 -0.04900492 0.00000000
-0.59252447 0.78739047 0.00000000
0.34473130 0.42729595 0.00000000
0.02100404 -0.57959127 0.00000000
0.71313363 0.07759845 0.00000000
0.33337814 -0.06289565 0.00000000
-0.11503443 0.04135833 0.00000000
-0.26979887 0.43697715 0.00000000
-0.69030041 -0.34464464 0.00000000
-0.69999272 0.79809952 0.00000000
0.08038077 0.20652214 0.00000000
0.20219737 0.39028558 0.00000000
0.65980649 0.52341324 0.02132630
0.70557392 -0.45795679 0.00000000
-0.45824307 -0.08179821 0.00000000
-0.31678626 0.27042693 0.00000000
-0.60069984 0.07799841 0.00000000
-0.40976876 0.12670784 0.00000000
-0.22757654 -0.30043420 0.00000000
0.22814302 0.00774331 0.00000000
-0.13392888 0.64989984 0.00000000
-0.30939811 -0.01158552 0.00000000
0.02894960 -0.47576812 0.00000000
-0.59015709 -0.37910739 0.00000000
-0.66338021 0.04398998 0.00000000
-0.19289462 -0.17503177 0.00000000
0.71117544 0.49526131 0.02261834
-0.29916713 0.69626319 0.00000000
0.15502898 0.41091859 0.00000000
-0.05046766 0.68104762 0.00000000
-0.02115438 -0.04146028 0.00000000
0.61712426 0.46584526 0.01574734
0.23359652 -0.04566147 0.00000000
0.16451026 0.55685914 0.00000000
0.34635517 -0.07501202 0.00000000
0.49271962 -0.01151330 0.00000000
-0.64306641 0.34241232 0.00000000
-0.01208608 0.71834373 0.00000000
0.58793277 0.09069729 0.00000000
-0.78237808 0.47155634 0.00000000
-0.53821403 -0.77857542 0.00000000
0.13698684 0.51013482 0.00000000
-0.45254993 0.72877330 0.00000000
0.46743947 -0.61766124 0.00000000
-0.26925424 -0.19775040 0.00000000
0.76617414 0.60187560 0.03161215
-0.21390828 -0.47359687 0.00000000
-0.60095656 -0.71603084 0.00000000
-0.07622614 0.40443116 0.00000000
0.14979996 0.69990247 0.00276595
-0.04915866 0.05806188 0.00000000
0.68647194 0.76522428 0.03626709
-0.41098458 -0.12213293 0.00000000
-0.55453217 -0.26747894 0.00000000
-0.76604289 0.59288472 0.00000000
-0.00590803 0.06075802 0.00000000
-0.21581936 0.00194905 0.00000000
0.21991642 0.41259527 0.00000000
0.03665186 -0.20886759 0.00000000
-0.05353518 0.69057548 0.00000000
-0.72947013 -0.21793436 0.00000000
-0.68623286 0.39192554 0.00000000
-0.61772209 -0.01003800 0.00000000
-0.06528117 -0.18985166 0.00000000
0.04997784 -0.74552363 0.00000000
-0.22633421 -0.04886517 0.00000000
-0.35114285 0.65748757 0.00000000
0.36432508 -0.06000919 0.00000000
-0.78052241 -0.46251112 0.00000000
0.14520457 0.54496896 0.00000000
-0.34910753 0.56454140 0.00000000
0.61653090 0.79039520 0.03377562
0.10479260 0.74064624 0.00252868
-0.21138974 0.38813755 0.00000000
-0.52807361 -0.22380359 0.00000000
-0.21027260 0.66128105 0.00000000
0.38693145 0.36411273 0.00000000
0.51428807 0.19367795 0.00000000
-0.04600099 -0.46830708 0.00000000
-0.69710612 -0.72392952 0.00000000
0.53683293 0.63785207 0.02085134
0.67274302 -0.60518038 0.00000000
0.43583623 0.47572637 0.00620850
0.59341866 0.64785409 0.02455697
-0.00461079 0.65145510 0.00000000
-0.32226640 -0.72805840 0.00000000
0.64443082 0.21140809 0.00310745
-0.04163806 -0.04111478 0.00000000
0.33983853 -0.57064670 0.00000000
0.57619971 -0.09042508 0.00000000
0.65949410 -0.74107778 0.00000000
0.27117336 0.70252377 0.00966630
0.49011204 0.16570719 0.00000000
0.13117750 0.12997957 0.00000000
0.72001284 -0.57819468 0.00000000
0.75482565 0.64886212 0.03359541
-0.51581478 -0.78289235 0.00000000
-0.58483583 -0.37539148 0.00000000
-0.57163525 -0.20167257 0.00000000
0.74508059 -0.51145929 0.00000000
-0.72829419 0.24100968 0.00000000
-0.38732502 0.02468268 0.00000000
-0.49297109 0.01569663 0.00000000
0.60661960 -0.17724515 0.00000000
-0.12525979 0.17885216 0.00000000
-0.75843263 0.18823013 0.00000000
0.26714230 0.63639903 0.00576211
-0.46341157 -0.38473675 0.00000000
-0.64781028 0.77531993 0.00000000
0.36074999 0.41858175 0.00000000
0.49078068 -0.04093462 0.00000000
0.15340921 -0.61439484 0.00000000
-0.08557495 -0.62855512 0.00000000
0.30020273 -0.13626468 0.00000000
0.07537537 -0.32189542 0.00000000
-0.13672228 0.24436863 0.00000000
0.14145042 -0.38985583 0.00000000
0.44496974 0.56373686 0.01161459
-0.43139440 0.58484650 0.00000000
0.36590412 -0.48110554 0.00000000
0.55138493 -0.61844212 0.00000000
-0.50487351 -0.18605757 0.00000000
0.51079154 0.15436976 0.00000000
-0.44790614 -0.69069332 0.00000000
0.69103372 -0.29161116 0.00000000
-0.13663186 0.22981156 0.00000000
0.23062856 0.18810309 0.00000000
-0.61398804 0.14015143 0.00000000
-0.17219207 0.49774194 0.00000000
0.03087918 0.15247922 0.00000000
-0.02946144 -0.25259510 0.00000000
0.24121566 -0.39482218 0.00000000
0.50638211 0.00720778 0.00000000
0.40133083 -0.21607685 0.00000000
-0.41117358 -0.47596434 0.00000000
-0.48914364 0.59894055 0.00000000
0.33932623 -0.48260388 0.00000000
0.05435647 0.57218528 0.00000000
-0.52648842 -0.20173289 0.00000000
0.50965035 0.52469116 0.01304118
-0.72199363 -0.45263344 0.00000000
0.02562466 -0.04515044 0.00000000
-0.79757857 0.41535458 0.00000000
-0.16595723 -0.54421866 0.00000000
0.75975758 0.33555245 0.01643410
-0.09596431 0.39798066 0.00000000
-0.67339534 -0.54263705 0.00000000
0.50967646 0.26551130 0.00000000
-0.43702799 0.23127861 0.00000000
0.64159149 -0.37969947 0.00000000
-0.23699833 0.15831198 0.00000000
0.30608043 0.17755991 0.00000000
0.56978738 -0.67908299 0.00000000
-0.03216406 0.14513469 0.00000000
-0.69442004 0.00201981 0.00000000
0.34071016 0.45795473 0.00000000
0.26441225 -0.61535901 0.00000000
0.74003893 0.32211414 0.01458890
-0.13435519 -0.79527074 0.00000000
-0.63728786 0.79038286 0.00000000
-0.38746724 0.71483892 0.00000000
-0.05890842 0.51180190 0.00000000
-0.45313099 0.06920812 0.00000000
-0.28061068 -0.39041415 0.00000000
-0.38144413 -0.30676243 0.00000000
-0.63028759 -0.44515130 0.00000000
0.63702637 -0.37642470 0.00000000
-0.05398873 -0.38132149 0.00000000
0.02045868 0.58789116 0.00000000
-0.66888386 0.25425443 0.00000000
-0.54126626 0.25383180 0.00000000
-0.18007746 -0.04365658 0.00000000
-0.61718279 0.79892194 0.00000000
0.78723401 -0.50748628 0.00000000
0.26345366 -0.46636149 0.00000000
-0.02608683 0.66608101 0.00000000
-0.73582911 0.17685409 0.00000000
0.56959718 -0.38577831 0.00000000
-0.15434070 -0.50222576 0.00000000
-0.28331125 -0.27336460 0.00000000
-0.39628363 0.28060889 0.00000000
0.77180082 0.70520979 0.03767584
-0.25729239 -0.01281729 0.00000000
0.33579174 -0.60406381 0.00000000
-0.69538736 -0.57129210 0.00000000
0.03040453 0.54018348 0.00000000
0.21885720 -0.53505796 0.00000000
0.24390721 0.29810488 0.00000000
0.61616921 -0.08643728 0.00000000
-0.38903821 0.23659860 0.00000000
0.20995288 0.61208594 0.00122647
-0.63609666 -0.13608111 0.00000000
0.48012933 -0.02961595 0.00000000
0.53132010 0.36413145 0.00531191
-0.40753821 -0.25357202 0.00000000
0.78174847 -0.27878374 0.00000000
-0.72190017 0.68758267 0.00000000
-0.14549661 -0.24399766 0.00000000
0.02789939 0.41736445 0.00000000
0.34783626 -0.34205791 0.00000000
-0.40340358 -0.65106463 0.00000000
-0.04551330 0.31591576 0.00000000
0.64528370 0.69887727 0.03028272
-0.55419719 0.76156855 0.00000000
0.05834673 -0.27044469 0.00000000
0.30225867 -0.05581725 0.00000000
-0.27961427 0.75563622 0.00000000
0.11616824 -0.45225668 0.00000000
0.54837465 -0.21690840 0.00000000
0.71855795 -0.67532903 0.00000000
-0.09347837 -0.32519528 0.00000000
-0.41442099 -0.69922274 0.00000000
0.34321883 -0.53261626 0.00000000
0.15915111 0.20225692 0.00000000
-0.29537430 0.67145604 0.00000000
-0.33650345 0.21481305 0.00000000
0.19475019 0.02628405 0.00000000
0.38564983 -0.26579091 0.00000000
-0.28258854 -0.20625371 0.00000000
0.32721570 0.15953492 0.00000000
0.21833359 -0.25265390 0.00000000
0.30271655 -0.13222198 0.00000000
0.15343218 -0.35377994 0.00000000
-0.50292271 -0.27851841 0.00000000
0.09630588 -0.11678639 0.00000000
-0.71410197 0.55646777 0.00000000
0.45909375 0.13730942 0.00000000
-0.61423147 0.16920897 0.00000000
0.07285655 0.23823558 0.00000000
-0.67200410 -0.40014321 0.00000000
0.74300206 -0.18264353 0.00000000
0.74588102 0.28241795 0.01270491
-0.63232487 0.57753092 0.00000000
0.34761947 -0.71038371 0.00000000
0.10752595 0.38127401 0.00000000
0.33350742 0.41944572 0.00000000
0.28439057 -0.12373023 0.00000000
-0.65365022 0.48600623 0.00000000
0.33892679 -0.55935270 0.00000000
-0.75569969 0.62329656 0.00000000
-0.79781789 -0.02890318 0.00000000
0.57185400 -0.23037794 0.00000000
0.21151866 0.45330739 0.00000000
0.28806230 -0.11856065 0.00000000
-0.09362428 -0.03714754 0.00000000
-0.59726858 -0.10709313 0.00000000
0.36306158 -0.23488881 0.00000000
0.48688370 0.70357692 0.02172925
0.23870239 0.12062019 0.00000000
0.44634521 -0.54294860 0.00000000
-0.73694092 0.73692232 0.00000000
-0.21489352 -0.59666026 0.00000000
0.19487849 0.16375466 0.00000000
0.67316866 -0.07941681 0.00000000
0.16245718 0.41918415 0.00000000
-0.06056732 0.35724106 0.00000000
0.47778863 -0.70666432 0.00000000
0.77103817 0.49771279 0.02608615
0.41314441 0.31570503 0.00000000
0.03115012 0.34596792 0.00000000
0.65550530 -0.40243629 0.00000000
-0.29155818 0.40750223 0.00000000
0.04857842 0.19199458 0.00000000
-0.31764829 -0.75515622 0.00000000
0.16709851 -0.76689678 0.00000000
0.45598212 0.60768551 0.01467319
0.30201882 0.38304400 0.00000000
0.60336989 0.06282927 0.00000000
-0.06896546 -0.56832767 0.00000000
-0.42839006 0.00516226 0.00000000
0.27065852 -0.52163029 0.00000000
0.72974181 0.16694541 0.00538067
0.17955017 -0.29211852 0.00000000
-0.47909844 -0.48596784 0.00000000
-0.33986998 0.78505814 0.00000000
-0.20628653 -0.41208836 0.00000000
0.28293565 0.52700192 0.00055303
0.70764399 -0.27225077 0.00000000
0.78425229 -0.78364742 0.00000000
-0.77647465 0.34091493 0.00000000
0.33333504 -0.27404761 0.00000000
-0.19023006 0.56044328 0.00000000
-0.65259248 0.07558910 0.00000000
-0.29500026 -0.28605139 0.00000000
-0.26602584 -0.12061753 0.00000000
0.01441167 0.56440121 0.00000000
0.33836222 -0.24687777 0.00000000
0.12220046 0.39868027 0.00000000
0.00954805 0.56906152 0.00000000
0.74857956 0.24899913 0.01099532
-0.72614533 0.32244232 0.00000000
0.79536700 -0.64664084 0.00000000
-0.41129860 -0.19112100 0.00000000
-0.27107838 0.73603588 0.00000000
0.43349001 0.04746406 0.00000000
-0.18777937 0.47087502 0.00000000
0.23819908 0.08838738 0.00000000
0.77975941 -0.54919410 0.00000000
-0.10615830 -0.33698463 0.00000000
-0.08885089 0.72174126 0.00000000
0.44837672 -0.60217816 0.00000000
-0.07608563 -0.00322353 0.00000000
0.40002567 -0.53734946 0.00000000
-0.55826873 0.31787720 0.00000000
0.66021752 -0.53547782 0.00000000
-0.32041121 0.70422417 0.00000000
0.65575999 0.25629610 0.00623596
-0.14323376 -0.27102259 0.00000000
0.62646103 -0.31254572 0.00000000
-0.37370610 0.64661592 0.00000000
0.19829807 0.50193304 0.00000000
-0.29447004 0.12074525 0.00000000
-0.12007816 -0.10036225 0.00000000
-0.47223127 -0.21297634 0.00000000
0.05579735 -0.69142991 0.00000000
0.20707846 0.06647104 0.00000000
-0.29873699 0.31419948 0.00000000
-0.03910537 -0.08795719 0.00000000
-0.06480922 -0.35787362 0.00000000
0.41724542 0.28132868 0.00000000
0.75963032 0.41600350 0.02090415
0.60961622 0.40923101 0.01217892
-0.31803286 0.77762073 0.00000000
0.21527478 -0.26172966 0.00000000
0.15628080 0.33211455 0.00000000
-0.00564361 0.66505092 0.00000000
0.64054316 0.09734199 0.00000000
-0.07944383 -0.46338555 0.00000000
-0.48912004 -0.59634161 0.00000000
0.52774060 0.60366195 0.01844266
-0.21685545 0.33372927 0.00000000
0.74682510 0.46264228 0.02278699
0.38145021 0.69054776 0.01513677
-0.64926898 -0.15128300 0.00000000
-0.69671077 -0.66181076 0.00000000
0.40013734 0.02460154 0.00000000
0.10284281 0.26913503 0.00000000
0.73153996 -0.34616825 0.00000000
-0.78194708 0.13703407 0.00000000
-0.46580783 -0.67297190 0.00000000
0.25666538 0.71870321 0.00975932
0.09239742 0.31167650 0.00000000
-0.47236896 0.77106166 0.00000000
0.45264071 0.76814544 0.02341688
-0.60979253 -0.12036066 0.00000000
0.73055625 0.04227080 0.00000000
-0.46075109 0.46862307 0.00000000
0.21468796 -0.28596979 0.00000000
0.72713780 -0.63771337 0.00000000
0.72787946 -0.59701562 0.00000000
-0.42742738 -0.30578557 0.00000000
-0.08594158 0.55886817 0.00000000
-0.48187312 -0.68220264 0.00000000
0.65562922 0.63976222 0.02756869
-0.43439007 0.33749071 0.00000000
-0.73960471 -0.61366993 0.00000000
-0.32953870 -0.05548587 0.00000000
-0.37415421 0.10669198 0.00000000
0.09803979 -0.21471515 0.00000000
-0.43234912 -0.17572443 0.00000000
0.48355734 -0.54403281 0.00000000
0.04246215 -0.24691962 0.00000000
-0.19202808 0.42352781 0.00000000
-0.50873882 0.78136307 0.00000000
-0.47953787 -0.37326384 0.00000000
0.47432765 0.60520178 0.01555591
-0.19300048 0.77843052 0.00000000
-0.30487698 0.76133299 0.00000000
0.75262338 0.53179902 0.02695826
0.56855470 -0.71110463 0.00000000
0.75629610 0.54704195 0.02801092
-0.71877557 0.34181330 0.00000000
-0.13440707 -0.53946245 0.00000000
0.31832373 0.06405600 0.00000000
0.42059878 0.70412397 0.01807092
0.18690147 0.05969840 0.00000000
-0.35770440 -0.26482648 0.00000000
-0.22606593 -0.78743899 0.00000000
0.07970955 -0.45037386 0.00000000
0.16283707 -0.09697806 0.00000000
-0.39480391 0.71036530 0.00000000
-0.30792087 0.04731685 0.00000000
0.30853012 0.12672184 0.00000000
0.51349157 -0.19776236 0.00000000
-0.61493498 -0.10937748 0.00000000
-0.78235716 0.51548064 0.00000000
-0.71979910 0.02786859 0.00000000
0.63152838 -0.72115666 0.00000000
-0.04462842 -0.39065477 0.00000000
0.16136190 0.46193260 0.00000000
-0.37859949 0.25207847 0.00000000
0.61334217 0.55170476 0.02031498
-0.76946145 0.47301018 0.00000000
0.15984693 -0.52633715 0.00000000
-0.52997464 0.78953069 0.00000000
-0.36965373 -0.05769788 0.00000000
0.20378458 0.31939226 0.00000000
0.49525577 0.34867409 0.00244471
-0.50803059 -0.77796048 0.00000000
-0.29896158 0.49721974 0.00000000
-0.44132173 -0.74629998 0.00000000
-0.40122128 -0.27333713 0.00000000
-0.19321007 -0.00486676 0.00000000
-0.01257254 -0.77272356 0.00000000
-0.36794981 -0.79745907 0.00000000
-0.16473126 -0.29379055 0.00000000
0.07731897 -0.41157952 0.00000000
-0.75788838 0.65799212 0.00000000
-0.61774927 0.61985272 0.00000000
0.79894358 -0.56003463 0.00000000
-0.64666331 0.20785284 0.00000000
0.46350476 -0.58402568 0.00000000
-0.56726605 -0.46773013 0.00000000
0.56921321 0.13172475 0.00000000
-0.17194168 0.30205533 0.00000000
0.74662834 -0.48005188 0.00000000
0.38236549 -0.67909443 0.00000000
0.29269803 0.73265874 0.01254117
0.75493121 0.02124873 0.00000000
0.27846864 -0.10667274 0.00000000
0.18928984 -0.65698475 0.00000000
0.62373215 -0.79171532 0.00000000
-0.62036604 -0.31856123 0.00000000
0.25256416 0.58480090 0.00207938
-0.46829534 0.79377824 0.00000000
0.32262793 -0.31741863 0.00000000
0.66033292 -0.72483277 0.00000000
-0.54342651 -0.36141673 0.00000000
-0.74518961 0.00905034 0.00000000
0.57606727 0.13160165 0.00000000
-0.28908768 -0.57449925 0.00000000
-0.25890321 -0.65284163 0.00000000
-0.70698714 -0.47385868 0.00000000
-0.36915120 0.20995194 0.00000000
0.70707196 0.03382902 0.00000000
0.09062220 -0.02847873 0.00000000
-0.03732818 0.21999022 0.00000000
0.61614442 -0.69823247 0.00000000
0.69465768 -0.29378852 0.00000000
0.65137559 0.16588344 0.00096047
-0.52995795 -0.15549091 0.00000000
0.55497009 0.57590318 0.01841320
0.23790404 0.68490523 0.00683438
-0.27772444 -0.36587444 0.00000000
-0.50589603 -0.28680444 0.00000000
-0.46652004 0.64939225 0.00000000
0.66232508 -0.25162098 0.00000000
0.18764432 -0.22838549 0.00000000
0.27354220 0.70540589 0.00995852
0.35493061 0.57363349 0.00715463
-0.48109716 -0.71463543 0.00000000
-0.45029151 0.49431068 0.00000000
-0.35944599 0.09756556 0.00000000
-0.05830695 0.28722203 0.00000000
0.61624658 -0.21622643 0.00000000
0.63345212 0.55815077 0.02179283
-0.18340085 -0.33206856 0.00000000
0.44767454 -0.10724791 0.00000000
0.78004092 -0.08267172 0.00000000
0.36466190 0.73006594 0.01640169
0.45663115 0.47755370 0.00746743
-0.69494897 0.62732708 0.00000000
-0.09276361 -0.08587270 0.00000000
-0.39741933 -0.22190364 0.00000000
0.07249161 -0.75381291 0.00000000
-0.02649026 -0.42226148 0.00000000
0.28785872 0.38771567 0.00000000
0.22941710 0.69832504 0.00710889
0.28962529 0.05454728 0.00000000
0.77623075 -0.23227666 0.00000000
-0.09271653 -0.23588760 0.00000000
-0.67274982 0.42972261 0.00000000
-0.36362353 0.63197273 0.00000000
-0.39836463 -0.44390604 0.00000000
-0.71333927 -0.12732580 0.00000000
-0.56502861 0.38588142 0.00000000
0.14984073 0.79444671 0.00802964
0.54915595 -0.59015620 0.00000000
0.72256356 -0.06640349 0.00000000
-0.11607039 -0.04044766 0.00000000
0.57439643 0.71833241 0.02742051
0.70784289 -0.29416266 0.00000000
-0.55894744 0.72370124 0.00000000
-0.49486282 -0.49231109 0.00000000
-0.68079805 0.34186098 0.00000000
0.07666052 0.01550274 0.00000000
0.73171705 0.54880947 0.02674146
-0.30425915 0.20761929 0.00000000
0.30854279 -0.18937340 0.00000000
0.66334867 0.73496574 0.03329638
-0.20660818 0.76716179 0.00000000
0.52281117 -0.03064021 0.00000000
-0.41081181 0.15385179 0.00000000
0.73951095 0.58316159 0.02908689
-0.63072056 0.32631737 0.00000000
0.32424462 -0.04013319 0.00000000
0.52790791 -0.74814665 0.00000000
0.51282871 0.45946619 0.00958827
0.58040327 0.00430596 0.00000000
-0.62226617 0.30477014 0.00000000
-0.49421778 -0.06671085 0.00000000
0.72455418 -0.05422472 0.00000000
0.06755966 -0.04075471 0.00000000
-0.68243569 0.05248365 0.00000000
-0.69425017 -0.42690879 0.00000000
0.25828692 0.47752017 0.00000000
-0.01142772 -0.78440839 0.00000000
0.73710209 0.59543473 0.02963584
0.66141438 -0.66246748 0.00000000
0.06840493 0.13432488 0.00000000
-0.13804737 -0.08379851 0.00000000
0.10511964 -0.52852142 0.00000000
0.53480399 0.41823131 0.00851646
-0.49132627 0.68955845 0.00000000
-0.11833078 0.06451931 0.00000000
0.06101900 -0.15737134 0.00000000
0.72521979 0.76678234 0.03851012
0.25462520 -0.72255969 0.00000000
-0.24575575 -0.39116618 0.00000000
-0.58456743 -0.03848963 0.00000000
-0.24962409 0.13086796 0.00000000
-0.13110465 0.22986870 0.00000000
-0.01641866 -0.66134012 0.00000000
-0.28737947 -0.73969436 0.00000000
0.46378392 0.39436415 0.00323596
-0.16524518 -0.13706549 0.00000000
-0.39276606 -0.54416633 0.00000000
-0.77059102 -0.12164468 0.00000000
-0.45183989 -0.53039217 0.00000000
-0.73851383 -0.15929784 0.00000000
-0.22913948 -0.33476511 0.00000000
-0.37518099 -0.14023267 0.00000000
-0.29370189 -0.68469244 0.00000000
-0.36524183 0.02599109 0.00000000
-0.19141895 -0.20896512 0.00000000
0.60901928 0.73829907 0.03045843
0.51171696 -0.12870266 0.00000000
-0.22740369 0.12048222 0.00000000
0.57332528 0.66369557 0.02432034
0.42929310 0.27247667 0.00000000
-0.21195009 -0.12776911 0.00000000
-0.51011741 0.06310146 0.00000000
-0.43499130 -0.32369769 0.00000000
0.19226122 -0.29821432 0.00000000
0.15264732 0.19727798 0.00000000
0.22007473 -0.03876471 0.00000000
0.77156913 -0.69423604 0.00000000
-0.54542947 -0.54238677 0.00000000
-0.72370642 0.73032838 0.00000000
0.08230063 0.26825210 0.00000000
-0.57182211 -0.06383383 0.00000000
0.08276987 0.19413885 0.00000000
0.78883338 -0.71002787 0.00000000
-0.14580192 -0.76592368 0.00000000
-0.61985594 0.39201275 0.00000000
0.07542946 -0.73010725 0.00000000
0.46149543 0.11802633 0.00000000
-0.04479512 0.08381029 0.00000000
0.38323838 -0.63567793 0.00000000
-0.41176900 -0.25451779 0.00000000
-0.20741415 0.09596206 0.00000000
0.34004682 -0.37404773 0.00000000
0.72243357 -0.04494672 0.00000000
-0.28938860 0.66763300 0.00000000
0.70058227 0.40179324 0.01682730
0.58872539 -0.57275677 0.00000000
0.31843397 0.05894455 0.00000000
0.41503125 -0.11545630 0.00000000
0.47839564 -0.00476779 0.00000000
0.37726691 -0.61870241 0.00000000
-0.05718101 0.38019446 0.00000000
-0.05478225 -0.12495039 0.00000000
0.11204385 -0.44124228 0.00000000
-0.46981528 0.65348494 0.00000000
-0.31526268 0.39741576 0.00000000
-0.09597082 0.74940139 0.00000000
0.47380233 -0.63479090 0.00000000
0.30353689 -0.64295703 0.00000000
0.06670249 0.69963163 0.00000000
0.64431703 -0.79654360 0.00000000
-0.32847598 0.16734183 0.00000000
0.09595074 -0.52968931 0.00000000
-0.11435556 -0.63173926 0.00000000
0.75510496 0.35234377 0.01710962
0.28110737 -0.56877208 0.00000000
-0.67342770 0.59951431 0.00000000
0.05872251 0.64661711 0.00000000
0.65642750 0.76663774 0.03467377
0.72158343 -0.21462215 0.00000000
0.52070463 -0.62068546 0.00000000
0.51814288 0.43863893 0.00872496
-0.04538502 -0.19671115 0.00000000
0.25112167 0.67201126 0.00685239
-0.33291215 0.57911354 0.00000000
0.76212078 -0.61378181 0.00000000
-0.04426065 -0.41282040 0.00000000
0.72587532 0.06932426 0.00000000
0.04325799 0.18478566 0.00000000
-0.27324685 -0.34628183 0.00000000
-0.65532637 -0.48131144 0.00000000
0.47127920 -0.07161187 0.00000000
-0.37900096 -0.60624230 0.00000000
-0.67321420 0.33753145 0.00000000
0.62826592 0.13435557 0.00000000
0.19755472 0.02455607 0.00000000
0.24673340 -0.66846478 0.00000000
0.46628666 -0.04368653 0.00000000
0.11174947 -0.44892555 0.00000000
0.69569063 -0.61053300 0.00000000
-0.35342267 0.71348888 0.00000000
-0.04763942 -0.02724627 0.00000000
-0.02925086 0.74470365 0.00000000
0.26024368 0.49161100 0.00000000
0.56137884 0.02595945 0.00000000
0.00706915 0.36561373 0.00000000
0.08453826 0.72430593 0.00049218
-0.22855611 -0.61288083 0.00000000
0.47577456 0.31712741 0.00000000
0.11131238 -0.53995806 0.00000000
0.42378694 0.27714813 0.00000000
0.02880626 0.34748641 0.00000000
0.57416224 0.02067103 0.00000000
0.33758920 -0.15614495 0.00000000
-0.42482829 -0.58766156 0.00000000
-0.34347618 -0.13752513 0.00000000
-0.55005383 0.25446722 0.00000000
-0.19168749 0.10339340 0.00000000
0.57782495 -0.77770251 0.00000000
0.55904835 0.79479122 0.03082134
0.50036442 0.49120602 0.01066096
-0.16196392 0.77035695 0.00000000
0.34302911 -0.51146960 0.00000000
-0.30472639 -0.26669100 0.00000000
-0.40640339 0.65726721 0.00000000
-0.26581404 0.33009958 0.00000000
-0.00444483 -0.43634716 0.00000000
-0.24857809 0.35086089 0.00000000
-0.37934265 0.76224118 0.00000000
-0.11160452 -0.70617932 0.00000000
0.61134738 0.42605230 0.01321137
-0.02209096 -0.66153580 0.00000000
0.52608991 0.63232249 0.01994576
0.19286589 0.71011889 0.00573114
0.57777607 0.55420452 0.01847483
0.72082818 0.26263738 0.01020992
-0.07510395 0.57668024 0.00000000
-0.24778819 0.19070706 0.00000000
0.46407044 -0.57478058 0.00000000
0.69232529 -0.07486411 0.00000000
0.29004267 -0.78614169 0.00000000
0.71881258 -0.50138760 0.00000000
0.61022663 -0.76752812 0.00000000
0.34186947 0.03170329 0.00000000
0.14027205 0.21788472 0.00000000
0.51196021 0.41395614 0.00700728
-0.30457202 -0.75238746 0.00000000
0.34042776 0.59690762 0.00764276
0.26685184 0.50711888 0.00000000
-0.56879520 0.14698888 0.00000000
-0.47095773 -0.34884629 0.00000000
-0.72064686 0.04143694 0.00000000
0.03456165 -0.71731353 0.00000000
-0.73571217 -0.68822902 0.00000000
-0.32324764 0.45225635 0.00000000
-0.65655631 -0.10795133 0.00000000
0.20187066 -0.38952923 0.00000000
0.20075113 0.08162345 0.00000000
-0.15645729 0.48069760 0.00000000
0.35221925 0.67753273 0.01278577
-0.55191183 0.66348404 0.00000000
-0.74398249 -0.37823710 0.00000000
-0.73747474 0.15844111 0.00000000
0.23044373 0.75083083 0.01008798
0.04963339 0.05754745 0.00000000
0.55703771 0.74592197 0.02798986
0.36573648 -0.62701333 0.00000000
0.44877744 0.04243865 0.00000000
0.25619325 -0.20959666 0.00000000
0.78881037 0.30794561 0.01651457
-0.63451004 -0.36930051 0.00000000
-0.73273498 -0.07770555 0.00000000
-0.29133824 0.78924078 0.00000000
-0.70713490 0.05300989 0.00000000
-0.24880372 -0.06101077 0.00000000
0.10497257 0.73239571 0.00207956
-0.39445275 -0.15515783 0.00000000
0.31380448 -0.42162657 0.00000000
-0.49301457 0.48575968 0.00000000
-0.33573329 0.32836974 0.00000000
-0.05473580 0.70481062 0.00000000
0.34724742 0.50144464 0.00270973
-0.33287534 0.73062766 0.00000000
-0.55104643 -0.14601181 0.00000000
0.04658098 -0.26685253 0.00000000
0.65302718 -0.04088346 0.00000000
0.64895511 0.04105861 0.00000000
-0.33774382 0.67727959 0.00000000
0.67169756 0.69311053 0.03143174
0.22547606 -0.49048409 0.00000000
-0.00336726 -0.20651086 0.00000000
0.53622651 0.30281299 0.00217256
0.68401676 0.64287317 0.02932159
0.38607582 0.10181806 0.00000000
0.00647468 0.22610818 0.00000000
0.70876890 -0.49628386 0.00000000
-0.13473594 0.46638897 0.00000000
-0.26081777 0.69102341 0.00000000
-0.43641156 -0.69109148 0.00000000
-0.25804225 -0.41354060 0.00000000
0.26474366 0.69118553 0.00867751
-0.64854413 -0.00674079 0.00000000
0.01187817 -0.38332075 0.00000000
0.31493902 0.28285298 0.00000000
0.53316289 -0.62540925 0.00000000
-0.30185696 -0.41564563 0.00000000
-0.42424577 -0.33968344 0.00000000
-0.56500041 -0.14076547 0.00000000
0.21720408 -0.69864291 0.00000000
0.21655242 0.75877905 0.00975725
0.39128482 -0.12173666 0.00000000
-0.36833429 -0.39326382 0.00000000
-0.15325731 -0.03269716 0.00000000
-0.77087575 0.22546332 0.00000000
0.69019246 0.24715637 0.00764351
0.38579175 -0.69792497 0.00000000
-0.05044745 -0.11628991 0.00000000
0.47360578 -0.64022434 0.00000000
0.49755418 -0.73277378 0.00000000
-0.70291293 0.28115997 0.00000000
0.11662342 0.69149083 0.00045156
0.37919238 0.31858024 0.00000000
-0.75150818 -0.30395171 0.00000000
0.27000681 -0.00720814 0.00000000
-0.77193093 0.35099113 0.00000000
-0.62666690 -0.28972253 0.00000000
-0.38711351 -0.12031968 0.00000000
-0.38580722 -0.13468561 0.00000000
0.71153134 0.44262949 0.01970917
0.18080115 -0.42510843 0.00000000
-0.71331286 0.62176210 0.00000000
0.06402682 0.14391582 0.00000000
0.00274923 0.10790694 0.00000000
0.34762543 0.14721505 0.00000000
-0.33704689 0.79338610 0.00000000
-0.56365067 -0.46373755 0.00000000
-0.23553441 0.00990932 0.00000000
-0.32722959 -0.00013585 0.00000000
-0.55752128 0.42263174 0.00000000
-0.09250440 0.08108288 0.00000000
-0.07865090 -0.25834885 0.00000000
-0.21919347 -0.34073368 0.00000000
-0.35888955 0.36173418 0.00000000
-0.47879732 0.29721087 0.00000000
0.33532232 -0.52969915 0.00000000
0.39221761 -0.02261644 0.00000000
0.14321502 -0.09333523 0.00000000
0.02366272 0.72647953 0.00000000
-0.31496969 0.34270877 0.00000000
-0.34256032 -0.27321911 0.00000000
0.65215832 -0.61672312 0.00000000
-0.22050515 -0.78051740 0.00000000
-0.34303659 -0.50828028 0.00000000
0.09804773 -0.29178143 0.00000000
0.72875911 0.76084101 0.03837645
0.30114996 -0.44638115 0.00000000
-0.74725807 -0.00175270 0.00000000
0.27954268 0.60358500 0.00462608
0.23317915 0.37738103 0.00000000
0.53972000 0.68947273 0.02388471
0.69352758 -0.19577567 0.00000000
-0.00092174 -0.55773860 0.00000000
0.62081009 0.66969359 0.02729668
0.68748361 0.53829527 0.02369473
0.76234961 0.32920861 0.01622531
0.72688991 -0.69893658 0.00000000
0.39151329 -0.31990227 0.00000000
0.66655284 -0.34994540 0.00000000
-0.47437298 0.60586971 0.00000000
0.10871257 -0.27516568 0.00000000
0.40993759 0.08451982 0.00000000
-0.12327880 0.58878565 0.00000000
-0.33107916 -0.44148323 0.00000000
0.43594557 -0.60637903 0.00000000
0.43116629 0.79570538 0.02375554
-0.71482819 0.14076544 0.00000000
0.32154286 -0.36268207 0.00000000
-0.34831712 0.35981786 0.00000000
0.38713020 -0.56128109 0.00000000
-0.69020993 -0.28621194 0.00000000
0.71995097 0.34422514 0.01470149
-0.33782518 -0.63861781 0.00000000
0.70866901 0.41208431 0.01785003
-0.60604101 -0.30982995 0.00000000
0.39838403 -0.04499643 0.00000000
0.27786899 -0.06166186 0.00000000
-0.75740528 -0.44110334 0.00000000
-0.46424288 0.26938522 0.00000000
-0.29385984 0.22264352 0.00000000
0.61090505 0.10755837 0.00000000
-0.50428629 0.58183408 0.00000000
-0.72004688 -0.51678497 0.00000000
0.72736949 -0.42740574 0.00000000
-0.62136483 -0.30617934 0.00000000
0.21769425 -0.00313309 0.00000000
0.71471941 0.17920563 0.00522696
-0.05000445 0.78205955 0.00000000
0.51590472 0.02185327 0.00000000
0.56665218 0.43777758 0.01137658
0.77130085 0.47428450 0.02479697
-0.20063818 -0.66884035 0.00000000
0.56669885 -0.10409258 0.00000000
0.78330773 0.66796386 0.03624346
0.52640796 0.10924845 0.00000000
-0.12760352 0.67596179 0.00000000
0.28616613 -0.07266959 0.00000000
0.64207858 0.35448116 0.01093861
-0.72395015 0.61552835 0.00000000
0.11450273 -0.42371759 0.00000000
0.58969861 -0.03193842 0.00000000
0.61739707 -0.64318299 0.00000000
0.31795016 -0.10044063 0.00000000
-0.35816053 0.35566670 0.00000000
-0.71438962 0.27339593 0.00000000
-0.31779498 0.31188604 0.00000000
-0.19846632 -0.62823009 0.00000000
0.76504350 -0.65663612 0.00000000
-0.52230680 0.59650564 0.00000000
-0.14125273 -0.25189140 0.00000000
0.63343906 0.66844583 0.02793005
-0.41638336 0.19297275 0.00000000
-0.16112942 0.25783515 0.00000000
-0.22003148 0.06263754 0.00000000
0.32017705 -0.62595153 0.00000000
0.47737706 0.68937242 0.02040972
-0.32650867 -0.25594518 0.00000000
0.61802340 0.04158332 0.00000000
0.66336459 -0.22418123 0.00000000
-0.48158827 0.74844092 0.00000000
-0.07330296 -0.54444152 0.00000000
-0.01037035 -0.08757338 0.00000000
0.52394515 -0.22344851 0.00000000
-0.44425619 -0.27097732 0.00000000
0.22653128 -0.37626898 0.00000000
0.28762797 0.35977232 0.00000000
-0.25084478 0.70200026 0.00000000
-0.32901633 -0.79788476 0.00000000
0.11887745 0.45139331 0.00000000
0.33209643 0.77975351 0.01735454
-0.72201037 -0.00958997 0.00000000
0.13182510 0.39244744 0.00000000
0.68331027 0.54659998 0.02392464
-0.69383103 0.35793772 0.00000000
0.20824321 0.79424006 0.01126825
-0.73764974 0.52166444 0.00000000
-0.12507276 0.34152120 0.00000000
-0.47488040 0.62246668 0.00000000
-0.57497138 -0.78677690 0.00000000
0.57842577 0.72989953 0.02828846
-0.30716354 -0.20349772 0.00000000
0.59903580 -0.46562421 0.00000000
-0.00063902 0.11777100 0.00000000
-0.33962679 -0.46078724 0.00000000
0.27278322 -0.24614222 0.00000000
-0.64241976 -0.41580060 0.00000000
-0.26894233 -0.07115503 0.00000000
0.50422943 -0.65758955 0.00000000
0.31518355 0.40857291 0.00000000
-0.58996814 -0.67048073 0.00000000
-0.38882023 0.79426920 0.00000000
-0.75132251 -0.73541892 0.00000000
-0.66963995 -0.46120763 0.00000000
-0.23134512 -0.79293096 0.00000000
-0.47193113 0.22882378 0.00000000
-0.14975706 0.24180081 0.00000000
0.23084597 -0.79035002 0.00000000
-0.63059288 0.20996423 0.00000000
-0.67452782 -0.04333041 0.00000000
-0.04385041 0.48532021 0.00000000
-0.41558027 -0.30539912 0.00000000
0.07142969 -0.11327238 0.00000000
0.57719535 0.57404047 0.01954639
0.69689357 0.73228109 0.03501376
0.64436507 -0.77681452 0.00000000
-0.53278071 -0.62813276 0.00000000
0.75812554 0.68381006 0.03572391
-0.16929834 -0.61195886 0.00000000
-0.67658859 0.54578316 0.00000000
0.32543683 0.66696602 0.01070728
-0.07691912 -0.73620379 0.00000000
0.43436036 0.76670372 0.02231934
0.41202235 0.75233102 0.02027637
-0.49863300 -0.28096327 0.00000000
0.36498827 0.65327537 0.01214644
-0.39767188 0.76773280 0.00000000
-0.22671367 0.59540713 0.00000000
0.09497138 -0.60382003 0.00000000
0.07809212 0.56797326 0.00000000
-0.19187839 -0.58156818 0.00000000
0.79552329 -0.31708571 0.00000000
0.01474760 0.57066482 0.00000000
-0.72066003 -0.35209841 0.00000000
-0.35268426 -0.58644003 0.00000000
-0.51035887 0.39116243 0.00000000
-0.38437480 -0.76811719 0.00000000
-0.26483846 -0.66042423 0.00000000
-0.66399306 0.48411006 0.00000000
-0.13712168 -0.47060165 0.00000000
-0.42255223 -0.26472086 0.00000000
0.76214761 -0.56251180 0.00000000
0.56941193 -0.12006318 0.00000000
0.43363899 0.02944673 0.00000000
0.74689472 -0.46965915 0.00000000
-0.21242756 0.10359990 0.00000000
0.18058851 0.45410207 0.00000000
-0.78681427 -0.11046088 0.00000000
0.15009438 -0.61461997 0.00000000
-0.31061479 -0.00902752 0.00000000
-0.67955256 -0.12726150 0.00000000
0.21084061 -0.02923560 0.00000000
0.09522946 -0.73280108 0.00000000
-0.19804361 -0.33555567 0.00000000
-0.13087289 -0.42232677 0.00000000
-0.43835956 -0.65985453 0.00000000
-0.41778272 -0.28261480 0.00000000
-0.44385952 -0.70095915 0.00000000
-0.55928588 -0.17555949 0.00000000
-0.76975602 -0.09606760 0.00000000
-0.44315755 -0.23144569 0.00000000
0.72429001 -0.64418030 0.00000000
-0.41337445 0.53855342 0.00000000
0.39312673 -0.23129047 0.00000000
-0.75823468 0.02376623 0.00000000
-0.71487302 0.23398472 0.00000000
0.79139733 0.36468670 0.01981619
-0.06899295 -0.68062669 0.00000000
0.33535749 0.77185178 0.01709629
0.74601853 -0.15671390 0.00000000
0.17747429 0.67974418 0.00318423
-0.64431584 -0.38804188 0.00000000
-0.00650658 0.13647534 0.00000000
-0.76676208 -0.64687175 0.00000000
-0.36708143 -0.00571956 0.00000000
-0.34212264 0.64405483 0.00000000
-0.29128665 0.14773341 0.00000000
-0.17634693 0.22594410 0.00000000
0.06877785 0.06088729 0.00000000
-0.27717373 0.01711508 0.00000000
-0.74671769 0.42422795 0.00000000
0.10467472 0.04791783 0.00000000
-0.72898519 -0.73328894 0.00000000
0.64238584 -0.04588251 0.00000000
-0.05237298 0.53791010 0.00000000
0.15925278 -0.74535275 0.00000000
0.12496848 0.26221427 0.00000000
-0.04496485 -0.13792031 0.00000000
-0.18360703 -0.53761458 0.00000000
0.50804085 0.63186991 0.01891614
0.60773546 0.25116277 0.00327770
0.46118101 -0.18695521 0.00000000
-0.38008410 -0.39497012 0.00000000
0.19946861 0.51175135 0.00000000
0.30550840 -0.78674918 0.00000000
0.00747500 0.60119915 0.00000000
-0.10437442 -0.00795521 0.00000000
0.09266950 -0.50243920 0.00000000
-0.12129115 -0.09582308 0.00000000
-0.17474449 -0.49621105 0.00000000
0.61080730 0.40777725 0.01216430
-0.41482362 0.13185287 0.00000000
-0.04677476 0.11039134 0.00000000
0.47551453 -0.44912583 0.00000000
-0.79413271 0.46182555 0.00000000
-0.11225747 -0.00980619 0.00000000
0.25610945 0.45403522 0.00000000
-0.24418171 -0.40102834 0.00000000
0.32120064 -0.36892354 0.00000000
0.38013187 -0.55100060 0.00000000
0.52598208 0.17286360 0.00000000
-0.33827108 0.16851673 0.00000000
-0.10524456 -0.47310314 0.00000000
-0.15393399 -0.59574127 0.00000000
-0.57547104 0.46888521 0.00000000
0.34406722 0.42570069 0.00000000
0.71375936 -0.03399037 0.00000000
-0.17260092 -0.06339661 0.00000000
-0.39153177 -0.20754686 0.00000000
-0.59221745 -0.41627690 0.00000000
0.23402332 -0.60775536 0.00000000
-0.77522451 -0.15165216 0.00000000
-0.48043391 0.54748398 0.00000000
0.70197892 -0.68744546 0.00000000
0.00423703 0.79143232 0.00000000
-0.42305264 0.34496799 0.00000000
-0.77820951 -0.08222597 0.00000000
0.79387194 -0.12540948 0.00000000
0.40348998 0.00848328 0.00000000
0.71957004 0.58119190 0.02786756
-0.55363649 -0.10235106 0.00000000
-0.16261297 -0.19095479 0.00000000
-0.45135975 -0.59111506 0.00000000
0.20703274 -0.07368981 0.00000000
0.73038429 0.54215711 0.02629708
0.48606429 -0.19420654 0.00000000
-0.64057791 -0.73005688 0.00000000
0.52784663 0.37474877 0.00570947
-0.05355510 0.51396173 0.00000000
-0.35451645 0.72537524 0.00000000
-0.01354994 -0.51491916 0.00000000
-0.65374285 -0.35833243 0.00000000
-0.24028347 -0.28799114 0.00000000
0.37076139 -0.22398295 0.00000000
-0.26945883 -0.53171831 0.00000000
-0.04171882 -0.59605849 0.00000000
0.58648312 0.69574106 0.02683592
-0.45417902 -0.38750231 0.00000000
0.09505814 0.75691777 0.00289248
-0.69263124 0.48530048 0.00000000
-0.33527344 0.57733268 0.00000000
-0.71255016 0.33912462 0.00000000
0.51231581 0.01568733 0.00000000
-0.22340403 -0.38154373 0.00000000
-0.06440203 0.79531944 0.00000000
0.36607522 -0.64843190 0.00000000
0.03469982 -0.58818853 0.00000000
-0.35828289 0.18109848 0.00000000
0.06434675 -0.17455871 0.00000000
0.18188275 -0.61117840 0.00000000
0.22440194 -0.71599460 0.00000000
0.79071480 0.42217568 0.02297749
0.03524262 0.32294747 0.00000000
0.62860835 0.42483482 0.01410419
0.54515785 0.40806645 0.00852698
-0.10775679 0.56864899 0.00000000
0.14876129 -0.39601287 0.00000000
0.68525344 0.41428509 0.01666942
0.06818089 -0.37252742 0.00000000
-0.32331681 -0.24198151 0.00000000
-0.20890294 -0.69660819 0.00000000
0.09434577 -0.03279300 0.00000000
0.32087669 0.31129178 0.00000000
0.73650932 -0.36640105 0.00000000
-0.35953760 0.18337344 0.00000000
-0.61833799 -0.10949711 0.00000000
-0.31477535 0.71458751 0.00000000
0.56827617 -0.20009565 0.00000000
0.32020420 -0.57689369 0.00000000
0.34887305 -0.69450420 0.00000000
0.74007910 -0.79615968 0.00000000
-0.18457349 0.37980813 0.00000000
0.54760432 -0.09629610 0.00000000
0.03261875 0.26721105 0.00000000
-0.79019064 0.04836609 0.00000000
0.74368817 -0.27164227 0.00000000
-0.32220826 -0.18677890 0.00000000
-0.23058367 -0.75818598 0.00000000
0.49925211 -0.00137175 0.00000000
-0.17077459 0.49351299 0.00000000
0.23595867 -0.09494360 0.00000000
0.09691395 0.79466075 0.00509616
-0.15381832 0.54242736 0.00000000
-0.39617923 0.00077841 0.00000000
-0.48741907 -0.14178915 0.00000000
-0.20523255 -0.57185215 0.00000000
-0.00302620 -0.47780558 0.00000000
-0.55352163 -0.77801991 0.00000000
0.17764999 0.73043334 0.00601487
0.63943261 -0.36047855 0.00000000
0.14115193 -0.31472078 0.00000000
0.12210966 -0.28234085 0.00000000
0.49956006 -0.70008039 0.00000000
-0.57456213 0.47516710 0.00000000
-0.64466012 0.72771913 0.00000000
-0.58246821 -0.04408045 0.00000000
-0.46350583 -0.62254620 0.00000000
0.27475849 0.38221163 0.00000000
0.08058083 0.02336173 0.00000000
-0.27896827 0.05683608 0.00000000
0.79919142 0.13036779 0.00721001
0.54815114 -0.25674304 0.00000000
0.22594054 -0.30235463 0.00000000
0.55017197 -0.19761463 0.00000000
0.54095495 0.51079530 0.01400998
0.67042196 0.26548606 0.00756333
-0.45819822 -0.70933360 0.00000000
-0.77045566 0.61175609 0.00000000
0.00069763 -0.50669688 0.00000000
0.17547058 0.70058125 0.00423231
0.12096046 0.18908253 0.00000000
-0.19814719 -0.11909750 0.00000000
0.27004117 0.12709370 0.00000000
-0.25707546 -0.50027025 0.00000000
0.54972315 0.09130618 0.00000000
0.44725317 -0.44110817 0.00000000
-0.69002575 0.01951678 0.00000000
0.62783396 0.79616487 0.03472572
0.32826588 0.25968808 0.00000000
0.11498692 0.09478955 0.00000000
0.32431933 -0.17816477 0.00000000
0.39351070 -0.65956014 0.00000000
-0.24901125 0.55773783 0.00000000
0.78581798 -0.38135019 0.00000000
0.01523028 0.53921497 0.00000000
-0.39001757 -0.10489767 0.00000000
0.00307341 0.72685164 0.00000000
0.10689874 -0.12054471 0.00000000
0.35959041 -0.68430459 0.00000000
-0.73825854 -0.48792267 0.00000000
-0.55773181 -0.74122500 0.00000000
0.76877326 0.00807641 0.00000000
0.66657346 -0.37464276 0.00000000
-0.01808458 -0.33486539 0.00000000
-0.27806428 0.28909007 0.00000000
0.53567141 -0.26201120 0.00000000
0.66087514 0.45944914 0.01782615
-0.48881653 0.78522438 0.00000000
-0.07402746 -0.77716273 0.00000000
0.20214897 -0.33994433 0.00000000
-0.59026343 0.10422814 0.00000000
-0.58637214 0.68729722 0.00000000
-0.79614836 -0.52706254 0.00000000
-0.50272459 0.79861307 0.00000000
0.52466285 -0.08166226 0.00000000
0.15363871 0.46300247 0.00000000
-0.75448000 0.34078166 0.00000000
-0.21157353 0.52118844 0.00000000
0.64866447 -0.28395206 0.00000000
-0.54611933 0.70450991 0.00000000
-0.23319779 -0.11261459 0.00000000
0.31007558 -0.04707894 0.00000000
0.41981700 0.70809400 0.01824835
-0.52181643 -0.19265231 0.00000000
0.47761506 -0.64989531 0.00000000
-0.03525992 -0.47110394 0.00000000
0.46817681 0.52924591 0.01098664
0.34943032 0.03416054 0.00000000
-0.47117907 -0.29013577 0.00000000
-0.36254171 -0.47817993 0.00000000
0.22445720 0.21358639 0.00000000
-0.57732493 -0.52228498 0.00000000
0.49579135 0.39665747 0.00514481
0.77208143 0.25218675 0.01248060
-0.59487325 0.69274431 0.00000000
0.01995547 -0.77244705 0.00000000
0.45258778 0.28406021 0.00000000
-0.39513132 0.78237545 0.00000000
-0.07916197 0.40956545 0.00000000
-0.05736373 -0.09144165 0.00000000
-0.38939086 -0.19507197 0.00000000
0.60890937 -0.54674733 0.00000000
0.61944699 0.00560638 0.00000000
-0.15759315 -0.01412188 0.00000000
0.56476420 -0.67733622 0.00000000
-0.78894240 0.54832357 0.00000000
-0.04815495 0.32127395 0.00000000
-0.56625336 0.12765576 0.00000000
0.59028536 -0.25674275 0.00000000
-0.08325098 0.62475121 0.00000000
-0.51584387 0.72730434 0.00000000
0.07067201 0.27554545 0.00000000
-0.01310625 0.78846639 0.00000000
0.19146147 -0.07995987 0.00000000
-0.27965713 -0.46786487 0.00000000
0.50392812 0.68142331 0.02144492
0.53241199 0.04542717 0.00000000
0.01698181 -0.72560465 0.00000000
0.58359927 -0.01345118 0.00000000
0.58197826 0.40112263 0.01018962
0.00544881 -0.54616010 0.00000000
-0.74501437 0.04905779 0.00000000
0.51500934 0.37326768 0.00491264
-0.27051958 0.31934452 0.00000000
-0.33147398 -0.48271987 0.00000000
-0.71865231 0.37907344 0.00000000
-0.47340098 -0.22307360 0.00000000
0.62128013 -0.71525544 0.00000000
0.77666765 0.62205291 0.03331898
0.43217587 -0.03194725 0.00000000
0.20766123 0.59556490 0.00017953
-0.13422924 0.65770394 0.00000000
0.22007659 -0.75541401 0.00000000
-0.67836767 -0.37134108 0.00000000
-0.34656486 -0.60199904 0.00000000
-0.50960064 0.62839001 0.00000000
-0.78838575 -0.58648270 0.00000000
-0.76167017 0.07499871 0.00000000
-0.23911636 0.03948444 0.00000000
-0.53116935 0.60525829 0.00000000
-0.40529102 0.03253813 0.00000000
-0.00024349 -0.50283688 0.00000000
0.36101675 0.22444740 0.00000000
0.27113450 0.29416600 0.00000000
-0.54485720 -0.01063312 0.00000000
0.18375564 0.77669525 0.00892914
-0.17418236 0.60259289 0.00000000
0.18577603 -0.16815273 0.00000000
0.76348734 -0.72219986 0.00000000
-0.48449761 -0.42302415 0.00000000
-0.39851519 -0.64824384 0.00000000
-0.65488809 -0.37575930 0.00000000
0.66130942 0.52334774 0.02140630
-0.54094267 -0.31769028 0.00000000
-0.58004028 -0.09720009 0.00000000
0.23346359 -0.07665004 0.00000000
0.57101202 -0.54022491 0.00000000
-0.65303695 -0.07835220 0.00000000
-0.04146548 0.20774592 0.00000000
-0.71358490 -0.10027408 0.00000000
-0.70406848 0.29856041 0.00000000
0.31633642 0.54536319 0.00343360
-0.07120903 0.08717151 0.00000000
0.01075410 0.27326202 0.00000000
0.20270871 0.68537301 0.00490178
-0.61117750 0.17026746 0.00000000
-0.56238949 -0.52843845 0.00000000
-0.03665805 -0.30236015 0.00000000
0.17611025 -0.41268829 0.00000000
-0.71004134 -0.59693491 0.00000000
-0.08915102 0.35983983 0.00000000
0.08791933 -0.66415858 0.00000000
0.37421888 -0.17630947 0.00000000
-0.08443560 0.07305613 0.00000000
-0.64448732 -0.38860774 0.00000000
0.11749393 -0.11817453 0.00000000
