ply
format ascii 1.0
element vertex 1150
property float x
property float y
property float z
end_header
-0.01504545 0.73402005 0.00238322
-0.03575744 0.15066347 0.00566403
-0.54865366 -0.18470372 0.08690803
-0.14250804 -0.13396411 0.02257346
-0.03533969 -0.16315234 0.00559785
-0.21882696 0.21757913 0.03466247
-0.37549129 -0.17231022 0.05947831
-0.61005622 -0.77126098 0.09663369
-0.02365057 -0.71859950 0.00374628
-0.06635442 -0.41229236 0.01051063
-0.39802229 0.07791421 0.06304766
-0.03923386 0.72069556 0.00621472
-0.14288481 -0.18243545 0.02263314
-0.06939765 -0.13280763 0.01099268
-0.53882962 -0.56409907 0.08535131
-0.75121576 -0.30484843 0.11899478
-0.04682387 -0.08966381 0.00741696
-0.09099728 -0.00785614 0.01441409
-0.18629099 -0.17298849 0.02950873
-0.26550189 -0.34429640 0.04205584
-0.36411202 0.26569346 0.05767640
-0.13914201 -0.79972327 0.00000000
-0.16186418 0.16508947 0.02563949
-0.00424458 -0.37818265 0.00067235
-0.73893052 -0.76695681 0.11704813
-0.03256782 -0.44984156 0.00515878
-0.26646951 -0.32872668 0.04220912
-0.30504799 -0.03545767 0.04832000
-0.35100225 -0.40066755 0.05559921
-0.39288822 0.01315452 0.06223429
-0.49318060 -0.48592371 0.07812045
-0.60909128 -0.28728142 0.09648150
-0.77189028 -0.48179200 0.12226956
-0.62692761 0.06077578 0.09930744
-0.03840405 0.57165962 0.00608325
-0.18416150 -0.46335709 0.02917142
-0.71110296 -0.52561235 0.11264033
-0.00912026 -0.65120679 0.00144466
-0.47759372 -0.63289672 0.07565146
-0.56819057 -0.79023707 0.09000213
-0.75410777 0.03399190 0.11945337
-0.15850574 0.58670032 0.02510780
-0.02923326 0.68608505 0.00463059
-0.37301600 -0.43991402 0.05908622
-0.29173604 0.28487900 0.04621169
-0.79382998 -0.63922799 -0.00000040
-0.21764866 0.24411891 0.03447583
-0.23107602 -0.38366345 0.03660274
-0.73327076 -0.02138066 0.11615263
-0.41644034 0.17833555 0.06596534
-0.35616660 -0.42399999 0.05641725
-0.31932247 -0.38478568 0.05058109
-0.46477574 -0.74186713 0.07362108
-0.44375539 -0.73703033 0.07029143
-0.58207864 0.08470641 0.09220317
-0.51589465 -0.18538201 0.08171883
-0.10026080 0.22119111 0.01588144
-0.50504166 -0.53632933 0.07999925
-0.30780950 -0.21283484 0.04875742
-0.32682723 0.12828115 0.05177006
-0.19212463 -0.71246451 0.03043279
-0.16582172 0.52645010 0.02626659
-0.10148128 0.28179878 0.01607477
-0.14205097 -0.32030407 0.02250106
-0.10251253 -0.04111318 0.01623812
-0.17174301 -0.43678275 0.02720431
-0.30455735 0.20742515 0.04824253
-0.13636801 0.14211741 0.02160087
-0.77968842 -0.36050937 0.12350500
-0.14909032 -0.47078595 0.02361610
-0.53214794 -0.27176318 0.08429330
-0.54057342 -0.46544731 0.08562762
-0.09048416 -0.73873967 0.01433281
-0.01917393 -0.42121896 0.00303717
-0.43420270 0.02905138 0.06877875
-0.10272627 -0.40238562 0.01627197
-0.08539946 -0.66276354 0.01352739
-0.24838395 0.51256394 0.03934486
-0.49115831 -0.66290742 0.07780011
-0.67621028 -0.16416819 0.10711372
-0.22349294 -0.33119780 0.03540157
-0.70763838 0.04161027 0.11209243
-0.21663919 -0.15347517 0.03431593
-0.07642835 0.57271320 0.01210635
-0.18585750 0.32427797 0.02944007
-0.15646148 0.63858974 0.02478406
-0.14796941 0.50102603 0.02343865
-0.25055319 -0.23372091 0.03968795
-0.24965593 0.27798399 0.03954597
-0.39620167 -0.18547428 0.06275886
-0.68733919 -0.29690307 0.10887637
-0.07944194 -0.47337607 0.01258371
-0.76115215 -0.72409612 0.12056826
-0.48572361 -0.65269482 0.07693925
-0.23594756 -0.15676121 0.03737440
-0.34515885 -0.67325717 0.05467361
-0.41358688 0.26724029 0.06551348
-0.03942110 0.50062096 0.00624435
-0.40790230 -0.47302717 0.06461225
-0.62293100 -0.50173563 0.09867344
-0.79517496 -0.68530780 -0.00000029
-0.67011023 -0.65244097 0.10614663
-0.23825417 -0.42656183 0.03773977
-0.54384619 -0.22203445 0.08614644
-0.02162950 -0.57094818 0.00342614
-0.41413242 -0.17526747 0.06559917
-0.42883721 0.23970842 0.06792917
-0.12598231 0.48091733 0.01995576
-0.03333330 0.07905057 0.00528004
-0.55169171 -0.51022309 0.08738874
-0.24995601 0.20367348 0.03959338
-0.15154597 -0.25077549 0.02400508
-0.49661633 -0.27077541 0.07866490
-0.19340453 0.51715195 0.03063584
-0.32264644 -0.36110130 0.05110761
-0.02911068 -0.66543317 0.00461117
-0.78451926 -0.44100770 0.12427014
-0.45372882 0.29710636 0.07187223
-0.33918080 -0.22967096 0.05372668
-0.45617956 -0.24379373 0.07225955
-0.20294392 0.59371060 0.03214706
-0.44208601 -0.21041393 0.07002711
-0.08266567 0.29552743 0.01309435
-0.45027477 -0.00842398 0.07132458
-0.48400199 0.27030396 0.07666761
-0.75726724 -0.47362751 0.11995317
-0.78811347 -0.14422126 -0.00000164
-0.70384020 -0.59501159 0.11148976
-0.20636757 -0.22918639 0.03268889
-0.53237164 0.12910597 0.08432939
-0.32405588 -0.75760102 0.05133087
-0.59077561 -0.60406268 0.09357969
-0.51006943 -0.19346189 0.08079607
-0.32214403 0.17431878 0.05102830
-0.71274698 -0.36378339 0.11290099
-0.01979083 0.33887732 0.00313489
-0.53212148 -0.00934662 0.08428954
-0.35157350 -0.34645510 0.05568970
-0.09008247 -0.59367901 0.01426918
-0.09032573 -0.00430423 0.01430771
-0.37228185 -0.03913966 0.05897004
-0.34119233 -0.13252719 0.05404531
-0.54486001 -0.28236535 0.08630694
-0.38070393 -0.27015650 0.06030400
-0.12600097 0.16464522 0.01995872
-0.11633225 -0.18447471 0.01842718
-0.78847325 -0.63734972 -0.00000041
-0.40114489 -0.47213605 0.06354187
-0.27668315 0.07658425 0.04382697
-0.17433372 0.19003139 0.02761469
-0.59919614 0.03884021 0.09491460
-0.50791502 -0.37960637 0.08045449
-0.22418144 0.21842745 0.03551063
-0.04879975 0.30907202 0.00772994
-0.13712369 -0.00441053 0.02172057
-0.77058244 -0.20418276 0.12206274
-0.54188454 -0.46683255 0.08583531
-0.30650616 -0.22346292 0.04855097
-0.77022821 -0.57850301 0.12200615
-0.33214274 0.40222353 0.05261252
-0.47238842 0.15077177 0.07482777
-0.64025223 0.02824800 0.10141809
-0.08326341 -0.03616471 0.01318903
-0.35264391 0.02508647 0.05585939
-0.25473300 0.08482852 0.04035004
-0.20977551 -0.78190881 0.03322871
-0.21684492 -0.42602378 0.03434852
-0.16901866 0.19464575 0.02677278
-0.08233929 -0.40976363 0.01304265
-0.05713215 0.55369282 0.00904981
-0.57334089 -0.03633967 0.09081887
-0.58513862 0.05801416 0.09268785
-0.10758670 -0.59567314 0.01704187
-0.09010855 0.18274567 0.01427331
-0.65650904 -0.01943572 0.10399318
-0.16586925 0.17490502 0.02627390
-0.06083341 0.71410125 0.00963619
-0.59490323 -0.36873326 0.09423391
-0.74595934 -0.15915871 0.11816235
-0.51200974 -0.37643608 0.08110313
-0.30252257 0.19985481 0.04792019
-0.04036213 0.34485582 0.00639341
-0.49377334 -0.73977959 0.07821434
-0.04198591 -0.61374706 0.00665062
-0.17221294 -0.65519381 0.02727875
-0.34922767 -0.25097317 0.05531811
-0.74208504 -0.19921626 0.11754857
-0.09796847 0.27721643 0.01551833
-0.14107303 0.34094748 0.02234615
-0.49042231 -0.02171703 0.07768415
-0.07876140 -0.39446178 0.01247591
-0.79780924 -0.68040049 -0.00000030
-0.18293686 0.50064641 0.02897768
-0.54286641 -0.34659043 0.08599104
-0.66050494 -0.71433175 0.10462500
-0.17433311 0.61004692 0.02761498
-0.17132063 -0.65062666 0.02713741
-0.08438480 -0.29658547 0.01336666
-0.11959212 0.40625772 0.01894355
-0.49621695 -0.52666640 0.07860141
-0.34025818 -0.08466219 0.05389734
-0.07176087 -0.42977223 0.01136701
-0.54829651 -0.70874482 0.08685087
-0.25900543 -0.19662173 0.04102679
-0.04478426 -0.66610849 0.00709388
-0.58777750 0.06580109 0.09310587
-0.43719232 -0.10227540 0.06925210
-0.23977338 -0.53370750 0.03798041
-0.12812969 -0.79983872 0.02029591
-0.46452829 -0.73842216 0.07358188
-0.05784986 -0.15946902 0.00916349
-0.20974895 -0.11148705 0.03322451
-0.35077086 0.27013573 0.05556310
-0.17291911 -0.02962579 0.02739061
-0.48680976 0.11727014 0.07711213
-0.05112187 -0.61086524 0.00809777
-0.34774125 -0.39454591 0.05508267
-0.10374894 -0.67591733 0.01643397
-0.10890259 0.42093855 0.01725031
-0.70023370 -0.56613630 0.11091850
-0.41502139 -0.44500074 0.06573993
-0.37306288 -0.65441537 0.05909364
-0.21752235 -0.40368143 0.03445582
-0.39421713 -0.05727497 0.06244468
-0.55760491 0.21957615 0.08832663
-0.01835296 -0.20475212 0.00290713
-0.26941517 -0.35079184 0.04267571
-0.03150732 0.70670116 0.00499080
-0.44838825 0.16975287 0.07102604
-0.29962221 -0.56321716 0.04746055
-0.05222613 0.18089801 0.00827269
-0.00348443 -0.36642185 0.00055194
-0.00959876 0.71588171 0.00152046
-0.49498853 -0.47337332 0.07840683
-0.74562532 -0.64155024 0.11810879
-0.13879298 -0.14792992 0.02198499
-0.43948755 -0.03294078 0.06961579
-0.62590605 -0.67455006 0.09914442
-0.48710048 0.15143038 0.07715824
-0.22993511 -0.18860787 0.03642202
-0.50472289 -0.53415096 0.07994876
-0.46998543 -0.02712133 0.07444683
-0.36119622 -0.31701565 0.05721395
-0.06648354 0.42342058 0.01053108
-0.16681746 -0.78717786 0.02642410
-0.04547704 -0.67762530 0.00720362
-0.57995254 -0.14426962 0.09186601
-0.04092158 -0.19483620 0.00648203
-0.12162725 0.33267209 0.01926591
-0.79726207 -0.11792025 -0.00000171
-0.27047578 0.29395404 0.04284397
-0.26023909 0.17404349 0.04122223
-0.18398581 0.49339980 0.02914383
-0.75842184 -0.08559487 0.12013659
-0.66418886 -0.20392391 0.10520939
-0.50000191 -0.29128253 0.07920116
-0.58741724 -0.35299280 0.09304811
-0.51918823 -0.33123526 0.08224032
-0.07211817 -0.52022421 0.01142361
-0.29151335 -0.63697743 0.04617609
-0.00965053 0.07275692 0.00152866
-0.60291439 0.05726704 0.09550362
-0.16920523 -0.66174513 0.02680233
-0.31477031 -0.54240286 0.04986002
-0.49618903 -0.46031398 0.07859699
-0.05889009 -0.64890915 0.00932827
-0.37018052 -0.67374754 0.05863707
-0.35464564 -0.52541560 0.05617633
-0.49855807 -0.03728176 0.07897287
-0.01130822 0.23504172 0.00179124
-0.73352271 -0.56996232 0.11619173
-0.14713322 0.41816229 0.02330609
-0.50062025 -0.41970843 0.07929890
-0.21639413 0.05912377 0.03427711
-0.59518373 -0.44197023 0.09427823
-0.44343612 -0.01451814 0.07024130
-0.46988881 0.31287763 0.07443208
-0.23622927 -0.74654746 0.03741902
-0.10037450 -0.78826523 0.01589945
-0.23459686 -0.12028441 0.03716045
-0.35160616 -0.13734896 0.05569487
-0.52681899 0.23186386 0.08344999
-0.59605336 0.04611879 0.09441678
-0.18223219 -0.59272957 0.02886581
-0.06398420 -0.75482237 0.01013518
-0.34301162 -0.51157570 0.05433349
-0.11410850 -0.10427541 0.01807493
-0.09955572 -0.00311014 0.01576975
-0.33968145 0.18253957 0.05380633
-0.63076615 -0.66361749 0.09991430
-0.24623892 -0.24370889 0.03900456
-0.14822370 0.40539727 0.02347883
-0.70412719 -0.55975121 0.11153528
-0.22096169 -0.75050378 0.03500062
-0.45268831 -0.79978615 0.00000000
-0.01551465 -0.32512268 0.00245754
-0.00594666 -0.35798824 0.00094196
-0.61230272 -0.79337704 0.09698954
-0.39888445 -0.46718135 0.06318382
-0.11095314 0.46975461 0.01757512
-0.65315992 -0.44932517 0.10346194
-0.14223808 0.43471485 0.02253070
-0.42268232 -0.63923115 0.06695342
-0.17612435 -0.47955447 0.02789833
-0.73894095 -0.62238574 0.11704996
-0.25631541 -0.20027775 0.04060069
-0.43993673 0.20017809 0.06968733
-0.14281088 -0.01770614 0.02262143
-0.55907023 -0.74236369 0.08855744
-0.23390855 0.44946265 0.03705178
-0.37159544 -0.70557302 0.05886120
-0.17673838 -0.37902203 0.02799559
-0.27935243 -0.30789337 0.04424979
-0.55723166 -0.76047677 0.08826622
-0.48950312 0.23769353 0.07753897
-0.60988820 0.17493035 0.09660850
-0.59446353 -0.06739056 0.09416475
-0.18239658 -0.60562742 0.02889185
-0.57549334 -0.51853275 0.09115903
-0.00812251 0.67657703 0.00128662
-0.31931245 0.29461765 0.05057996
-0.63490260 -0.73584521 0.10056942
-0.37808824 -0.02279854 0.05988983
-0.12873966 -0.76386726 0.02039253
-0.04827914 0.38673937 0.00764748
-0.76989251 -0.43992835 0.12195315
-0.18589129 0.38989675 0.02944549
-0.19486968 -0.27508214 0.03086761
-0.05208177 -0.61709476 0.00824982
-0.00408162 -0.79910880 0.00064653
-0.20361581 0.22895361 0.03225301
-0.40173620 -0.76099205 0.06363554
-0.27570125 -0.33288121 0.04367144
-0.46941003 -0.12441321 0.07435552
-0.37845269 0.28500992 0.05994807
-0.69115990 -0.31722301 0.10948156
-0.25344533 0.52139831 0.04014663
-0.33055294 -0.61030620 0.05236001
-0.56729472 -0.35151568 0.08986061
-0.74565935 -0.13621198 0.11811486
-0.03379631 -0.25385970 0.00535338
-0.36766544 0.22896405 0.05823922
-0.37788185 0.18516108 0.05985748
-0.35894358 -0.43047550 0.05685713
-0.08026537 -0.68690360 0.01271414
-0.37735248 0.11088159 0.05977350
-0.48853481 -0.79707474 0.07738455
-0.58167922 -0.24694592 0.09213936
-0.24079981 0.38775796 0.03814329
-0.15688197 0.19172135 0.02485031
-0.37404794 -0.67418784 0.05924968
-0.03688444 -0.13860640 0.00584254
-0.43245718 0.02451547 0.06850224
-0.33051205 -0.41432083 0.05235354
-0.58116364 0.18027294 0.09205838
-0.36917931 0.20184585 0.05847898
-0.00050160 0.39829770 0.00007945
-0.58580154 -0.31944767 0.09279224
-0.28218311 -0.26714528 0.04469817
-0.02302613 -0.33486921 0.00364737
-0.60935378 0.00729412 0.09652358
-0.44055012 -0.33767730 0.06978371
-0.43560877 -0.18811508 0.06900112
-0.22019246 -0.78402001 0.03487877
-0.40711895 -0.03087674 0.06448844
-0.15999696 0.22446115 0.02534372
-0.13259768 0.21150798 0.02100365
-0.28246498 -0.70000678 0.04474282
-0.00414797 0.01345059 0.00065704
-0.28503209 -0.55550426 0.04514945
-0.05619753 0.04004763 0.00890176
-0.36992136 -0.33789757 0.05859602
-0.59888917 0.17190224 0.09486619
-0.31514758 0.25071663 0.04992015
-0.77320427 -0.49173981 0.12247769
-0.60599059 -0.70960838 0.09598969
-0.36446720 -0.50856251 0.05773207
-0.05041912 -0.14244618 0.00798645
-0.59727502 -0.52041781 0.09460936
-0.37114915 0.41933820 0.05879130
-0.01613111 0.48604685 0.00255519
-0.03403931 0.41560730 0.00539187
-0.54397959 -0.53581387 0.08616707
-0.08559134 -0.29034752 0.01355778
-0.14349540 -0.16141433 0.02272986
-0.28605357 0.34819433 0.04531166
-0.12897807 -0.35597864 0.02043029
-0.06680868 -0.06714247 0.01058258
-0.07749463 0.19453649 0.01227525
-0.25326675 -0.06076186 0.04011778
-0.27515966 0.01496199 0.04358564
-0.24083024 -0.31645748 0.03814782
-0.40411451 -0.14240384 0.06401234
-0.70579696 -0.64300174 0.11179967
-0.15825032 -0.18215416 0.02506706
-0.74964857 -0.26513278 0.11874658
-0.67658371 -0.60420567 0.10717215
-0.41746634 0.13300250 0.06612779
-0.08960187 -0.74556023 0.01419305
-0.08166641 0.22474527 0.01293606
-0.62584496 0.15762861 0.09913610
-0.52673149 0.02703625 0.08343580
-0.37011564 0.10482696 0.05862714
-0.65430033 -0.60657245 0.10364233
-0.34504092 -0.13703164 0.05465493
-0.27127478 0.40245625 0.04297071
-0.54712552 -0.15402859 0.08666602
-0.44272551 -0.39650521 0.07012829
-0.08907044 0.38739628 0.01410887
-0.24977826 -0.76922017 0.03956520
-0.08271355 0.62186837 0.01310197
-0.44119635 -0.25815585 0.06988610
-0.59118444 0.04898495 0.09364552
-0.53161156 -0.12349115 0.08420858
-0.10032126 -0.74200177 0.01589102
-0.03734099 -0.44230646 0.00591486
-0.17455445 -0.10929733 0.02764965
-0.07487575 0.52560395 0.01186042
-0.29322317 0.10389172 0.04644696
-0.58797443 -0.33523214 0.09313640
-0.31260335 -0.59043753 0.04951677
-0.12930864 -0.19715525 0.02048266
-0.50448352 0.19431166 0.07991187
-0.62169981 -0.78836912 0.09847806
-0.26366997 0.24257997 0.04176581
-0.43448636 -0.79942149 0.00000000
-0.43950984 -0.48169717 0.06961893
-0.34514609 -0.67612660 0.05467159
-0.73751462 -0.76990080 0.11682383
-0.73062998 -0.66230690 0.11573339
-0.71857578 -0.06110261 0.11382480
-0.77149153 -0.12721021 0.12220684
-0.68099248 -0.15186672 0.10787127
-0.03869187 -0.27328911 0.00612884
-0.09647906 -0.77532732 0.01528241
-0.40248454 0.07531479 0.06375450
-0.47081721 -0.18211032 0.07457833
-0.38808894 0.04978319 0.06147412
-0.15584454 -0.78230149 0.02468598
-0.48523647 -0.77319396 0.07686208
-0.00857837 0.23103011 0.00135883
-0.38288367 -0.28644535 0.06064927
-0.39349139 -0.40908712 0.06232955
-0.09242030 0.42209053 0.01463950
-0.78730851 -0.32370919 0.12471213
-0.24576087 -0.57004923 0.03892884
-0.25218153 -0.42519635 0.03994588
-0.45616594 0.24059060 0.07225819
-0.63687944 -0.49411887 0.10088296
-0.29803249 -0.38310096 0.04720873
-0.23835300 0.28319693 0.03775553
-0.78407770 -0.75169080 0.12419981
-0.16755587 0.11867616 0.02654107
-0.14747760 0.06066390 0.02336064
-0.32589635 -0.00118358 0.05162240
-0.51981372 -0.29668868 0.08233945
-0.21398269 -0.08027581 0.03389513
-0.53818566 0.25437367 0.08525057
-0.49182475 0.18015753 0.07790664
-0.00487301 0.74542642 0.00077189
-0.32416880 -0.78998691 0.05134876
-0.09167404 0.13163982 0.01452129
-0.20600668 -0.00904422 0.03263172
-0.43569109 -0.72414821 0.06901403
-0.58854729 -0.45415029 0.09322695
-0.46970227 -0.31023872 0.07440151
-0.23790206 -0.01410327 0.03768399
-0.50220329 -0.00431176 0.07955034
-0.10143270 0.57938063 0.01606712
-0.20442300 -0.08504817 0.03238087
-0.44583583 0.00351891 0.07062145
-0.06573644 -0.55148137 0.01041274
-0.74062169 -0.38404992 0.11731650
-0.55730790 -0.24541198 0.08827882
-0.39856634 0.01511769 0.06313373
-0.22947492 -0.58661002 0.03634912
-0.57823211 -0.25397334 0.09159330
-0.11562965 0.57351142 0.01831598
-0.03435356 0.28651071 0.00544165
-0.78525990 -0.16594416 0.12438781
-0.24588321 -0.28722990 0.03894822
-0.29453346 -0.40983537 0.04665448
-0.53832078 -0.55489922 0.08527071
-0.19002166 -0.02675706 0.03009968
-0.47739711 0.19357464 0.07562124
-0.11777167 -0.52304929 0.01865518
-0.46139309 0.32050869 0.07308633
-0.78173041 -0.66523165 0.12382808
-0.60559905 -0.10437894 0.09592862
-0.12326796 -0.31874126 0.01952580
-0.63844281 0.04670254 0.10113150
-0.39743736 -0.26873544 0.06295459
-0.30947408 -0.57982731 0.04902110
-0.76207995 -0.62206501 0.12071535
-0.76620013 -0.09141624 0.12136870
-0.20121183 0.45975262 0.03187246
-0.14246503 0.57491809 0.02256685
-0.01808888 0.52538449 0.00286530
-0.67175376 -0.34522790 0.10640748
-0.73989558 0.00024043 0.11720207
-0.01607310 0.16393195 0.00254600
-0.45373470 -0.11635048 0.07187248
-0.40707758 0.05262010 0.06448202
-0.07207668 0.20072819 0.01141704
-0.25388658 -0.59308529 0.04021596
-0.42184031 -0.06049420 0.06682033
-0.67231983 -0.62746447 0.10649669
-0.60911137 -0.34696597 0.09648459
-0.62304294 0.01756298 0.09869202
-0.13679770 0.65337002 0.02166924
-0.62171715 0.01519933 0.09848201
-0.67650878 -0.65827894 0.10716019
-0.20430642 0.04068558 0.03236240
-0.45592991 -0.10947930 0.07222023
-0.37759659 -0.76867396 0.05981179
-0.09427439 -0.70413852 0.01493319
-0.21329474 -0.69199741 0.03378616
-0.43209630 -0.74604326 0.06844461
-0.37013045 -0.58901447 0.05862914
-0.03431266 -0.77523184 0.00543517
-0.57330441 0.13704127 0.09081337
-0.41232592 -0.37148851 0.06531296
-0.43999881 0.27757132 0.06969729
-0.36904609 -0.44060010 0.05845738
-0.09395510 -0.40749365 0.01488261
-0.28688967 -0.18793377 0.04544369
-0.13001078 0.20853750 0.02059388
-0.67427582 -0.75393617 0.10680635
-0.28536233 -0.32919919 0.04520176
-0.07807003 -0.15203846 0.01236639
-0.23391737 -0.69894278 0.03705281
-0.03601785 0.39835680 0.00570527
-0.55761617 -0.62675643 0.08832713
-0.04641911 -0.00965202 0.00735285
-0.52077210 0.09299950 0.08249190
-0.06804010 -0.41159767 0.01077764
-0.17065470 -0.01562051 0.02703193
-0.69173622 -0.13593961 0.10957315
-0.51567388 -0.53775144 0.08168341
-0.60090458 -0.18012369 0.09518486
-0.12418448 -0.29480579 0.01967098
-0.01807788 0.67775398 0.00286356
-0.10687925 0.51225233 0.01692981
-0.00345921 0.68348455 0.00054794
-0.14028807 -0.61607200 0.02222181
-0.24410231 0.15283565 0.03866612
-0.70691234 -0.20179878 0.11197702
-0.66780573 -0.10674857 0.10578248
-0.49874210 -0.65014464 0.07900139
-0.34150419 -0.68969142 0.05409471
-0.74922389 -0.16783746 0.11867945
-0.24804430 0.37856358 0.03929084
-0.51354206 0.07602164 0.08134659
-0.32984611 0.28355986 0.05224852
-0.74498224 -0.40606749 0.11800722
-0.74031538 -0.71799052 0.11726756
-0.49802184 0.09015741 0.07888814
-0.22673772 0.24925494 0.03591555
-0.45354506 -0.69094342 0.07184213
-0.47149104 -0.09382242 0.07468522
-0.18449591 0.60147440 0.02922481
-0.72486472 -0.77289110 0.11481999
-0.30669215 -0.13735813 0.04858043
-0.47764918 -0.08604131 0.07566071
-0.03930004 -0.52064449 0.00622518
-0.65228444 -0.62061316 0.10332299
-0.55897188 0.17640552 0.08854309
-0.66652334 -0.54587442 0.10557862
-0.64679593 0.13189612 0.10245481
-0.02155134 -0.66401607 0.00341376
-0.13834839 -0.23025881 0.02191456
-0.10463897 0.24900462 0.01657495
-0.69457281 -0.79368097 0.11002149
-0.41532293 -0.23255342 0.06578769
-0.57976580 -0.23374932 0.09183628
-0.16334201 -0.07264032 0.02587359
-0.11645427 -0.20300232 0.01844651
-0.46495795 -0.37573570 0.07364994
-0.22953492 -0.39848670 0.03635863
-0.20931560 0.36679921 0.03315599
-0.69910759 -0.49345163 0.11074023
-0.63052410 0.01210912 0.09987707
-0.52851862 -0.57467949 0.08371803
-0.43457523 -0.53251755 0.06883728
-0.44417372 -0.44191846 0.07035769
-0.11211759 -0.05310161 0.01775957
-0.02802835 -0.39085945 0.00443973
-0.74049085 -0.34614778 0.11729582
-0.00689425 -0.03770502 0.00109206
-0.31522968 0.00548435 0.04993279
-0.50654531 -0.21157236 0.08023780
-0.44922140 -0.18072169 0.07115744
-0.05870481 -0.52235103 0.00929892
-0.60435009 -0.36246765 0.09573035
-0.27508831 -0.25708896 0.04357434
-0.49837983 -0.70159441 0.07894401
-0.30386618 -0.37154683 0.04813280
-0.39863557 0.13710706 0.06314490
-0.54076755 0.03936659 0.08565920
-0.53441137 -0.34467760 0.08465172
-0.19438407 -0.14942276 0.03079069
-0.16216908 -0.57191235 0.02568779
-0.51852041 -0.24574243 0.08213467
-0.03736206 0.59847134 0.00591820
-0.35436752 -0.38993779 0.05613227
-0.49880877 0.21221253 0.07901299
-0.27658033 -0.58615530 0.04381068
-0.54457504 -0.45541668 0.08626152
-0.05520699 0.56569046 0.00874486
-0.18084387 0.28164393 0.02864590
-0.00513650 -0.30169436 0.00081363
-0.20558813 0.12596266 0.03256543
-0.41077492 -0.59713030 0.06506728
-0.53502929 -0.56592453 0.08474933
-0.20036680 -0.14925164 0.03173836
-0.20608093 0.58840477 0.03264392
-0.06604993 -0.07890413 0.01046240
-0.21500584 -0.61751902 0.03405720
-0.70852387 -0.62515503 0.11223166
-0.22112428 0.41362360 0.03502662
-0.69253105 -0.48638526 0.10969848
-0.11234774 0.10326873 0.01779603
-0.05617105 0.27223477 0.00889757
-0.12673952 -0.28304005 0.02007570
-0.23766983 -0.63899738 0.03764721
-0.10191896 0.32284275 0.01614410
-0.01661118 0.20525034 0.00263123
-0.16957268 0.23969509 0.02686053
-0.60132426 -0.01195125 0.09525162
-0.37627563 -0.17838050 0.05960254
-0.10906246 0.61661434 0.01727577
-0.39631444 0.23473188 0.06277738
-0.36595196 -0.41029000 0.05796726
-0.65818548 -0.54254746 0.10425787
-0.31986448 0.00044274 0.05066695
-0.46914566 -0.76151383 0.07431328
-0.22220854 0.10239584 0.03519812
-0.57578796 -0.55802268 0.09120564
-0.59007066 -0.51095665 0.09346817
-0.01590261 -0.79510868 0.00251899
-0.43395829 0.28291285 0.06874045
-0.20515221 -0.25181305 0.03249638
-0.07698822 -0.63381165 0.01219503
-0.59739679 -0.27232257 0.09462906
-0.54377401 -0.62930959 0.08613450
-0.61143482 -0.05123435 0.09685312
-0.28779864 -0.48965603 0.04558768
-0.54960233 -0.27074394 0.08705816
-0.19779658 0.44248414 0.03133144
-0.41281101 0.31287265 0.06539066
-0.24772269 -0.00639739 0.03923959
-0.06370095 0.62831163 0.01009031
-0.53593218 -0.00529443 0.08489318
-0.76905638 -0.38970494 0.12182077
-0.28195295 0.07560743 0.04466171
-0.34057444 -0.07374280 0.05394743
-0.42483771 -0.30944377 0.06729484
-0.36089215 -0.73908257 0.05716579
-0.36967361 -0.12263283 0.05855678
-0.53556353 -0.23703130 0.08483440
-0.14740506 0.44488665 0.02334916
-0.75235319 -0.77274245 0.11917438
-0.21559261 0.50101155 0.03415052
-0.06958899 0.13717851 0.01102299
-0.24568842 -0.52971888 0.03891737
-0.10409394 0.64543408 0.01648878
-0.13453010 -0.27174890 0.02130974
-0.14050573 0.33592954 0.02225629
-0.38158071 -0.36532295 0.06044288
-0.21948153 -0.42048609 0.03476616
-0.08989355 0.57023132 0.01423925
-0.05097578 0.31884477 0.00807463
-0.41588271 0.04077540 0.06587678
-0.34155357 -0.28441000 0.05410253
-0.09704978 -0.76641428 0.01537281
-0.55642533 0.18472573 0.08813972
-0.79721081 -0.15521055 -0.00000161
-0.36941105 -0.59983581 0.05851519
-0.45863700 -0.40161467 0.07264869
-0.18456386 -0.55220127 0.02923515
-0.78393412 -0.25408149 0.12417768
-0.46199727 -0.44292897 0.07318096
-0.02172374 -0.71865004 0.00344107
-0.68314910 0.04563514 0.10821320
-0.27421811 -0.02643849 0.04343650
-0.51390344 -0.33972129 0.08140316
-0.71937418 -0.32815433 0.11395083
-0.62086469 -0.74971676 0.09834577
-0.69346058 -0.21614389 0.10984617
-0.51745600 -0.48664919 0.08196570
-0.11017693 0.54564422 0.01745219
-0.43026990 -0.74682975 0.06815531
-0.31733745 -0.77696657 0.05026666
-0.44630533 -0.47393045 0.07069534
-0.03205455 -0.74528474 0.00507748
-0.72000247 -0.43897897 0.11405019
-0.78778231 -0.28701311 -0.00000128
-0.31402573 0.14483288 0.04974227
-0.36942571 0.00834471 0.05851769
-0.65061188 -0.35740873 0.10305848
-0.00593402 0.11205857 0.00093996
-0.35586667 -0.12362444 0.05636974
-0.17237791 -0.38186419 0.02730488
-0.21644358 0.11081747 0.03428494
-0.67151672 -0.58760571 0.10636953
-0.64762229 -0.03696673 0.10258543
-0.68820268 -0.54093504 0.10901276
-0.61864650 -0.07845487 0.09799545
-0.79920399 -0.18189842 -0.00000155
-0.48077762 0.00784838 0.07615642
-0.62736499 0.04137621 0.09937670
-0.49809024 -0.66641116 0.07889814
-0.46162793 -0.50342774 0.07312246
-0.20542341 -0.49499276 0.03253933
-0.44290799 -0.63157797 0.07015720
-0.08197891 0.29756367 0.01298556
-0.48916277 -0.03682425 0.07748461
-0.04323983 -0.48365331 0.00684925
-0.18229067 0.38545257 0.02887513
-0.04157579 -0.16656071 0.00658566
-0.07614998 -0.75898492 0.01206225
-0.46470919 -0.72630107 0.07361053
-0.77055454 -0.07340088 0.12205850
-0.32978535 0.09705099 0.05223860
-0.70141500 -0.28033066 0.11110609
-0.26881853 0.51232564 0.04258181
-0.65424478 0.05372663 0.10363462
-0.06748892 0.27019352 0.01069033
-0.29080471 -0.18512571 0.04606384
-0.17589465 -0.43364024 0.02786194
-0.51830906 -0.19742966 0.08210127
-0.24378487 0.53088331 0.03861638
-0.15411738 -0.01426366 0.02441239
-0.41805360 0.27478942 0.06622105
-0.74652094 -0.73864985 0.11825055
-0.37193719 -0.66664803 0.05891533
-0.38344315 -0.15265076 0.06073789
-0.28759986 -0.28039679 0.04555619
-0.72778887 -0.17606319 0.11528402
-0.09003050 0.31897762 0.01426095
-0.79333752 -0.01128726 -0.00000195
-0.55772656 -0.47925642 0.08834475
-0.55786508 -0.42045540 0.08836679
-0.51906282 0.05084886 0.08222107
-0.69528580 -0.61000949 0.11013466
-0.04553031 -0.33411396 0.00721206
-0.08189661 0.11352122 0.01297253
-0.34277347 0.00335524 0.05429583
-0.68306738 -0.51804882 0.10819933
-0.41554916 -0.25978422 0.06582353
-0.17345478 0.15060541 0.02747546
-0.33239514 -0.63574117 0.05265182
-0.50380802 -0.66667426 0.07980384
-0.46630043 -0.74002898 0.07386259
-0.07669922 0.38518941 0.01214926
-0.42960447 0.27888075 0.06805077
-0.70623738 -0.35183215 0.11186985
-0.18582442 0.38518870 0.02943489
-0.42732030 0.01133287 0.06768851
-0.71393996 -0.14260741 0.11309033
-0.29923445 -0.30110574 0.04739912
-0.64848745 -0.66402006 0.10272145
-0.37472841 0.28537560 0.05935813
-0.16965377 -0.59823978 0.02687338
-0.35976714 0.29287827 0.05698819
-0.54144895 -0.31109473 0.08576657
-0.42151207 -0.30544505 0.06676806
-0.75356591 -0.77377093 0.11936648
-0.54131210 -0.36553231 0.08574479
-0.19445282 -0.05568910 0.03080158
-0.63938302 -0.23806748 0.10127996
-0.02859609 0.62145382 0.00452966
-0.41918972 -0.06987742 0.06640045
-0.70021319 -0.43612272 0.11091546
-0.54980642 -0.10819620 0.08709077
-0.24087588 -0.26707405 0.03815505
-0.58802164 -0.16819502 0.09314415
-0.10355550 -0.13095886 0.01640333
-0.33760473 -0.50919843 0.05347703
-0.10280958 -0.66788775 0.01628517
-0.19786096 -0.06109994 0.03134143
-0.08551610 0.08935964 0.01354586
-0.44195864 -0.33900329 0.07000682
-0.64651555 -0.58196372 0.10240922
-0.67524219 -0.79378921 0.10695937
-0.06627694 -0.34337971 0.01049835
-0.16870920 0.29099700 0.02672375
-0.51073778 0.00503853 0.08090227
-0.36539000 0.11914691 0.05787860
-0.52841353 -0.67327797 0.08370139
-0.79926783 -0.71656090 -0.00000021
-0.62846726 -0.19998232 0.09955091
-0.02071471 0.18476748 0.00328124
-0.51060760 -0.66122121 0.08088091
-0.26096213 -0.75011426 0.04133674
-0.05401574 -0.50335246 0.00855616
-0.76224267 -0.79919881 -0.00000000
-0.09325244 0.21946034 0.01477131
-0.01562293 -0.77387482 0.00247469
-0.46496132 -0.14362559 0.07365079
-0.32632944 0.43415311 0.05169172
-0.08332252 0.47592041 0.01319840
-0.01505522 -0.08645977 0.00238477
-0.49119347 -0.67974025 0.07780568
-0.35053149 -0.57168317 0.05552464
-0.33964708 0.44268721 0.05380132
-0.28221685 -0.44666541 0.04470352
-0.41508096 -0.22843228 0.06574936
-0.06832170 0.67958957 0.01082232
-0.69877011 -0.05054861 0.11068750
-0.22787690 0.17945497 0.03609600
-0.09917260 -0.31405342 0.01570907
-0.13372561 -0.27839190 0.02118231
-0.45567444 -0.15327264 0.07217968
-0.30561987 0.13439591 0.04841071
-0.50011939 -0.20484798 0.07921992
-0.17517003 -0.60038704 0.02774716
-0.09968637 0.09033468 0.01579045
-0.43420488 -0.00586151 0.06877903
-0.51204783 -0.56876343 0.08110904
-0.11637902 -0.04763957 0.01843459
-0.53195435 -0.47915465 0.08426230
-0.07007829 0.34726483 0.01110049
-0.43042207 -0.38410014 0.06817941
-0.43305215 -0.60546678 0.06859602
-0.59466416 0.16788995 0.09419692
-0.33964580 -0.08059031 0.05380033
-0.10610383 -0.60203481 0.01680698
-0.26971680 0.10170148 0.04272349
-0.04573363 -0.78833669 0.00724427
-0.36349198 -0.41134095 0.05757760
-0.10424341 0.06264921 0.01651229
-0.12088040 -0.54101282 0.01914761
-0.25723448 -0.10622492 0.04074627
-0.06425621 0.02884470 0.01017827
-0.18565817 0.30153143 0.02940849
-0.11064339 -0.47382051 0.01752606
-0.04318601 -0.53539580 0.00684072
-0.17804171 -0.14671189 0.02820204
-0.50807232 -0.38375649 0.08047941
-0.09731825 0.63475865 0.01541546
-0.50295132 -0.25849473 0.07966843
-0.50657523 -0.47273323 0.08024217
-0.46363056 -0.03904475 0.07344016
-0.12309550 0.65959448 0.01949875
-0.01870870 0.77394563 0.00296351
-0.12423702 0.29520783 0.01967930
-0.03871175 -0.78437048 0.00613199
-0.48836944 0.05829518 0.07735909
-0.07463969 0.29126793 0.01182302
-0.67332560 0.03615356 0.10665709
-0.05897890 -0.15838028 0.00934233
-0.06002094 -0.46014813 0.00950740
-0.61591858 0.11863205 0.09756365
-0.28938100 -0.10736389 0.04583832
-0.33691481 -0.34101704 0.05336774
-0.16941835 0.62830383 0.02683648
-0.60858303 0.10928303 0.09640165
-0.43687701 -0.54856223 0.06920188
-0.34534904 -0.18688141 0.05470374
-0.27217767 0.04680916 0.04311330
-0.72608697 -0.35414186 0.11501413
-0.25378358 0.38772380 0.04019999
-0.35822970 0.02381261 0.05674421
-0.33325750 -0.37220165 0.05278842
-0.25414595 -0.22041228 0.04025705
-0.30059719 -0.55079371 0.04761498
-0.09214311 -0.08465796 0.01459559
-0.78263092 -0.49221873 0.12397095
-0.16192193 -0.08702540 0.02564864
-0.75772792 -0.19686852 0.12002649
-0.51683849 -0.17859147 0.08186835
-0.42841086 -0.07274991 0.06786112
-0.33863425 -0.47499734 0.05364010
-0.31662029 0.08991458 0.05015317
-0.50722069 -0.51505286 0.08034442
-0.34453335 -0.02909906 0.05457455
-0.11807906 -0.39078179 0.01870388
-0.64110571 -0.76515013 0.10155197
-0.42200217 -0.24803817 0.06684569
-0.72224742 -0.06443123 0.11440641
-0.17261186 0.62106663 0.02734228
-0.05947908 0.27874124 0.00942156
-0.70930010 -0.27280861 0.11235514
-0.59820336 0.14402235 0.09475751
-0.13593271 0.40002024 0.02153192
-0.36752397 -0.77359498 0.05821627
-0.34786963 -0.43342224 0.05510300
-0.76995170 -0.66413665 0.12196224
-0.67685747 -0.67637932 0.10721539
-0.28108630 0.39670673 0.04452490
-0.55466920 -0.35486731 0.08786065
-0.18455444 -0.56215578 0.02923366
-0.28177854 -0.67110163 0.04463409
-0.21826573 0.55390912 0.03457405
-0.49447295 0.17112923 0.07832611
-0.06653442 -0.75782257 0.01053914
-0.06227064 -0.21603045 0.00986375
-0.22727892 -0.73260379 0.03600128
-0.59896016 0.10874051 0.09487734
-0.53739816 -0.59843016 0.08512456
-0.37189886 -0.68915069 0.05890926
-0.07501027 0.43362206 0.01188172
-0.49234256 -0.59250218 0.07798770
-0.26248348 0.18624499 0.04157777
-0.15375938 -0.28418112 0.02435568
-0.19364269 0.41574669 0.03067340
-0.56013882 -0.17116737 0.08872737
-0.62400424 -0.00126801 0.09884427
-0.14543438 0.12132930 0.02303699
-0.21596505 0.12917662 0.03420914
-0.01185865 -0.70085537 0.00187843
-0.42089668 0.30830815 0.06667146
-0.66007847 -0.62718695 0.10455759
-0.52927601 -0.60721862 0.08383801
-0.57438284 -0.42854843 0.09098327
-0.01511013 -0.49795318 0.00239346
-0.42944083 -0.14138009 0.06802416
-0.59250140 -0.21125399 0.09385370
-0.01566784 0.00051260 0.00248181
-0.21439897 -0.25322121 0.03396107
-0.77064043 -0.56633085 0.12207147
-0.07224124 -0.38224521 0.01144311
-0.01678457 -0.34388155 0.00265870
-0.62240517 0.00209351 0.09859097
-0.29270735 -0.28786206 0.04636523
-0.15692551 -0.28164995 0.02485720
-0.79425114 -0.07763580 -0.00000181
-0.47848457 -0.55229622 0.07579258
-0.12454977 0.34803119 0.01972885
-0.63459533 -0.73321652 0.10052075
-0.55662274 -0.66026396 0.08816976
-0.14829831 -0.54836076 0.02349064
-0.70171142 -0.16552457 0.11115323
-0.73272783 -0.01694654 0.11606664
-0.62591916 -0.11033804 0.09914743
-0.40381092 0.16025919 0.06396474
-0.41447225 0.06518654 0.06565340
-0.26466385 -0.61925018 0.04192309
-0.05774689 -0.19414389 0.00914718
-0.10613051 -0.44779921 0.01681121
-0.14808670 -0.47308174 0.02345712
-0.32402268 0.37452626 0.05132621
-0.78583896 -0.00089475 0.12447975
-0.09396187 0.63486910 0.01488379
-0.12930997 -0.78924346 0.02048287
-0.00645742 -0.17120931 0.00102286
-0.54438943 -0.16183104 0.08623259
-0.02504928 0.54527932 0.00396784
-0.06681188 0.70758837 0.01058321
-0.66827160 -0.12697200 0.10585625
-0.31160453 0.34705183 0.04935907
-0.51644319 -0.78017318 0.08180527
-0.10550132 -0.73035949 0.01671155
-0.08243980 -0.55403739 0.01305857
-0.35101148 0.17387557 0.05560105
-0.39226782 -0.34301847 0.06213573
-0.66586405 -0.00912563 0.10547508
-0.19801779 -0.50393838 0.03136627
-0.32431450 -0.09890267 0.05137184
-0.61194664 -0.24069020 0.09693388
-0.73200202 -0.55449897 0.11595087
-0.18263298 0.52988297 0.02892959
-0.71845716 0.01070002 0.11380613
-0.13435510 -0.68991470 0.02128202
-0.39155066 -0.73569924 0.06202213
-0.48072740 0.14710014 0.07614870
-0.47498435 0.10794892 0.07523891
-0.49948519 -0.45036173 0.07911910
-0.16518779 -0.00703581 0.02616596
-0.73560345 -0.37562186 0.11652159
-0.25353208 0.30510300 0.04016001
-0.28419375 0.39950892 0.04501714
-0.02010748 0.69194138 0.00318505
-0.04517363 -0.30657452 0.00715556
-0.55431604 -0.31885129 0.08780477
-0.08817942 0.57739264 0.01396773
-0.43390030 -0.07981677 0.06873066
-0.33437443 -0.73383564 0.05296534
-0.24438928 -0.16469817 0.03871158
-0.71793854 -0.68902093 0.11372294
-0.16506504 0.18868606 0.02614652
-0.01966367 0.53088939 0.00311475
-0.60103947 -0.29271024 0.09520604
-0.01174809 -0.19197793 0.00186091
-0.05777418 -0.47910202 0.00915150
-0.33587039 0.23353894 0.05320272
-0.22717898 -0.55203474 0.03598544
-0.07211806 0.54913551 0.01142359
-0.33398911 -0.34165379 0.05290431
-0.71233416 -0.68173945 0.11283516
-0.40427780 0.00010597 0.06403844
-0.72506535 -0.53586859 0.11485207
-0.51099467 -0.36691722 0.08094235
-0.07128980 0.14813931 0.01129240
-0.23087639 0.23739585 0.03657112
-0.28813708 -0.47301775 0.04564129
-0.60817432 0.03847852 0.09633679
-0.03561454 -0.25775713 0.00564139
-0.47592476 -0.27863932 0.07538724
-0.16686662 0.30390236 0.02643189
-0.02678038 0.72555691 0.00424205
-0.33484086 0.05078225 0.05303934
-0.62543863 0.03637312 0.09907155
-0.70364672 -0.79374069 -0.00000002
-0.37455386 -0.35108775 0.05932982
-0.45404676 -0.06794869 0.07192199
-0.22678071 -0.06285752 0.03592236
-0.57598066 0.12832868 0.09123729
-0.01868502 -0.74008775 0.00295973
-0.70764714 -0.79062080 0.11209257
-0.78677356 -0.19129395 0.12462754
-0.33581424 0.36467469 0.05319404
-0.78228074 -0.77702940 0.12391512
-0.66815144 -0.59902430 0.10583643
-0.03867788 -0.20290107 0.00612663
-0.04958165 0.19164059 0.00785380
-0.76230007 0.02345458 0.12075111
-0.10914998 0.23087513 0.01728950
-0.04484191 -0.68396735 0.00710302
-0.01736791 0.19165656 0.00275110
-0.29406929 -0.39035019 0.04658096
-0.18240023 -0.75384861 0.02889243
-0.42396399 0.00180974 0.06715683
-0.60584944 -0.21244575 0.09596810
-0.16306606 -0.71221918 0.02582988
-0.55929035 -0.44183344 0.08859252
-0.26611844 -0.13202171 0.04215351
-0.42959273 -0.09162481 0.06804831
-0.46160543 -0.66941142 0.07311890
-0.68820649 -0.74419093 0.10901309
-0.64526856 -0.38079852 0.10221203
-0.09930929 0.18353064 0.01573072
-0.37554008 0.00992334 0.05948625
-0.38674784 -0.01832722 0.06126157
-0.19041009 -0.24259417 0.03016120
-0.07937468 0.24786364 0.01257305
-0.78690010 -0.12700732 -0.00000168
-0.75210315 0.03151959 0.11913587
-0.43200886 -0.62755573 0.06843076
-0.63486457 -0.66451716 0.10056351
-0.24501713 -0.69909912 0.03881103
-0.15866305 0.51338166 0.02513260
-0.61069077 -0.24460417 0.09673494
-0.77707064 -0.68533802 0.12308991
-0.55334544 0.19484989 0.08765186
-0.23594967 0.17145117 0.03737473
-0.60884923 -0.76787907 0.09644251
-0.60268211 -0.27147701 0.09546629
-0.72065282 -0.69125736 0.11415289
-0.21176067 0.11280644 0.03354316
-0.04143874 -0.21950588 0.00656395
-0.14663088 -0.06611379 0.02322652
-0.13837467 0.31070656 0.02191873
-0.74227440 -0.17404433 0.11757860
-0.37895569 -0.34738183 0.06002707
-0.00925371 0.45989177 0.00146580
-0.09313446 -0.14930379 0.01475262
-0.19415075 -0.20435575 0.03075373
-0.48607898 0.16118284 0.07699644
-0.58727026 -0.66467196 0.09302437
-0.24978325 -0.34239739 0.03956599
-0.25428230 -0.29712582 0.04027864
-0.02130640 -0.52991748 0.00337496
-0.31203079 -0.10219569 0.04942608
-0.15772597 0.52250218 0.02498418
-0.62118888 -0.17983428 0.09839800
-0.70608163 -0.67619300 0.11184472
-0.73604637 -0.76577652 0.11659126
-0.24575277 -0.37352535 0.03892756
-0.37937155 -0.56609011 0.06009294
-0.53509587 -0.08527211 0.08476057
-0.28008279 -0.77500176 0.04436548
-0.32316422 -0.49389169 0.05118963
-0.02889980 -0.54761159 0.00457777
-0.21854010 -0.52966273 0.03461703
-0.24263696 0.02926843 0.03843401
-0.78657329 -0.65779376 -0.00000036
-0.22644342 -0.03937697 0.03586893
-0.52085203 -0.19156106 0.08250410
-0.08978600 0.57345277 0.01422222
-0.12566341 0.43189806 0.01990525
-0.50760424 -0.60815078 0.08040517
-0.24501385 0.20597985 0.03881052
-0.65823805 -0.68518019 0.10426596
-0.06620676 0.25025216 0.01048724
-0.13856459 0.32670230 0.02194881
-0.68131071 -0.30647236 0.10792142
-0.66921824 -0.47572893 0.10600562
-0.54341292 0.11202424 0.08607836
-0.57557291 -0.34743711 0.09117192
-0.71126628 0.02915582 0.11266709
-0.76955128 -0.72601712 0.12189874
-0.52635330 -0.55902618 0.08337504
-0.45537618 0.02002427 0.07213272
-0.46029082 -0.15246277 0.07291095
-0.07375525 0.00839104 0.01168293
-0.27541569 -0.08598131 0.04362620
-0.64167446 -0.69723934 0.10164218
-0.62213171 -0.52723712 0.09854678
-0.15412509 -0.36591300 0.02441361
-0.14807609 -0.50286305 0.02345544
-0.34411535 0.21421269 0.05450874
-0.18644933 -0.01126236 0.02953382
-0.02715439 -0.05812376 0.00430129
-0.34173962 -0.55900180 0.05413200
-0.06283224 0.22463956 0.00995271
-0.75671422 -0.02651488 0.11986619
-0.33638209 0.45001087 0.05328413
-0.05928034 0.73608571 0.00939022
-0.27322572 -0.77396899 0.04327931
-0.08714969 0.04191652 0.01380462
-0.51205862 -0.07759390 0.08111136
-0.05892191 0.49036744 0.00933331
-0.17461737 0.35689774 0.02765962
-0.49607694 -0.71176130 0.07857923
-0.54175735 -0.08178623 0.08581579
-0.52046376 0.17567945 0.08244320
-0.42755789 0.36370155 0.06772667
-0.29588693 -0.75508803 0.04686887
-0.36180276 0.26106381 0.05731059
-0.00719140 0.62388879 0.00113913
-0.12326430 0.09761033 0.01952523
-0.68292350 -0.63304359 0.10817635
-0.33344311 -0.10072644 0.05281782
-0.28276002 -0.64574146 0.04478955
-0.65393895 0.08112686 0.10358622
-0.12929370 0.07907618 0.02048029
-0.02132677 -0.42422533 0.00337819
-0.55535889 0.16001888 0.08797075
-0.52355808 -0.42208058 0.08293237
-0.35779870 0.33642721 0.05667645
-0.71792674 -0.34123358 0.11372153
-0.50809872 -0.59338307 0.08048350
-0.09286737 0.11426867 0.01471031
-0.70696199 -0.53841472 0.11198435
-0.54802376 -0.11588551 0.08680837
-0.69612700 -0.19262968 0.11026858
-0.10887296 -0.67887926 0.01724562
-0.56970137 0.04270040 0.09024248
-0.54267377 0.08449748 0.08596123
-0.74312681 -0.79761660 -0.00000001
-0.30648616 -0.71548694 0.04854780
-0.19305617 0.28120148 0.03058034
-0.48609701 -0.23211853 0.07699865
-0.46271393 -0.18343149 0.07329473
-0.56563628 -0.32838345 0.08959794
-0.53437275 -0.16036768 0.08464590
-0.02227467 0.26567885 0.00352834
-0.18037088 -0.54398304 0.02857098
