ply
format ascii 1.0
element vertex 1367
property float x
property float y
property float z
end_header
-0.26818466 0.22490576 -0.00388547
-0.67632538 0.01697543 -0.04570202
-0.08937744 -0.41212389 0.00000183
-0.72517353 -0.16903692 -0.04204140
-0.04761691 0.49534196 0.00000819
-0.22742343 -0.59950757 0.00000122
-0.61976457 -0.02575958 -0.03605969
-0.28970370 -0.68181640 0.00000095
-0.68983847 -0.12548296 -0.03979553
-0.53836185 -0.61185658 0.00000164
-0.60231495 -0.31468359 -0.01825443
-0.57975006 -0.29532924 -0.01636525
-0.37807795 -0.29177335 0.00000279
-0.31324762 -0.62863433 0.00000122
-0.61164135 -0.08642253 -0.03174219
-0.59302127 -0.31633657 -0.01695871
-0.29940757 0.32861105 -0.01351846
-0.21567008 -0.36836493 0.00000221
-0.02012938 -0.61828452 0.00000083
-0.31535098 0.03867517 0.08593505
-0.55811924 -0.54743224 0.12239843
-0.39465827 -0.63742840 0.00000131
-0.26053834 -0.07560414 0.00000356
-0.04765127 0.23126878 0.00000984
-0.28057510 0.22848387 -0.00568696
-0.34713030 -0.59532523 0.00000142
-0.01203529 0.16256592 0.00001080
-0.29617190 -0.67254663 0.00000100
-0.42887339 0.21349488 -0.02413875
-0.30835459 -0.65834802 0.00000108
-0.03895889 0.59577310 0.00000769
-0.64091706 0.01103582 -0.04078438
-0.60878515 -0.27457836 -0.02125160
-0.57549649 0.15402305 -0.03998023
-0.38343918 -0.12572391 0.29281741
-0.25424063 0.23095360 -0.00240001
-0.53349525 0.23057912 -0.03864394
-0.08954062 0.58381510 0.09532506
-0.21360584 -0.74675530 0.00000056
-0.03675541 0.75491774 -0.00234177
-0.73264349 -0.35288143 -0.03312357
-0.47584239 -0.51065332 0.00000198
-0.67332166 -0.82555026 0.09863328
-0.65235424 -0.77493107 0.00022521
-0.33887121 -0.34281561 0.00000251
-0.69174695 -0.58399588 -0.01538287
-0.00563497 0.48030251 0.00000891
-0.30792159 -0.31033799 0.00000261
-0.27930912 -0.16740499 0.00000319
-0.38465342 -0.12865274 0.33672342
-0.21196461 0.28825611 0.19906677
-0.33280671 -0.10365643 0.00000355
-0.10516165 0.54610890 0.03212011
-0.63228685 -0.72648591 0.15222169
-0.53544539 0.20930277 -0.03775272
-0.30599204 -0.15595464 0.00000328
-0.42626643 -0.22911885 0.32386211
-0.40736905 0.23548695 -0.02252916
-0.16310795 0.08887481 0.00000898
-0.36464220 0.27383679 -0.01904350
-0.36893141 0.30389446 -0.02121732
-0.05147719 0.67571223 0.02246071
-0.35311732 -0.05251180 0.24242176
-0.12165472 -0.78347600 0.00000026
-0.44934800 -0.28484139 0.28862557
-0.42384031 -0.37950689 0.00000248
-0.72764844 0.03243161 -0.05319823
-0.00641525 0.78813833 -0.00018869
-0.37544006 -0.34293026 0.00000257
-0.42659077 -0.22990085 0.29331398
-0.55153298 0.11894740 -0.03498158
-0.43307075 -0.24554133 0.18721107
-0.17053683 -0.08295712 0.00000339
-0.67078197 0.06538117 -0.04758592
-0.20729302 -0.43649662 0.00000190
-0.21757340 0.30581337 -0.00166515
-0.04960345 0.12027394 0.00001050
-0.51815796 -0.45096129 0.25550327
-0.37996146 -0.32956392 0.00000263
-0.52023143 -0.34895438 -0.00575242
-0.19726779 0.32373828 0.17776366
-0.12645458 0.49470636 0.01050427
-0.59984350 -0.64816272 0.18041757
-0.17772181 0.41068494 -0.00213113
-0.35428044 0.15381072 -0.01124164
-0.36880061 -0.63529539 0.00000128
-0.38413715 -0.12740237 0.09574779
-0.08484230 -0.65938252 0.00000074
-0.07735559 0.16248988 0.00000982
-0.44563192 0.11984797 -0.02127769
-0.37660167 0.25153181 -0.01939676
-0.04568034 -0.06698334 0.00000328
-0.21979816 0.32152951 -0.00279944
-0.52630883 0.23777077 -0.03809756
-0.73192090 -0.12771033 -0.04514026
-0.27047017 -0.06216306 0.00000364
-0.61360723 -0.47945219 -0.01085891
-0.27139032 0.14478745 0.26893318
-0.23556125 0.38893825 -0.00847240
-0.22249493 -0.38747185 0.00000214
-0.18639046 0.35000721 0.06678260
-0.15683877 -0.24111617 0.00000268
-0.38303953 -0.21906570 0.00000312
-0.19573769 0.32744554 0.01972223
-0.47017798 -0.33512855 0.26593760
-0.21024546 -0.49277136 0.00000166
-0.24351987 -0.77927500 0.00000046
-0.14157569 0.12110542 0.00000911
-0.35440481 -0.01298231 -0.00228910
-0.11898540 0.53330278 -0.00109930
-0.63396591 0.13643849 -0.04662720
-0.69148076 0.02294170 -0.04799102
-0.39885378 -0.16294098 0.38196602
-0.02719709 0.24134463 0.00001008
-0.44323480 0.29121369 -0.03018427
-0.59384829 -0.50559741 -0.00688697
-0.24845596 0.20016038 0.19932123
-0.15014583 0.53129476 -0.00503779
-0.13347264 -0.06093713 0.00000343
-0.31037739 -0.22716397 0.00000297
-0.11546914 -0.22694442 0.00000268
-0.22685876 -0.55000716 0.00000144
-0.37776342 -0.11201973 0.24086967
-0.19173141 0.33710566 0.15743159
-0.66666347 -0.62305868 -0.01002475
-0.78968537 -0.75936228 -0.01866767
-0.24124511 -0.08326317 0.00000350
-0.36508375 -0.45080674 0.00000208
-0.15714061 0.42062560 0.01010615
-0.10996195 0.53452271 0.00294155
-0.58343011 -0.52874112 -0.00428938
-0.30365312 0.06690654 0.19259126
-0.17137983 -0.44873315 0.00000180
-0.26204336 -0.43723232 0.00000198
-0.31953052 0.02858288 0.11248389
-0.10072421 0.04077776 0.00001023
-0.61570716 -0.46977687 -0.01165197
-0.21316202 0.28537244 0.11564506
-0.62517136 -0.75769627 0.00000113
-0.03356894 -0.66704261 0.00000063
-0.14319034 0.00040929 0.00000984
-0.00240275 -0.40324345 0.00000174
-0.75470519 -0.21486926 -0.04341115
-0.30156359 0.07195601 0.13358760
-0.28088900 0.22697189 -0.00564640
-0.08587061 -0.29708588 0.00000233
-0.17286284 -0.58334917 0.00000121
-0.21989134 -0.04686230 0.00000363
-0.64769644 -0.76368701 0.11811357
-0.75558853 -0.12975948 -0.04810337
-0.30060786 -0.37867630 0.00000230
-0.14851823 0.58531302 -0.00773211
-0.28380096 0.24507558 -0.00699835
-0.45691195 -0.41130441 0.00000239
-0.02097945 -0.68765467 0.00000052
-0.00592057 -0.28759113 0.00000225
-0.76714289 -0.15000062 -0.04851510
-0.17777719 0.54095864 -0.00914583
-0.01183304 -0.11040806 0.00000303
-0.31927532 -0.40556872 0.00000221
-0.25115031 -0.36581579 0.00000228
-0.51956600 -0.45435676 0.12390841
-0.40035048 -0.16654740 0.17555048
-0.56748217 0.08273425 -0.03510482
-0.38837519 0.19828881 -0.01806170
-0.44258299 0.00033491 -0.01445306
-0.24189427 0.06263611 0.00000796
-0.08812548 0.51948661 0.00000742
-0.07260501 0.65570086 -0.00166021
-0.28645465 0.10841781 0.29279169
-0.38256380 -0.12361026 0.28293714
-0.20927410 0.35448158 -0.00320530
-0.15445483 -0.68760061 0.00000072
-0.37338349 0.12058253 -0.01193500
-0.55626434 -0.26408461 -0.01499600
-0.59276271 -0.60956895 -0.00115404
-0.15379858 0.42868531 0.11024663
-0.45111966 -0.28911144 0.07584504
-0.01122958 -0.04763051 0.00000331
-0.46458480 -0.24287592 -0.00423181
-0.21199861 -0.08729862 0.00000344
-0.01748260 0.14494526 0.00001083
-0.63616830 -0.00087380 -0.03952708
-0.14171568 0.15205161 0.00000891
-0.18091124 0.38640022 -0.00123902
-0.14719734 -0.42931786 0.00000184
-0.20711768 0.29996607 0.09605378
-0.33973771 0.33493164 -0.01909573
-0.61432338 -0.68311805 0.04196089
-0.31465498 -0.65362376 0.00000112
-0.42898753 0.29872695 -0.02873826
-0.11907041 0.06991517 0.00000977
-0.12056361 -0.21465081 0.00000274
-0.57531220 -0.16987573 -0.02253632
-0.06236711 -0.05543596 0.00000335
-0.48355263 0.21217340 -0.03116833
-0.00379910 0.19899082 0.00001070
-0.54923081 0.12550905 -0.03503558
-0.35424605 0.27705497 -0.01786656
-0.01107696 -0.17724130 0.00000266
-0.53508937 0.13620910 -0.03377473
-0.69039321 -0.28321084 -0.03138439
-0.15750530 0.20607965 0.00000834
-0.30672795 0.05948904 0.12659337
-0.32178009 0.02314745 0.16714524
-0.45215744 -0.21969876 -0.00386463
-0.09476128 0.23831539 0.00000908
-0.48457959 -0.71203500 0.00000112
-0.30646372 -0.04369968 0.00000377
-0.72085011 -0.50633079 -0.02333904
-0.27119437 0.14526632 0.19987896
-0.45389760 -0.29114223 -0.00024811
-0.47576642 -0.26362038 -0.00456806
-0.01742432 -0.75221664 0.00000024
-0.53053564 -0.42713952 -0.00288537
-0.09803714 -0.68811780 0.00000064
-0.50535780 -0.10394608 -0.01699846
-0.01155680 -0.63329512 0.00000066
-0.39986515 -0.51150769 0.00000187
-0.59542131 -0.79163289 0.00000094
-0.00351330 -0.49126881 0.00000133
-0.33608913 -0.01138801 0.06339958
-0.09864925 -0.48162621 0.00000154
-0.52781034 -0.47425815 0.05999296
-0.46405429 0.00489166 -0.01748644
-0.73864895 -0.19976120 -0.04213877
-0.19155179 0.44622993 -0.00583908
-0.64048553 -0.72538793 -0.00112183
-0.26454526 0.45925614 -0.01601872
-0.13402592 -0.50292885 0.00000150
-0.76656622 -0.07328790 -0.05256610
-0.54826868 0.12922689 -0.03511062
-0.29747844 0.08181283 0.19696864
-0.39809817 0.19970293 -0.01940040
-0.42994735 -0.23800465 0.30231312
-0.74310517 -0.62076819 -0.02007373
-0.05930593 -0.29565567 0.00000230
-0.34467110 -0.03212939 0.33760086
-0.25222203 -0.40997121 0.00000209
-0.10437569 0.66284519 -0.00617025
-0.75030762 0.04405355 -0.05676591
-0.50343680 -0.62696952 0.00000152
-0.74266243 -0.16991974 -0.04426491
-0.31941980 0.29520988 -0.01432058
-0.00633155 -0.25667182 0.00000239
-0.24609542 0.34506652 -0.00748048
-0.43248183 -0.02246289 -0.01191775
-0.54485595 0.09948171 -0.03306743
-0.12222698 -0.73606807 0.00000046
-0.60782254 0.17138571 -0.04511205
-0.08383413 -0.23304828 0.00000261
-0.01077486 0.39452019 0.00000937
-0.38050115 -0.11862790 0.20326898
-0.57374549 -0.04237729 -0.02919021
-0.05410237 0.22706270 0.00000976
-0.51184821 0.17902011 -0.03305946
-0.49722987 -0.40043771 0.31506222
-0.30761260 0.05735082 0.15672401
-0.34103876 0.45126387 -0.02552231
-0.78104746 -0.58693743 -0.02681994
-0.45955077 -0.79356766 0.00000072
-0.50190449 -0.11438265 -0.01598872
-0.08280773 -0.58360636 0.00000107
-0.36214450 -0.07431002 0.16996966
-0.00019574 -0.78312427 0.00000007
-0.14841847 -0.75855690 0.00000041
-0.53087783 -0.27239272 -0.01125265
-0.14576751 0.44808024 0.03110419
-0.63124806 -0.30577269 -0.02249074
-0.00511743 -0.21376276 0.00000257
-0.10426443 -0.16453966 0.00000294
-0.13287832 -0.19056092 0.00000287
-0.50706637 0.23792283 -0.03560691
-0.19225089 -0.38159683 0.00000212
-0.47334799 -0.74960035 0.00000093
-0.32270822 0.23312411 -0.01140798
-0.69766968 0.02293124 -0.04879416
-0.08942720 0.30887341 0.00000872
-0.08869066 -0.10021291 0.00000320
-0.59599471 -0.63886851 0.03286701
-0.57381332 0.05131856 -0.03423711
-0.40987554 0.19146994 -0.02048695
-0.17263392 -0.79981184 0.00000026
-0.28186995 -0.46543166 0.00000189
-0.78626531 -0.16301718 -0.05029799
-0.36699164 -0.08601068 0.29164127
-0.01692018 -0.02709036 0.00000341
-0.74647278 -0.56774086 -0.02336307
-0.03851512 -0.57911199 0.00000102
-0.00321497 0.56485081 0.00000842
-0.21699235 0.27612919 0.07119169
-0.29852423 -0.30134216 0.00000263
-0.58375436 0.13965058 -0.04027950
-0.03225360 -0.51011795 0.00000132
-0.21599934 -0.44169763 0.00000189
-0.05747529 0.51144356 0.00000794
-0.30560544 0.21542458 -0.00823494
-0.64145440 -0.63070881 -0.00633982
-0.12820403 0.62233049 -0.00708530
-0.36626983 -0.55670863 0.00000162
-0.38877818 -0.40373567 0.00000232
-0.33625901 -0.01180124 0.10045476
-0.28658175 -0.19678509 0.00000307
-0.27520359 0.43022501 -0.01584121
-0.37230676 -0.36319858 0.00000247
-0.42584911 0.08277460 -0.01671449
-0.39104542 -0.14408301 0.17525151
-0.78899300 -0.02439844 -0.05810774
-0.00831082 0.48078939 0.00000887
-0.43849039 -0.25862902 0.29361627
-0.35099897 0.14429463 -0.01030363
-0.14522615 0.31611320 0.00000783
-0.44932374 -0.26768470 -0.00091580
-0.40039489 -0.60908556 0.00000144
-0.41953269 -0.40197650 0.00000237
-0.56207162 -0.34266049 -0.01152400
-0.14373337 0.02933725 0.00000965
-0.25158432 0.07709176 0.00000772
-0.50852060 -0.26091897 -0.00896659
-0.32050905 -0.37116647 0.00000236
-0.72151148 -0.22262967 -0.03868347
-0.02165417 -0.66702753 0.00000061
-0.49409565 -0.39286715 0.15724218
-0.42537671 -0.22697170 0.34778434
-0.66718739 -0.50552893 -0.01641397
-0.49359697 0.10665366 -0.02679671
-0.47958612 -0.06246009 -0.01588319
-0.58864087 -0.03554187 -0.03149206
-0.11082524 -0.74617523 0.00000040
-0.44577631 0.05383717 -0.01774567
-0.26889855 -0.23982798 0.00000286
-0.43820092 -0.39002028 0.00000245
-0.51371747 -0.13926180 -0.01618458
-0.29579589 -0.52338028 0.00000166
-0.13240521 -0.48520091 0.00000158
-0.47142208 0.06286559 -0.02156168
-0.22926383 0.24649438 0.18431476
-0.23850009 0.25149080 -0.00146065
-0.35803977 -0.32100558 0.00000264
-0.15564369 0.04108041 0.00000939
-0.49266723 -0.60802650 0.00000158
-0.16477934 0.06851121 0.00000909
-0.03794753 -0.33719999 0.00000208
-0.60251391 -0.40278259 -0.01354198
-0.20989521 -0.27494150 0.00000261
-0.37314403 -0.10086759 0.33995312
-0.68972230 -0.28514263 -0.03119336
-0.65077573 -0.27380127 -0.02674601
-0.39105356 -0.36226264 0.00000251
-0.45159161 0.05683189 -0.01866194
-0.51907915 0.07443012 -0.02837251
-0.42452204 -0.22490022 0.10491270
-0.16588886 -0.59410661 0.00000115
-0.08364020 0.24315697 0.00000922
-0.20527875 -0.34800076 0.00000229
-0.52782649 -0.33219796 -0.00763988
-0.24998489 -0.58706248 0.00000131
-0.16373920 0.43008500 -0.00135889
-0.11473813 -0.67680430 0.00000071
-0.04956456 0.20197520 0.00000999
-0.22363967 -0.48579490 0.00000171
-0.30445901 -0.34711790 0.00000244
-0.13578762 0.50160831 -0.00157637
-0.40577304 -0.33590677 0.00000264
-0.05860905 -0.24126057 0.00000253
-0.20947056 0.10144564 0.00000821
-0.19429658 -0.58112806 0.00000125
-0.35121635 -0.44913220 0.00000206
-0.33738202 -0.67820275 0.00000104
-0.15511148 -0.13384110 0.00000315
-0.01426996 0.59731829 0.00000805
-0.76524049 -0.40496519 -0.03455486
-0.08153226 0.30268675 0.00000888
-0.25312352 0.37927690 -0.01023336
-0.76425695 -0.49160978 -0.02976698
-0.00336614 -0.67066914 0.00000057
-0.37847686 -0.39623779 0.00000234
-0.27815488 -0.49149632 0.00000177
-0.41176131 -0.02819949 -0.00891859
-0.03266759 -0.65944016 0.00000066
-0.29438636 0.08928890 0.06338004
-0.68889731 0.06213198 -0.04976360
-0.49533132 0.16072632 -0.02993054
-0.68971336 -0.64928335 -0.01160739
-0.46076551 0.05946455 -0.01999487
-0.20403561 0.06737463 0.00000850
-0.36049989 -0.20559262 0.00000314
-0.26482141 0.16064616 0.26440585
-0.66108888 0.13415910 -0.05002678
-0.60048747 -0.15601566 -0.02655086
-0.26175520 -0.06024534 0.00000363
-0.09069965 0.16720895 0.00000959
-0.59823531 -0.05847099 -0.03150471
-0.29088295 -0.63435435 0.00000116
-0.19425799 -0.30162513 0.00000247
-0.18235619 0.19219625 0.00000805
-0.22036453 0.28252167 -0.00077473
-0.76726693 -0.02791841 -0.05509722
-0.10131698 -0.22600877 0.00000266
-0.22417419 -0.56438231 0.00000137
-0.30044821 0.20444170 -0.00697445
-0.23164497 0.27489221 -0.00182922
-0.58972865 -0.62374377 0.11682618
-0.40797389 -0.33700675 0.00000264
-0.70000535 -0.05256499 -0.04503752
-0.57868934 -0.12892075 -0.02517756
-0.72193933 -0.31201848 -0.03393137
-0.04862038 -0.47814146 0.00000148
-0.11610061 0.27001983 0.00000856
-0.26173499 -0.21794525 0.00000294
-0.63929373 0.00328327 -0.04015656
-0.04196685 -0.67796421 0.00000060
-0.39304966 0.39797190 -0.02940981
-0.51506013 -0.38337889 -0.00322943
-0.72332156 -0.69904447 -0.01329485
-0.29115084 -0.07620256 0.00000361
-0.38433748 -0.49696860 0.00000191
-0.06576929 0.31390196 0.00000905
-0.78617728 -0.74398607 -0.01903917
-0.30141288 -0.48871383 0.00000182
-0.49192867 -0.38763195 0.04886044
-0.36748081 0.17720357 -0.01421416
-0.18024021 -0.41153523 0.00000197
-0.43718466 -0.00965971 -0.01321702
-0.12311600 0.50276482 0.02661975
-0.36340892 -0.27722532 0.00000284
-0.62173796 -0.16566405 -0.02879137
-0.35020930 -0.47028974 0.00000197
-0.47291765 -0.07692468 -0.01423931
-0.07978202 0.65397280 -0.00249926
-0.18319626 -0.79749131 0.00000029
-0.69128293 -0.27380466 -0.03200581
-0.28910303 -0.10532819 0.00000348
-0.38124853 0.10985041 -0.01237907
-0.10198654 -0.10286203 0.00000320
-0.24013671 0.22024685 0.16949517
-0.00219703 0.62257266 0.00000808
-0.11053221 0.33847332 0.00000822
-0.68584841 -0.64381248 -0.01139977
-0.18055969 -0.51918912 0.00000150
-0.33350527 -0.61466932 0.00000131
-0.55270088 0.13869622 -0.03619555
-0.24713928 -0.72689950 0.00000069
-0.49001950 -0.02722076 -0.01913330
-0.22092144 -0.66005564 0.00000095
-0.57649678 -0.08588286 -0.02720758
-0.09955679 -0.10207555 0.00000320
-0.17706081 0.28157905 0.00000757
-0.43777564 0.24324401 -0.02689503
-0.48781499 -0.30299047 -0.00401514
-0.24454542 -0.59710944 0.00000126
-0.65893763 -0.04943858 -0.03987289
-0.49490070 0.29609606 -0.03715625
-0.11893769 -0.52414453 0.00000139
-0.70034850 -0.20549519 -0.03685693
-0.67249119 -0.45523456 -0.01980769
-0.21907455 0.29685554 -0.00137825
-0.14751771 0.47978428 -0.00192572
-0.67695969 0.08893056 -0.04965490
-0.01765296 0.33129829 0.00000966
-0.76318437 -0.46979958 -0.03080076
-0.33157748 -0.27104715 0.00000281
-0.79157567 -0.44901729 -0.03560501
-0.02477965 0.01605832 0.00001153
-0.17764533 0.58861411 -0.01169212
-0.05303981 0.33011544 0.00000914
-0.33955491 -0.01977079 0.25127795
-0.70352268 -0.24161176 -0.03532664
-0.53522462 -0.72779000 0.00000112
-0.44644597 -0.01092979 -0.01435133
-0.51562041 -0.27025115 -0.00938660
-0.76243520 -0.49060518 -0.02958445
-0.44119135 -0.26514828 0.25145862
-0.19041400 -0.57888991 0.00000125
-0.53532809 -0.18585365 -0.01648491
-0.39358765 -0.15021968 0.15105090
-0.46966699 -0.05784861 -0.01484319
-0.39235246 0.21443604 -0.01944676
-0.07960958 -0.20196716 0.00000274
-0.07155226 -0.13094072 0.00000304
-0.45319101 0.28085688 -0.03092009
-0.00685588 0.16388208 0.00001087
-0.65783501 -0.40454432 -0.02063085
-0.03936093 0.40481257 0.00000888
-0.34655491 -0.03666177 0.15563296
-0.19498768 0.32924175 0.19016580
-0.49994561 -0.22582752 -0.00974045
-0.12084930 -0.61587310 0.00000099
-0.63412344 -0.38754329 -0.01846620
-0.56479752 -0.31230971 -0.01351035
-0.31966740 0.34952798 -0.01727454
-0.21568500 0.28679171 -0.00039674
-0.36995864 0.16947189 -0.01412004
-0.24778193 -0.17985092 0.00000309
-0.02928815 -0.77758974 0.00000014
-0.39644837 -0.26810262 0.00000293
-0.40524334 -0.17836243 0.25476807
-0.40415621 -0.17572968 0.01062846
-0.29562014 -0.42073458 0.00000211
-0.26626411 -0.05449686 0.00000366
-0.35555640 -0.44549102 0.00000209
-0.03058895 0.06663261 0.00001112
-0.00133355 -0.07513431 0.00000316
-0.00449488 0.38294372 0.00000954
-0.18777032 -0.08655499 0.00000340
-0.47558588 -0.34817857 0.09346350
-0.39975244 -0.16511133 0.40632895
-0.23582876 -0.36536565 0.00000226
-0.65975124 0.06045536 -0.04588851
-0.46280298 -0.31732363 0.26204050
-0.12826680 -0.00862300 0.00000366
-0.31598601 0.03714614 0.03846654
-0.25078365 0.19453631 0.25425979
-0.46041423 -0.51819080 0.00000193
-0.37323514 -0.10108647 0.20998091
-0.22881112 -0.56592184 0.00000137
-0.15526041 -0.00554602 0.00000371
-0.41729391 0.19496731 -0.02163843
-0.43620077 -0.25310180 0.30522382
-0.19819371 -0.20496596 0.00000290
-0.55757755 -0.54612112 0.02177461
-0.31944472 -0.49127683 0.00000183
-0.47001982 0.09229743 -0.02296274
-0.72060418 -0.10211834 -0.04504718
-0.45236582 -0.04825609 -0.01311249
-0.62039000 0.03163746 -0.03922691
-0.27101350 -0.49592811 0.00000174
-0.56844646 -0.57236254 0.06962986
-0.18993002 0.34145051 0.20431890
-0.31397653 -0.13884090 0.00000337
-0.19026673 0.34064415 0.12763973
-0.53446949 0.18820490 -0.03649112
-0.45641273 0.20233092 -0.02711450
-0.39554602 -0.15494573 0.09518898
-0.21747340 0.27495831 0.18406099
-0.33053514 -0.52562827 0.00000170
-0.30458230 0.06466414 0.18360414
-0.26812169 -0.09927679 0.00000347
-0.38815111 -0.13709748 0.23288633
-0.78285980 -0.76731515 -0.01735366
-0.72322410 -0.73604733 -0.01129199
-0.28900698 0.35579413 -0.01363004
-0.09688483 0.70016187 -0.00720478
-0.10204038 0.55364627 0.00707374
-0.30445415 0.06497290 0.19109213
-0.21280497 0.04367123 0.00000852
-0.24445480 0.10628181 0.00000765
-0.29164878 0.42473498 -0.01768148
-0.11786000 -0.56752783 0.00000119
-0.23480931 0.33951303 -0.00571614
-0.62197083 -0.03948791 -0.03560782
-0.51125187 0.05442861 -0.02628016
-0.25874150 0.17534456 0.02145866
-0.33083805 -0.14543825 0.00000336
-0.78343606 -0.18470348 -0.04876423
-0.26657563 -0.29730636 0.00000260
-0.32059628 0.02600920 0.12173908
-0.13555937 0.11513318 0.00000923
-0.15792866 0.51144385 -0.00498068
-0.44832042 0.07883150 -0.01942051
-0.45561254 -0.29995611 0.01457184
-0.28684449 -0.54431516 0.00000155
-0.23614018 0.22990002 0.11124490
-0.45624721 -0.30149734 0.28244099
-0.41372585 -0.67375541 0.00000118
-0.25639686 -0.79698777 0.00000040
-0.23279914 0.09163665 0.00000791
-0.71965057 -0.45732304 -0.02581916
-0.17418103 0.44232100 -0.00337305
-0.07426459 -0.41062707 0.00000182
-0.46057662 -0.24250999 -0.00373102
-0.27460197 -0.39269918 0.00000220
-0.24631849 0.20532361 0.16320515
-0.48785582 -0.09823994 -0.01503267
-0.05891003 0.61884457 0.00000724
-0.05650183 0.14787082 0.00001022
-0.13969526 0.57686549 -0.00613195
-0.60144114 -0.65201885 0.07768318
-0.22883175 0.05268091 0.00000822
-0.22099355 -0.04585161 0.00000363
-0.34872308 0.37838471 -0.02259994
-0.31050202 -0.69693637 0.00000092
-0.58249480 -0.31414995 -0.01570942
-0.09413202 -0.08803020 0.00000326
-0.16434079 0.31594723 0.00000755
-0.48079118 -0.24589732 -0.00617376
-0.59296918 -0.19046928 -0.02372154
-0.25204998 -0.13169292 0.00000330
-0.48022047 -0.52972412 0.00000191
-0.59975523 -0.64794964 0.19596726
-0.40950385 0.37672871 -0.03040395
-0.60357863 0.02032632 -0.03643535
-0.53801292 -0.74785966 0.00000104
-0.57322943 -0.26316175 -0.01724861
-0.43680143 -0.60796356 0.00000150
-0.72240669 -0.14611942 -0.04291471
-0.33206275 -0.00166930 0.08248618
-0.48548996 0.18514352 -0.02996595
-0.43176305 -0.17336968 -0.00370810
-0.24091628 -0.75336671 0.00000057
-0.15017793 0.43742898 0.07630049
-0.25966012 -0.04506309 0.00000369
-0.13426377 -0.64881420 0.00000086
-0.49531308 -0.24226727 -0.00825471
-0.05930334 0.17308018 0.00001002
-0.14464121 0.45079425 0.09085900
-0.57833445 -0.59623384 0.05871657
-0.64346683 -0.12985186 -0.03353905
-0.12357425 -0.09586979 0.00000327
-0.03534556 0.71465820 0.00195720
-0.05524906 0.37656227 0.00000881
-0.36154920 -0.07287669 0.34950301
-0.43767080 0.18666592 -0.02383804
-0.61162984 -0.42784041 -0.01337801
-0.25248146 -0.01813612 0.00000380
-0.77758861 -0.74478775 -0.01788086
-0.00753533 0.16130307 0.00001088
-0.08039136 -0.42790782 0.00000175
-0.05304905 0.08906875 0.00001064
-0.12582013 0.52476382 -0.00152754
-0.60553676 -0.79924077 0.00000092
-0.41164094 -0.19380622 0.21389703
-0.21305642 0.38604182 -0.00539412
-0.39550966 -0.15486382 0.27032131
-0.41354391 -0.33391345 0.00000266
-0.57367748 0.21364528 -0.04295120
-0.08224406 -0.33453569 0.00000216
-0.54974878 -0.52722257 0.07407923
-0.44250807 -0.20224936 -0.00355012
-0.17160000 -0.65040445 0.00000091
-0.11871920 0.59341997 -0.00429847
-0.27461097 -0.24552613 0.00000284
-0.27269712 -0.22700042 0.00000292
-0.51796049 -0.51576459 0.00000203
-0.13936439 -0.01662007 0.00000364
-0.45662519 0.02706773 -0.01771456
-0.16929820 0.07824039 0.00000896
-0.30877304 0.05455063 0.14127845
-0.18232299 -0.77605402 0.00000038
-0.36123958 -0.03713696 -0.00187749
-0.34645486 -0.03643571 0.33826333
-0.16782035 -0.41631046 0.00000193
-0.28204516 0.16980398 -0.00272144
-0.55785167 -0.54678410 0.05692259
-0.10637802 0.02116064 0.00001026
-0.09918498 0.18573120 0.00000934
-0.19214649 0.02644532 0.00000894
-0.55914664 -0.40583873 -0.00774624
-0.17339011 0.59705490 -0.01159358
-0.43139848 -0.24150728 0.28123078
-0.74556398 -0.28026214 -0.03870708
-0.36606252 -0.37708217 0.00000240
-0.22058582 -0.29417866 0.00000255
-0.57351661 -0.00270145 -0.03129440
-0.01252634 0.42688569 0.00000914
-0.45746320 -0.77222711 0.00000081
-0.07386676 0.43871430 0.00000814
-0.20472114 -0.53669173 0.00000146
-0.26268712 -0.15331575 0.00000323
-0.13561757 0.38144505 0.00000757
-0.11340278 0.62328058 -0.00521430
-0.28172716 -0.73112160 0.00000073
-0.22075218 -0.71019584 0.00000073
-0.07718509 0.66259986 -0.00262608
-0.59980220 0.16554777 -0.04375650
-0.41685608 -0.20640305 0.41014850
-0.35877246 -0.06617485 0.36864439
-0.16127406 -0.59690946 0.00000113
-0.33884138 -0.01804007 0.15460058
-0.25279501 0.26830980 -0.00422170
-0.10795794 -0.60735238 0.00000101
-0.65624738 -0.24424158 -0.02904635
-0.30715606 0.27596244 -0.01169268
-0.57749569 -0.75301629 0.00000108
-0.07361495 0.15725368 0.00000991
-0.14573981 -0.67840677 0.00000075
-0.13129406 -0.66008401 0.00000081
-0.55998933 0.06956144 -0.03342323
-0.37764969 -0.66985482 0.00000114
-0.08492657 -0.11753923 0.00000311
-0.00958410 0.55963141 0.00000836
-0.77654487 -0.64018279 -0.02337151
-0.37509871 -0.26848891 0.00000289
-0.47136962 -0.25869566 -0.00426200
-0.30920705 0.30772313 -0.01366745
-0.07530727 0.38323358 0.00000847
-0.61107177 -0.73335421 0.00000121
-0.18993710 0.23275100 0.00000768
-0.41821554 -0.78074294 0.00000072
-0.18114097 -0.68335646 0.00000078
-0.17126125 0.38652846 0.10207542
-0.44761381 0.20814465 -0.02628459
-0.60878551 -0.15489364 -0.02768873
-0.28935981 -0.77830130 0.00000053
-0.16629215 0.15436766 0.00000853
-0.75865042 -0.57863504 -0.02435834
-0.06072470 0.23628484 0.00000961
-0.25611097 -0.68229222 0.00000090
-0.28455058 0.11302000 0.22802372
-0.46069396 -0.10217043 -0.01129422
-0.53891796 -0.50107908 0.20608743
-0.10071533 0.05273558 0.00001015
-0.59368837 -0.39717129 -0.01269775
-0.38031390 -0.47193027 0.00000201
-0.32134208 0.02418969 0.34612593
-0.07881080 -0.32263678 0.00000221
-0.56945944 -0.39830145 -0.00949076
-0.72045314 -0.00095910 -0.05046775
-0.10793493 -0.51870459 0.00000139
-0.16296454 0.13677940 0.00000869
-0.63687515 -0.41245085 -0.01748390
-0.07420191 -0.36984187 0.00000199
-0.43261960 -0.72908586 0.00000096
-0.24681623 -0.35971621 0.00000230
-0.25641504 0.00236254 0.00000812
-0.60678464 -0.64034319 -0.00131968
-0.43227908 -0.14717683 -0.00518385
-0.05256397 -0.30832928 0.00000223
-0.48823771 -0.37872553 0.17719623
-0.24974059 0.02487472 0.00000808
-0.49102506 -0.37724757 -0.00043817
-0.56781572 -0.00526325 -0.03041634
-0.10412319 -0.76677340 0.00000030
-0.24389727 0.21117917 0.04059192
-0.00664558 -0.61142886 0.00000078
-0.46917403 -0.20223331 -0.00701364
-0.21943703 0.27023330 0.00099111
-0.28761926 -0.69768584 0.00000088
-0.00640280 -0.66102916 0.00000062
-0.17899609 0.36786139 0.03102618
-0.41363305 -0.19861753 0.27239764
-0.33510086 -0.34843379 0.00000248
-0.42630252 -0.10508417 -0.00667167
-0.33940870 0.10490104 -0.00667951
-0.19179791 0.06398115 0.00000871
-0.63521910 -0.06583507 -0.03591111
-0.73406553 -0.69945461 -0.01466784
-0.76483423 -0.39561057 -0.03500525
-0.15642668 -0.04299044 0.00000355
-0.00490202 -0.16968299 0.00000277
-0.55861151 -0.54861814 0.04614025
-0.55150825 0.10280719 -0.03411018
-0.08508568 -0.18667109 0.00000281
-0.31362182 0.04283861 0.21601018
-0.67259049 -0.45187834 -0.02000110
-0.33692616 -0.34485945 0.00000250
-0.53651005 0.00185739 -0.02673235
-0.03610206 0.17265730 0.00001038
-0.62995702 -0.72086138 0.17120719
-0.21307123 -0.14316623 0.00000320
-0.19235247 -0.05896349 0.00000353
-0.00686180 -0.07217859 0.00000314
-0.10135811 0.55529261 0.01592410
-0.24862528 0.20566505 -0.00031051
-0.40909246 -0.18031855 -0.00039051
-0.42777756 -0.23276602 0.29335603
-0.31258819 0.04534620 0.07133627
-0.29307055 0.09245001 0.24561606
-0.34439477 0.04815341 -0.00427451
-0.16588604 0.39950532 0.09863499
-0.33220059 0.18420979 -0.01000953
-0.13888459 -0.16329119 0.00000300
-0.72312081 -0.11659180 -0.04459554
-0.47998482 -0.35880014 0.14251943
-0.33027095 0.25420773 -0.01352418
-0.44989014 -0.20936377 -0.00412607
-0.66294825 -0.53903836 -0.01406124
-0.17892060 0.36804461 0.01946460
-0.51585215 -0.34936583 -0.00516162
-0.48295787 -0.72601908 0.00000105
-0.20441385 0.30648810 0.16006528
-0.60944307 -0.24183065 -0.02309833
-0.51892227 -0.43131396 -0.00115282
-0.38641894 -0.13291769 0.29264212
-0.00495134 0.48927912 0.00000887
-0.51614571 -0.66661769 0.00000136
-0.48355117 0.00093291 -0.01980537
-0.31027189 0.05093306 0.13101146
-0.39866596 0.19144003 -0.01902966
-0.63445657 0.12145451 -0.04588492
-0.14391251 0.45255157 0.11270871
-0.06973821 -0.20106727 0.00000273
-0.34020185 -0.60144424 0.00000138
-0.43431559 -0.58471620 0.00000160
-0.18184955 -0.03414316 0.00000363
-0.29780427 -0.10866277 0.00000347
-0.76330513 -0.71923470 -0.01740058
-0.25005278 0.19631949 0.03280518
-0.37982199 -0.11698783 0.19046868
-0.31664944 0.03553418 0.16047814
-0.31619829 -0.09544661 0.00000356
-0.13264804 -0.01071839 0.00000365
-0.63076037 0.05584035 -0.04187550
-0.17301045 -0.19620869 0.00000290
-0.29746941 -0.52935266 0.00000163
-0.21185818 0.48426029 -0.01052175
-0.29446563 -0.38281530 0.00000227
-0.13710833 0.28844157 0.00000813
-0.30397648 -0.51772040 0.00000169
-0.20034099 -0.70729941 0.00000071
-0.07447302 -0.16961859 0.00000287
-0.74699289 -0.30721745 -0.03744285
-0.05095400 0.21776138 0.00000987
-0.42570457 -0.22776197 0.31039706
-0.20419843 0.48963195 -0.00981600
-0.43963692 -0.56692880 0.00000168
-0.06409813 -0.56751156 0.00000111
-0.61051148 -0.16812679 -0.02720112
-0.78955108 -0.66718823 -0.02360781
-0.17047766 0.08469854 0.00000890
-0.62666541 -0.67312241 -0.00213827
-0.39156461 0.02308534 -0.00905157
-0.13998222 0.25714678 0.00000828
-0.24945588 0.23557375 -0.00202719
-0.09147665 0.37426144 0.00000828
-0.06865235 -0.07279209 0.00000329
-0.04480845 -0.60445136 0.00000092
-0.22312282 0.06390988 0.00000823
-0.03153014 0.16232567 0.00001051
-0.27090433 0.14596693 0.19508982
-0.65085310 0.13626575 -0.04881094
-0.13833149 0.46602619 0.09899415
-0.40792954 -0.38245466 0.00000244
-0.34878206 -0.35717037 0.00000246
-0.09356285 -0.07191163 0.00000333
-0.78155154 -0.64636046 -0.02368933
-0.79002768 -0.49875444 -0.03272890
-0.52039564 -0.52986395 0.00000197
-0.50102830 -0.27955845 -0.00699119
-0.42576090 -0.22788905 0.04487450
-0.50004053 -0.16920827 -0.01279796
-0.42085049 -0.05610444 -0.00859802
-0.08349171 0.65086532 -0.00281385
-0.44500151 -0.27434731 0.26541236
-0.11331091 0.12012891 0.00000954
-0.06175959 -0.16326727 0.00000288
-0.05123782 -0.54257935 0.00000120
-0.34856883 -0.22723849 0.00000303
-0.52267855 -0.58018726 0.00000175
-0.77888095 -0.37560576 -0.03790510
-0.51065320 0.13972670 -0.03079065
-0.27609885 -0.00056632 0.00000391
-0.21635848 -0.59159470 0.00000124
-0.19116582 0.33847752 0.08161333
-0.17858417 -0.34476563 0.00000226
-0.78314728 -0.46940336 -0.03341416
-0.24465416 0.20934656 0.10413145
-0.14487039 0.21629599 0.00000846
-0.69086480 -0.64648455 -0.01190742
-0.58309495 -0.31994435 -0.01547571
-0.64665842 -0.36954820 -0.02106174
-0.29080677 0.09791269 0.27457690
-0.20334294 0.30907631 0.12578233
-0.45322025 -0.45432508 0.00000220
-0.37569949 -0.74056590 0.00000083
-0.35610741 0.21304201 -0.01466498
-0.48829961 -0.57437485 0.00000172
-0.14579926 0.45359388 -0.00029376
-0.41334197 -0.65104562 0.00000128
-0.58560497 -0.03070360 -0.03135805
-0.18282034 -0.57883531 0.00000124
-0.40940905 -0.79792714 0.00000063
-0.46206304 -0.31553790 0.28085315
-0.39946431 -0.35800859 0.00000254
-0.45574662 0.21414778 -0.02766363
-0.10462563 -0.65529245 0.00000079
-0.61319524 -0.54344368 -0.00736372
-0.63459390 -0.57955182 -0.00820038
-0.77217597 -0.12334455 -0.05060231
-0.21754308 0.27478760 0.21343866
-0.12122558 -0.19683209 0.00000282
-0.07572414 0.55044562 0.00000742
-0.47797027 -0.68567258 0.00000122
-0.00793510 -0.56181604 0.00000105
-0.05244095 -0.69771987 0.00000053
-0.21141151 -0.01296219 0.00000376
-0.18033560 -0.34423256 0.00000227
-0.14510646 -0.19096784 0.00000288
-0.00055394 -0.49276754 0.00000134
-0.49301153 -0.56331336 0.00000178
-0.63691753 -0.26429600 -0.02545771
-0.78208202 -0.23415504 -0.04592866
-0.24927907 -0.70578641 0.00000079
-0.11780328 -0.49534270 0.00000151
-0.10455005 0.20451342 0.00000914
-0.26192647 0.40302351 -0.01265385
-0.13145570 -0.43748826 0.00000178
-0.56785476 0.04251230 -0.03298964
-0.63338172 -0.27347809 -0.02450473
-0.01566273 0.57929307 0.00000814
-0.55008519 0.02977613 -0.02999699
-0.21994884 -0.22046489 0.00000287
-0.00495956 -0.37026390 0.00000185
-0.66657639 -0.68768179 -0.00653778
-0.33941901 0.07348243 -0.00499082
-0.30080605 -0.09775701 0.00000353
-0.69383770 -0.27501768 -0.03227232
-0.00402139 -0.34025216 0.00000199
-0.36630729 0.40047804 -0.02607185
-0.17933580 0.00205201 0.00000928
-0.27550110 -0.41909140 0.00000208
-0.34845576 0.13040774 -0.00922638
-0.25424972 0.18618448 0.06781150
-0.62349463 -0.36809790 -0.01813186
-0.69274771 -0.12010505 -0.04046254
-0.77972269 -0.75366884 -0.01768029
-0.30885598 0.10775116 -0.00286523
-0.63371956 -0.20849743 -0.02804349
-0.55024230 -0.36334705 -0.00887533
-0.27913040 -0.11122545 0.00000343
-0.23298420 0.23751505 0.15841082
-0.48933023 -0.79806626 0.00000075
-0.45674220 -0.30269164 0.26158258
-0.10575237 0.05649362 0.00001005
-0.62643409 0.08468627 -0.04286533
-0.23650189 -0.33806568 0.00000238
-0.20192617 -0.53870004 0.00000145
-0.47201002 0.26276040 -0.03239051
-0.25782293 -0.62208372 0.00000117
-0.17384341 0.57817990 -0.01063714
-0.24138343 -0.57132989 0.00000136
-0.24571319 0.33573639 -0.00692897
-0.57711178 -0.19902606 -0.02120220
-0.20390351 0.30772907 0.05461072
-0.64666438 -0.75862992 -0.00013630
-0.27874312 0.12703583 0.27880776
-0.59669989 0.07466400 -0.03846493
-0.65556973 -0.55743617 -0.01211361
-0.59034550 -0.62523311 0.21594872
-0.44267997 0.13912264 -0.02193114
-0.75448716 -0.12622084 -0.04815067
-0.36103511 -0.07162978 0.11234729
-0.76304603 -0.25508904 -0.04233099
-0.68600076 -0.20917372 -0.03479600
-0.29188105 0.09533286 0.11288860
-0.54229152 -0.40630868 -0.00553227
-0.48307022 -0.36624974 0.16527531
-0.74871886 -0.28956613 -0.03861634
-0.23817767 -0.06110865 0.00000359
-0.03603819 0.51435077 0.00000824
-0.74355477 -0.29790986 -0.03749701
-0.58523536 -0.43026012 -0.00982046
-0.16306397 0.06585296 0.00000913
-0.27710015 -0.18458080 0.00000311
-0.22083175 0.06104438 0.00000829
-0.23308998 0.27556741 -0.00205319
-0.31218296 -0.55588239 0.00000154
-0.05803885 0.71122324 -0.00275523
-0.69025785 0.05713509 -0.04967150
-0.32216728 -0.08112421 0.00000363
-0.07205406 0.17127341 0.00000984
-0.22480033 0.25727946 0.07216888
-0.70010757 0.01414735 -0.04863825
-0.13622062 0.38983819 0.00000751
-0.48216912 -0.36407083 0.06235069
-0.64693183 0.07514290 -0.04501383
-0.15022025 0.20215885 0.00000847
-0.66576320 -0.69894195 -0.00582658
-0.79017103 -0.29588622 -0.04365877
-0.52247012 -0.46137047 0.20037021
-0.54384077 -0.51295781 0.02660587
-0.28165591 -0.00794335 0.00000389
-0.04197562 -0.55460209 0.00000114
-0.05180762 0.19010980 0.00001003
-0.10042831 0.15374167 0.00000952
-0.12111253 -0.11742948 0.00000317
-0.09089101 -0.56629014 0.00000116
-0.51273400 -0.43786156 0.08493703
-0.68162125 -0.74641669 -0.00533236
-0.21139279 -0.36670032 0.00000221
-0.53010511 -0.13411674 -0.01858929
-0.26520845 0.22530454 -0.00352043
-0.27462274 0.48963234 -0.01896134
-0.16596410 -0.05207033 0.00000352
-0.43003377 -0.23820466 0.04551638
-0.70946574 -0.28576416 -0.03372368
-0.48854119 -0.24926937 -0.00699876
-0.36262685 -0.07547143 0.07831883
-0.09510130 0.57039523 0.04281363
-0.07514906 0.65679955 -0.00204968
-0.52010339 -0.45565242 0.07258293
-0.28945771 -0.30562276 0.00000260
-0.42843410 -0.23434243 0.03660131
-0.24498560 0.20854281 0.14670543
-0.52399594 0.03010627 -0.02662679
-0.69628894 -0.14485683 -0.03959114
-0.02558603 -0.23712727 0.00000250
-0.54886937 -0.44216746 -0.00445781
-0.17341849 0.38132697 0.02598750
-0.41139027 -0.19320720 0.39767146
-0.36014524 -0.06948025 0.07644653
-0.17193042 -0.02169271 0.00000366
-0.07828198 0.61099875 0.05353549
-0.67928088 -0.74615598 -0.00504249
-0.31675738 -0.39007133 0.00000227
-0.03790621 0.03709966 0.00001120
-0.04067562 0.71869963 -0.00090259
-0.70386487 0.03632023 -0.05031887
-0.03982665 0.70383745 0.03370319
-0.51745600 -0.52387917 0.00000199
-0.32521504 -0.63926893 0.00000119
-0.20534696 -0.48733369 0.00000168
-0.55728108 -0.31264713 -0.01251617
-0.39410159 -0.47351420 0.00000202
-0.00732809 0.66990995 0.00000770
-0.79317838 -0.34648773 -0.04132766
-0.14657316 -0.71923846 0.00000057
-0.32833606 0.00732623 0.09741650
-0.34639180 -0.43440917 0.00000212
-0.59725463 -0.64191282 0.18915264
-0.74599934 -0.02090610 -0.05271271
-0.51443791 -0.59738785 0.00000166
-0.23761682 0.33780032 -0.00598860
-0.16588558 0.48664802 -0.00468018
-0.31600159 -0.45128575 0.00000200
-0.02626788 0.09240780 0.00001103
-0.69057083 -0.57933575 -0.01548078
-0.54034346 -0.50451750 0.11238961
-0.16249578 0.40769604 0.02652687
-0.31988981 0.02770082 0.28550714
-0.70202410 -0.44658247 -0.02410797
-0.27086306 -0.54364163 0.00000153
-0.34813166 0.38198331 -0.02271671
-0.47448930 -0.31444570 -0.00166866
-0.14526296 -0.68583161 0.00000072
-0.03759618 -0.62060517 0.00000084
-0.27308977 -0.25540322 0.00000279
-0.36335766 0.14550954 -0.01197388
-0.01026794 0.31548098 0.00000987
-0.12270026 -0.40304545 0.00000192
-0.51644683 -0.65301085 0.00000142
-0.48680240 -0.56425422 0.00000177
-0.61510313 -0.24560928 -0.02363008
-0.45863354 -0.74754906 0.00000092
-0.63504732 -0.77050942 0.00000109
-0.11062790 -0.23869459 0.00000262
-0.32785967 -0.33269551 0.00000254
-0.29899859 -0.54754490 0.00000156
-0.33029613 -0.23592561 0.00000297
-0.06779130 -0.39364055 0.00000188
-0.30033121 -0.54183602 0.00000158
-0.13808234 0.46663564 0.00466506
-0.49993613 -0.40696314 0.03364682
-0.46584788 -0.32467613 0.30597165
-0.19214939 -0.17615983 0.00000302
-0.05536357 0.00288950 0.00001115
-0.51478302 0.25644124 -0.03760511
-0.44638854 -0.27769041 0.10233696
-0.25423136 0.19754641 -0.00060181
-0.47630841 -0.10832068 -0.01299102
-0.46426260 -0.32084006 0.04110278
-0.07428094 0.62065917 0.03814829
-0.62336689 -0.43294799 -0.01462740
-0.17040142 0.01385762 0.00000934
-0.39447621 0.09183934 -0.01312799
-0.44961143 0.24124886 -0.02832470
-0.22278692 0.41881639 -0.00842069
-0.14551702 -0.53155255 0.00000139
-0.67146862 -0.50598264 -0.01694549
-0.03706210 -0.20297623 0.00000267
-0.41122004 -0.78756630 0.00000067
-0.30360797 -0.58919650 0.00000138
-0.07609159 -0.03037093 0.00000348
-0.35643542 -0.06052696 0.29889449
-0.50710332 -0.42426634 0.03685962
-0.09238594 -0.18300760 0.00000284
-0.43906298 -0.35883981 0.00000259
-0.27241609 0.14230894 0.29432073
-0.28647637 -0.54061991 0.00000157
-0.44372332 -0.27125898 0.19148684
-0.77825224 -0.38339260 -0.03740465
-0.13045476 0.60824692 -0.00662001
-0.14202553 0.45710981 0.08010114
-0.04186725 0.34403872 0.00000922
-0.46640036 -0.22872990 -0.00522839
-0.29884785 -0.41938278 0.00000212
-0.54198682 -0.50848538 0.12607816
-0.32969564 -0.61224943 0.00000132
-0.02380038 -0.62732011 0.00000079
-0.41264811 0.37196633 -0.03055610
-0.47077537 -0.33657244 0.32299587
-0.20060387 -0.04779358 0.00000359
-0.37538961 -0.67246294 0.00000112
-0.70390701 -0.22221512 -0.03641976
-0.23888990 -0.57141674 0.00000136
-0.64050466 -0.08950414 -0.03532444
-0.04506224 -0.70610279 0.00000048
-0.29715180 0.08260768 0.12242916
-0.16615537 -0.08479013 0.00000338
-0.03873590 -0.12162184 0.00000303
-0.55838066 0.20722349 -0.04061926
-0.16046868 -0.04736973 0.00000353
-0.09371571 -0.17139131 0.00000289
-0.68427277 -0.48465025 -0.01975548
-0.16510676 0.04219627 0.00000925
-0.64752042 0.07796520 -0.04524207
-0.37760103 0.08375675 -0.01050181
-0.17115851 0.11962315 0.00000867
-0.40960863 -0.47361019 0.00000205
-0.55788606 -0.54686946 0.12646295
-0.12297807 0.40443924 0.00000762
-0.64743906 0.02127325 -0.04218202
-0.61082405 -0.46778485 -0.01112502
-0.40090108 -0.16787726 0.19334368
-0.41636422 -0.39276713 0.00000241
-0.61472338 -0.50343460 -0.00971399
-0.44066399 -0.45279011 0.00000218
-0.40189445 -0.58028972 0.00000157
-0.41469076 0.26595739 -0.02511898
-0.25367513 0.24239889 -0.00294222
-0.23453689 0.23376209 0.21205750
-0.57973206 -0.42459136 -0.00941073
-0.56564170 -0.63858384 0.00000156
-0.39382443 -0.15079969 0.41592228
-0.22658834 -0.44622061 0.00000189
-0.43569309 -0.25187126 0.15999655
-0.42669201 -0.23014806 0.37656695
-0.67849576 -0.64826208 -0.01020569
-0.36074871 -0.57108492 0.00000155
-0.45377272 -0.43442684 0.00000228
-0.71479297 0.02378971 -0.05106397
-0.49473193 -0.53790551 0.00000189
-0.11549520 0.63017946 -0.00585712
-0.52128536 0.22202216 -0.03659808
-0.64119101 -0.55557871 -0.01034640
-0.22770672 0.40651187 -0.00839771
-0.38325709 -0.41674680 0.00000226
-0.03592354 -0.00736755 0.00000352
-0.62598288 -0.27855206 -0.02327106
-0.73879665 -0.37823370 -0.03255901
-0.04203738 -0.47591087 0.00000148
-0.04207895 0.73893023 -0.00217305
-0.35765237 0.33601359 -0.02148034
-0.35989472 -0.31550711 0.00000266
-0.42549896 -0.46442071 0.00000211
-0.13029537 -0.64304870 0.00000088
-0.58761615 0.08739857 -0.03797032
-0.24712908 0.30573553 -0.00549908
-0.00184843 -0.56934494 0.00000101
-0.76714003 -0.14707123 -0.04867228
-0.69693738 0.09454946 -0.05255145
-0.24108508 0.21795340 0.21587834
-0.66697502 -0.12290102 -0.03696550
-0.62421221 0.06707575 -0.04162951
-0.76774466 -0.48082834 -0.03079971
-0.22885562 0.12072932 0.00000779
-0.24076553 0.26272875 -0.00235934
-0.36394992 -0.02579104 -0.00283966
-0.12647392 -0.30106923 0.00000237
-0.77498502 0.00036549 -0.05762052
-0.29079184 0.20398472 -0.00569589
-0.44786105 -0.28124815 0.18659642
-0.05648975 -0.34512737 0.00000208
-0.53097624 -0.32157323 -0.00862032
-0.10937360 0.68349731 -0.00793022
-0.09360693 -0.14553505 0.00000300
-0.77393234 -0.56752378 -0.02694024
-0.37184265 0.06136240 -0.00854942
-0.23220646 -0.78941965 0.00000040
-0.64118546 -0.74796802 0.02089124
-0.70240039 -0.34099129 -0.02983591
-0.59623533 -0.63944942 0.03283236
-0.53523910 -0.55086482 0.00000190
-0.79445869 -0.44220072 -0.03634598
-0.60273397 -0.07027791 -0.03145386
-0.60570472 -0.30815038 -0.01904598
-0.47327334 -0.44324034 0.00000227
-0.16119097 0.27530652 0.00000785
-0.11545445 -0.14677705 0.00000303
-0.09202045 -0.02468400 0.00000353
-0.49997124 0.01049851 -0.02245222
-0.39110610 -0.78622121 0.00000065
-0.73093718 -0.08477064 -0.04732198
-0.78563672 -0.77225608 -0.01744849
-0.55445689 -0.63958138 0.00000154
-0.06238177 0.30177033 0.00000917
-0.15152819 0.32306629 0.00000769
-0.18516164 0.27189055 0.00000751
-0.05378285 -0.33485097 0.00000212
-0.24792849 -0.52269644 0.00000159
-0.27471137 0.13677818 0.17107590
-0.76526678 -0.75253958 -0.01586399
-0.35037941 0.42005014 -0.02505625
-0.31842497 0.25592768 -0.01207838
-0.06200218 0.22319867 0.00000967
-0.13345794 -0.48123652 0.00000160
-0.43789640 -0.73815382 0.00000093
-0.40029371 -0.16641106 0.19789264
-0.13061941 -0.70990664 0.00000059
-0.19817220 -0.26173657 0.00000265
-0.49076033 -0.38481441 0.14044890
-0.19134328 0.17667997 0.00000801
-0.15375368 -0.42385593 0.00000188
-0.02424572 -0.02641519 0.00000342
-0.10222335 -0.41298360 0.00000185
-0.78731304 -0.26010463 -0.04521219
-0.04604918 -0.32805249 0.00000213
-0.36744609 0.26012057 -0.01866981
-0.72791660 -0.14029793 -0.04394328
-0.46054459 -0.50577825 0.00000198
-0.03595162 0.29876742 0.00000959
-0.76964033 -0.57236367 -0.02612263
-0.34655392 0.32841650 -0.01963043
-0.35365885 -0.67014331 0.00000110
-0.78683239 -0.16997895 -0.04999718
-0.34390336 -0.47764701 0.00000193
-0.41036326 -0.01291477 -0.00955911
-0.13550580 -0.69239134 0.00000068
-0.04184840 -0.60560101 0.00000091
-0.27664539 0.16963533 -0.00201115
-0.70611387 -0.35910767 -0.02934376
-0.44509032 -0.19187549 -0.00444338
-0.70721340 -0.01895370 -0.04778124
-0.64671689 -0.54040045 -0.01188029
-0.13972972 -0.04010203 0.00000354
-0.15222178 -0.17492031 0.00000296
-0.21412297 0.05158689 0.00000845
-0.02520811 -0.03058657 0.00000340
-0.63676363 -0.08272848 -0.03520308
-0.10610082 -0.77751434 0.00000026
-0.18423223 -0.15814260 0.00000309
-0.60795403 -0.49702591 -0.00917965
-0.48254925 -0.52584338 0.00000193
-0.36478758 -0.56399745 0.00000158
-0.37968758 -0.79379290 0.00000060
-0.34521171 0.38226265 -0.02235256
-0.51258236 0.07684651 -0.02765881
-0.04977972 0.15475611 0.00001028
-0.27719489 0.13079406 0.03568337
-0.04065629 0.70183444 0.03525200
-0.57804340 -0.59553218 0.08853321
-0.18236065 -0.09977900 0.00000334
-0.19496201 -0.26481363 0.00000264
-0.47539559 -0.74038535 0.00000098
-0.24455239 0.31308267 -0.00555967
-0.79499096 -0.57036424 -0.02952183
-0.02233456 -0.79252982 0.00000007
-0.14708918 -0.18864793 0.00000290
-0.06618483 0.10325987 0.00001036
-0.11862448 0.51360363 0.07905320
-0.12123801 0.54690927 -0.00212373
-0.38810760 -0.47835585 0.00000199
-0.04767634 -0.78962582 0.00000012
-0.35571027 -0.78059042 0.00000062
-0.07157527 0.56855786 0.00000737
-0.25074559 0.19463871 0.12996630
-0.26647845 0.15666237 0.06905814
-0.37918067 0.00178914 -0.00629785
-0.07781473 -0.26035479 0.00000248
-0.40972504 -0.18918347 0.29336634
-0.05247490 -0.44927600 0.00000161
-0.48770493 -0.37743852 0.15459971
-0.78075975 -0.06000347 -0.05512366
-0.67598689 -0.33502081 -0.02672715
-0.44815111 -0.74056798 0.00000094
-0.50622380 -0.34470591 -0.00416198
-0.09319662 -0.65114164 0.00000079
-0.25773054 -0.35638782 0.00000233
-0.75471896 -0.68335748 -0.01821537
-0.47239333 -0.50387418 0.00000201
-0.43607187 0.04951333 -0.01625287
-0.46282136 -0.31736818 0.26736906
-0.51277941 -0.43796855 0.00584262
-0.15133239 0.43463522 0.15568431
-0.50760710 -0.42548993 0.29399151
-0.05557988 0.48903134 0.00000810
-0.17429219 0.37920994 0.11827787
-0.25319561 0.18871532 0.23256093
-0.74973619 -0.43481153 -0.03093641
-0.77130306 -0.26562390 -0.04283651
-0.01555584 0.50572526 0.00000860
-0.15795147 -0.25627276 0.00000262
-0.41627571 -0.20498952 0.03547373
-0.17549784 -0.66090739 0.00000087
-0.11225146 -0.07196833 0.00000335
-0.78182530 -0.40420738 -0.03674907
-0.78490019 -0.26419419 -0.04467893
-0.44490471 -0.41114336 0.00000237
-0.16194293 0.24691890 0.00000801
-0.51585656 -0.57381892 0.00000177
-0.43576488 0.05550895 -0.01653551
-0.30641818 0.48854089 -0.02303159
-0.17768262 0.37102124 0.16128661
-0.63664079 -0.71634841 -0.00110875
-0.10573288 0.54473221 0.00442961
-0.66111588 -0.02406323 -0.04152052
-0.46803528 -0.05194833 -0.01494864
-0.50106800 -0.08787043 -0.01730602
-0.04802601 -0.00592361 0.00000355
-0.01497465 0.38964456 0.00000934
-0.06996302 -0.08174870 0.00000325
-0.50070536 -0.62895781 0.00000150
-0.15796123 -0.76836210 0.00000038
-0.49943414 -0.62335449 0.00000153
-0.15604901 -0.60636038 0.00000108
-0.12863557 0.53391629 -0.00238548
-0.02103766 0.71426004 0.00000722
-0.65347892 -0.02879476 -0.04027436
-0.61662287 -0.45116439 -0.01277192
-0.73955065 -0.46466142 -0.02800839
-0.78491974 -0.05512063 -0.05592646
-0.53653270 -0.49531561 0.05600945
-0.22607379 -0.50787842 0.00000162
-0.35264450 -0.05137302 0.11032714
-0.10589300 0.54433763 0.09941067
-0.42268926 -0.54520261 0.00000175
-0.51628244 -0.55115610 0.00000187
-0.27599806 0.17372128 -0.00214687
-0.00791283 0.39460033 0.00000941
-0.13712975 -0.43557948 0.00000180
-0.45631155 0.26297435 -0.03036341
-0.46694142 -0.32730696 0.03169091
-0.77964461 -0.20504025 -0.04717811
-0.01111859 -0.17239960 0.00000268
-0.25167438 0.50852817 -0.01699768
-0.29742137 -0.68203980 0.00000096
-0.33921307 -0.01894953 0.29808992
-0.60906506 -0.17932443 -0.02641105
-0.19885489 -0.75693417 0.00000049
-0.20963822 0.29387212 0.20162448
-0.11840246 0.24370930 0.00000869
-0.26973903 -0.64912713 0.00000107
-0.17432527 -0.06275609 0.00000349
-0.25587124 0.52686918 -0.01852926
-0.17070486 -0.60878801 0.00000109
-0.69230604 -0.03048254 -0.04522541
-0.62375891 -0.60364640 -0.00549753
-0.64325231 -0.21932112 -0.02869921
-0.21543691 0.27987117 0.22595912
-0.57001251 -0.29253247 -0.01525122
-0.69451064 -0.41882575 -0.02462518
-0.08473442 0.52137709 0.00000746
-0.18319419 -0.67440128 0.00000083
-0.63862175 -0.00539428 -0.03960367
-0.14948258 -0.51245809 0.00000148
-0.37520781 -0.10584696 0.15245742
-0.23423122 0.23451740 0.00638077
-0.39819720 -0.16135681 0.42271551
-0.00153112 -0.58230758 0.00000094
-0.26637402 0.15690820 0.14321283
-0.45280322 -0.38504985 0.00000250
-0.04894761 -0.25219902 0.00000247
-0.47844490 0.28077176 -0.03419499
-0.05634027 -0.28733173 0.00000233
-0.32970634 0.00400680 0.23171236
-0.06055222 -0.76300794 0.00000025
-0.19663301 -0.29372337 0.00000251
-0.77309722 -0.01056041 -0.05678788
-0.06061860 -0.39889881 0.00000185
-0.25430295 -0.07935214 0.00000354
-0.76283902 -0.58396572 -0.02461550
-0.77967924 -0.42676890 -0.03525695
-0.55211824 -0.53231895 -0.00003101
-0.37332696 -0.73416209 0.00000085
-0.22653452 0.28734544 -0.00183544
-0.11916345 0.62106180 -0.00584304
-0.53739166 -0.34051824 -0.00843445
-0.12579362 0.38037640 0.00000772
-0.43942338 -0.26087257 0.02788117
-0.30127069 -0.77227360 0.00000058
-0.33927926 0.30683279 -0.01752474
-0.66524273 -0.42524460 -0.02047943
-0.43043828 -0.23918205 0.07027166
-0.58306390 0.14557482 -0.04050851
-0.62777126 -0.36966401 -0.01860296
-0.09622959 -0.05632590 0.00000340
-0.18525840 0.35273054 0.18036792
