ply
format ascii 1.0
element vertex 1408
property float x
property float y
property float z
end_header
0.20346783 0.46000245 0.00000000
-0.21311995 -0.78954649 0.00000000
0.45575789 0.68650019 0.06484700
-0.23297811 0.11126481 0.00000000
0.66781855 -0.62321234 0.00000000
0.22369263 0.39083329 0.00000000
-0.26309833 -0.45533696 0.00000000
-0.66703516 -0.46548766 0.00000000
-0.08011483 -0.59908038 0.00000000
0.10501028 -0.44835955 0.00000000
0.03837492 0.76687628 0.00099494
0.29417101 0.12138680 0.00000000
-0.18191542 -0.79202843 0.00000000
-0.11801098 0.12045325 0.00000000
0.38570347 -0.46946639 0.00000000
0.17141490 0.14696528 0.00000000
-0.03933256 -0.64549136 0.00000000
0.73162121 -0.52685148 0.00000000
-0.69182950 0.61322892 0.00000000
-0.76214927 0.78573865 0.00000000
0.33186057 0.76885366 0.05697577
-0.30248943 0.27258345 0.00000000
0.69656825 -0.20226191 0.00000000
-0.70143557 0.13214856 0.00000000
-0.71869636 -0.37918955 0.00000000
-0.78618050 0.33365932 0.00000000
0.29885349 0.42098281 0.00000000
0.62235844 0.55013943 0.07057645
-0.22957064 0.11151346 0.00000000
0.25206625 0.67532539 0.02413665
-0.68116593 0.75769955 0.00000000
-0.73705238 0.49005592 0.00000000
-0.75889289 -0.03509618 0.00000000
-0.78119224 -0.03971028 0.00000000
0.00529114 0.40447935 0.00000000
0.17452060 -0.08834737 0.00000000
-0.73543048 0.10061346 0.00000000
0.19438770 0.03853787 0.00000000
-0.42148051 0.26073891 0.00000000
-0.18885256 0.41620082 0.00000000
0.61861396 0.30830887 0.02404783
0.20878516 -0.61466819 0.00000000
-0.09997346 -0.02969792 0.00000000
-0.63576871 -0.17048669 0.00000000
-0.60584402 -0.60290587 0.00000000
0.51575089 0.29452196 0.00194638
0.57626671 0.76171613 0.10193061
-0.46396425 -0.74646807 0.00000000
0.16721968 -0.43886343 0.00000000
0.73738956 -0.55310720 0.00000000
-0.22245497 0.06783594 0.00000000
-0.31084204 0.57608283 0.00000000
0.17198876 -0.66952723 0.00000000
-0.16136830 0.50527406 0.00000000
-0.63069367 -0.27161118 0.00000000
0.23187655 0.38131148 0.00000000
0.38667628 -0.05685934 0.00000000
0.47322482 0.18046939 0.00000000
0.70760584 -0.24872209 0.00000000
0.39747781 -0.09197664 0.00000000
-0.08508750 -0.22963959 0.00000000
-0.23162937 -0.68179923 0.00000000
-0.71194959 0.31144708 0.00000000
0.29577431 0.08797971 0.00000000
0.14038271 0.12755395 0.00000000
-0.38276175 0.08615542 0.00000000
0.55651444 0.31323159 0.01321465
0.46632129 -0.60232961 0.00000000
-0.17885365 -0.09573044 0.00000000
-0.71709234 0.41928825 0.00000000
-0.74061251 -0.74031401 0.00000000
0.32766837 0.57111192 0.01871571
0.10634027 -0.26122335 0.00000000
-0.03052966 -0.01415077 0.00000000
0.53757489 -0.18471818 0.00000000
-0.66741145 0.13661200 0.00000000
-0.26732874 -0.18669447 0.00000000
-0.46051362 -0.42381048 0.00000000
0.60347205 -0.16429062 0.00000000
-0.71348292 0.23501787 0.00000000
-0.61128354 0.21562178 0.00000000
0.29426175 0.46957427 0.00000000
-0.68641967 0.38403088 0.00000000
0.44927511 -0.26060343 0.00000000
0.65583944 0.19796836 0.01019486
-0.19543447 0.06049936 0.00000000
0.21227951 -0.08019917 0.00000000
-0.65345305 -0.77955401 0.00000000
0.61556524 0.68538851 0.09491478
0.39471895 0.06112674 0.00000000
0.69947034 0.39198667 0.05522180
0.29785040 0.64737546 0.02751567
-0.67618901 0.60596651 0.00000000
0.74237317 -0.01206099 0.00000000
-0.48682457 -0.12572071 0.00000000
0.26601237 0.49493074 0.00000000
-0.32400307 0.67100668 0.00000000
-0.43627942 0.29896611 0.00000000
-0.15133229 0.02353411 0.00000000
-0.11815004 -0.08872253 0.00000000
-0.65376133 0.21189719 0.00000000
-0.18472634 0.16559476 0.00000000
0.51533508 -0.75344628 0.00000000
0.42870513 -0.28906491 0.00000000
-0.43116668 0.41272888 0.00000000
0.68400955 -0.46464619 0.00000000
0.00921905 -0.03072284 0.00000000
0.07891353 0.17246760 0.00000000
-0.66769981 0.76283199 0.00000000
-0.27355099 -0.64596790 0.00000000
-0.24068512 -0.05835479 0.00000000
0.09560268 0.41459763 0.00000000
-0.48633188 -0.53094929 0.00000000
0.50400418 0.09327147 0.00000000
-0.21548277 0.73350787 0.00000000
0.60675186 -0.06523653 0.00000000
-0.42043960 -0.27027142 0.00000000
-0.40609941 -0.40203679 0.00000000
-0.55396473 -0.34124789 0.00000000
0.02498776 -0.08543994 0.00000000
-0.14300105 0.23034942 0.00000000
0.09708584 -0.25680658 0.00000000
0.03733123 -0.17263623 0.00000000
-0.28925192 -0.53747308 0.00000000
0.36689812 0.48036021 0.00895395
-0.38354802 -0.72852778 0.00000000
0.79121524 -0.45813322 0.00000000
0.14942740 -0.67557466 0.00000000
0.71000040 0.23200439 0.02690537
-0.32123917 0.39499804 0.00000000
0.72671074 -0.40145543 0.00000000
0.06167801 -0.66413635 0.00000000
0.60472900 0.12685497 0.00000000
0.55346578 0.32031494 0.01397910
0.05935648 0.14054108 0.00000000
-0.77191025 0.34865177 0.00000000
-0.16029830 0.01134712 0.00000000
-0.56184733 -0.10470355 0.00000000
0.29222342 0.31715196 0.00000000
-0.50342566 0.10407969 0.00000000
-0.17710128 0.22030067 0.00000000
-0.60763496 0.61712795 0.00000000
0.19721611 -0.04860012 0.00000000
0.76730323 0.70771331 0.12789413
0.04951519 -0.60015565 0.00000000
-0.67440337 0.27244806 0.00000000
0.06484761 0.13250087 0.00000000
-0.54970419 -0.63730943 0.00000000
-0.20768309 -0.27879670 0.00000000
-0.55007130 -0.73393136 0.00000000
0.20793542 0.05421940 0.00000000
-0.37350115 -0.64383864 0.00000000
0.12391179 0.17106526 0.00000000
-0.11674763 0.09599836 0.00000000
0.52845842 -0.05113795 0.00000000
0.61296046 -0.76936954 0.00000000
0.15831117 0.05348806 0.00000000
-0.77458763 -0.64937651 0.00000000
0.21684083 0.44821599 0.00000000
-0.05103506 0.33115447 0.00000000
-0.19784389 -0.29853296 0.00000000
0.34628087 -0.43228236 0.00000000
-0.14819214 0.31452954 0.00000000
-0.05171172 0.21890806 0.00000000
-0.75838202 0.60399842 0.00000000
-0.09036888 0.33909553 0.00000000
-0.70174187 0.76383519 0.00000000
0.75613123 0.48963335 0.08445817
0.21492535 0.02551930 0.00000000
0.42862642 -0.70551306 0.00000000
0.42274565 0.26522475 0.00000000
0.53751159 -0.05903549 0.00000000
0.31543648 -0.59068906 0.00000000
-0.20325807 -0.43742394 0.00000000
0.34077871 0.53604728 0.01455608
0.73878860 -0.07058396 0.00000000
-0.25987673 0.07150377 0.00000000
0.60116947 0.35071146 0.02877659
-0.69794345 0.32380918 0.00000000
0.50464106 -0.01752047 0.00000000
-0.78730983 0.49958768 0.00000000
-0.45139959 0.77308202 0.00000000
-0.63863164 -0.17307523 0.00000000
0.61224884 0.27212432 0.01598602
0.13398817 -0.28138286 0.00000000
-0.61523956 0.55464637 0.00000000
0.52678972 -0.10015295 0.00000000
-0.67284328 0.29763070 0.00000000
0.79440141 0.29185486 0.05423642
-0.75114071 -0.68844908 0.00000000
0.16521145 -0.50711876 0.00000000
-0.33349678 0.37777904 0.00000000
-0.42833853 0.04986877 0.00000000
-0.76831472 -0.09764478 0.00000000
-0.23407438 0.18786798 0.00000000
-0.27833101 0.10508025 0.00000000
0.32112920 0.71502966 0.04474458
-0.28360251 -0.08362208 0.00000000
-0.67178071 0.41588578 0.00000000
-0.55132145 -0.70126313 0.00000000
0.45995986 -0.42041838 0.00000000
-0.69438404 0.60876548 0.00000000
0.55433011 0.05945723 0.00000000
-0.47904658 -0.35985172 0.00000000
0.09894561 -0.24898067 0.00000000
0.28082991 -0.65641016 0.00000000
0.65018642 0.46193337 0.05913673
0.50655431 -0.59982038 0.00000000
0.15300737 0.29960269 0.00000000
-0.48725617 0.62643081 0.00000000
0.74941814 0.41898024 0.06979973
-0.11621818 0.11888971 0.00000000
0.40725967 -0.69676661 0.00000000
0.33543092 0.02911944 0.00000000
-0.00982768 0.03567219 0.00000000
-0.27694303 -0.38859677 0.00000000
-0.53313309 0.60168928 0.00000000
-0.64726335 0.57921827 0.00000000
-0.52147758 -0.45063239 0.00000000
0.04251526 0.21123312 0.00000000
0.73873615 0.63988256 0.10962981
-0.01650588 0.02934969 0.00000000
0.41121024 -0.03071006 0.00000000
-0.28368431 -0.49483991 0.00000000
-0.46036509 0.28846306 0.00000000
-0.29796892 -0.54698056 0.00000000
-0.18859018 -0.09131080 0.00000000
0.26109701 -0.67922664 0.00000000
-0.18543959 0.62321800 0.00000000
-0.49629998 -0.57182193 0.00000000
-0.50632894 0.43531567 0.00000000
-0.16104069 0.57710379 0.00000000
-0.30006433 -0.28344926 0.00000000
-0.73150623 0.22606409 0.00000000
-0.00320043 -0.11768878 0.00000000
-0.43633932 0.22706681 0.00000000
-0.32789400 -0.25158715 0.00000000
-0.72463077 -0.44127816 0.00000000
-0.00899516 -0.63949382 0.00000000
-0.37547436 -0.77898633 0.00000000
0.24595027 -0.28757960 0.00000000
-0.24626523 -0.54537904 0.00000000
0.24024980 -0.63619375 0.00000000
-0.66292208 -0.53266668 0.00000000
0.09241255 -0.22289991 0.00000000
0.39957738 0.17803311 0.00000000
-0.63208866 -0.43593717 0.00000000
0.47804046 -0.18083678 0.00000000
0.44581991 -0.56593442 0.00000000
-0.45173252 -0.76103896 0.00000000
0.48922795 -0.01496386 0.00000000
-0.75099415 0.29833364 0.00000000
-0.23229602 0.26918352 0.00000000
0.21341798 0.16134275 0.00000000
-0.24405803 0.57234901 0.00000000
0.15918428 0.04302004 0.00000000
-0.24493372 0.33854070 0.00000000
0.54877561 -0.64216232 0.00000000
-0.06083541 -0.15087359 0.00000000
0.39200476 -0.71474767 0.00000000
-0.26951045 -0.47939914 0.00000000
-0.54496223 -0.27169505 0.00000000
0.50375444 -0.16935350 0.00000000
-0.13548517 -0.73988020 0.00000000
0.47574210 -0.09408291 0.00000000
-0.52389979 -0.02354313 0.00000000
0.43394920 0.76300973 0.07521108
0.70535576 0.18124713 0.01640849
0.48236948 0.49795154 0.03416507
0.09449319 -0.18969835 0.00000000
0.27679947 0.57532024 0.00987502
-0.23004164 0.05649696 0.00000000
-0.49385175 -0.63874531 0.00000000
-0.73520571 0.27867243 0.00000000
0.02076608 -0.03824435 0.00000000
-0.16288294 0.43999282 0.00000000
0.16213673 -0.43641898 0.00000000
0.77671599 -0.18787356 0.00000000
-0.25139865 0.17058578 0.00000000
-0.32717088 0.58152014 0.00000000
-0.23049980 0.16443929 0.00000000
0.11378961 -0.54458010 0.00000000
0.69584239 0.48928487 0.07296932
0.01872649 0.59847838 0.00000000
0.71477872 -0.13639541 0.00000000
0.03851487 -0.72958964 0.00000000
-0.70163012 0.06980079 0.00000000
0.05577040 0.70934421 0.00000000
-0.29665682 0.21584100 0.00000000
0.35915801 0.71399158 0.05175315
-0.47786388 -0.65879023 0.00000000
-0.75261492 0.71438968 0.00000000
-0.35669091 0.37303302 0.00000000
0.46775684 0.02835897 0.00000000
0.12392749 -0.78763562 0.00000000
0.69560248 0.64307302 0.10206185
0.29856706 0.15792897 0.00000000
-0.39833891 0.19179812 0.00000000
0.52268159 0.67000771 0.07440211
0.10884067 0.19389258 0.00000000
-0.34630102 -0.61954921 0.00000000
-0.03450256 0.09765976 0.00000000
-0.78123981 0.01493741 0.00000000
0.32084891 -0.49613655 0.00000000
-0.39420378 0.11998782 0.00000000
0.59294617 -0.33189368 0.00000000
-0.64435202 0.12536669 0.00000000
-0.44560644 0.64443928 0.00000000
-0.42486230 0.37655249 0.00000000
0.15353216 0.22123875 0.00000000
-0.47486281 0.11365195 0.00000000
0.70255291 0.50976980 0.07812199
-0.54527253 0.27044377 0.00000000
0.24739985 -0.18095443 0.00000000
-0.71859425 -0.48497960 0.00000000
-0.75620472 0.23846459 0.00000000
0.44096795 0.45895573 0.01893235
0.11803286 -0.70791751 0.00000000
-0.39185238 -0.23233332 0.00000000
0.14727505 0.58176625 0.00000000
0.11794681 -0.75611508 0.00000000
0.56016493 0.11618022 0.00000000
-0.46943551 -0.54694605 0.00000000
0.00956042 0.66447890 0.00000000
0.35057956 0.78482383 0.06354827
-0.31568405 -0.13479896 0.00000000
-0.36732391 -0.37573680 0.00000000
-0.22463103 0.07362202 0.00000000
0.68070418 -0.73654747 0.00000000
-0.02593263 0.15364625 0.00000000
0.78778607 0.09430742 0.01555409
0.54420108 -0.49893823 0.00000000
0.37816441 0.50353086 0.01547864
-0.14181545 -0.04288087 0.00000000
-0.67511427 -0.50487226 0.00000000
0.00453543 -0.46065429 0.00000000
0.70951414 -0.47073987 0.00000000
0.20672368 -0.22891980 0.00000000
0.03971819 -0.75784439 0.00000000
0.21144523 -0.52087271 0.00000000
-0.69794339 0.42083988 0.00000000
-0.47963074 -0.14375585 0.00000000
0.58833009 -0.40649822 0.00000000
0.72233790 -0.79062545 0.00000000
-0.71668226 0.40585530 0.00000000
-0.57953447 0.41197729 0.00000000
-0.00716825 0.59490746 0.00000000
-0.49157390 0.19380330 0.00000000
0.06455346 0.16442575 0.00000000
-0.54667503 0.53449500 0.00000000
0.70393652 0.51740396 0.07983058
0.13553579 -0.05251525 0.00000000
-0.39791083 0.66843033 0.00000000
0.19882619 0.19794080 0.00000000
-0.08808980 0.58187532 0.00000000
-0.49584183 0.30457923 0.00000000
-0.30026588 0.30910644 0.00000000
0.17832318 -0.59879184 0.00000000
-0.46942660 0.67758876 0.00000000
-0.16422325 -0.58338869 0.00000000
0.71127498 -0.22327586 0.00000000
0.29406250 -0.22460622 0.00000000
0.00043242 0.60244966 0.00000000
-0.50842071 0.07108734 0.00000000
0.65926707 -0.79399645 0.00000000
0.29597211 0.71151060 0.03931135
0.39977461 -0.47003043 0.00000000
-0.69758183 0.59912795 0.00000000
0.19170927 0.31150946 0.00000000
0.38709617 -0.39155340 0.00000000
-0.50893342 0.68091691 0.00000000
0.56061637 0.41963753 0.03415236
0.64430243 -0.44558379 0.00000000
0.69355237 -0.02894834 0.00000000
0.45181397 0.14868864 0.00000000
-0.73668361 0.26974314 0.00000000
0.01684990 -0.19498615 0.00000000
-0.64700711 0.70995134 0.00000000
0.22327174 0.57681715 0.00001684
0.18839487 -0.33806449 0.00000000
-0.28653565 -0.51514190 0.00000000
-0.06331949 -0.17551963 0.00000000
0.66382527 -0.03348564 0.00000000
-0.62952369 0.25486928 0.00000000
0.01453258 -0.56804824 0.00000000
-0.41666633 0.08327920 0.00000000
-0.50868636 0.18368831 0.00000000
0.27067861 0.68286943 0.02909245
0.48621124 -0.06626118 0.00000000
-0.58345360 0.73832363 0.00000000
-0.59882730 -0.57411170 0.00000000
-0.05451729 -0.61645770 0.00000000
-0.63444757 0.55458432 0.00000000
-0.39766267 -0.10820359 0.00000000
0.66297615 0.36883649 0.04392109
-0.36608168 0.29706639 0.00000000
0.01204642 -0.43903580 0.00000000
0.07590956 0.42956147 0.00000000
-0.07186113 0.35042319 0.00000000
0.50801045 -0.08539840 0.00000000
0.14584410 0.57121736 0.00000000
0.09418290 -0.12988448 0.00000000
0.18379037 -0.12405711 0.00000000
0.38529775 0.78768557 0.07066846
0.34531894 -0.58421314 0.00000000
0.77590942 -0.61999756 0.00000000
-0.04197770 0.69309312 0.00000000
0.00276661 -0.13821083 0.00000000
0.33406982 -0.79725754 0.00000000
0.38745674 0.61966968 0.03924385
-0.78138006 0.55195886 0.00000000
-0.38643971 -0.50494951 0.00000000
0.35196790 -0.62131256 0.00000000
-0.05793956 -0.61149287 0.00000000
0.29138187 0.47139373 0.00000000
-0.39974114 -0.72401953 0.00000000
-0.56741983 0.57870770 0.00000000
-0.04951743 0.55671936 0.00000000
-0.55524319 0.40737435 0.00000000
0.29649016 -0.78709590 0.00000000
-0.07580731 -0.72985041 0.00000000
-0.07445899 0.66209120 0.00000000
0.29864058 0.28446463 0.00000000
0.75709265 0.28422090 0.04572121
-0.39595056 -0.52240002 0.00000000
-0.52150452 -0.54140300 0.00000000
-0.08438641 -0.27703965 0.00000000
-0.31386203 -0.61133313 0.00000000
-0.45660132 -0.70431012 0.00000000
-0.03840965 0.43680483 0.00000000
0.43167382 0.57546645 0.03924647
-0.00935706 0.46986684 0.00000000
-0.09465588 0.36067492 0.00000000
-0.21344624 0.45598871 0.00000000
-0.77572370 -0.51386088 0.00000000
-0.09265496 -0.70155489 0.00000000
-0.12125393 -0.12675349 0.00000000
-0.02287996 0.49638674 0.00000000
0.06495637 -0.06959161 0.00000000
0.75508696 -0.26477835 0.00000000
-0.28645200 0.77665144 0.00000000
-0.79768223 -0.51916474 0.00000000
-0.12175438 -0.01620177 0.00000000
-0.79943526 -0.02660814 0.00000000
0.78319865 -0.53934592 0.00000000
0.60383493 0.71069539 0.09748710
-0.56588948 -0.74469739 0.00000000
0.20544489 -0.20730171 0.00000000
0.61812848 -0.08031680 0.00000000
0.57893538 -0.52616423 0.00000000
-0.21508648 -0.70312393 0.00000000
0.49340549 0.43076047 0.02352548
0.10717191 -0.01168743 0.00000000
0.05196020 0.40766984 0.00000000
0.10550898 -0.10538933 0.00000000
0.76116258 0.23935561 0.03799179
-0.00037571 -0.39815393 0.00000000
-0.04833154 0.26529154 0.00000000
-0.62009251 0.57469153 0.00000000
-0.42318806 0.03948723 0.00000000
0.12105137 -0.51791024 0.00000000
0.52636224 -0.79539996 0.00000000
-0.04994028 0.04007086 0.00000000
-0.39882278 0.50501710 0.00000000
0.33229709 -0.09505940 0.00000000
-0.63952547 0.46432412 0.00000000
-0.54510546 0.39887837 0.00000000
-0.34959707 0.64930230 0.00000000
-0.37745976 0.56558472 0.00000000
-0.38615873 -0.58275336 0.00000000
0.30512452 0.16102505 0.00000000
0.67763841 -0.61348343 0.00000000
0.64854872 0.61951154 0.08868250
-0.00495157 0.06608413 0.00000000
0.27811712 0.32310578 0.00000000
-0.02551975 0.51864421 0.00000000
-0.39780158 -0.75118583 0.00000000
-0.40984273 0.23090209 0.00000000
0.71685398 0.47924873 0.07504882
-0.71247399 0.22933508 0.00000000
-0.27611324 -0.13893227 0.00000000
-0.38475502 -0.60735351 0.00000000
0.61204934 0.77885151 0.11195690
0.66615409 -0.68156272 0.00000000
0.51797432 -0.09212720 0.00000000
-0.41071263 0.09103002 0.00000000
0.77852982 0.42362723 0.07619593
-0.37293491 0.75918686 0.00000000
0.41274023 -0.18372983 0.00000000
0.55417889 0.09017983 0.00000000
-0.34409821 0.49597412 0.00000000
0.25428376 0.20185578 0.00000000
-0.41833428 -0.30465841 0.00000000
0.77954453 0.06234564 0.00793685
-0.45962945 0.01669984 0.00000000
0.09043112 0.13125660 0.00000000
0.55782115 -0.50282574 0.00000000
-0.28424981 0.66064918 0.00000000
-0.14150086 0.63156849 0.00000000
-0.56793123 -0.02692271 0.00000000
0.44666180 0.27860215 0.00000000
0.53659916 0.59564704 0.06295005
-0.13980389 0.31463316 0.00000000
0.32782891 0.50525463 0.00626827
-0.10824618 -0.23719031 0.00000000
-0.74463880 -0.27940258 0.00000000
0.77550018 0.51943535 0.09377450
-0.13871005 -0.45832422 0.00000000
0.41814163 -0.47998118 0.00000000
0.69184363 0.31697834 0.03956510
0.35447189 -0.79967988 0.00000000
-0.00502320 0.40176791 0.00000000
0.51151735 0.23894486 0.00000000
-0.43316674 -0.62292576 0.00000000
-0.01089828 0.20525120 0.00000000
0.40556854 -0.76390046 0.00000000
0.00716783 -0.20093238 0.00000000
-0.67955428 0.35277584 0.00000000
-0.03930069 0.41639018 0.00000000
0.09272782 0.01591599 0.00000000
0.22738504 -0.77321696 0.00000000
0.21648902 0.66377193 0.01520689
0.68428773 0.33729574 0.04198300
0.03710885 -0.13812204 0.00000000
-0.59119409 0.00534469 0.00000000
-0.03403004 -0.31894654 0.00000000
0.31540227 -0.50032187 0.00000000
0.06789226 -0.67743474 0.00000000
0.09817338 0.76568276 0.01209870
-0.45198488 -0.42827961 0.00000000
-0.06394893 -0.74733835 0.00000000
0.50940591 -0.45029151 0.00000000
0.48866513 0.75693351 0.08442675
0.47848141 -0.68708122 0.00000000
0.01318009 0.30698508 0.00000000
0.35717899 0.69893837 0.04852607
-0.15014644 -0.23929574 0.00000000
0.17617074 -0.66352975 0.00000000
0.76385719 0.76317644 0.13774972
-0.77608019 0.72989833 0.00000000
0.37167200 0.24923462 0.00000000
-0.27447018 0.53136569 0.00000000
0.19346203 -0.05591137 0.00000000
0.59194410 -0.12243793 0.00000000
0.57243264 -0.48039168 0.00000000
0.63154048 -0.58461684 0.00000000
0.32478213 -0.76761508 0.00000000
0.12578651 -0.15249403 0.00000000
0.00551601 -0.62041533 0.00000000
-0.75632364 0.77394921 0.00000000
-0.01170746 0.15797053 0.00000000
-0.05372431 -0.59581512 0.00000000
0.60674584 0.35653177 0.03093589
0.17974000 -0.23327006 0.00000000
-0.12595999 0.56484091 0.00000000
0.06313996 0.12809707 0.00000000
0.60975981 -0.41845176 0.00000000
-0.76533484 -0.17186724 0.00000000
0.32224545 0.31918004 0.00000000
-0.39011592 -0.49050453 0.00000000
-0.69407946 0.35820574 0.00000000
-0.58643043 -0.59761071 0.00000000
-0.26628906 0.12387385 0.00000000
-0.68846363 0.12846868 0.00000000
0.66584998 0.42797261 0.05567000
0.22837058 0.51143831 0.00000000
-0.08352676 0.57428116 0.00000000
-0.27363619 0.45934948 0.00000000
0.48132956 0.75662833 0.08297907
-0.67651647 0.29986101 0.00000000
-0.15803652 0.24181455 0.00000000
-0.77171898 0.03750246 0.00000000
0.11232203 -0.53903812 0.00000000
0.79794824 0.02921545 0.00514665
0.02001656 -0.34133360 0.00000000
0.41813082 -0.31958309 0.00000000
-0.48768410 0.40907288 0.00000000
-0.37736201 0.04842999 0.00000000
0.43340611 -0.34401709 0.00000000
-0.24149138 0.51403248 0.00000000
0.76102930 -0.18725339 0.00000000
-0.59714413 0.48935181 0.00000000
-0.28807631 0.01741710 0.00000000
0.64465576 0.67181432 0.09785463
0.53030914 0.23795377 0.00000000
-0.77541846 -0.11841458 0.00000000
0.21181615 -0.03714407 0.00000000
0.61215621 0.61276060 0.08050819
-0.77736086 0.16065355 0.00000000
0.68970931 0.69499826 0.11078345
-0.37740371 -0.14623798 0.00000000
-0.37831110 -0.13206045 0.00000000
0.42495325 -0.68080670 0.00000000
0.78611070 0.00940438 0.00000000
-0.18242665 -0.04245727 0.00000000
-0.62968606 0.38962290 0.00000000
-0.76001942 -0.22164305 0.00000000
0.20254616 -0.30765659 0.00000000
0.41579255 -0.10577262 0.00000000
0.71966034 0.68865973 0.11525727
0.70396876 0.03370314 0.00000000
-0.57766205 -0.09413085 0.00000000
0.49872178 -0.31486225 0.00000000
0.28621411 0.15943672 0.00000000
0.53302068 0.58925807 0.06106153
-0.22206923 0.46773449 0.00000000
0.22097304 0.60771674 0.00543579
-0.65872133 -0.77915370 0.00000000
0.51208037 0.79065955 0.09525321
0.65760767 -0.14539988 0.00000000
0.12116672 0.23390923 0.00000000
-0.40077075 -0.24442215 0.00000000
0.78981441 -0.40079388 0.00000000
0.21445903 -0.77530259 0.00000000
-0.48184305 0.33287677 0.00000000
-0.46106711 -0.73878038 0.00000000
-0.29796156 0.15980674 0.00000000
0.72238183 -0.42021078 0.00000000
0.02201039 0.77644706 0.00000000
-0.40790328 0.29256389 0.00000000
-0.02220762 -0.18404621 0.00000000
-0.58371544 -0.59540683 0.00000000
-0.33311555 0.15247574 0.00000000
-0.47827631 -0.09987620 0.00000000
0.32388628 0.09280579 0.00000000
-0.18195835 -0.35978055 0.00000000
0.40896142 0.24338619 0.00000000
-0.07217348 -0.54819161 0.00000000
0.06290549 0.04649001 0.00000000
0.57025361 -0.32761335 0.00000000
-0.01535697 0.63830608 0.00000000
-0.53794825 0.23922203 0.00000000
-0.31715742 0.56284094 0.00000000
0.33836535 0.53728181 0.01433272
-0.74647892 0.41890171 0.00000000
-0.22280267 -0.79874033 0.00000000
-0.05757759 0.47840557 0.00000000
-0.08513732 0.70144463 0.00000000
0.33423206 0.21954842 0.00000000
0.18014418 0.39105308 0.00000000
-0.00869284 -0.59473991 0.00000000
-0.00423671 -0.08724767 0.00000000
0.18681949 0.16010351 0.00000000
-0.76945257 0.56225014 0.00000000
0.54055732 -0.09387881 0.00000000
-0.19061396 -0.64204448 0.00000000
0.19420569 0.78542507 0.03403430
0.12690680 0.66150767 0.00000000
-0.79818743 -0.60538083 0.00000000
0.76240724 0.66208655 0.11832168
-0.18883918 -0.44324607 0.00000000
0.72938293 0.08226964 0.00220779
0.12724262 0.39720786 0.00000000
-0.64754546 0.61818606 0.00000000
-0.28123263 -0.03984046 0.00000000
-0.71187168 0.29093432 0.00000000
-0.43957981 0.53222805 0.00000000
-0.44797730 -0.78737658 0.00000000
-0.01029056 0.25041500 0.00000000
0.11201409 -0.73784488 0.00000000
-0.67695177 -0.10895277 0.00000000
-0.31024203 0.25045776 0.00000000
-0.36557099 0.47186401 0.00000000
-0.05002328 0.50438690 0.00000000
0.48339072 -0.34979972 0.00000000
-0.48554677 0.01638372 0.00000000
-0.64266336 0.10316910 0.00000000
-0.58620948 0.57126814 0.00000000
0.65078348 -0.64015085 0.00000000
-0.64140153 0.50553864 0.00000000
0.03701771 -0.15480116 0.00000000
-0.77213317 0.69199091 0.00000000
0.04360662 -0.41351378 0.00000000
0.33505255 -0.18590561 0.00000000
-0.74808401 -0.24669211 0.00000000
-0.01440995 0.37291983 0.00000000
0.52139103 -0.67328447 0.00000000
-0.49500006 -0.56281823 0.00000000
0.36517701 -0.02623689 0.00000000
-0.56414801 0.79061395 0.00000000
-0.73481315 0.61305487 0.00000000
0.19759221 -0.74866223 0.00000000
-0.64279509 -0.47724080 0.00000000
-0.41548541 0.21255226 0.00000000
-0.77980787 0.48819840 0.00000000
-0.40808177 0.35949111 0.00000000
0.27058023 0.56011003 0.00581482
0.63843644 0.16794759 0.00120957
0.16309652 -0.45375529 0.00000000
0.23978992 0.64657855 0.01636407
-0.55876082 -0.56216455 0.00000000
0.42014959 -0.76019931 0.00000000
-0.25629494 0.64843470 0.00000000
0.58407718 -0.67735314 0.00000000
0.46570712 -0.02398138 0.00000000
0.36488029 0.27988455 0.00000000
0.52857512 -0.05300382 0.00000000
-0.44500586 0.46959585 0.00000000
-0.12485356 0.65114820 0.00000000
-0.37985992 0.28522748 0.00000000
-0.19837353 -0.10040612 0.00000000
-0.48519477 0.26166674 0.00000000
0.77809846 -0.34763119 0.00000000
-0.37733999 0.67844963 0.00000000
0.56043631 -0.11987025 0.00000000
-0.42158502 0.69542801 0.00000000
-0.46588108 0.44799003 0.00000000
-0.59442377 -0.28510174 0.00000000
-0.52772850 -0.24269673 0.00000000
-0.66165286 -0.53995454 0.00000000
-0.27326447 0.46514753 0.00000000
0.21213090 -0.19826940 0.00000000
0.24801984 -0.12986235 0.00000000
-0.55047268 0.69111210 0.00000000
-0.71785814 0.68643922 0.00000000
0.64177984 0.76259375 0.11450955
0.34841341 -0.36576688 0.00000000
0.35239863 0.68597865 0.04516489
-0.74881124 -0.63159251 0.00000000
-0.21005084 0.66214281 0.00000000
0.52003431 -0.22906163 0.00000000
0.64515829 0.74711394 0.11221673
-0.72866184 -0.01267956 0.00000000
-0.73821253 -0.20048712 0.00000000
-0.39005294 -0.65426946 0.00000000
-0.32720920 0.26321957 0.00000000
0.32500052 -0.59560096 0.00000000
-0.18729591 0.03247788 0.00000000
-0.51740086 0.68241608 0.00000000
0.39775106 0.77857983 0.07130273
-0.03033664 0.13673128 0.00000000
-0.41404316 0.18335207 0.00000000
0.77685374 -0.79843843 0.00000000
-0.12208142 0.47562930 0.00000000
0.58673656 -0.34924495 0.00000000
-0.19858691 -0.65417063 0.00000000
0.26013693 0.74310231 0.03850736
-0.29758361 0.02660468 0.00000000
-0.44615465 0.32984978 0.00000000
-0.38278317 -0.61163896 0.00000000
-0.03799633 -0.74512684 0.00000000
-0.37063894 0.08075620 0.00000000
0.65099216 0.61042434 0.08742372
0.28159004 0.27729711 0.00000000
-0.50526243 -0.70537877 0.00000000
0.55820358 0.76585513 0.09929244
-0.72592646 -0.36481386 0.00000000
0.71731079 -0.37356266 0.00000000
0.63432461 0.26479048 0.01877915
0.70593953 -0.74961722 0.00000000
-0.47168428 -0.42942816 0.00000000
-0.30480137 0.16815744 0.00000000
-0.33940682 0.71698987 0.00000000
-0.66679406 0.16863067 0.00000000
0.54718608 -0.60610026 0.00000000
-0.23656920 -0.39577645 0.00000000
0.06941017 -0.71665168 0.00000000
0.65412545 -0.31308356 0.00000000
0.39228338 -0.51494837 0.00000000
0.16472973 -0.26800066 0.00000000
-0.67927384 -0.01432095 0.00000000
0.27425629 -0.40132165 0.00000000
-0.12332928 -0.08753509 0.00000000
0.18999726 0.47567859 0.00000000
0.61838508 -0.22146066 0.00000000
-0.72762203 -0.74790919 0.00000000
0.33109781 -0.55261844 0.00000000
-0.50646842 -0.61348391 0.00000000
-0.14509988 -0.38364568 0.00000000
-0.79688853 0.47349352 0.00000000
0.32924068 0.52254623 0.00981196
0.58082420 0.51977956 0.05695482
-0.41944033 0.24714650 0.00000000
0.01776544 0.56072623 0.00000000
-0.47115830 -0.20777892 0.00000000
-0.07968739 0.52986234 0.00000000
0.44920194 -0.16252819 0.00000000
-0.73502868 -0.23018369 0.00000000
-0.36458218 0.48879436 0.00000000
0.21315806 0.46867669 0.00000000
0.32168859 -0.74204737 0.00000000
-0.76445454 0.53536087 0.00000000
0.59894681 0.32479411 0.02344495
0.58912945 -0.02886859 0.00000000
0.57503289 0.60837352 0.07264329
-0.62270528 -0.09012594 0.00000000
-0.64865243 0.00107505 0.00000000
-0.70237184 0.31590539 0.00000000
-0.71438575 0.64704269 0.00000000
0.11479370 -0.43412447 0.00000000
0.48034146 0.38992214 0.01331270
-0.56332815 0.31170940 0.00000000
0.72518444 -0.76417679 0.00000000
0.79255027 -0.09327865 0.00000000
-0.13534483 -0.55559039 0.00000000
0.53553152 0.66754854 0.07637082
-0.59608132 -0.28839254 0.00000000
-0.24950254 -0.02327062 0.00000000
-0.10221596 0.40989500 0.00000000
0.24478245 0.50151825 0.00000000
0.42765892 -0.38026318 0.00000000
0.78449196 -0.16693275 0.00000000
-0.31795108 -0.52643585 0.00000000
0.71254873 -0.69747788 0.00000000
0.36902770 0.32138327 0.00000000
-0.21419156 -0.55062413 0.00000000
0.61166006 -0.50594491 0.00000000
-0.28644371 0.20908654 0.00000000
-0.56495607 -0.55196106 0.00000000
-0.42779800 0.13813636 0.00000000
0.74889082 0.72405851 0.12750246
-0.09953274 -0.16320378 0.00000000
-0.09983916 0.42679590 0.00000000
0.58754545 0.14627782 0.00000000
0.70454395 -0.27194160 0.00000000
0.23122638 -0.50722039 0.00000000
-0.45208439 0.32560101 0.00000000
-0.20585226 0.19570871 0.00000000
0.12007200 0.09641351 0.00000000
0.55623043 -0.33297229 0.00000000
0.54575378 -0.50462264 0.00000000
0.76521987 -0.63952410 0.00000000
0.77851528 -0.28438562 0.00000000
-0.56516296 -0.06838567 0.00000000
-0.33844540 -0.67231655 0.00000000
0.19361535 -0.08348013 0.00000000
-0.38321459 0.02979459 0.00000000
0.42112023 0.10420728 0.00000000
0.02059711 0.04201051 0.00000000
-0.04863881 -0.59060997 0.00000000
0.38374114 0.43736202 0.00399837
-0.48587051 -0.03825386 0.00000000
-0.37596753 -0.10412845 0.00000000
-0.29717574 -0.72300988 0.00000000
0.68956083 -0.61686760 0.00000000
0.62763476 0.24769479 0.01427255
0.09485998 0.76043862 0.01047732
-0.07042368 -0.42182133 0.00000000
-0.08753761 -0.38648510 0.00000000
-0.39938402 0.04274064 0.00000000
0.43434033 0.31749353 0.00000000
-0.40677363 0.48588294 0.00000000
0.70531070 0.38567132 0.05513180
-0.05777042 0.20822348 0.00000000
-0.19087230 -0.27020526 0.00000000
0.45716494 0.07722818 0.00000000
-0.62196791 -0.14146562 0.00000000
-0.53101850 -0.42563015 0.00000000
-0.42453310 0.37417910 0.00000000
-0.65845644 0.13479839 0.00000000
-0.35461122 -0.10501725 0.00000000
0.73205519 -0.71149242 0.00000000
-0.27365533 -0.25264311 0.00000000
-0.05752311 -0.36442080 0.00000000
-0.43776491 -0.31882542 0.00000000
-0.13301767 0.61888564 0.00000000
-0.39455396 0.29335862 0.00000000
-0.26640978 -0.59683299 0.00000000
-0.01989828 0.40342036 0.00000000
0.77217257 -0.15287249 0.00000000
-0.13584161 -0.74320769 0.00000000
-0.21817327 0.16250473 0.00000000
0.71010786 0.38755855 0.05639828
0.68805248 -0.11795096 0.00000000
0.54290855 -0.01514992 0.00000000
0.46075124 0.06659092 0.00000000
0.15109494 0.22952265 0.00000000
-0.30502221 0.61194456 0.00000000
0.20230445 -0.72800243 0.00000000
-0.23008962 -0.09064605 0.00000000
-0.14578028 -0.42227775 0.00000000
0.05591905 0.66896313 0.00000000
-0.56900811 0.40520573 0.00000000
-0.38437021 -0.02885051 0.00000000
0.02408558 -0.39780989 0.00000000
-0.51389050 -0.43522391 0.00000000
0.41355175 -0.75408524 0.00000000
-0.53534794 -0.59190261 0.00000000
-0.20142066 0.76932961 0.00000000
-0.50657028 0.17979299 0.00000000
0.52579194 -0.24373953 0.00000000
0.26491311 0.67930889 0.02732546
-0.50323701 -0.75697702 0.00000000
-0.01885929 -0.70174253 0.00000000
0.60447657 0.36637104 0.03237017
-0.03081052 0.25883889 0.00000000
0.77723271 0.33529985 0.05921495
-0.49604720 -0.78713924 0.00000000
-0.50801218 -0.22588933 0.00000000
0.00296852 0.09419376 0.00000000
0.00784330 -0.18225297 0.00000000
0.78324521 -0.32108399 0.00000000
-0.19537339 -0.58810395 0.00000000
0.07976504 -0.57222378 0.00000000
-0.49346945 -0.31467611 0.00000000
0.71359557 0.66842985 0.11027528
0.13429178 0.45542777 0.00000000
-0.65270257 -0.56312662 0.00000000
0.05131494 -0.70268875 0.00000000
0.77061838 0.23425572 0.03881710
-0.60924268 -0.66312480 0.00000000
0.45348671 0.31171560 0.00000000
-0.06697191 -0.07166509 0.00000000
-0.66784155 0.22734059 0.00000000
-0.37857351 -0.48708731 0.00000000
0.78210503 -0.77424943 0.00000000
0.08389497 -0.23288514 0.00000000
-0.65292042 -0.39834559 0.00000000
-0.66344219 -0.35881695 0.00000000
-0.24106517 -0.49055162 0.00000000
0.32207632 0.56510895 0.01651883
0.17295338 0.39881438 0.00000000
0.53598046 -0.02855189 0.00000000
0.33684820 -0.12092692 0.00000000
0.58406711 0.62709051 0.07790126
0.63485742 -0.73436898 0.00000000
-0.27258533 0.29023239 0.00000000
-0.09522992 -0.04549215 0.00000000
-0.20969452 -0.37838653 0.00000000
-0.65764850 0.22910075 0.00000000
0.61641693 -0.09631651 0.00000000
0.27251458 0.24523874 0.00000000
0.59968102 0.54396486 0.06510993
0.10908537 0.55213851 0.00000000
0.48841590 -0.39168450 0.00000000
-0.50203413 0.03401391 0.00000000
0.25301141 -0.12886114 0.00000000
0.33173865 0.19394071 0.00000000
0.12478913 -0.19132067 0.00000000
0.64870560 0.38428205 0.04414372
0.44211835 0.49629483 0.02622488
-0.43337700 -0.18264849 0.00000000
-0.18910185 -0.25162819 0.00000000
0.17718045 0.77457571 0.02875295
-0.74289757 -0.54028165 0.00000000
0.10342724 0.71156126 0.00283984
0.25086176 -0.11186638 0.00000000
-0.02465964 0.75190437 0.00000000
0.69777119 -0.37240708 0.00000000
0.09744083 -0.25336736 0.00000000
-0.20264688 0.76208299 0.00000000
-0.10973005 0.47960073 0.00000000
-0.39632756 0.56876856 0.00000000
0.37489489 0.48685226 0.01169911
0.34849218 -0.16739628 0.00000000
0.03066299 -0.34104386 0.00000000
0.05373315 -0.44057444 0.00000000
-0.12688909 -0.33265707 0.00000000
-0.48742735 -0.68686688 0.00000000
-0.04826345 -0.61148053 0.00000000
0.51480365 0.59403127 0.05851436
0.45869383 0.26734400 0.00000000
-0.77254170 -0.47683617 0.00000000
0.08326602 0.74063158 0.00452783
0.78546238 -0.15284234 0.00000000
0.71770102 0.01025379 0.00000000
0.13152210 0.30053505 0.00000000
-0.10869825 0.27501801 0.00000000
-0.05640848 0.76286447 0.00000000
0.08143281 -0.55438590 0.00000000
0.67931527 -0.12480240 0.00000000
-0.04128930 0.56647891 0.00000000
-0.78984535 0.69083267 0.00000000
0.76209915 -0.52613175 0.00000000
0.15836498 -0.44643590 0.00000000
-0.23785201 0.54962784 0.00000000
-0.12657975 -0.05511148 0.00000000
0.20668851 -0.29081175 0.00000000
-0.52129716 0.21742214 0.00000000
-0.27025974 -0.00189488 0.00000000
0.53757310 0.48186332 0.04157619
0.34038997 -0.03098809 0.00000000
-0.10641319 0.77813256 0.00000000
-0.09394402 0.16947432 0.00000000
-0.21045238 0.06824520 0.00000000
-0.09202599 -0.64785457 0.00000000
0.77846247 0.55771184 0.10158794
0.76674533 -0.72668290 0.00000000
-0.48704839 0.72076309 0.00000000
-0.72970831 -0.49785924 0.00000000
-0.64101058 -0.70503861 0.00000000
-0.36269006 -0.32386866 0.00000000
-0.63587761 -0.25457314 0.00000000
0.71203637 0.41927290 0.06277253
0.61434799 -0.44188425 0.00000000
-0.45391181 0.51726425 0.00000000
0.64348459 -0.34708634 0.00000000
0.67242199 0.00466028 0.00000000
0.25128344 0.64103854 0.01749207
0.45074680 -0.57898778 0.00000000
0.09681222 -0.48123023 0.00000000
0.33629012 0.37545311 0.00000000
0.63725477 0.32240379 0.03025020
0.33377874 0.12100329 0.00000000
-0.10756006 -0.76098168 0.00000000
-0.57196039 -0.43748805 0.00000000
0.35097075 -0.68264335 0.00000000
-0.14416957 -0.68166876 0.00000000
-0.59769899 0.19507805 0.00000000
-0.70717651 -0.60718447 0.00000000
-0.48897976 0.51545227 0.00000000
0.51602697 0.07796133 0.00000000
-0.79509145 0.61351132 0.00000000
-0.63373429 0.50799596 0.00000000
0.17784084 0.42397419 0.00000000
-0.28566211 0.22211978 0.00000000
-0.23409089 -0.47882932 0.00000000
0.55542356 -0.33291861 0.00000000
0.50927651 -0.69755155 0.00000000
0.12126186 0.73306030 0.01029232
0.17450941 0.62585533 0.00006910
-0.32094574 0.04630956 0.00000000
-0.51789618 0.58597863 0.00000000
-0.41188762 0.62404877 0.00000000
0.10928339 0.42108789 0.00000000
-0.06852784 0.79828888 0.00000000
-0.43121624 0.61023819 0.00000000
-0.00731603 -0.11095851 0.00000000
-0.42920277 -0.57845497 0.00000000
-0.34361202 -0.16443080 0.00000000
-0.74938011 0.00337795 0.00000000
0.52135712 0.06792171 0.00000000
-0.67419457 -0.44542328 0.00000000
0.28966755 -0.47275797 0.00000000
-0.50885957 -0.48978886 0.00000000
-0.29845330 -0.28477949 0.00000000
-0.78649145 -0.33772007 0.00000000
-0.44082746 0.49550116 0.00000000
0.31798783 0.09162999 0.00000000
-0.71240544 0.31976047 0.00000000
0.72109622 -0.42919528 0.00000000
0.23139015 0.10004058 0.00000000
-0.35030171 -0.50660980 0.00000000
-0.71517569 0.47824290 0.00000000
0.61698991 -0.41837677 0.00000000
0.58971208 0.26208517 0.00981393
-0.21566299 -0.75181311 0.00000000
0.49032646 0.18570960 0.00000000
-0.52618003 0.41579923 0.00000000
0.73476738 0.06349751 0.00000000
-0.37196484 -0.06997869 0.00000000
-0.46142256 0.02212046 0.00000000
-0.26203454 0.60433209 0.00000000
-0.41406548 0.49901751 0.00000000
-0.49020514 0.56648225 0.00000000
0.75959963 -0.77945733 0.00000000
0.34567362 0.37952471 0.00000000
-0.02942552 0.63070256 0.00000000
0.48480457 0.76607651 0.08542760
-0.43453968 0.04244026 0.00000000
-0.25316215 0.07898159 0.00000000
-0.75183535 0.36647579 0.00000000
0.06160223 -0.07084593 0.00000000
-0.36739489 -0.78092313 0.00000000
-0.52805352 -0.65247905 0.00000000
-0.42571181 -0.02385651 0.00000000
-0.71092969 -0.09777061 0.00000000
0.55968195 -0.02768395 0.00000000
-0.09054300 0.40960988 0.00000000
0.51771879 0.07613305 0.00000000
0.24177907 0.24488582 0.00000000
-0.69529188 0.66566950 0.00000000
-0.70847130 0.67500806 0.00000000
-0.75781941 0.53673387 0.00000000
-0.50917411 0.60603249 0.00000000
-0.04911238 -0.15306927 0.00000000
-0.35526347 0.73347747 0.00000000
-0.27670237 0.76413363 0.00000000
-0.52403599 0.76850367 0.00000000
0.19033284 -0.62540609 0.00000000
0.52837902 0.33231676 0.01149991
-0.67037076 -0.17710951 0.00000000
0.61921835 0.47335032 0.05543242
0.23039542 -0.07035970 0.00000000
-0.55884993 -0.19454910 0.00000000
-0.12306171 0.46143869 0.00000000
0.58285451 0.60745597 0.07395139
0.32750520 0.71483231 0.04591523
-0.30393174 -0.13209943 0.00000000
-0.32018709 -0.72281981 0.00000000
-0.04496983 -0.38984454 0.00000000
-0.00388959 -0.70058441 0.00000000
0.28030100 -0.15289940 0.00000000
0.14055027 0.78828132 0.02440948
-0.67859465 0.56930488 0.00000000
0.27660254 -0.10313269 0.00000000
-0.50856417 -0.48715150 0.00000000
-0.35666952 -0.27740663 0.00000000
-0.15344481 -0.63685566 0.00000000
-0.64527965 -0.09591874 0.00000000
0.60938615 0.38348371 0.03654268
0.69848812 0.45462519 0.06690371
0.19753227 -0.51526034 0.00000000
-0.71249241 -0.40314659 0.00000000
-0.29469317 0.03933208 0.00000000
-0.73244786 -0.27326670 0.00000000
-0.01529042 -0.52687359 0.00000000
0.36217955 -0.74139225 0.00000000
0.60124302 0.41584468 0.04113119
0.78604263 -0.69224948 0.00000000
0.25309527 -0.67758983 0.00000000
-0.72983605 -0.78560323 0.00000000
-0.13704298 0.56867284 0.00000000
-0.65413845 -0.62996662 0.00000000
-0.54417539 0.52088982 0.00000000
0.07088658 -0.66231883 0.00000000
-0.69557923 -0.70115060 0.00000000
-0.26457945 0.11148815 0.00000000
-0.10342028 0.36693910 0.00000000
0.46693572 -0.32467875 0.00000000
-0.58848530 -0.56416065 0.00000000
-0.53315902 0.52104753 0.00000000
-0.55983543 -0.48874584 0.00000000
0.62797225 -0.37742960 0.00000000
-0.22904813 0.39998898 0.00000000
0.35125422 0.31914580 0.00000000
-0.25588900 -0.64245808 0.00000000
0.23904330 -0.22842205 0.00000000
-0.53706479 -0.19089635 0.00000000
0.08724335 0.77127033 0.01108648
0.69214594 0.42783210 0.06062563
-0.29699156 0.79088479 0.00000000
0.29208311 0.75179994 0.04620807
0.12828179 -0.77488732 0.00000000
0.65397424 -0.09567302 0.00000000
-0.01721875 -0.24861383 0.00000000
0.17390072 0.47966510 0.00000000
-0.70502800 -0.68208647 0.00000000
0.30263022 0.60759509 0.02088417
0.74338299 0.00825638 0.00000000
-0.00171353 -0.43044877 0.00000000
-0.12307884 0.28971586 0.00000000
0.17279905 -0.58308715 0.00000000
-0.78960323 0.68073726 0.00000000
-0.03067630 0.03016032 0.00000000
-0.71452588 0.38988143 0.00000000
0.79364163 -0.09343552 0.00000000
0.68860090 -0.73259264 0.00000000
-0.69754070 0.56057060 0.00000000
-0.43627185 -0.59251124 0.00000000
-0.57200629 0.37337577 0.00000000
0.48817199 0.67783779 0.06934719
-0.11618452 -0.53865224 0.00000000
0.13667482 0.45327669 0.00000000
0.21704762 0.46846285 0.00000000
-0.43892443 0.51303041 0.00000000
-0.39980483 -0.22397138 0.00000000
0.20504782 0.25526196 0.00000000
-0.74406439 0.65194303 0.00000000
0.16650124 0.70116872 0.01282130
0.23100568 0.24293548 0.00000000
0.45284891 -0.71807140 0.00000000
0.01893026 -0.62306458 0.00000000
-0.59473115 -0.46654594 0.00000000
0.62008607 0.14706706 0.00000000
-0.54335845 0.59988981 0.00000000
-0.64218146 0.47110045 0.00000000
-0.25853643 0.34847447 0.00000000
0.42393970 -0.78736407 0.00000000
-0.67194116 -0.13685833 0.00000000
0.78474075 0.09776234 0.01563170
0.56361228 -0.61189514 0.00000000
0.58487815 0.56117153 0.06556537
-0.43470347 -0.42815694 0.00000000
0.29259092 0.51006687 0.00050357
0.40085265 0.21975501 0.00000000
0.20047760 -0.15680428 0.00000000
0.32591924 0.43500686 0.00000000
0.16554934 0.19930114 0.00000000
0.20792747 0.40078428 0.00000000
0.48956400 -0.60187286 0.00000000
-0.41721892 0.54514641 0.00000000
0.45222819 0.71937513 0.07040699
-0.20214067 -0.05769251 0.00000000
0.46058345 -0.16589889 0.00000000
0.75059086 -0.14580019 0.00000000
0.46142983 -0.18696320 0.00000000
0.16091914 -0.15463252 0.00000000
0.33040395 -0.53687572 0.00000000
0.22359587 0.35524124 0.00000000
-0.38372615 0.28777754 0.00000000
0.64430410 0.32926726 0.03288624
0.37890628 0.39914760 0.00000000
0.30620936 -0.47614333 0.00000000
0.72259533 -0.00189271 0.00000000
-0.37522113 0.29842150 0.00000000
-0.26160339 -0.32887560 0.00000000
-0.15602715 -0.58184063 0.00000000
0.70693654 -0.28629565 0.00000000
0.77198559 -0.70614308 0.00000000
-0.13590959 -0.43888694 0.00000000
-0.52812868 -0.31986731 0.00000000
0.46994808 -0.11123127 0.00000000
0.74085259 -0.45768932 0.00000000
0.39802822 -0.77205700 0.00000000
0.26236385 0.59821016 0.01147683
-0.14579733 0.34414440 0.00000000
-0.78659469 -0.54538542 0.00000000
-0.69808638 0.18274479 0.00000000
0.30570316 0.11418414 0.00000000
-0.73189992 -0.55202526 0.00000000
-0.03024085 -0.60957187 0.00000000
0.10272950 0.34025848 0.00000000
0.35257789 0.13624328 0.00000000
-0.12621482 0.42788118 0.00000000
-0.00879491 0.10285887 0.00000000
-0.06251533 0.09122823 0.00000000
0.72591370 0.20837307 0.02544306
0.16590887 -0.00729367 0.00000000
0.74321860 -0.02090875 0.00000000
0.16239668 -0.65982276 0.00000000
0.01511985 -0.12153083 0.00000000
0.65517843 0.41075662 0.05038621
-0.15155958 0.04571918 0.00000000
0.13245454 0.41567150 0.00000000
0.49649963 0.61351103 0.05873713
0.02392007 0.78681594 0.00203413
0.33846596 -0.20637564 0.00000000
-0.06202474 -0.69880646 0.00000000
0.43975776 0.47417116 0.02158589
0.79504955 0.07458910 0.01319430
0.35262230 0.35487804 0.00000000
-0.42594048 -0.43602613 0.00000000
0.38971660 -0.32202092 0.00000000
0.00494283 -0.11421678 0.00000000
0.70830810 -0.03926449 0.00000000
-0.66613221 -0.71846616 0.00000000
-0.32300556 -0.49720418 0.00000000
0.17406207 0.66403681 0.00721852
-0.66384798 -0.11141638 0.00000000
-0.18540843 0.76942170 0.00000000
0.77225596 -0.55389845 0.00000000
-0.66748887 -0.08367450 0.00000000
-0.22850162 0.42567784 0.00000000
0.00903541 0.03366158 0.00000000
-0.70537448 -0.55075151 0.00000000
-0.59517407 0.38702482 0.00000000
0.26851308 0.12781604 0.00000000
-0.25160840 -0.58361250 0.00000000
-0.38462719 0.33969885 0.00000000
0.60736763 0.05873814 0.00000000
-0.28097978 0.41839167 0.00000000
-0.47223401 -0.44625217 0.00000000
0.49753454 -0.76540554 0.00000000
-0.61764294 -0.40164706 0.00000000
0.67141920 0.42396221 0.05596535
-0.72326249 -0.62769324 0.00000000
0.16974469 0.25255898 0.00000000
-0.40210381 0.21847349 0.00000000
0.14199816 -0.74426556 0.00000000
-0.40322918 0.04422140 0.00000000
0.24303415 -0.02179672 0.00000000
0.35027286 -0.23580869 0.00000000
-0.76126969 0.37978047 0.00000000
-0.01989731 0.53880066 0.00000000
-0.32384753 -0.71458822 0.00000000
0.36425877 -0.23325108 0.00000000
0.39443570 0.57371145 0.03185851
-0.31417131 0.51764268 0.00000000
-0.01796174 0.17091286 0.00000000
-0.69727814 -0.50380403 0.00000000
0.76619786 0.31778166 0.05380505
-0.17164859 0.25573462 0.00000000
0.39344794 0.01863386 0.00000000
0.24685134 -0.60961133 0.00000000
-0.00636284 0.31749105 0.00000000
-0.62131578 0.58746797 0.00000000
0.56279635 -0.54147243 0.00000000
-0.27876619 -0.62804294 0.00000000
0.64640731 0.22542313 0.01360957
0.13100903 -0.50469583 0.00000000
0.54099363 0.76052213 0.09502127
0.70155269 -0.46649382 0.00000000
0.53457814 -0.37747467 0.00000000
-0.59644490 -0.04208330 0.00000000
0.55874854 -0.34158862 0.00000000
-0.30425528 -0.06277571 0.00000000
0.10441120 -0.34352934 0.00000000
0.64625347 -0.52435726 0.00000000
0.26654112 -0.16542386 0.00000000
-0.18638766 0.38840187 0.00000000
0.15332453 -0.36568299 0.00000000
0.03591245 -0.76696771 0.00000000
0.35068065 -0.15772803 0.00000000
-0.20274554 -0.75639927 0.00000000
0.63436496 -0.26587719 0.00000000
0.17886610 0.69123566 0.01328205
-0.35196310 -0.14840367 0.00000000
0.64268136 0.48703691 0.06247109
-0.27966979 -0.69730121 0.00000000
-0.38369563 0.00699694 0.00000000
-0.41071478 0.28019729 0.00000000
0.52729237 0.37388510 0.01916990
-0.33121565 0.26698396 0.00000000
-0.76558912 0.17285620 0.00000000
0.31004402 0.61458766 0.02361372
0.29885101 -0.55869740 0.00000000
-0.22921441 -0.59674215 0.00000000
-0.11596974 0.20780095 0.00000000
0.29009938 -0.53496975 0.00000000
-0.54415041 -0.46909621 0.00000000
-0.42295372 0.42348003 0.00000000
0.37348205 0.49356130 0.01270257
0.08983138 -0.12237479 0.00000000
0.42627493 -0.73469406 0.00000000
-0.21540453 0.02883898 0.00000000
0.18112402 0.65857536 0.00752176
-0.47623384 -0.36989334 0.00000000
-0.75722569 -0.13125040 0.00000000
-0.37754127 -0.04745869 0.00000000
0.72114086 -0.19276135 0.00000000
0.59040534 0.38029018 0.03234136
-0.09425030 -0.21756116 0.00000000
-0.50266999 0.64370871 0.00000000
-0.42789054 0.47965649 0.00000000
-0.60292375 0.77671713 0.00000000
0.78823286 -0.60015517 0.00000000
-0.34612137 -0.03737357 0.00000000
-0.46736228 0.76573730 0.00000000
0.50479382 0.78496522 0.09279374
0.09652975 0.45426172 0.00000000
-0.37849450 -0.30429927 0.00000000
0.66975564 0.06437491 0.00000000
-0.34443864 0.19046094 0.00000000
-0.04231154 0.24945082 0.00000000
0.08133431 -0.45824945 0.00000000
-0.42442840 -0.60893059 0.00000000
-0.27633637 0.06169930 0.00000000
0.53731853 -0.39418364 0.00000000
0.76414675 -0.78560030 0.00000000
0.11005313 -0.73735410 0.00000000
-0.36307624 -0.44364557 0.00000000
0.04965243 0.12225434 0.00000000
0.25754556 -0.35341018 0.00000000
0.34945852 -0.14632708 0.00000000
0.11193594 -0.26137841 0.00000000
0.50266695 0.45699671 0.03025116
-0.28334942 -0.23684850 0.00000000
-0.79915577 -0.44424891 0.00000000
-0.03871257 0.41226301 0.00000000
-0.28734988 -0.31240982 0.00000000
0.38769293 0.00733261 0.00000000
0.34567589 -0.18007652 0.00000000
0.34421203 -0.48159114 0.00000000
-0.63341808 -0.57591367 0.00000000
-0.73693490 -0.22684479 0.00000000
-0.45772603 0.42175889 0.00000000
0.76680887 0.11524657 0.01554688
0.61287504 0.12331673 0.00000000
-0.67726016 0.13326479 0.00000000
0.56208110 0.62163264 0.07270152
-0.35572824 -0.31273043 0.00000000
-0.13539982 -0.77375531 0.00000000
0.24332963 -0.54140878 0.00000000
-0.63578498 -0.25346601 0.00000000
0.02283391 0.27068707 0.00000000
0.08041873 -0.75043309 0.00000000
0.33239204 0.64884466 0.03433856
0.29468572 -0.50882882 0.00000000
-0.01505092 -0.76648593 0.00000000
0.03673605 0.00818393 0.00000000
0.21668176 0.60097253 0.00334492
0.22363780 -0.26534694 0.00000000
-0.06451827 -0.74725479 0.00000000
0.07442945 0.66360343 0.00000000
-0.39655602 -0.49291608 0.00000000
0.36119634 -0.26331300 0.00000000
-0.55937022 -0.50883162 0.00000000
-0.56227916 -0.40361080 0.00000000
0.32347399 0.40484074 0.00000000
0.09205015 0.22731321 0.00000000
-0.78803790 -0.22837333 0.00000000
0.75050271 0.56800824 0.09824129
-0.51738518 -0.05043144 0.00000000
-0.73033714 0.71035635 0.00000000
-0.17745019 0.77541620 0.00000000
-0.12570050 -0.67132890 0.00000000
-0.14995565 0.29345459 0.00000000
-0.20826542 0.22185665 0.00000000
-0.04124696 -0.00420069 0.00000000
0.15450342 0.23785906 0.00000000
-0.16746835 0.05704016 0.00000000
-0.59312439 0.57388204 0.00000000
0.02772766 -0.06114194 0.00000000
-0.17224067 -0.11689625 0.00000000
-0.72144002 -0.01493786 0.00000000
-0.33089212 0.74544585 0.00000000
-0.28341281 0.08663873 0.00000000
-0.10410090 0.74933523 0.00000000
0.39937228 0.17751071 0.00000000
-0.54412246 0.62911880 0.00000000
0.63479191 0.77792960 0.11609121
-0.29086870 0.07716633 0.00000000
0.65705705 0.50143790 0.06792336
-0.17121048 -0.18582119 0.00000000
-0.25740716 0.74518710 0.00000000
0.05208815 -0.67210805 0.00000000
0.15693501 0.35360560 0.00000000
0.38350144 0.45959046 0.00816454
0.26863047 0.41269097 0.00000000
0.48944297 -0.25845656 0.00000000
0.11053565 0.35660324 0.00000000
-0.38091207 0.58995050 0.00000000
0.35255861 -0.14680818 0.00000000
0.26990938 0.21387212 0.00000000
0.28553888 -0.30315626 0.00000000
0.77586472 0.07733783 0.01008018
0.11696586 0.41125637 0.00000000
