ply
format ascii 1.0
element vertex 1409
property float x
property float y
property float z
end_header
0.00000970 -0.68825585 0.00000000
0.69212556 -0.63366413 0.00000000
-0.42426437 -0.41354784 0.00000000
0.50191826 -0.36149898 0.00000000
0.20902076 0.25967744 0.00000000
-0.60524958 0.60801131 0.00000000
0.71828324 -0.52084875 0.00000000
0.17451867 -0.54338270 0.00000000
0.21777536 0.50070471 0.00000000
-0.19713351 0.03831384 0.00000000
0.57550496 0.18400805 0.00000000
-0.69010663 -0.04451222 0.00000000
0.06992610 -0.45172864 0.00000000
0.65556920 0.54345638 0.04721629
-0.38527355 0.16853276 0.00000000
0.45309883 0.69756591 0.04149382
0.71710104 -0.29460451 0.00000000
0.51302743 0.44688261 0.01892198
-0.57169026 -0.23716113 0.00000000
-0.33628926 0.54131877 0.00000000
0.59977925 -0.53475153 0.00000000
-0.34617677 0.53289175 0.00000000
-0.32494253 -0.31449321 0.00000000
-0.24861790 0.13879628 0.00000000
0.01045427 0.45325083 0.00000000
-0.03846858 -0.11024503 0.00000000
0.37991178 -0.44312748 0.00000000
-0.68855429 -0.78691941 0.00000000
0.19872585 -0.41368058 0.00000000
-0.39992139 -0.20229702 0.00000000
-0.71802777 -0.25766516 0.00000000
-0.71392417 -0.53349596 0.00000000
0.46908978 -0.28325853 0.00000000
-0.68572015 -0.45520014 0.00000000
-0.77299005 -0.53274697 0.00000000
-0.68654448 0.42710266 0.00000000
-0.21930747 0.51869321 0.00000000
0.46626598 0.33308482 0.00000000
-0.29555014 0.54695898 0.00000000
-0.63168532 0.32107082 0.00000000
-0.78107083 0.11400861 0.00000000
-0.51816422 0.57950163 0.00000000
0.78631854 -0.24114291 0.00000000
-0.54728752 -0.39087784 0.00000000
0.13163015 -0.04035639 0.00000000
0.77743983 -0.36347240 0.00000000
0.68776524 -0.24758853 0.00000000
-0.28168562 0.08069180 0.00000000
0.39383125 0.03015371 0.00000000
0.24545214 -0.65613067 0.00000000
0.57527244 -0.31960189 0.00000000
-0.58865547 0.67509550 0.00000000
0.40269625 -0.20910780 0.00000000
-0.13501149 -0.18753208 0.00000000
0.06229548 0.13674293 0.00000000
0.16572136 0.29916412 0.00000000
-0.77893579 -0.06078874 0.00000000
0.56947720 -0.08690144 0.00000000
-0.04814344 0.12815066 0.00000000
-0.33264053 0.37936798 0.00000000
-0.00432209 0.49748528 0.00000000
0.65061951 -0.29702637 0.00000000
0.14834188 0.00911673 0.00000000
0.29941085 -0.77897364 0.00000000
0.33402273 -0.65904415 0.00000000
-0.08201925 0.72236544 0.00000000
0.27550048 -0.52709192 0.00000000
0.39539832 -0.31109220 0.00000000
-0.29991835 -0.21342964 0.00000000
0.69616407 0.71057284 0.07179463
-0.63869286 0.42599338 0.00000000
-0.79981750 -0.69770992 0.00000000
0.39151227 -0.63671964 0.00000000
-0.40133971 -0.66600567 0.00000000
0.27392849 -0.73054975 0.00000000
-0.36411563 0.54515344 0.00000000
-0.54403901 0.46839538 0.00000000
0.48916048 -0.77306622 0.00000000
-0.07276141 0.22927611 0.00000000
-0.50595087 -0.46511117 0.00000000
0.24376559 -0.59902745 0.00000000
0.71033412 -0.52348411 0.00000000
-0.46198061 -0.31242034 0.00000000
-0.25759223 0.28234604 0.00000000
0.77062160 -0.21218637 0.00000000
0.15430410 -0.04861535 0.00000000
-0.19451994 -0.38970429 0.00000000
-0.38545531 -0.16484042 0.00000000
0.25518912 -0.28477740 0.00000000
-0.67188227 0.70696777 0.00000000
-0.48157203 0.44593748 0.00000000
-0.07323482 -0.23107889 0.00000000
-0.11659782 0.49464914 0.00000000
0.04969602 -0.75433278 0.00000000
0.51188952 -0.31681514 0.00000000
0.39354220 0.69932067 0.03465419
-0.02947315 -0.64566797 0.00000000
-0.30711088 0.67426646 0.00000000
0.76436883 -0.12247190 0.00000000
0.09238245 0.50339031 0.00000000
-0.50414735 0.68717438 0.00000000
0.66538376 -0.09648695 0.00000000
-0.20221598 -0.47108075 0.00000000
0.19402614 0.42768142 0.00000000
0.63715398 -0.00078126 0.00000000
-0.32402384 0.54057127 0.00000000
0.73771274 -0.59045166 0.00000000
-0.51029748 0.14409088 0.00000000
0.55046910 -0.16239069 0.00000000
-0.09879000 0.44739601 0.00000000
0.68249679 -0.72777474 0.00000000
-0.27003095 0.76962823 0.00000000
0.54448497 0.25114778 0.00000000
-0.63858885 0.44820771 0.00000000
-0.77523059 0.38138711 0.00000000
-0.27437523 -0.37325737 0.00000000
-0.50981188 -0.66721874 0.00000000
0.32361972 0.03230052 0.00000000
-0.56847852 -0.17267688 0.00000000
0.47601715 -0.23711926 0.00000000
0.51482415 -0.79446954 0.00000000
0.78817219 -0.33667201 0.00000000
0.28242868 -0.36747602 0.00000000
0.63178700 0.27045414 0.01209808
-0.65799987 0.01433512 0.00000000
0.47005066 -0.14902131 0.00000000
0.27757168 -0.53962350 0.00000000
-0.43725905 0.59263366 0.00000000
-0.27286562 0.13357154 0.00000000
0.19111390 0.11623225 0.00000000
0.63964820 -0.35949105 0.00000000
0.58610165 0.73915273 0.06215289
0.69932365 0.62973011 0.06260243
0.39473853 0.73894888 0.03948493
-0.23669353 -0.53533757 0.00000000
-0.59462929 0.27470940 0.00000000
-0.15298331 -0.59762764 0.00000000
-0.03478002 -0.40870589 0.00000000
0.60642081 -0.73905939 0.00000000
0.66226429 -0.42345047 0.00000000
-0.61291677 -0.71170551 0.00000000
-0.01348523 0.07883550 0.00000000
-0.52592021 0.50618583 0.00000000
-0.58536690 -0.28118089 0.00000000
0.28479648 0.39449140 0.00000000
0.63139975 -0.76067799 0.00000000
-0.21232292 0.05453162 0.00000000
0.19410306 -0.25605306 0.00000000
0.05052325 0.56836981 0.00000000
0.51339215 -0.06974214 0.00000000
-0.46968901 0.40152186 0.00000000
0.37019470 -0.71520877 0.00000000
0.16603963 0.79754472 0.01935679
0.13822424 -0.51631302 0.00000000
-0.35086748 0.34522837 0.00000000
0.15980655 0.24906890 0.00000000
0.26708016 -0.71493596 0.00000000
0.38092220 -0.48453993 0.00000000
-0.51210248 0.46682924 0.00000000
0.61893040 -0.45506331 0.00000000
-0.09666734 0.06283734 0.00000000
-0.07703454 -0.64083594 0.00000000
0.39344686 0.53915757 0.01569094
-0.44216868 -0.06242718 0.00000000
0.55221885 0.26483026 0.00201740
0.03560606 0.66662049 0.00000000
-0.51045161 -0.53835702 0.00000000
0.46451735 0.32835004 0.00000000
0.14192437 -0.48088470 0.00000000
0.03786903 0.04777974 0.00000000
0.28636667 0.07480673 0.00000000
0.60682708 0.69477707 0.05935436
-0.49848464 0.25062266 0.00000000
0.11058042 0.76407510 0.00883391
-0.63771892 0.58816606 0.00000000
0.12796564 0.10224830 0.00000000
-0.62073225 0.16388822 0.00000000
0.67481172 -0.58203590 0.00000000
-0.28476968 0.28946131 0.00000000
0.12554178 -0.48376387 0.00000000
-0.07330854 -0.69437504 0.00000000
0.26758951 0.16343896 0.00000000
0.70683163 -0.33263752 0.00000000
0.52258712 -0.51737064 0.00000000
-0.75449181 0.59685683 0.00000000
-0.44701955 0.41413414 0.00000000
0.04252505 0.03622356 0.00000000
0.44649571 0.14589685 0.00000000
0.10187328 -0.41333556 0.00000000
-0.30821511 0.37808645 0.00000000
0.57608408 0.12172466 0.00000000
0.49605837 -0.73234987 0.00000000
-0.61950201 -0.64034885 0.00000000
0.70975751 0.68176687 0.06999453
-0.43403533 -0.08581482 0.00000000
0.33835465 0.13265964 0.00000000
0.44839239 0.11538251 0.00000000
0.38202414 0.20713860 0.00000000
0.30271092 0.74647337 0.02948575
-0.68306696 0.63933694 0.00000000
-0.36236814 0.41039625 0.00000000
0.08729864 0.37417546 0.00000000
-0.52388537 -0.52920377 0.00000000
-0.64629722 0.39985928 0.00000000
-0.48803642 -0.41787481 0.00000000
-0.64933866 -0.17151611 0.00000000
-0.11453413 0.72327578 0.00000000
0.17420717 -0.25298807 0.00000000
0.29612201 0.75483751 0.02969581
-0.64243227 -0.19589590 0.00000000
0.56426513 0.34298128 0.01269035
0.67356211 0.14767005 0.00251237
-0.49477074 -0.62524951 0.00000000
-0.10397034 0.28400236 0.00000000
-0.37150097 -0.79721189 0.00000000
0.33549654 -0.74639928 0.00000000
0.37635702 -0.69647264 0.00000000
-0.13861924 -0.78100532 0.00000000
-0.41128165 0.54521084 0.00000000
0.50880057 0.79600221 0.05973287
-0.19973414 0.00847093 0.00000000
-0.00810023 0.18218160 0.00000000
0.71689034 -0.06797130 0.00000000
0.41870809 -0.72719795 0.00000000
0.09258951 -0.14294559 0.00000000
-0.49344978 -0.08715589 0.00000000
0.74622399 -0.55978531 0.00000000
-0.26010740 -0.13685754 0.00000000
0.54820210 0.71698093 0.05504468
-0.51878864 0.05435015 0.00000000
-0.63415629 0.16582794 0.00000000
0.13712993 -0.29843065 0.00000000
0.67850840 0.18804409 0.00787509
0.50137550 0.76141405 0.05476148
0.11663370 0.72880852 0.00537713
-0.03402177 0.48503825 0.00000000
-0.65882790 -0.07400172 0.00000000
0.16448811 0.10972491 0.00000000
-0.47109053 -0.46152204 0.00000000
0.16190054 0.29234615 0.00000000
0.13738038 -0.78995728 0.00000000
0.41924050 -0.40511787 0.00000000
0.15013254 -0.00138129 0.00000000
0.08984596 -0.00506544 0.00000000
0.42385072 0.05959207 0.00000000
-0.56278455 0.12395527 0.00000000
-0.78474504 0.21613300 0.00000000
0.63954622 0.10510227 0.00000000
-0.04569084 0.51952904 0.00000000
-0.61499715 0.56630003 0.00000000
-0.16809548 0.26061952 0.00000000
0.47032261 -0.77629840 0.00000000
-0.17738415 -0.21521720 0.00000000
0.06213912 -0.28914571 0.00000000
0.30169496 -0.19228995 0.00000000
-0.07048793 -0.57894039 0.00000000
-0.42970642 -0.09478034 0.00000000
0.47504726 0.11305587 0.00000000
0.65211612 0.04711388 0.00000000
-0.77456379 -0.16029654 0.00000000
0.53871471 0.59503317 0.03949204
0.37964541 0.20552655 0.00000000
-0.65211886 -0.63398415 0.00000000
-0.66728377 -0.57805479 0.00000000
-0.59296548 0.61412746 0.00000000
-0.22705057 0.63545936 0.00000000
-0.32292792 -0.42489126 0.00000000
-0.18197937 -0.64002854 0.00000000
-0.71236008 0.43626800 0.00000000
-0.06633880 0.44772750 0.00000000
-0.48430473 -0.60939354 0.00000000
0.64322883 -0.28514197 0.00000000
0.07348948 0.41015771 0.00000000
-0.66382551 0.70102394 0.00000000
-0.29131097 0.54541552 0.00000000
-0.51046544 -0.41043767 0.00000000
-0.49529836 -0.24189723 0.00000000
-0.47230038 0.08477820 0.00000000
0.57351822 0.17685127 0.00000000
-0.66638750 0.49846709 0.00000000
0.60280085 -0.13696685 0.00000000
-0.78997082 -0.61563683 0.00000000
-0.72346675 -0.66480160 0.00000000
-0.77266896 -0.65287274 0.00000000
-0.33230394 -0.33227807 0.00000000
-0.62340635 0.06869440 0.00000000
0.04537684 -0.15857679 0.00000000
0.34702969 0.63956124 0.02207911
0.36616033 0.02757598 0.00000000
-0.42909437 0.49889326 0.00000000
-0.17014118 0.10898463 0.00000000
0.37839562 -0.28742906 0.00000000
-0.18853594 0.40133065 0.00000000
-0.08173123 0.18584117 0.00000000
0.44226131 0.20006962 0.00000000
-0.66262484 0.18095075 0.00000000
0.65499246 -0.12085701 0.00000000
0.47594163 -0.72776991 0.00000000
0.05860301 0.72729498 0.00000000
-0.79189718 0.78766870 0.00000000
-0.20060208 0.38698232 0.00000000
0.57550788 0.51317376 0.03415939
0.59555829 -0.61118442 0.00000000
-0.21472937 -0.68835002 0.00000000
0.58704352 0.58162332 0.04362397
-0.36846584 0.41370481 0.00000000
0.72747463 -0.72118586 0.00000000
-0.03764687 0.72206658 0.00000000
0.52713430 -0.46875268 0.00000000
0.34835288 0.18469246 0.00000000
0.55940223 -0.06428456 0.00000000
-0.20334458 0.01307142 0.00000000
-0.34214908 -0.64906901 0.00000000
0.02115074 -0.74437124 0.00000000
0.40651479 0.20330767 0.00000000
-0.42600396 -0.29930481 0.00000000
0.19222380 0.44989315 0.00000000
0.63967067 -0.45648545 0.00000000
0.58846354 0.44192800 0.02726199
0.68969077 -0.57420528 0.00000000
-0.05161961 -0.44428504 0.00000000
-0.73984867 0.21783216 0.00000000
-0.57170624 0.58073682 0.00000000
0.08939222 -0.15952402 0.00000000
-0.78978789 0.43451908 0.00000000
-0.45709813 0.49076965 0.00000000
-0.28866330 0.45905718 0.00000000
0.36268622 -0.76757687 0.00000000
0.48506379 -0.26957518 0.00000000
0.63921154 0.46492532 0.03598820
-0.52431178 0.58552915 0.00000000
0.34491813 -0.59531575 0.00000000
-0.70146370 -0.16237421 0.00000000
-0.33646867 0.67911631 0.00000000
-0.68799496 -0.51031500 0.00000000
-0.65664583 -0.38217002 0.00000000
-0.48637161 -0.65930277 0.00000000
-0.03688862 -0.03634914 0.00000000
-0.76554984 -0.04875283 0.00000000
0.44715628 0.02771661 0.00000000
0.58130115 0.45056623 0.02743663
0.17304666 -0.32682160 0.00000000
-0.16223800 0.22939444 0.00000000
0.76626527 0.26529965 0.02740083
0.10435081 0.72850132 0.00388736
0.54858279 0.11545413 0.00000000
-0.41849434 0.32566497 0.00000000
-0.65942281 0.00778488 0.00000000
0.41649920 -0.52928555 0.00000000
-0.38449982 -0.59327871 0.00000000
-0.38718942 -0.23203804 0.00000000
-0.14024435 0.28206936 0.00000000
-0.51874274 -0.42183840 0.00000000
0.10529096 -0.02656477 0.00000000
-0.30132511 0.19371422 0.00000000
-0.67465723 0.35905984 0.00000000
0.66275346 -0.22067010 0.00000000
0.34122339 0.11235450 0.00000000
-0.59119213 -0.32161945 0.00000000
0.45835966 0.18891326 0.00000000
0.33261800 0.75833243 0.03442790
0.60570437 0.40956914 0.02547309
0.25467858 -0.25622460 0.00000000
0.57875836 0.66124767 0.05206550
-0.15013428 -0.64330953 0.00000000
0.26453421 0.33551589 0.00000000
0.34621254 0.39901093 0.00000000
-0.24222168 -0.47616506 0.00000000
0.04822523 -0.34497657 0.00000000
0.16275714 0.32935342 0.00000000
0.66839308 0.13125893 0.00000000
-0.25163049 0.73419613 0.00000000
-0.52009922 0.75185281 0.00000000
0.06766808 -0.61065251 0.00000000
-0.12201713 0.51681960 0.00000000
-0.66451460 0.55998331 0.00000000
-0.57987738 0.29874641 0.00000000
-0.66995627 -0.12413849 0.00000000
0.40975496 -0.15972890 0.00000000
0.43048534 -0.77129823 0.00000000
-0.59779263 0.73544294 0.00000000
0.33508623 0.61682582 0.01797559
0.03898889 0.10294207 0.00000000
0.38541988 -0.32033485 0.00000000
0.01055914 -0.52459818 0.00000000
0.35096285 0.40052336 0.00000000
-0.20547396 0.34090742 0.00000000
-0.77033061 -0.38277283 0.00000000
-0.07623209 0.27651927 0.00000000
-0.77567738 -0.49982908 0.00000000
0.55075914 -0.43414387 0.00000000
-0.75869972 0.03679424 0.00000000
0.73536366 -0.31366968 0.00000000
0.29289749 -0.11652984 0.00000000
0.04991943 0.58525765 0.00000000
0.24067238 0.03746504 0.00000000
-0.07868275 0.20931339 0.00000000
-0.59931439 0.01963140 0.00000000
0.10347800 0.65327400 0.00000000
-0.25251213 0.43167305 0.00000000
0.14929859 -0.36606497 0.00000000
-0.71844178 0.06071601 0.00000000
0.01623746 -0.21833047 0.00000000
0.23705772 0.09383044 0.00000000
-0.73131651 0.76063269 0.00000000
0.53350961 -0.51973319 0.00000000
-0.37212682 0.65508628 0.00000000
-0.17737885 -0.68736213 0.00000000
0.06493136 0.24933264 0.00000000
-0.66742557 -0.31139746 0.00000000
-0.51243687 -0.34157774 0.00000000
0.01702157 0.47762924 0.00000000
-0.13104936 0.06309874 0.00000000
-0.02349401 0.59376085 0.00000000
0.35029119 0.04335090 0.00000000
0.61525577 -0.60858482 0.00000000
-0.50943571 -0.47057524 0.00000000
-0.31368920 -0.14581589 0.00000000
0.55053681 -0.38855675 0.00000000
-0.27925241 -0.39356431 0.00000000
-0.28865471 0.79661489 0.00000000
0.05231717 0.13791893 0.00000000
0.37450591 -0.15479018 0.00000000
-0.27133298 -0.48729414 0.00000000
0.68389767 -0.19281597 0.00000000
-0.52992654 0.40322432 0.00000000
0.68914795 0.31708655 0.02440351
0.26456767 -0.27899310 0.00000000
-0.29392275 0.08647043 0.00000000
-0.44167402 -0.76563638 0.00000000
-0.48210865 -0.46384037 0.00000000
0.45113638 -0.46215439 0.00000000
-0.52340746 -0.10001434 0.00000000
0.32355362 -0.11390122 0.00000000
0.39470688 -0.00712426 0.00000000
-0.79933828 -0.36987156 0.00000000
0.09049185 -0.71930027 0.00000000
0.47779906 0.14771047 0.00000000
-0.59780604 0.21270528 0.00000000
0.52740765 -0.79625124 0.00000000
-0.20517372 -0.50368553 0.00000000
-0.23166326 0.56664270 0.00000000
0.65297192 -0.58925498 0.00000000
0.39176255 -0.73614037 0.00000000
-0.73596770 0.62189513 0.00000000
0.05808685 -0.79827380 0.00000000
0.16233449 -0.50961965 0.00000000
-0.31921893 -0.55983531 0.00000000
-0.20841058 -0.33260429 0.00000000
0.08244578 0.05423547 0.00000000
0.78986317 -0.34983882 0.00000000
0.79360306 0.73470783 0.08618038
-0.44055933 -0.33394802 0.00000000
0.08631585 0.67102045 0.00000000
0.71396983 0.37828165 0.03458181
0.25064015 -0.16823027 0.00000000
0.45756340 -0.01467770 0.00000000
-0.19760507 0.16972256 0.00000000
0.51508218 -0.77782786 0.00000000
-0.61574662 -0.76899320 0.00000000
0.44607189 -0.51206934 0.00000000
0.09942016 0.30688062 0.00000000
0.09968979 0.21972929 0.00000000
-0.75835407 -0.46351111 0.00000000
0.70281571 -0.65930617 0.00000000
0.62560284 0.32661685 0.01801199
-0.39871952 -0.72496492 0.00000000
-0.17924258 0.12656213 0.00000000
-0.27581990 0.57943690 0.00000000
-0.47853374 0.67679197 0.00000000
0.63335359 -0.79192317 0.00000000
0.45023671 -0.32389301 0.00000000
-0.51376939 -0.51923347 0.00000000
-0.20014338 0.10902628 0.00000000
-0.24143437 -0.19174162 0.00000000
0.10651233 -0.56761920 0.00000000
0.64450854 0.34434363 0.02234668
0.76341528 0.29402962 0.03046319
0.10486840 0.14932966 0.00000000
-0.32141644 -0.68297863 0.00000000
0.62150878 0.65016448 0.05581265
0.23062842 -0.57545364 0.00000000
-0.59278286 -0.53841114 0.00000000
-0.76403046 0.58606344 0.00000000
-0.47462374 0.40771011 0.00000000
0.71691775 -0.13545562 0.00000000
0.73704910 -0.13953105 0.00000000
0.54844010 0.41671723 0.01954289
0.33079374 -0.36773837 0.00000000
-0.52598566 -0.72882533 0.00000000
0.10953571 0.47223201 0.00000000
0.26502693 0.12233470 0.00000000
0.73038399 -0.54790950 0.00000000
0.57606804 -0.14444593 0.00000000
-0.43947518 0.61700034 0.00000000
0.75987762 -0.70556211 0.00000000
-0.05019621 -0.16708061 0.00000000
0.24115007 0.08521767 0.00000000
0.73939723 -0.06616238 0.00000000
0.04042992 -0.41909510 0.00000000
0.19812021 0.49398726 0.00000000
0.13491815 0.75615305 0.01077636
0.52408284 0.15653412 0.00000000
0.19985494 -0.14768872 0.00000000
0.69264567 -0.45013219 0.00000000
0.47307625 0.61142528 0.03366477
0.37288186 0.03992292 0.00000000
-0.78168434 -0.00113330 0.00000000
-0.48710769 0.06747637 0.00000000
-0.06994621 0.17240657 0.00000000
0.28302106 0.76663840 0.02954198
0.40343031 -0.79821599 0.00000000
-0.02078054 -0.21604855 0.00000000
-0.29173699 -0.00045329 0.00000000
-0.24025960 -0.20436122 0.00000000
0.42359877 0.33312398 0.00000000
0.01834529 0.61031508 0.00000000
0.16247754 -0.12409870 0.00000000
-0.53079897 -0.46087766 0.00000000
-0.61193144 0.10141027 0.00000000
-0.40039015 -0.57341105 0.00000000
-0.04691216 -0.50761366 0.00000000
-0.01419581 0.10765417 0.00000000
-0.61783826 -0.79416156 0.00000000
-0.27740899 0.40109023 0.00000000
-0.64916199 0.21545973 0.00000000
0.57894301 0.70466965 0.05722544
0.39901370 -0.01065705 0.00000000
0.66294044 -0.20955561 0.00000000
-0.53713179 0.40026346 0.00000000
-0.24176168 0.57765770 0.00000000
0.49462962 -0.11993736 0.00000000
0.65258384 -0.41127008 0.00000000
0.64949876 0.43591398 0.03377259
0.66483283 -0.44054118 0.00000000
0.57216436 0.37286887 0.01716163
-0.10911156 -0.47004220 0.00000000
0.24456698 -0.01947813 0.00000000
0.02761895 -0.15587156 0.00000000
0.35656887 -0.61746180 0.00000000
0.54805636 0.45936242 0.02454365
-0.30355135 0.42860788 0.00000000
0.11084418 0.33662906 0.00000000
-0.52977592 0.68235081 0.00000000
0.74024588 0.22820812 0.01993298
-0.14155638 0.25519416 0.00000000
0.73189908 0.04567828 0.00000000
-0.66880822 0.04733414 0.00000000
0.16174500 -0.59163070 0.00000000
-0.74852389 0.44234636 0.00000000
0.34782743 0.69737941 0.02901509
-0.19200771 0.00311754 0.00000000
-0.19627450 -0.03065402 0.00000000
0.71809202 -0.23402873 0.00000000
-0.55591649 -0.33280149 0.00000000
-0.48352128 -0.56114697 0.00000000
-0.26034868 0.02881821 0.00000000
0.74545348 -0.62029874 0.00000000
0.20261382 0.03422248 0.00000000
0.38268724 0.52748036 0.01303602
0.26557121 0.30884096 0.00000000
0.15258168 -0.24053065 0.00000000
0.17364877 -0.34109637 0.00000000
-0.50343120 0.33818880 0.00000000
-0.14915054 -0.38293210 0.00000000
-0.20399579 -0.33378169 0.00000000
0.69839096 -0.57523036 0.00000000
-0.16401057 -0.65946817 0.00000000
-0.50973886 0.40820327 0.00000000
-0.43299323 -0.39274630 0.00000000
-0.41222712 0.55952477 0.00000000
-0.18076462 0.37659100 0.00000000
0.66113007 0.14472350 0.00069265
0.79605353 -0.12163193 0.00000000
-0.63148469 -0.76542157 0.00000000
-0.77245164 -0.12343067 0.00000000
-0.62096745 -0.62537754 0.00000000
-0.22942552 0.69225204 0.00000000
0.52288622 0.07465577 0.00000000
-0.47448057 -0.74103355 0.00000000
0.45298865 0.15840134 0.00000000
-0.27109781 0.35448363 0.00000000
0.42438957 -0.26287633 0.00000000
-0.05329779 0.74126822 0.00000000
-0.11075179 0.10825430 0.00000000
-0.19307175 -0.27706712 0.00000000
0.50802130 -0.44319725 0.00000000
-0.67786145 0.36872491 0.00000000
-0.34596062 -0.43754852 0.00000000
-0.34617633 -0.08186403 0.00000000
-0.42023662 0.05346471 0.00000000
0.10459949 0.77719933 0.00967918
-0.64873850 -0.28681195 0.00000000
-0.20660302 -0.66056186 0.00000000
0.36442751 0.74988031 0.03719176
-0.28669703 -0.06272381 0.00000000
-0.66138184 -0.10476521 0.00000000
0.59121907 -0.06908714 0.00000000
0.74656326 0.66895759 0.07283401
0.62198460 -0.75736284 0.00000000
0.34681302 -0.36365092 0.00000000
0.36804789 -0.07617786 0.00000000
0.42696539 0.74626487 0.04416400
0.07183903 -0.50679451 0.00000000
0.79738605 -0.31075880 0.00000000
0.55473918 -0.33991814 0.00000000
-0.12671603 -0.72697330 0.00000000
-0.22458050 0.44318330 0.00000000
-0.71937442 -0.77755207 0.00000000
-0.09274567 -0.45743495 0.00000000
0.37487578 -0.66040945 0.00000000
0.06956206 0.39688060 0.00000000
0.20825656 0.19158109 0.00000000
-0.24264900 0.39030197 0.00000000
0.38192129 0.17047217 0.00000000
-0.36461854 0.62742198 0.00000000
-0.79603583 0.26767975 0.00000000
-0.65485984 0.55317390 0.00000000
-0.52000380 -0.57635367 0.00000000
0.26028016 -0.68748385 0.00000000
0.19186595 -0.13494994 0.00000000
0.11637723 0.21908267 0.00000000
-0.12241804 0.58868372 0.00000000
-0.57862723 -0.15672943 0.00000000
0.37617105 0.06396064 0.00000000
0.50295168 0.63695109 0.04022036
-0.79014987 0.34585163 0.00000000
-0.30417722 0.00973884 0.00000000
-0.66954499 0.34675860 0.00000000
0.74445230 0.71658593 0.07822006
0.12865002 0.17264336 0.00000000
0.12063329 0.54739225 0.00000000
0.26767895 0.35980025 0.00000000
-0.18406974 -0.07700262 0.00000000
0.16406105 -0.01473840 0.00000000
-0.41600227 -0.27758232 0.00000000
0.26845613 -0.41900238 0.00000000
-0.23819128 -0.16862786 0.00000000
-0.37550679 -0.70462197 0.00000000
0.51143706 -0.07062895 0.00000000
-0.63501376 0.06910256 0.00000000
0.66883755 0.17344663 0.00500344
0.24898657 -0.31970382 0.00000000
-0.55059242 0.11290088 0.00000000
0.02040391 -0.32764596 0.00000000
-0.57728952 0.42100215 0.00000000
0.70472890 0.47530425 0.04496893
-0.09718319 -0.69033432 0.00000000
0.43550539 -0.72947651 0.00000000
0.09568319 0.72690344 0.00267265
0.53059834 0.36333880 0.01111548
0.48812240 -0.09708852 0.00000000
0.35311717 0.37958512 0.00000000
-0.44936270 -0.25879318 0.00000000
-0.09650487 0.19503407 0.00000000
0.48740804 -0.47081089 0.00000000
0.11582157 -0.36312917 0.00000000
-0.46271607 0.16649124 0.00000000
0.03263517 0.38102642 0.00000000
0.66133070 -0.77672768 0.00000000
-0.70152926 -0.37429693 0.00000000
-0.48612985 0.05409625 0.00000000
-0.05328461 0.00186238 0.00000000
0.40199310 0.36400509 0.00000000
0.55720228 0.15388080 0.00000000
0.31069595 0.49715492 0.00092898
-0.60223985 0.06922849 0.00000000
0.45690459 0.48798177 0.01714425
0.65787256 0.49170238 0.04136483
-0.37172920 -0.34437037 0.00000000
-0.02598271 0.72392792 0.00000000
0.75607479 -0.15002814 0.00000000
-0.36328143 0.63712263 0.00000000
0.32696635 -0.20212556 0.00000000
-0.13920154 -0.53061205 0.00000000
0.11972610 -0.30326173 0.00000000
-0.39573243 0.52323377 0.00000000
0.56749409 0.07805368 0.00000000
0.47056514 -0.53543609 0.00000000
0.73356760 -0.14640819 0.00000000
-0.23817722 0.15313466 0.00000000
0.54890317 0.63516486 0.04544640
0.57422096 -0.79263067 0.00000000
-0.45872593 0.66323394 0.00000000
-0.36865124 -0.76650238 0.00000000
0.35916910 -0.27982494 0.00000000
-0.14567862 0.28539875 0.00000000
0.75114661 0.59442204 0.06455661
-0.31861421 0.49803722 0.00000000
0.48231548 -0.73178053 0.00000000
-0.79696405 -0.57547337 0.00000000
0.31898636 -0.08113627 0.00000000
0.08484682 0.22047970 0.00000000
0.53767979 0.32834613 0.00781278
0.44172385 0.10239887 0.00000000
0.71099728 -0.40440324 0.00000000
-0.49897391 -0.05999729 0.00000000
0.40420213 0.68047518 0.03368559
-0.69903004 0.20925494 0.00000000
-0.78303891 0.71504337 0.00000000
0.79676020 -0.03012927 0.00000000
-0.69257045 0.30068251 0.00000000
0.07677903 -0.08980231 0.00000000
-0.10971997 -0.28048816 0.00000000
-0.24390739 -0.28374317 0.00000000
0.09033423 0.07152833 0.00000000
0.60937017 0.49353752 0.03584275
-0.22051664 0.55499059 0.00000000
0.01076093 0.18915126 0.00000000
-0.00386575 0.66148251 0.00000000
-0.71575511 0.07676051 0.00000000
-0.47303617 0.01776779 0.00000000
0.01949556 0.05195515 0.00000000
0.52657157 -0.78379720 0.00000000
-0.27899045 -0.65945017 0.00000000
0.64268583 -0.65672243 0.00000000
0.33751211 -0.17323652 0.00000000
-0.16505034 -0.04213495 0.00000000
0.35139471 -0.32279953 0.00000000
-0.31342933 -0.29984418 0.00000000
0.36339766 -0.29242995 0.00000000
0.14284983 -0.56056583 0.00000000
0.67609257 0.25003144 0.01492412
0.39030355 0.07802761 0.00000000
0.21982996 0.49499872 0.00000000
-0.33034694 -0.46157873 0.00000000
-0.42022407 0.42994311 0.00000000
0.03664775 -0.24162661 0.00000000
0.51669985 -0.58580291 0.00000000
0.78479850 0.24498086 0.02718955
0.10468401 0.68292004 0.00000000
-0.77048266 0.11430537 0.00000000
0.64971417 -0.32639128 0.00000000
0.60749078 0.59517276 0.04764677
0.15132783 -0.34139836 0.00000000
-0.57972461 0.71065515 0.00000000
-0.79888260 -0.46211380 0.00000000
-0.56805462 0.06717990 0.00000000
-0.31969619 0.56321442 0.00000000
0.56579649 -0.20430535 0.00000000
-0.22484298 0.13251613 0.00000000
0.64300823 -0.24792556 0.00000000
0.73744458 -0.50748521 0.00000000
0.23724514 0.50317085 0.00000000
-0.50648522 0.51193142 0.00000000
-0.35627767 0.72254539 0.00000000
-0.20609970 -0.03631498 0.00000000
0.22418246 -0.18066359 0.00000000
-0.63073993 0.76759779 0.00000000
0.38613877 0.47088930 0.00674807
0.16627808 -0.64783138 0.00000000
0.71776336 0.65253657 0.06748306
0.74825794 -0.25809005 0.00000000
0.19415960 0.52771127 0.00000000
0.01024267 0.61317760 0.00000000
-0.36742026 -0.39420137 0.00000000
0.33240747 -0.25956920 0.00000000
-0.76168031 0.41814208 0.00000000
-0.52054018 -0.62683904 0.00000000
-0.26212865 0.35965121 0.00000000
-0.15310800 0.55736232 0.00000000
-0.55185163 -0.69062829 0.00000000
0.60713631 -0.50206870 0.00000000
0.71255141 -0.20027943 0.00000000
0.22222675 0.61735988 0.00468425
-0.40067926 0.18040852 0.00000000
-0.70178741 -0.37621319 0.00000000
-0.24335361 -0.68946505 0.00000000
-0.02515462 -0.63531929 0.00000000
0.04518669 -0.22432798 0.00000000
-0.16096447 -0.08289103 0.00000000
0.35061207 0.62136924 0.02035037
-0.45207730 0.76876712 0.00000000
0.28473571 0.54345268 0.00333550
0.61329454 0.24345316 0.00671490
0.78878945 -0.21097822 0.00000000
-0.67243969 -0.31797096 0.00000000
0.08333613 -0.17395851 0.00000000
-0.64977759 0.37684003 0.00000000
-0.29491177 0.03903673 0.00000000
0.55898839 0.77710938 0.06343598
-0.49305731 -0.38777590 0.00000000
-0.79498816 0.14258471 0.00000000
0.26866171 -0.28860953 0.00000000
-0.09770305 -0.44219813 0.00000000
-0.56123018 0.59054840 0.00000000
0.79226929 0.22514369 0.02572625
0.28180465 0.20169514 0.00000000
-0.77182406 -0.79674107 0.00000000
0.23917229 -0.18244395 0.00000000
0.34472811 -0.58655399 0.00000000
-0.09187165 0.31795874 0.00000000
-0.73289895 -0.27904451 0.00000000
0.28475413 -0.26274607 0.00000000
0.64135838 0.07937264 0.00000000
-0.76474684 0.14447698 0.00000000
-0.77502370 -0.07878253 0.00000000
0.32212731 0.48637101 0.00100559
-0.05271496 0.41945237 0.00000000
0.00100564 -0.53939790 0.00000000
-0.56204522 -0.01817662 0.00000000
-0.37716001 -0.29587767 0.00000000
-0.29354513 -0.77973622 0.00000000
-0.30271676 0.15675603 0.00000000
0.52192992 0.11928332 0.00000000
0.13761073 -0.04972577 0.00000000
-0.75581336 0.60381353 0.00000000
-0.25025266 0.49781439 0.00000000
0.61533278 0.54059881 0.04211701
-0.46815071 -0.60313541 0.00000000
0.38749921 0.41179147 0.00000000
-0.37534764 0.02192012 0.00000000
0.23450854 -0.26428932 0.00000000
-0.30006966 0.61273748 0.00000000
0.26396886 -0.31916395 0.00000000
-0.47513726 -0.63367867 0.00000000
0.02181793 0.24812880 0.00000000
-0.73768282 0.54418933 0.00000000
0.64946675 -0.45349666 0.00000000
0.40803137 -0.58121639 0.00000000
-0.22339468 0.37341806 0.00000000
-0.39157441 0.77560884 0.00000000
0.21230195 -0.57810295 0.00000000
0.05027211 -0.56212676 0.00000000
0.52003884 0.09480349 0.00000000
-0.64284587 0.59775668 0.00000000
-0.53882945 0.24794222 0.00000000
-0.03709029 0.60533631 0.00000000
0.43032885 0.32017469 0.00000000
0.44784984 0.15179850 0.00000000
-0.53086287 0.24497952 0.00000000
0.51091814 0.14078841 0.00000000
0.12345231 -0.48159656 0.00000000
-0.62630379 0.53035134 0.00000000
-0.77828026 -0.74202335 0.00000000
-0.41285953 -0.10880277 0.00000000
-0.14949688 0.38759804 0.00000000
0.49423155 -0.43008584 0.00000000
-0.52412951 0.43136361 0.00000000
-0.51528972 0.57235175 0.00000000
0.19915085 0.17199466 0.00000000
-0.16078903 0.49877229 0.00000000
-0.73350739 -0.32888329 0.00000000
0.19297385 0.56108618 0.00000000
-0.31657115 0.76348495 0.00000000
0.16235115 0.42746544 0.00000000
0.46308497 0.46812341 0.01552575
-0.32153735 0.33065671 0.00000000
0.46482062 0.07461703 0.00000000
0.46168140 0.22572570 0.00000000
0.36858377 -0.01659081 0.00000000
-0.41150019 0.45211798 0.00000000
0.37736422 -0.45231208 0.00000000
0.16859657 -0.19224140 0.00000000
-0.42817304 0.45783773 0.00000000
0.69289285 -0.28393307 0.00000000
0.73741758 0.04317721 0.00000000
0.23837714 -0.44478810 0.00000000
0.28777915 0.72170937 0.02478858
0.59038353 0.52004737 0.03673296
-0.21251938 -0.48467425 0.00000000
-0.48760134 0.75143826 0.00000000
0.18456145 -0.46785560 0.00000000
-0.72055203 -0.73900223 0.00000000
0.39829540 -0.40614542 0.00000000
0.17778686 -0.54743433 0.00000000
-0.08084775 -0.04354186 0.00000000
0.48498887 0.72299212 0.04827601
0.34819123 0.59059662 0.01642262
0.75712603 -0.22464687 0.00000000
0.08223976 0.16705503 0.00000000
-0.15963945 -0.34738961 0.00000000
0.03025341 -0.09701390 0.00000000
0.48048869 0.25046417 0.00000000
-0.26071256 0.14765728 0.00000000
-0.23535995 -0.27599120 0.00000000
-0.39869073 -0.51411963 0.00000000
0.33889210 -0.33379185 0.00000000
-0.54664838 0.62677640 0.00000000
-0.55893606 -0.52295798 0.00000000
0.38946328 0.78821903 0.04469082
0.14254005 0.53500736 0.00000000
-0.04776267 -0.59789348 0.00000000
0.60413629 -0.17908078 0.00000000
0.58831072 -0.74612099 0.00000000
-0.50964266 0.36582860 0.00000000
-0.13038185 0.79881489 0.00000000
-0.55887288 -0.55565828 0.00000000
0.40595308 0.21198943 0.00000000
0.31715277 -0.22401069 0.00000000
-0.52994555 0.04258287 0.00000000
0.23026624 0.71817797 0.01756526
-0.51067114 0.66180331 0.00000000
0.47583053 0.67123032 0.04106738
-0.75156909 -0.50431204 0.00000000
0.78278446 0.28406724 0.03157628
-0.39057198 0.63824236 0.00000000
-0.48440081 -0.33930072 0.00000000
0.05456686 0.06729901 0.00000000
0.71624327 -0.21700585 0.00000000
0.64559877 -0.53990406 0.00000000
0.60844469 -0.07739638 0.00000000
-0.33630550 0.21654508 0.00000000
-0.44577351 0.66262639 0.00000000
-0.68628609 -0.32317528 0.00000000
-0.28237510 0.74433321 0.00000000
0.19136833 0.11557704 0.00000000
0.04073497 -0.28676909 0.00000000
-0.74272335 -0.19792338 0.00000000
-0.63055825 -0.12203063 0.00000000
-0.37335831 -0.06639794 0.00000000
-0.37254506 0.48942026 0.00000000
-0.47762129 -0.72946584 0.00000000
-0.39662415 0.15785970 0.00000000
0.49875924 -0.72940111 0.00000000
0.57198364 0.33210835 0.01231709
-0.73235637 0.11151671 0.00000000
-0.50787437 -0.24312048 0.00000000
0.13088651 0.43918860 0.00000000
0.22460341 0.30921817 0.00000000
0.55231011 -0.55701512 0.00000000
-0.68856376 0.25359911 0.00000000
0.30252573 -0.29494417 0.00000000
-0.68585765 -0.62297392 0.00000000
0.15827002 -0.16257823 0.00000000
0.22624326 -0.21259229 0.00000000
0.06505047 0.56607217 0.00000000
-0.62960178 -0.26498786 0.00000000
0.02945840 0.10546261 0.00000000
0.70458847 -0.54752773 0.00000000
-0.53487283 0.51422447 0.00000000
0.20021418 0.70382482 0.01231083
-0.13161577 0.06390690 0.00000000
0.24414901 0.08493846 0.00000000
0.02730900 0.57701916 0.00000000
0.34922370 0.67585915 0.02663383
-0.62143707 -0.59227020 0.00000000
-0.37253499 0.03373814 0.00000000
-0.59760368 0.25386769 0.00000000
0.00852114 0.76476544 0.00000000
0.69764727 -0.42339727 0.00000000
-0.20240450 0.57535368 0.00000000
-0.62022889 0.07324314 0.00000000
0.24924904 0.33734110 0.00000000
-0.10499705 0.17941131 0.00000000
0.60180998 0.56641698 0.04357192
-0.67137605 0.20498750 0.00000000
-0.40351948 0.55186194 0.00000000
0.51133138 0.60544449 0.03748376
0.76750457 -0.43048841 0.00000000
-0.24896425 -0.12966257 0.00000000
0.69193536 -0.23875889 0.00000000
-0.74485123 0.48896036 0.00000000
0.07801524 -0.39516270 0.00000000
-0.24894837 0.73901892 0.00000000
-0.05047157 0.44355568 0.00000000
0.62376583 -0.08224288 0.00000000
-0.52488744 -0.52688265 0.00000000
0.62260771 0.58036554 0.04768342
0.39484066 -0.25603870 0.00000000
-0.48390412 0.34672058 0.00000000
0.12834705 0.57340932 0.00000000
-0.55150157 -0.49355644 0.00000000
0.13859072 -0.07083447 0.00000000
0.01348931 -0.12611635 0.00000000
-0.01998941 0.07960898 0.00000000
0.63273782 -0.34875295 0.00000000
0.22834088 0.67280155 0.01196808
-0.67759871 -0.25089356 0.00000000
-0.03099498 -0.14629047 0.00000000
-0.69672155 -0.73068458 0.00000000
-0.40355465 0.25799248 0.00000000
-0.29069576 -0.69567430 0.00000000
0.37226588 0.40309086 0.00000000
0.47925156 0.27022111 0.00000000
-0.50912583 -0.41698435 0.00000000
0.57185954 -0.00857391 0.00000000
-0.54897356 -0.30105284 0.00000000
-0.49232888 -0.57529801 0.00000000
-0.63570911 0.79024196 0.00000000
0.73586369 0.10238432 0.00452585
0.07126443 -0.29771808 0.00000000
0.35430419 0.10959026 0.00000000
0.17061584 -0.34690118 0.00000000
0.73403752 -0.68521327 0.00000000
-0.47650617 0.18509082 0.00000000
0.54139352 -0.16435514 0.00000000
-0.47512966 -0.16002108 0.00000000
0.34487081 0.66659206 0.02502218
0.35252878 -0.40536371 0.00000000
0.14754122 0.10259347 0.00000000
-0.18605927 0.62927675 0.00000000
-0.04407115 -0.62718761 0.00000000
-0.62743235 -0.73456228 0.00000000
0.30072027 0.53103197 0.00375721
0.70965368 0.74883568 0.07791846
-0.24869397 0.01067227 0.00000000
0.37390041 -0.47957686 0.00000000
0.24528193 -0.40712199 0.00000000
-0.72427583 -0.15044673 0.00000000
0.15896447 0.72404939 0.00982294
-0.26851311 0.59733659 0.00000000
-0.78753150 0.35934609 0.00000000
-0.67995864 -0.67380190 0.00000000
0.13024727 0.15593641 0.00000000
-0.30666861 0.48006997 0.00000000
0.13093543 0.68682921 0.00210207
-0.22441253 0.34377801 0.00000000
-0.71312076 -0.26816723 0.00000000
0.19507536 -0.36102572 0.00000000
-0.03458817 -0.00879312 0.00000000
-0.38095763 -0.51322633 0.00000000
0.66469169 -0.29672697 0.00000000
0.54433811 -0.45110592 0.00000000
-0.70439643 0.35807505 0.00000000
0.70183456 -0.00177556 0.00000000
-0.32035694 -0.45815355 0.00000000
0.38808182 -0.73734266 0.00000000
-0.25534827 -0.22210707 0.00000000
-0.46074402 -0.17410167 0.00000000
0.07267955 0.67489851 0.00000000
0.26765084 -0.16440620 0.00000000
0.15311253 0.14562976 0.00000000
0.28228980 0.28676146 0.00000000
0.68278289 0.42528346 0.03645317
0.72083586 0.48168156 0.04762946
0.13513222 0.63596064 0.00000000
-0.50345856 -0.13073251 0.00000000
-0.57038456 -0.11636080 0.00000000
0.71641004 -0.29518110 0.00000000
0.69731957 0.69028032 0.06953016
-0.20979951 0.15442204 0.00000000
-0.02374866 0.38746390 0.00000000
-0.61346066 0.56678581 0.00000000
0.41766167 -0.46367675 0.00000000
0.29745093 -0.35132760 0.00000000
-0.50640744 -0.30935478 0.00000000
0.64819235 -0.32264361 0.00000000
0.34465790 -0.47692108 0.00000000
0.02012398 -0.15468414 0.00000000
-0.77413249 -0.58747721 0.00000000
0.30096513 0.76064056 0.03095556
-0.00018625 -0.37497422 0.00000000
0.22651067 -0.27444768 0.00000000
-0.46304739 0.36317012 0.00000000
0.06721460 -0.60898489 0.00000000
-0.60594213 -0.73825127 0.00000000
0.77624029 -0.30470636 0.00000000
0.40960470 -0.61966383 0.00000000
0.28730774 -0.71536708 0.00000000
0.31918532 -0.30066395 0.00000000
-0.59725457 -0.33567765 0.00000000
-0.16772537 0.67510027 0.00000000
0.18975075 0.53959203 0.00000000
-0.48678079 -0.03324353 0.00000000
0.05037641 0.01176504 0.00000000
-0.69313902 0.69027263 0.00000000
-0.54875195 0.44714728 0.00000000
0.71285832 -0.09989610 0.00000000
0.78888917 0.16227420 0.01788700
-0.01548993 -0.24056649 0.00000000
0.21804191 0.68963200 0.01274094
0.59629846 -0.59785092 0.00000000
0.34048975 -0.41416219 0.00000000
0.58279794 -0.33142710 0.00000000
-0.50070012 0.33613092 0.00000000
-0.34448895 0.49888176 0.00000000
-0.68196636 -0.71597719 0.00000000
-0.74343920 -0.52232867 0.00000000
0.01988566 0.16141042 0.00000000
-0.63289255 -0.58820885 0.00000000
-0.33880112 -0.29836658 0.00000000
0.60349679 0.77768153 0.06877032
-0.41970989 -0.67424786 0.00000000
-0.61653644 0.21213794 0.00000000
-0.51521057 -0.47691283 0.00000000
0.61030918 0.73940873 0.06504763
0.35346109 -0.73250151 0.00000000
0.52788478 -0.23494527 0.00000000
0.58258635 -0.34730002 0.00000000
-0.48969495 0.15182193 0.00000000
-0.21766677 0.28444105 0.00000000
-0.59330767 -0.66671902 0.00000000
-0.16345084 0.11835290 0.00000000
0.08305380 0.46843517 0.00000000
-0.64195508 -0.32871148 0.00000000
-0.02944874 -0.08637305 0.00000000
0.47830182 -0.74656779 0.00000000
-0.33118641 0.46568725 0.00000000
-0.02694971 0.12335761 0.00000000
0.56048870 0.10722618 0.00000000
-0.63349009 0.12194282 0.00000000
-0.03055031 0.49176979 0.00000000
-0.75766522 -0.12714028 0.00000000
0.23163302 0.42501444 0.00000000
-0.60966784 0.18614207 0.00000000
-0.50298375 0.24831200 0.00000000
0.09584372 0.78940541 0.01008745
0.11286227 0.52573496 0.00000000
-0.24002872 -0.66781175 0.00000000
0.79557902 0.26136893 0.03040438
0.47104102 -0.20845039 0.00000000
0.10112299 -0.02951243 0.00000000
0.78415918 -0.29358640 0.00000000
-0.29265606 -0.02645701 0.00000000
-0.20518605 0.55094975 0.00000000
-0.35797590 0.33547589 0.00000000
-0.24501836 -0.45348626 0.00000000
0.35589340 0.28279090 0.00000000
-0.34876770 -0.58042967 0.00000000
0.46025229 -0.51984245 0.00000000
0.17692234 -0.13721891 0.00000000
0.09532526 -0.63981444 0.00000000
0.75582296 -0.13863604 0.00000000
0.61864364 0.37876087 0.02335867
-0.20381299 -0.59167045 0.00000000
0.42707580 -0.79658729 0.00000000
-0.72362494 -0.47869998 0.00000000
0.54059410 0.26705429 0.00090503
0.46360585 -0.24398924 0.00000000
0.22958925 0.26586282 0.00000000
-0.25831684 -0.66192675 0.00000000
-0.26937667 0.29794687 0.00000000
-0.40634865 -0.71360582 0.00000000
-0.54039472 -0.66330814 0.00000000
0.68649966 0.60936207 0.05867484
0.01055651 0.22557835 0.00000000
0.47146732 0.51908386 0.02254772
0.61496985 0.68252611 0.05886824
0.31038383 -0.65034074 0.00000000
-0.23044644 0.04231598 0.00000000
0.69725621 -0.12410053 0.00000000
-0.27163485 0.69178796 0.00000000
-0.20973024 -0.70191681 0.00000000
-0.12733579 -0.30057541 0.00000000
-0.18973735 -0.00602288 0.00000000
0.66969383 -0.07604224 0.00000000
-0.79080546 0.18762007 0.00000000
-0.09872887 -0.01095440 0.00000000
0.77885991 0.40066186 0.04490842
0.12278588 -0.73210424 0.00000000
-0.02231168 -0.12592101 0.00000000
-0.48881495 0.12264878 0.00000000
0.48250198 -0.47799030 0.00000000
-0.50368792 0.39766255 0.00000000
0.23081385 -0.60595590 0.00000000
0.67592126 0.22164097 0.01154444
-0.53008646 -0.59083498 0.00000000
0.46880853 0.67066270 0.04016930
-0.48149914 -0.75856656 0.00000000
0.73368126 -0.60897422 0.00000000
-0.56167036 -0.36714873 0.00000000
-0.13900717 -0.47459137 0.00000000
0.42462578 0.33146957 0.00000000
-0.37544018 -0.38294953 0.00000000
0.14750518 0.12791668 0.00000000
-0.73974288 -0.56916195 0.00000000
-0.36163828 0.34963551 0.00000000
0.28880900 0.22720011 0.00000000
-0.03078876 0.72018987 0.00000000
0.43672851 -0.48033586 0.00000000
0.55593795 0.40033016 0.01849104
-0.65503210 -0.12742543 0.00000000
0.44267812 -0.19720493 0.00000000
-0.13196546 -0.51156366 0.00000000
-0.51648968 -0.40570933 0.00000000
0.28027984 -0.19147357 0.00000000
-0.04177464 -0.08921399 0.00000000
0.24731059 0.44825462 0.00000000
-0.42727867 -0.56994152 0.00000000
-0.74727625 0.20008907 0.00000000
0.30029595 0.48674017 0.00000000
-0.41395378 -0.39230001 0.00000000
-0.69280642 0.38044181 0.00000000
0.42013380 -0.22418478 0.00000000
0.09571894 0.34660450 0.00000000
0.56070477 0.17893915 0.00000000
-0.30601123 -0.13901900 0.00000000
0.42774975 0.20213684 0.00000000
-0.58024085 0.28645924 0.00000000
-0.29084387 0.45633951 0.00000000
0.60602874 -0.33606538 0.00000000
-0.78788000 -0.06124293 0.00000000
-0.36537799 -0.62870353 0.00000000
-0.29795140 -0.41910088 0.00000000
-0.06381182 0.66805422 0.00000000
-0.03058035 -0.20055059 0.00000000
-0.35865143 0.63374794 0.00000000
-0.07787768 -0.50682724 0.00000000
-0.69824344 -0.65511489 0.00000000
-0.31379297 -0.65780699 0.00000000
-0.40280557 -0.56095189 0.00000000
-0.41820943 -0.08159912 0.00000000
-0.35219988 -0.67046344 0.00000000
-0.46203604 0.49919915 0.00000000
0.77621245 0.37557057 0.04162612
-0.62081242 0.50256306 0.00000000
0.10973042 -0.04324099 0.00000000
-0.61561495 -0.27828223 0.00000000
0.28325906 0.30751976 0.00000000
-0.12684676 0.27205142 0.00000000
-0.38538396 -0.73064554 0.00000000
0.07111330 -0.44118354 0.00000000
-0.73812693 -0.16797403 0.00000000
-0.62573737 0.22805145 0.00000000
0.16670525 0.52656293 0.00000000
0.49505001 0.51638502 0.02501888
-0.40716618 0.65744245 0.00000000
0.23864071 -0.36757702 0.00000000
-0.54975569 -0.53209978 0.00000000
0.31704679 0.67364705 0.02256460
0.43538123 0.04251487 0.00000000
0.49033165 0.47368965 0.01940846
0.27141070 -0.74535322 0.00000000
-0.70858127 0.21424492 0.00000000
0.05032935 0.22461180 0.00000000
0.66218275 -0.08395912 0.00000000
0.50049913 0.59276110 0.03470118
0.16404895 0.60530090 0.00000000
-0.37240797 0.79395217 0.00000000
-0.31508744 -0.38702852 0.00000000
0.68959391 -0.00360914 0.00000000
0.70640618 -0.31850082 0.00000000
-0.30838934 -0.71036166 0.00000000
0.52276510 -0.11652350 0.00000000
0.10954231 -0.15903156 0.00000000
0.04899849 -0.15125293 0.00000000
0.62801719 0.72734213 0.06571516
0.40041488 -0.52819574 0.00000000
0.42466438 -0.75280166 0.00000000
0.11512498 0.58029777 0.00000000
0.27333745 0.70146388 0.02068407
-0.74271339 0.49601996 0.00000000
0.44066411 -0.50917077 0.00000000
-0.73894876 -0.38546821 0.00000000
-0.62361121 -0.54594600 0.00000000
0.23785786 0.07486393 0.00000000
-0.24222599 0.55401880 0.00000000
-0.36946931 0.00135168 0.00000000
-0.38475588 0.40139902 0.00000000
-0.31929070 0.74869204 0.00000000
0.44121134 0.77523142 0.04927731
-0.35346922 0.58482200 0.00000000
-0.67035055 0.45500922 0.00000000
0.77955782 -0.14374682 0.00000000
0.63093108 0.24564780 0.00906150
-0.45609739 -0.46207422 0.00000000
-0.24241783 -0.37151417 0.00000000
0.33087695 -0.13105203 0.00000000
0.45347083 -0.33524570 0.00000000
0.21611097 -0.50779563 0.00000000
0.15598251 0.66943401 0.00300751
-0.07677897 -0.73020732 0.00000000
-0.58685321 -0.76709324 0.00000000
0.00934022 0.63589549 0.00000000
0.69401038 -0.24803165 0.00000000
0.27580744 -0.61511505 0.00000000
-0.59475952 0.76893371 0.00000000
0.73486847 -0.20821646 0.00000000
-0.30216059 0.36867118 0.00000000
-0.11792761 -0.25396022 0.00000000
0.54460603 -0.19845621 0.00000000
-0.37813795 0.09077323 0.00000000
0.78270447 -0.50795150 0.00000000
0.40184444 -0.53362101 0.00000000
0.67242783 -0.70434755 0.00000000
0.25891554 -0.05268740 0.00000000
-0.59177279 -0.49619704 0.00000000
0.66873538 0.20220879 0.00839475
-0.21776654 -0.40860051 0.00000000
-0.43815073 -0.15517320 0.00000000
-0.01300570 -0.43840843 0.00000000
-0.28878415 -0.30770054 0.00000000
0.08167293 -0.77535731 0.00000000
0.06163099 0.47100431 0.00000000
-0.58105326 -0.74055332 0.00000000
0.55470115 0.28296092 0.00445652
0.30731794 -0.54087853 0.00000000
-0.05182691 -0.52946842 0.00000000
-0.19252881 0.52995771 0.00000000
-0.18457887 0.74104899 0.00000000
0.62181520 0.49367601 0.03733175
-0.79633117 -0.14429975 0.00000000
-0.28533763 -0.58454967 0.00000000
0.21347049 0.49717107 0.00000000
-0.04019079 0.22456755 0.00000000
-0.59829450 -0.35512444 0.00000000
-0.39027393 0.31028023 0.00000000
0.16816846 0.31289527 0.00000000
0.06665369 -0.58403504 0.00000000
-0.07469720 -0.67382646 0.00000000
0.23649035 -0.35561919 0.00000000
0.61558521 0.50566447 0.03801314
0.36475593 -0.21174292 0.00000000
0.77835834 0.18266533 0.01905376
0.32409316 -0.32606235 0.00000000
0.73727113 0.60317779 0.06395080
-0.75684565 0.34643370 0.00000000
0.32268468 -0.27168363 0.00000000
0.60272169 0.53116494 0.03950845
-0.36062452 -0.64543772 0.00000000
-0.46926236 -0.38583970 0.00000000
0.70639074 0.75157666 0.07785670
0.25511068 -0.09418296 0.00000000
-0.09255314 0.47774994 0.00000000
0.36477599 0.28405952 0.00000000
-0.16351037 -0.56658882 0.00000000
0.56249022 0.30731797 0.00826033
-0.43664691 -0.66530335 0.00000000
0.19696844 0.18615279 0.00000000
-0.79851604 0.77418077 0.00000000
-0.25292873 -0.53601235 0.00000000
-0.29483578 0.67412537 0.00000000
0.66977900 0.66561037 0.06335213
-0.62685961 0.34489778 0.00000000
0.76078957 -0.21613543 0.00000000
-0.32062751 -0.44578269 0.00000000
-0.31350359 -0.05991164 0.00000000
-0.35391650 0.16476713 0.00000000
0.24866331 0.61830986 0.00792486
-0.01211625 0.11116167 0.00000000
-0.78987283 0.71915489 0.00000000
0.05762405 0.67273170 0.00000000
0.50074744 -0.60557336 0.00000000
0.12570459 -0.43576410 0.00000000
0.17523161 -0.31457892 0.00000000
0.65063953 0.33180845 0.02158887
0.73218596 0.77049673 0.08314783
0.32526636 0.10734620 0.00000000
-0.09400171 -0.13893914 0.00000000
-0.66989541 0.69167542 0.00000000
0.51903844 0.01826039 0.00000000
0.15356652 -0.00857114 0.00000000
0.13430022 0.79063046 0.01478293
-0.10791719 -0.50449878 0.00000000
-0.28047818 -0.58893114 0.00000000
-0.16595002 -0.71605408 0.00000000
-0.21129800 -0.02903850 0.00000000
0.70600927 0.03844415 0.00000000
-0.61990082 -0.53336746 0.00000000
-0.12147037 0.65670520 0.00000000
0.65338653 0.10353739 0.00000000
0.33910686 -0.08043202 0.00000000
-0.13667119 -0.07197805 0.00000000
0.71477419 -0.06182671 0.00000000
-0.41243634 -0.50234956 0.00000000
0.70521390 -0.55200231 0.00000000
-0.47966674 0.39088619 0.00000000
0.62116426 0.09678195 0.00000000
0.59473360 0.36733717 0.01917766
0.37444580 0.78692502 0.04276069
0.51264137 -0.51409423 0.00000000
0.50675130 0.41789776 0.01474959
0.43008479 -0.68384802 0.00000000
0.07858696 -0.75216657 0.00000000
-0.11934367 -0.29267761 0.00000000
0.15424392 -0.17333126 0.00000000
-0.41157442 0.03681966 0.00000000
-0.23571286 0.17434473 0.00000000
-0.57473248 -0.09762852 0.00000000
0.62573642 -0.04533020 0.00000000
0.18052550 0.77740449 0.01868771
-0.12153338 -0.46558985 0.00000000
0.00034559 0.26193824 0.00000000
-0.42434868 0.48535213 0.00000000
-0.19284812 0.11060758 0.00000000
-0.56945986 -0.50398707 0.00000000
-0.66614783 0.25940618 0.00000000
0.42383689 0.61287260 0.02800959
0.63189340 -0.27805945 0.00000000
0.16010252 0.25657204 0.00000000
0.63863099 -0.14552629 0.00000000
0.08511378 0.72500354 0.00119717
0.78720427 -0.54616457 0.00000000
0.10176604 -0.67006391 0.00000000
-0.21461260 -0.29732043 0.00000000
-0.44785759 -0.28989035 0.00000000
-0.68661219 -0.62299103 0.00000000
0.66987354 0.41096014 0.03323076
0.32540947 -0.70131189 0.00000000
-0.58887249 0.17351742 0.00000000
-0.55474788 -0.34586993 0.00000000
0.63623857 -0.54675543 0.00000000
0.36462170 0.00458300 0.00000000
-0.64896989 0.76163083 0.00000000
-0.19023834 -0.42103574 0.00000000
0.21682701 -0.27811429 0.00000000
0.71494740 0.62093538 0.06341050
0.08604377 -0.28651237 0.00000000
-0.33443618 -0.32599059 0.00000000
-0.59541303 -0.67609775 0.00000000
0.29212910 -0.56960070 0.00000000
-0.15897200 -0.71813059 0.00000000
0.51123917 0.67575490 0.04579264
-0.75366437 0.76186973 0.00000000
0.21768235 -0.43925437 0.00000000
0.62833780 -0.16224329 0.00000000
-0.35848212 0.58941013 0.00000000
0.51921707 -0.48637000 0.00000000
0.66009092 0.18964161 0.00588479
0.07134900 -0.45985067 0.00000000
-0.45427600 0.45981172 0.00000000
-0.17294621 -0.14302011 0.00000000
-0.04540369 -0.65982181 0.00000000
0.08823922 0.45730424 0.00000000
0.65497154 -0.21468803 0.00000000
0.21584909 0.68022352 0.01136817
0.12155196 0.29070997 0.00000000
0.17621352 -0.60794771 0.00000000
