ply
format ascii 1.0
element vertex 1180
property float x
property float y
property float z
end_header
-0.29278675 -0.55684590 0.00000501
-0.34612361 -0.10347917 0.00000618
-0.21963006 -0.00638887 0.00000414
-0.24887805 0.29943487 0.00437738
-0.05599235 0.24953806 0.00000772
-0.40772241 -0.14256920 0.00182821
-0.20370014 -0.27015543 0.00000371
-0.08037656 0.52742082 0.00000354
-0.16515099 -0.41950750 0.00000298
-0.12735739 -0.19660620 0.00000249
-0.04040168 -0.66838145 0.00000075
-0.18970086 0.54220372 0.00873251
-0.78013152 -0.02248728 0.04627241
-0.36495441 0.17346472 0.01110553
-0.15590729 -0.74040616 0.00000262
-0.19269358 -0.12274870 0.00000362
-0.43137237 0.01090546 0.01101011
-0.62801230 -0.45333701 0.01147050
-0.54951793 0.15628113 0.02978763
-0.04153202 -0.05965523 0.00000115
-0.02578491 -0.54177928 0.00000059
-0.69598943 -0.63395572 0.01075175
-0.43767661 -0.20158461 0.00240862
-0.14652929 0.23277965 0.00000659
-0.09110342 0.23775604 0.00000736
-0.00275461 -0.70379454 0.00000006
-0.09977128 0.34431717 0.00000576
-0.01605123 -0.13612980 0.00000068
-0.65519738 0.13844231 0.04013602
-0.15551528 0.10243304 0.00000824
-0.27003083 0.29834169 0.00655674
-0.58090305 -0.76307762 0.00000966
-0.08667891 0.58729887 0.00000262
-0.30603701 0.20691670 0.00636116
-0.57211959 -0.72820747 0.00000954
-0.28641489 -0.45106137 0.00000497
-0.52121842 0.05927902 0.02257859
-0.42055371 -0.62857550 0.00000709
-0.47943816 0.17317942 0.02314626
-0.26875758 -0.63076508 0.00000457
-0.31373012 -0.61115843 0.00000533
-0.44398281 -0.44908795 0.00000759
-0.26362610 -0.58631450 0.00000451
-0.51041770 -0.19513147 0.01034838
-0.29906493 -0.13468401 0.00000538
-0.63572180 -0.16683868 0.02477439
-0.68786299 -0.69925976 0.00704869
-0.08481871 -0.66212440 0.00000149
-0.06444428 -0.41045162 0.00000131
-0.08675168 0.47788319 0.00000412
-0.11432954 -0.52423805 0.00000207
-0.00065777 0.59045321 0.00000387
-0.66126984 -0.45611107 0.01485099
-0.45624098 -0.07170011 0.01002649
-0.10371373 -0.76256436 0.00000174
-0.57759172 -0.33234346 0.01143777
-0.01072787 0.12072327 0.00001018
-0.65063852 -0.22060464 0.02400050
-0.65598851 0.03376768 0.03565518
-0.15452801 -0.54729384 0.00000272
-0.05809588 -0.49115437 0.00000116
-0.20812429 -0.74742365 0.00000349
-0.50623226 -0.35448924 0.00295923
-0.70953119 -0.37497422 0.02346990
-0.05179891 0.67398727 0.00000195
-0.07653999 0.65212673 0.00161161
-0.27096748 -0.70242482 0.00000456
-0.49931341 -0.18832110 0.00947624
-0.06002428 0.19998620 0.00000834
-0.15951602 -0.38161623 0.00000291
-0.07337750 -0.59537894 0.00000135
-0.09008425 0.63398612 0.00224660
-0.43199417 -0.05336685 0.00827311
-0.64112061 0.15461943 0.03935933
-0.44559774 0.15192291 0.01865659
-0.31923184 -0.12906528 0.00000572
-0.28463817 -0.67360604 0.00000480
-0.02992839 -0.20215958 0.00000087
-0.41645941 -0.40408805 0.00000716
-0.51022524 -0.48486450 0.00000867
-0.29689097 0.19166365 0.00473316
-0.78658611 -0.32607031 0.03371447
-0.13980736 -0.78756964 0.00000233
-0.64756566 0.08550242 0.03702420
-0.77760845 -0.48020688 0.02604831
-0.21507712 -0.75530261 0.00000360
-0.55592430 -0.01726702 0.02289488
-0.68124759 -0.62465918 0.00960508
-0.52601796 -0.61275411 0.00000885
-0.38671139 0.38339534 0.02254979
-0.03037680 0.74137658 0.00064299
-0.19244595 -0.67171687 0.00000327
-0.21916944 0.33721253 0.00289680
-0.05403868 0.51301801 0.00000413
-0.62524402 -0.37560475 0.01456841
-0.22725201 0.33560765 0.00367778
-0.52500492 -0.30182207 0.00723212
-0.12161441 0.43249455 0.00000422
-0.23599948 0.02342871 0.00000812
-0.04763874 -0.52748656 0.00000096
-0.30472276 0.35226530 0.01256043
-0.69226205 -0.65778518 0.00932028
-0.06056084 -0.41136464 0.00000125
-0.29604349 0.14529783 0.00262224
-0.37308779 -0.72283280 0.00000624
-0.56073987 0.03510189 0.02568532
-0.37908050 0.33984721 0.01984755
-0.06064800 0.49820170 0.00000423
-0.79972547 -0.79681683 -0.00000001
-0.33786991 0.19244598 0.00908164
-0.36797628 0.12608714 0.00935788
-0.15088210 -0.77039754 0.00000252
-0.33125204 -0.73749912 0.00000554
-0.21751696 0.21550155 0.00000575
-0.11070357 0.66954994 0.00596815
-0.28644240 0.03881027 0.00000714
-0.33039290 -0.51319581 0.00000566
-0.25581452 -0.54105115 0.00000441
-0.50834465 -0.60025507 0.00000856
-0.74137765 -0.12126108 0.03788545
-0.01461861 0.33201209 0.00000721
-0.77175087 -0.55674344 0.02209432
-0.46330777 -0.74562997 0.00000772
-0.19564664 -0.52790409 0.00000342
-0.03754022 -0.14857723 0.00000103
-0.12652664 -0.78996783 0.00000211
-0.34825867 -0.63297617 0.00000588
-0.06797927 -0.21373329 0.00000149
-0.00498540 -0.10569042 0.00000043
-0.28030121 0.17216548 0.00213636
-0.23223278 -0.41888636 0.00000409
-0.27348998 -0.68418533 0.00000461
-0.48527810 0.24034128 0.02668957
-0.50153434 -0.28238893 0.00560842
-0.65477020 -0.51799297 0.01146844
-0.10859393 -0.30072826 0.00000211
-0.41567069 0.11958015 0.01409555
-0.06939403 -0.40418434 0.00000140
-0.21659870 0.23245479 0.00000554
-0.73153502 -0.57338864 0.01713480
-0.09343326 -0.23212279 0.00000191
-0.56739128 -0.27897045 0.01269107
-0.18653964 0.30477500 0.00000499
-0.40697688 0.06450399 0.01077875
-0.60029674 -0.11684914 0.02322444
-0.29457879 0.07492045 0.00000652
-0.73977900 0.04064743 0.04477685
-0.21562473 0.44592971 0.00726401
-0.20191269 0.55700135 0.01066343
-0.47767985 -0.72524136 0.00000798
-0.39217851 0.32100669 0.02040504
-0.66299361 -0.01637470 0.03420633
-0.42880657 -0.60274780 0.00000724
-0.06954980 0.64811754 0.00070085
-0.06291249 -0.29035485 0.00000136
-0.62877393 -0.10116921 0.02690629
-0.01680300 -0.52721244 0.00000045
-0.28142282 -0.79675382 0.00000467
-0.00468234 -0.11436037 0.00000051
-0.02649414 0.14493841 0.00000961
-0.15149894 0.18236685 0.00000721
-0.32994029 -0.48031673 0.00000568
-0.37726948 0.36671209 0.02082828
-0.02836378 -0.71866637 0.00000052
-0.12280382 -0.48863864 0.00000223
-0.09503793 -0.28333810 0.00000190
-0.11696580 -0.34470412 0.00000223
-0.27358240 -0.41291526 0.00000478
-0.22163659 0.03346734 0.00000820
-0.24842894 0.24199072 0.00182535
-0.29910275 -0.72819585 0.00000501
-0.03523792 -0.41182154 0.00000083
-0.00190524 -0.79378629 0.00000000
-0.10238949 0.36275816 0.00000547
-0.21254620 0.45206034 0.00720720
-0.62351114 -0.00029255 0.03075074
-0.67909598 -0.34595165 0.02153106
-0.16366038 0.25719953 0.00000599
-0.63824207 -0.14936209 0.02580176
-0.01010996 -0.23736575 0.00000052
-0.53853875 0.12480144 0.02725910
-0.36594820 -0.22380565 0.00000643
-0.09154403 0.06054608 0.00000979
-0.56424659 -0.54756165 0.00064858
-0.29883456 -0.05998719 0.00000542
-0.08128792 0.51978642 0.00000363
-0.45822060 0.06997291 0.01641229
-0.25137091 -0.07598128 0.00000462
-0.18530111 -0.37194774 0.00000334
-0.18089966 -0.41006559 0.00000325
-0.19034067 0.04054422 0.00000857
-0.60359293 -0.45538145 0.00881042
-0.15720242 -0.47301814 0.00000281
-0.29638481 0.27390775 0.00826596
-0.26629230 0.07469097 0.00000695
-0.23955061 0.52176946 0.01308984
-0.67397970 -0.75795066 0.00302795
-0.36425677 -0.08429804 0.00000649
-0.37468415 0.01868766 0.00538115
-0.52892470 -0.20397586 0.01191120
-0.38144162 -0.00131431 0.00522045
-0.26084670 -0.67433149 0.00000441
-0.27766496 -0.28521195 0.00000493
-0.63939309 -0.79292142 0.00001062
-0.64973259 0.11032371 0.03833462
-0.22645073 0.50507826 0.01098286
-0.07581060 -0.02753676 0.00000174
-0.00214056 -0.05345886 0.00000047
-0.32086539 0.35132861 0.01421913
-0.12309574 0.00772771 0.00001004
-0.20799324 -0.65337265 0.00000354
-0.42675057 -0.07528684 0.00676526
-0.49160317 -0.41819417 0.00000840
-0.15936767 0.55813932 0.00623379
-0.02016756 0.33725455 0.00000706
-0.00087721 0.47294939 0.00000548
-0.47930062 -0.46242794 0.00000817
-0.45350674 0.07852053 0.01628871
-0.26238719 0.25637326 0.00392204
-0.30752087 0.33176714 0.01196125
-0.61409318 -0.40555578 0.01208847
-0.32840401 0.24198744 0.01024521
-0.35967594 -0.39764515 0.00000622
-0.31416798 0.35498941 0.01367363
-0.29579815 0.15362722 0.00295959
-0.44784787 -0.70121831 0.00000750
-0.04568432 -0.53346890 0.00000092
-0.32380348 -0.46123809 0.00000559
-0.69494122 -0.33975232 0.02346960
-0.09118595 -0.30163226 0.00000182
-0.26244697 -0.23680001 0.00000471
-0.63655674 -0.69845915 0.00168200
-0.28973764 -0.74889129 0.00000484
-0.71577841 -0.36125585 0.02472578
-0.39388710 -0.06420201 0.00378864
-0.29858428 0.14085822 0.00269616
-0.40265200 -0.65035820 0.00000678
-0.60551143 0.05884923 0.03143445
-0.10301088 -0.32110000 0.00000201
-0.59597415 -0.51254004 0.00551600
-0.19192076 0.41284955 0.00332599
-0.51896840 0.15589067 0.02655426
-0.36455134 -0.63525271 0.00000615
-0.63900644 -0.14451644 0.02609352
-0.06929969 0.31981277 0.00000656
-0.31129232 -0.14105244 0.00000558
-0.58176851 -0.57181740 0.00143571
-0.72144008 -0.27720484 0.02898674
-0.61160386 0.09608729 0.03369957
-0.77952385 -0.63580024 0.01946540
-0.01229932 0.16927510 0.00000949
-0.64705718 -0.77948111 0.00001075
-0.21492617 -0.77773649 0.00000358
-0.19839658 0.40689152 0.00374799
-0.63545489 -0.57829624 0.00680547
-0.32219154 -0.60124093 0.00000547
-0.23249711 -0.37967986 0.00000412
-0.03174395 -0.05285022 0.00000099
-0.45594010 -0.13681896 0.00715543
-0.26790288 0.09513157 0.00000665
-0.16005594 0.25200292 0.00000612
-0.23891577 -0.42559814 0.00000420
-0.18895167 0.04922008 0.00000847
-0.00099023 -0.36486059 0.00000029
-0.29023764 0.05627880 0.00000685
-0.49087015 -0.63155431 0.00000825
-0.14404140 0.10403844 0.00000840
-0.01050432 -0.78080523 0.00000019
-0.65372258 -0.69431192 0.00367010
-0.78658992 -0.41963938 0.02963484
-0.18106072 0.03599466 0.00000877
-0.15124597 -0.53892893 0.00000267
-0.52464962 -0.70777917 0.00000877
-0.18829256 -0.38012430 0.00000339
-0.06656162 -0.58317554 0.00000124
-0.09397382 -0.22241642 0.00000192
-0.29241264 -0.33039355 0.00000515
-0.67672032 0.11587516 0.04141795
-0.42879409 0.26866391 0.02197773
-0.38184580 -0.17107113 0.00000673
-0.02656864 -0.19879606 0.00000082
-0.70834345 -0.27854669 0.02754938
-0.64832252 -0.54583842 0.00957547
-0.66135174 -0.52190721 0.01199070
-0.59997118 -0.50498194 0.00626637
-0.44617465 0.24187271 0.02263942
-0.00132868 -0.21731274 0.00000036
-0.19154721 0.32500815 0.00000464
-0.00820386 0.75843376 0.00000145
-0.43290365 -0.32595780 0.00000748
-0.60218036 0.03339751 0.02997397
-0.20749950 -0.09212371 0.00000389
-0.16631489 0.23435754 0.00000627
-0.63596451 -0.62755775 0.00471117
-0.50931752 -0.62352628 0.00000856
-0.40660611 -0.26847416 0.00000708
-0.39448312 0.18887115 0.01488616
-0.68457741 0.09948722 0.04153067
-0.58428103 -0.41034761 0.00874082
-0.51793033 -0.66030568 0.00000868
-0.19759303 -0.62432355 0.00000339
-0.04291598 -0.30809507 0.00000102
-0.46858013 -0.66824454 0.00000786
-0.12333502 -0.32837939 0.00000234
-0.61696714 -0.47194201 0.00949640
-0.75575042 -0.26199907 0.03326202
-0.53952175 0.00968225 0.02234304
-0.26560012 0.52868605 0.01613399
-0.30255154 -0.42345309 0.00000526
-0.47795236 -0.10715503 0.01076638
-0.15033664 0.54441297 0.00468447
-0.15443715 0.22155380 0.00000662
-0.39214051 -0.24853955 0.00000685
-0.02592135 0.73086798 0.00000156
-0.24176386 -0.44099763 0.00000424
-0.49953434 0.04279961 0.01957708
-0.41732374 -0.68963677 0.00000700
-0.07656218 -0.17278467 0.00000166
-0.06892914 0.19861001 0.00000823
-0.62471306 -0.28044009 0.01866199
-0.02265090 -0.09160311 0.00000082
-0.55650544 -0.29738927 0.01074187
-0.37751296 0.18303108 0.01284485
-0.40550941 -0.64890236 0.00000682
-0.23018610 0.50498581 0.01137210
-0.59685469 -0.00840618 0.02759050
-0.75282234 -0.01451003 0.04374506
-0.21405534 -0.36686552 0.00000382
-0.41055045 -0.77294213 0.00000683
-0.41099039 0.07629272 0.01171533
-0.71514755 -0.07423934 0.03717417
-0.32820314 -0.02239698 0.00000593
-0.05418433 -0.63106251 0.00000100
-0.27508816 -0.78736371 0.00000457
-0.23012669 -0.53207880 0.00000399
-0.14933066 0.28555480 0.00000582
-0.79610074 -0.78833497 0.01455934
-0.79563636 -0.12763985 -0.00000168
-0.61316466 -0.03526921 0.02813635
-0.52655238 -0.58292264 0.00000888
-0.46197641 -0.21311878 0.00446404
-0.58701307 -0.25508758 0.01579828
-0.76815903 -0.47971892 0.02507480
-0.40975925 -0.09848333 0.00396493
-0.60138869 -0.42673525 0.00982742
-0.28773287 -0.64215630 0.00000487
-0.32699400 -0.12895513 0.00000585
-0.50131565 0.10821102 0.02261676
-0.52177435 -0.59165782 0.00000879
-0.18874165 -0.18262237 0.00000352
-0.57925385 -0.33494529 0.01149932
-0.04434351 -0.49728754 0.00000093
-0.64500362 -0.71925956 0.00166435
-0.07436001 -0.26898688 0.00000157
-0.19932242 -0.62306881 0.00000342
-0.08480983 0.68998599 0.00413306
-0.71362066 -0.38780031 0.02334119
-0.64402473 -0.08806932 0.02908313
-0.53872705 0.15420727 0.02856111
-0.59508145 -0.62822616 0.00037774
-0.49485123 -0.48040834 0.00000841
-0.69047993 -0.34152064 0.02292280
-0.19142380 -0.46146646 0.00000339
-0.23146117 -0.36585581 0.00000411
-0.42153114 -0.57935417 0.00000713
-0.44650570 0.05314603 0.01444521
-0.15862878 0.54083288 0.00540139
-0.74124122 -0.42596659 0.02458487
-0.49245149 -0.48623118 0.00000837
-0.39621413 -0.32062927 0.00000688
-0.23147576 0.43609685 0.00850410
-0.56928009 -0.75402921 0.00000948
-0.46675256 0.28964216 0.02688881
-0.27084029 -0.33347663 0.00000479
-0.63547492 -0.48241213 0.01098842
-0.27386194 -0.29838014 0.00000486
-0.11295472 -0.39425364 0.00000213
-0.40384346 0.08401574 0.01129963
-0.50413692 0.18665604 0.02633423
-0.11210444 0.31521317 0.00000597
-0.23600559 -0.26897895 0.00000425
-0.36467171 0.29535967 0.01639076
-0.38834980 0.02771632 0.00721358
-0.22537386 0.08578638 0.00000742
-0.00480508 -0.37767053 0.00000026
-0.39128634 -0.37104020 0.00000676
-0.52415544 -0.60492796 0.00000882
-0.23405442 -0.01883622 0.00000437
-0.02003866 -0.48553693 0.00000053
-0.09935049 0.26412091 0.00000687
-0.53632861 -0.72900552 0.00000895
-0.29659313 -0.35558733 0.00000520
-0.03811128 -0.25010929 0.00000098
-0.27055591 -0.49238282 0.00000468
-0.16938367 0.17111792 0.00000709
-0.17804302 0.15582208 0.00000717
-0.41310117 -0.37421629 0.00000712
-0.29984614 -0.54959249 0.00000513
-0.46002117 -0.63758874 0.00000774
-0.51459098 -0.67945755 0.00000862
-0.30366987 0.09057447 0.00103906
-0.65289873 -0.76076478 0.00068581
-0.24306060 0.27569088 0.00272959
-0.61891830 -0.01087932 0.02980558
-0.11922292 -0.14147344 0.00000239
-0.51985431 -0.07214562 0.01670445
-0.00334946 -0.47432366 0.00000020
-0.07816779 0.04320638 0.00001023
-0.79597807 -0.33228654 0.03443215
-0.14615530 -0.74136621 0.00000246
-0.26308638 0.34734157 0.00796215
-0.03641281 -0.31381020 0.00000091
-0.27625677 -0.56003809 0.00000474
-0.15195400 0.34380162 0.00000498
-0.57404697 -0.34469116 0.01052617
-0.59479892 -0.78673303 0.00000988
-0.26505801 -0.65973455 0.00000449
-0.30807310 -0.10344832 0.00000555
-0.12400618 0.04258805 0.00000954
-0.33415490 0.08502876 0.00400679
-0.52404636 -0.38802502 0.00337248
-0.36614275 0.30515164 0.01697260
-0.58035487 -0.69127500 0.00000970
-0.57803416 -0.27903560 0.01380874
-0.14287715 -0.19258592 0.00000275
-0.43827981 -0.25534505 0.00012800
-0.24187627 -0.29777655 0.00000433
-0.57689989 -0.42843479 0.00717506
-0.12971434 0.51043224 0.00103163
-0.60557532 -0.43080777 0.01009062
-0.11685063 0.55312735 0.00153895
-0.61970514 0.10063185 0.03475065
-0.06722766 -0.65466309 0.00000121
-0.05818679 -0.48306838 0.00000116
-0.03549352 -0.29984730 0.00000090
-0.45428795 -0.26916701 0.00121070
-0.57021439 0.14105941 0.03130290
-0.65193987 0.01756767 0.03452256
-0.72429061 -0.30733714 0.02797299
-0.19812188 -0.20165589 0.00000366
-0.64702564 -0.65437025 0.00470661
-0.29811537 -0.10118533 0.00000538
-0.10367999 0.22551739 0.00000733
-0.31313053 0.10800082 0.00279494
-0.30904207 -0.41901344 0.00000537
-0.05091223 0.42326254 0.00000541
-0.06221481 0.66874266 0.00082792
-0.43451256 0.21760717 0.02035355
-0.00785052 0.17273344 0.00000951
-0.32454589 -0.20963873 0.00000576
-0.34305879 -0.18545872 0.00000608
-0.21075352 -0.65572238 0.00000359
-0.30612731 -0.79659170 0.00000508
-0.28271234 -0.09798316 0.00000513
-0.37932932 0.15542176 0.01183223
-0.62347168 -0.32581469 0.01655282
-0.08209458 -0.65473944 0.00000145
-0.05100105 -0.60855234 0.00000097
-0.74920523 -0.09864667 0.03969562
-0.30411983 -0.53914243 0.00000521
-0.54336023 -0.49377081 0.00079506
-0.53738540 -0.44619304 0.00224055
-0.26152328 0.14610779 0.00000604
-0.73151499 -0.11353231 0.03718408
-0.32749435 -0.72636759 0.00000548
-0.41980231 0.04744935 0.01138541
-0.01237173 0.15297844 0.00000971
-0.08786295 -0.49181476 0.00000165
-0.00597456 -0.10496366 0.00000053
-0.00169607 -0.57137167 0.00000017
-0.24269369 0.44642231 0.01013538
-0.68378472 -0.18076254 0.02922746
-0.49493787 -0.08278670 0.01361719
-0.73654473 -0.12449172 0.03723576
-0.42462665 0.04507040 0.01178960
-0.04042873 0.48136315 0.00000477
-0.03468598 -0.52887911 0.00000075
-0.23077673 0.44056982 0.00862554
-0.62345439 -0.60321808 0.00445536
-0.24451555 -0.02633996 0.00000454
-0.13974617 -0.55199331 0.00000247
-0.79088366 -0.31946135 0.03445507
-0.16156711 0.55518794 0.00633667
-0.53187096 -0.70299071 0.00000889
-0.48298973 0.12212482 0.02129404
-0.29992643 0.05559633 0.00000671
-0.23707438 -0.00986460 0.00000443
-0.51548445 -0.15632112 0.01257407
-0.55176759 0.08569505 0.02694671
-0.34443769 0.05574306 0.00381245
-0.33328500 -0.50398046 0.00000572
-0.15328780 0.61405814 0.00803192
-0.48427781 -0.24870799 0.00526019
-0.07088390 -0.68052858 0.00000125
-0.05836403 0.39826953 0.00000564
-0.20948134 0.30231905 0.00035535
-0.79855448 -0.14119779 -0.00000165
-0.29106721 -0.76701784 0.00000485
-0.79910165 -0.33103579 -0.00000117
-0.01064260 -0.33017221 0.00000047
-0.43361712 0.21030898 0.01994105
-0.48163459 0.26177055 0.02724035
-0.42396596 -0.06273099 0.00701957
-0.00004043 0.79546571 0.00000106
-0.42671582 -0.57100803 0.00000723
-0.05759981 0.53129900 0.00000383
-0.18458216 -0.43163103 0.00000329
-0.14009249 -0.34655508 0.00000261
-0.21255828 -0.44598114 0.00000375
-0.64053082 -0.18511987 0.02448358
-0.17649077 -0.41923207 0.00000317
-0.45266548 0.02191461 0.01373194
-0.64486545 -0.70014024 0.00248347
-0.22642438 -0.46263841 0.00000397
-0.09221216 0.06963961 0.00000965
-0.75878638 -0.26503471 0.03344927
-0.04305306 0.47195223 0.00000486
-0.16305444 -0.26329148 0.00000304
-0.50396502 0.18968441 0.02644818
-0.47445297 0.27290872 0.02696991
-0.37131023 -0.65347677 0.00000625
-0.05680068 0.26866391 0.00000745
-0.59577328 -0.47992557 0.00691694
-0.54934692 0.13178533 0.02870153
-0.56712675 -0.11160648 0.01996081
-0.06569380 0.45565918 0.00000474
-0.59017599 -0.14085458 0.02111219
-0.78884619 -0.68842739 0.01815203
-0.32343763 -0.71344262 0.00000542
-0.21640798 -0.12084917 0.00000402
-0.38689205 -0.26645911 0.00000676
-0.25791800 0.53845358 0.01575104
-0.27754605 -0.24789003 0.00000495
-0.56853509 -0.06240351 0.02225448
-0.49041349 -0.12924679 0.01111505
-0.15018231 -0.16420132 0.00000289
-0.26528835 -0.38927618 0.00000466
-0.17876503 -0.60349464 0.00000309
-0.68997216 -0.03339217 0.03630470
-0.34279948 -0.47949782 0.00000589
-0.30607012 -0.63929534 0.00000518
-0.25013354 -0.03670470 0.00000463
-0.14610577 0.01992650 0.00000952
-0.53667402 -0.01416171 0.02100355
-0.71543497 -0.42187005 0.02204666
-0.22688968 0.46465173 0.00926635
-0.74094075 -0.65411669 0.01460488
-0.28026125 -0.03080143 0.00000513
-0.21949109 -0.16640458 0.00000404
-0.21945728 0.35703972 0.00379163
-0.09114026 -0.20113970 0.00000189
-0.52224296 -0.26898685 0.00837305
-0.24943948 -0.08634106 0.00000459
-0.22326493 -0.04191468 0.00000418
-0.12892739 0.48128897 0.00000344
-0.09576126 0.50722849 0.00000358
-0.68869364 -0.06453755 0.03481205
-0.19036663 -0.79807353 0.00000316
-0.34320757 0.37070167 0.01741610
-0.50533473 -0.38722265 0.00143746
-0.20546827 -0.04689465 0.00000388
-0.60036707 -0.10177701 0.02388904
-0.72439152 -0.39988124 0.02394841
-0.49355096 0.26958787 0.02883579
-0.25917527 -0.13840462 0.00000472
-0.42568073 0.20236117 0.01875894
-0.55169576 0.00322910 0.02334337
-0.43019071 -0.01117270 0.00992303
-0.63387597 -0.41456452 0.01377844
-0.58044952 -0.49197727 0.00477812
-0.37151006 -0.32014236 0.00000647
-0.49916252 -0.16839767 0.01032908
-0.52323318 0.21168540 0.02943610
-0.42222187 -0.70813525 0.00000707
-0.36324266 -0.31418842 0.00000633
-0.26606852 -0.42300293 0.00000465
-0.56575173 -0.21597642 0.01526519
-0.34265861 0.25051123 0.01211763
-0.22983290 -0.07515454 0.00000427
-0.69451547 -0.55113983 0.01420763
-0.14087528 -0.19790269 0.00000271
-0.52326328 -0.79033250 0.00000869
-0.15382840 -0.79659510 0.00000256
-0.72320682 -0.41766250 0.02304836
-0.66968149 -0.75280613 0.00279977
-0.00797980 -0.30153233 0.00000044
-0.13015170 0.27555835 0.00000625
-0.54734713 -0.18907019 0.01450070
-0.57930481 -0.79155809 0.00000962
-0.57894611 -0.53874975 0.00258041
-0.14938541 0.46862030 0.00127953
-0.78259963 -0.66740280 0.01841119
-0.04295457 0.32621506 0.00000687
-0.60286319 -0.52918208 0.00551566
-0.22818302 -0.00980253 0.00000428
-0.41525397 -0.04692342 0.00679161
-0.26866728 -0.46919617 0.00000467
-0.10454126 0.03518064 0.00000994
-0.08764927 0.17809165 0.00000823
-0.79570103 -0.45267445 0.02915354
-0.08384352 0.54639578 0.00000322
-0.28474537 -0.76277572 0.00000475
-0.57134509 -0.16529147 0.01806409
-0.07426699 -0.02390595 0.00000172
-0.38504317 -0.03295984 0.00421978
-0.58933783 -0.34653488 0.01205565
-0.58511335 0.13203327 0.03247793
-0.39545357 0.29187948 0.01947982
-0.31330940 -0.55425519 0.00000535
-0.20223249 -0.31192252 0.00000366
-0.21421045 0.14745808 0.00000674
-0.63634634 -0.63855690 0.00427177
-0.14530084 -0.57573944 0.00000255
-0.22820915 0.47983569 0.01006734
-0.31830987 -0.12158784 0.00000571
-0.57378370 -0.39494467 0.00830725
-0.39594710 -0.06699528 0.00388373
-0.04116957 -0.41410264 0.00000092
-0.38271210 -0.30296752 0.00000666
-0.47457212 0.28337309 0.02743873
-0.12482870 -0.28567725 0.00000239
-0.06919591 0.01212783 0.00001079
-0.13337700 0.40519375 0.00000442
-0.52354509 -0.03101062 0.01888664
-0.18038495 0.20375156 0.00000648
-0.62555492 0.14397500 0.03725642
-0.40115502 -0.74559063 0.00000669
-0.79966694 -0.75834239 -0.00000010
-0.44061232 -0.62313920 0.00000742
-0.10387527 0.38621593 0.00000512
-0.65914011 0.00974060 0.03493933
-0.53366846 -0.58347636 0.00000899
-0.46941438 0.20709550 0.02356977
-0.66184002 -0.69849533 0.00434232
-0.49589026 -0.21099126 0.00812735
-0.00703663 -0.04899448 0.00000059
-0.06340597 0.03251804 0.00001060
-0.71054214 -0.79792601 0.00513396
-0.52507377 0.04463010 0.02234575
-0.29950619 0.13028027 0.00233199
-0.62221926 -0.25619733 0.01945649
-0.17852651 0.52202201 0.00667606
-0.25716344 0.14452212 0.00000613
-0.74529958 -0.06047077 0.04094901
-0.28149068 -0.68729085 0.00000474
-0.18296245 -0.58388674 0.00000317
-0.12728131 0.38550317 0.00000478
-0.73994344 -0.57668388 0.01787631
-0.59410518 -0.13277490 0.02187816
-0.30789188 0.31120011 0.01110352
-0.41748938 0.25681841 0.02027103
-0.09504943 -0.66738784 0.00000166
-0.30054036 0.15262368 0.00341511
-0.14795607 -0.73328745 0.00000250
-0.21075960 0.20246898 0.00000604
-0.28022546 -0.00968255 0.00000515
-0.18858804 -0.61079329 0.00000325
-0.53673238 -0.70329595 0.00000897
-0.21008302 0.40907925 0.00507377
-0.31984597 -0.25397760 0.00000565
-0.67883289 0.05497349 0.03898494
-0.71469009 -0.70823365 0.00948161
-0.55609012 -0.53441155 0.00036324
-0.44507229 0.05609239 0.01442277
-0.40072262 -0.09479695 0.00317427
-0.05028167 0.24561109 0.00000786
-0.59252107 -0.19855575 0.01884313
-0.56425595 -0.00161461 0.02445455
-0.75835824 -0.37262756 0.02871268
-0.13156089 -0.46717378 0.00000239
-0.00262871 -0.63165593 0.00000015
-0.24770194 -0.03966022 0.00000459
-0.61311901 -0.32426679 0.01553035
-0.04039323 -0.42074940 0.00000091
-0.49485379 -0.30083787 0.00410064
-0.67759329 -0.24785094 0.02565035
-0.26030955 -0.38744837 0.00000458
-0.08396291 0.60297287 0.00024985
-0.72518504 0.03046467 0.04279636
-0.27301586 0.44938743 0.01345707
-0.24000145 0.22897446 0.00037054
-0.77473617 -0.27345216 0.03476135
-0.10079949 -0.23477665 0.00000203
-0.52557623 -0.57130075 0.00000887
-0.73305291 -0.04100927 0.04050822
-0.30570969 -0.57166135 0.00000522
-0.77198404 -0.15489255 0.03964134
-0.01690371 0.73481613 0.00000164
-0.38338155 -0.58585370 0.00000650
-0.29179257 0.18321069 0.00382781
-0.33268037 0.09440048 0.00426019
-0.47443578 -0.13818386 0.00904319
-0.73346126 -0.21520399 0.03295579
-0.40712994 -0.05419076 0.00561941
-0.31175426 0.05072263 0.00015254
-0.70821351 -0.05721277 0.03718655
-0.65221769 -0.28166100 0.02150451
-0.25247943 -0.79506046 0.00000419
-0.45341551 -0.75477022 0.00000755
-0.23362058 0.04579880 0.00000785
-0.07563532 -0.03397204 0.00000173
-0.26811257 -0.29373217 0.00000477
-0.29829606 0.49696007 0.01819295
-0.03782788 -0.21069425 0.00000100
-0.28100359 0.26890230 0.00642833
-0.21457250 -0.63123769 0.00000367
-0.52150106 0.06489077 0.02285304
-0.65063608 -0.44558588 0.01419037
-0.49870661 0.20041721 0.02636254
-0.16005161 0.37064520 0.00000449
-0.33298674 -0.01022602 0.00000602
-0.19755436 -0.70594531 0.00000334
-0.70678663 -0.43505660 0.02056116
-0.06419944 0.67601961 0.00135416
-0.08173340 0.13512094 0.00000891
-0.43198973 -0.32205352 0.00000747
-0.34760264 -0.23744312 0.00000612
-0.14690870 -0.41914833 0.00000268
-0.11337432 -0.17307767 0.00000227
-0.45629969 0.03766535 0.01480134
-0.75392145 -0.30390370 0.03124225
-0.39613006 -0.34311315 0.00000686
-0.40277991 0.34419638 0.02253233
-0.57135582 -0.66235310 0.00000957
-0.00460616 0.72037888 0.00000203
-0.05898984 0.29628289 0.00000704
-0.04969821 0.47146758 0.00000477
-0.71715713 -0.26332891 0.02914085
-0.43897235 -0.71035630 0.00000734
-0.71158099 -0.23585527 0.02975172
-0.50709409 -0.64724386 0.00000851
-0.24782085 0.01512180 0.00000805
-0.23598619 0.09137194 0.00000718
-0.38910577 -0.79889202 0.00000646
-0.11488965 -0.14054494 0.00000232
-0.46669790 0.01059288 0.01471565
-0.78684902 -0.20689093 0.03893889
-0.31823027 -0.13791031 0.00000570
-0.47121319 -0.17620240 0.00704618
-0.08428414 0.43667817 0.00000472
-0.64347810 -0.26115674 0.02147844
-0.29057100 -0.10910263 0.00000525
-0.17251442 0.24580289 0.00000602
-0.00355577 -0.25615731 0.00000034
-0.67655385 -0.54868782 0.01242350
-0.30303741 0.01033773 0.00000729
-0.20980097 -0.08197596 0.00000393
-0.00111274 0.26542619 0.00000833
-0.62415802 -0.41915575 0.01255512
-0.29007146 -0.21126108 0.00000518
-0.18028267 -0.39798683 0.00000324
-0.70281655 -0.34613958 0.02402024
-0.44142187 0.14745829 0.01802228
-0.00893712 -0.50288171 0.00000033
-0.13691814 0.24030919 0.00000663
-0.42878333 -0.54779398 0.00000727
-0.69060898 -0.01382786 0.03722480
-0.77119267 -0.26246628 0.03486734
-0.70806295 -0.26302281 0.02819674
-0.12474093 -0.53586602 0.00000224
-0.63935840 -0.66473526 0.00344743
-0.27481535 -0.28650612 0.00000488
-0.13856424 0.33024397 0.00000537
-0.70687103 -0.27406368 0.02758983
-0.64082038 -0.21102783 0.02338440
-0.51745087 0.27855176 0.03174287
-0.17166311 -0.17291628 0.00000324
-0.18063304 0.38971671 0.00112893
-0.51481646 -0.00100017 0.01927622
-0.39143121 0.01406077 0.00694258
-0.16555005 -0.79928231 0.00000275
-0.10630578 -0.36122954 0.00000204
-0.31341892 0.36096120 0.01385516
-0.17637035 -0.35964239 0.00000320
-0.23905511 0.02049775 0.00000811
-0.55469573 0.00795907 0.02386546
-0.74246663 -0.33386481 0.02872991
-0.46777990 -0.58765471 0.00000790
-0.60720211 -0.76030093 0.00001010
-0.06749846 0.38548720 0.00000568
-0.16172770 0.55072796 0.00615911
-0.73501348 -0.78713316 0.00818079
-0.17110224 0.14797240 0.00000738
-0.32778448 -0.33364251 0.00000573
-0.18428227 0.02142201 0.00000892
-0.52565950 0.14162260 0.02663659
-0.51279670 -0.68462849 0.00000858
-0.37003416 0.37601638 0.02047222
-0.01987165 -0.65431631 0.00000042
-0.21989472 -0.52892667 0.00000382
-0.38748023 -0.48399404 0.00000663
-0.27634093 0.16017623 0.00119664
-0.46121529 0.16750856 0.02098043
-0.16117144 0.09898772 0.00000821
-0.62654865 -0.00936097 0.03067513
-0.07428156 -0.33728972 0.00000152
-0.47702667 -0.51847553 0.00000809
-0.10358850 0.21666756 0.00000746
-0.19418913 -0.33900338 0.00000351
-0.69470721 -0.34899166 0.02304210
-0.67568547 -0.18423265 0.02822344
-0.10575972 0.10026810 0.00000903
-0.59788865 -0.28136569 0.01579748
-0.18518130 -0.52441466 0.00000325
-0.66845924 0.10450668 0.04005257
-0.69993901 -0.70806712 0.00793595
-0.78724116 -0.73607618 0.01590537
-0.59821832 -0.74200314 0.00000997
-0.37577489 -0.19210932 0.00000662
-0.29017085 0.07546615 0.00000658
-0.52836019 -0.12607187 0.01524862
-0.09010987 -0.55084431 0.00000165
-0.53229582 -0.19232216 0.01277426
-0.59823740 -0.31846583 0.01421652
-0.16866103 -0.19780947 0.00000318
-0.16860197 0.10762890 0.00000798
-0.01413333 -0.14955294 0.00000064
-0.07521885 0.69005245 0.00312619
-0.01406264 0.42482316 0.00000595
-0.28180087 0.23369898 0.00497730
-0.50985879 -0.06287167 0.01605647
-0.26316354 0.13539428 0.00000617
-0.21460520 -0.21515344 0.00000393
-0.51982355 -0.04619161 0.01783289
-0.79931045 -0.41945037 -0.00000095
-0.76259363 -0.21023379 0.03623964
-0.64272845 0.03877406 0.03447742
-0.28544599 -0.00993916 0.00000523
-0.47705188 -0.60969770 0.00000804
-0.78913337 -0.20043358 0.03946094
-0.79816592 -0.63794589 0.02133438
-0.78120673 0.00954513 0.04778232
-0.16803037 0.34389126 0.00000474
-0.65192705 -0.62798095 0.00637330
-0.53652525 -0.59564680 0.00000903
-0.03389646 -0.10923354 0.00000099
-0.03345933 -0.29680216 0.00000087
-0.67066026 -0.71302742 0.00463729
-0.52155274 -0.46603009 0.00000887
-0.60540324 0.08372669 0.03250779
-0.23885570 0.43528590 0.00924572
-0.35977817 -0.41231960 0.00000621
-0.01367089 0.21492583 0.00000884
-0.18683670 -0.11759738 0.00000353
-0.07408608 0.60726446 0.00000253
-0.02326639 0.67056644 0.00000243
-0.17821947 -0.25713304 0.00000330
-0.17145833 -0.39774501 0.00000310
-0.09099471 -0.05710506 0.00000197
-0.11112572 -0.60081017 0.00000197
-0.29237506 -0.28779960 0.00000517
-0.37049451 0.21337532 0.01342904
-0.17076670 -0.30844077 0.00000314
-0.03038261 -0.74122697 0.00000054
-0.57634312 -0.64380568 0.00000966
-0.43876895 0.19831081 0.01996030
-0.59361643 -0.63714701 0.00000995
-0.12820742 -0.77930164 0.00000214
-0.41302297 0.13234928 0.01437356
-0.28578761 0.40644428 0.01292926
-0.34294581 -0.53736353 0.00000586
-0.12943874 -0.22606947 0.00000251
-0.10635155 0.22017784 0.00000737
-0.28191355 -0.74031931 0.00000472
-0.36413029 -0.33226675 0.00000634
-0.16388111 -0.76818573 0.00000274
-0.21624032 -0.72049892 0.00000364
-0.39906466 0.09954446 0.01147360
-0.55498594 -0.23806228 0.01316873
-0.57120681 0.01372106 0.02585503
-0.19483224 0.10001239 0.00000769
-0.59814996 -0.18512493 0.02002138
-0.27464885 -0.14218692 0.00000497
-0.28462869 -0.22209586 0.00000509
-0.52473176 -0.63827443 0.00000881
-0.52756071 -0.15914591 0.01372232
-0.54855257 -0.27655417 0.01081304
-0.72287679 -0.39750138 0.02389270
-0.55263853 -0.47367293 0.00264823
-0.53613919 -0.05896622 0.01899363
-0.11977155 -0.13991097 0.00000240
-0.21532913 0.00307912 0.00000871
-0.41977900 -0.62287855 0.00000708
-0.32675758 -0.11534169 0.00000585
-0.03756601 -0.00940603 0.00000112
-0.01900153 0.35957560 0.00000677
-0.43952271 -0.56627953 0.00000744
-0.21722358 0.47882140 0.00886652
-0.52267605 -0.26265982 0.00869452
-0.44580770 0.04017603 0.01380619
-0.75733155 -0.65602380 0.01624727
-0.26269123 -0.00810805 0.00000486
-0.33080384 -0.27041340 0.00000582
-0.08847227 -0.47460142 0.00000167
-0.29682842 0.27470762 0.00834754
-0.17886037 -0.56310862 0.00000312
-0.09044539 0.32472083 0.00000617
-0.72015351 -0.30266336 0.02774122
-0.58111501 -0.00715485 0.02598794
-0.67526555 0.02154832 0.03715192
-0.00840405 -0.76142418 0.00000016
-0.73968452 -0.14460333 0.03668940
-0.58253723 -0.47742757 0.00563234
-0.41283885 0.17092353 0.01603613
-0.12272815 -0.05897058 0.00000250
-0.45586523 -0.57099545 0.00000771
-0.54404545 0.21963505 0.03197390
-0.57313037 0.03875299 0.02714902
-0.05499482 -0.18572401 0.00000130
-0.00929646 -0.34482196 0.00000044
-0.28583759 -0.48549935 0.00000494
-0.16512764 -0.55243051 0.00000290
-0.07851070 -0.42730224 0.00000154
-0.33770108 -0.41053873 0.00000585
-0.15317437 -0.51746911 0.00000272
-0.23489749 -0.51032996 0.00000408
-0.55177569 -0.01816226 0.02241906
-0.17493278 0.18317904 0.00000684
-0.18716913 0.27197236 0.00000544
-0.03938049 -0.04923144 0.00000112
-0.24791510 -0.27854958 0.00000444
-0.06871753 0.17811339 0.00000851
-0.67589664 -0.57785779 0.01108240
-0.60456795 -0.72487324 0.00001008
-0.32009611 -0.26771036 0.00000565
-0.50207132 0.06936308 0.02100242
-0.28890494 0.34945869 0.01077271
-0.06225192 -0.20083925 0.00000141
-0.79750973 -0.09101066 0.04511409
-0.19084446 -0.24380335 0.00000352
-0.13204843 -0.34881440 0.00000247
-0.53991932 -0.43966609 0.00279192
-0.10325887 -0.01718433 0.00000220
-0.38902119 -0.33025932 0.00000675
-0.24880151 -0.59370238 0.00000426
-0.41487989 0.25727403 0.02001617
-0.47287297 0.26999202 0.02667638
-0.64062762 -0.65857548 0.00384965
-0.12917176 0.63789159 0.00653213
-0.11745293 -0.27075696 0.00000228
-0.78637886 -0.64685416 0.01970506
-0.15135790 -0.24872467 0.00000286
-0.15326099 0.18177922 0.00000719
-0.39610913 0.34345838 0.02179783
-0.42594901 0.04262932 0.01182238
-0.72815651 -0.07070108 0.03869807
-0.47613078 -0.42656228 0.00000814
-0.46981636 -0.62576276 0.00000791
-0.16845877 0.54994023 0.00683342
-0.09166255 -0.10084651 0.00000196
-0.08111624 -0.09965460 0.00000178
-0.28722954 -0.41772661 0.00000501
-0.10451416 -0.61621362 0.00000185
-0.07546637 -0.21329522 0.00000162
-0.13285799 -0.29699838 0.00000252
-0.20563196 0.01566558 0.00000868
-0.63451755 0.12734258 0.03747481
-0.37071598 -0.29451409 0.00000647
-0.05527679 0.03887028 0.00001063
-0.11511587 -0.03672996 0.00000239
-0.41839960 -0.20580988 0.00019484
-0.26727077 -0.65114617 0.00000453
-0.23784555 0.16291285 0.00000617
-0.21022531 0.04918850 0.00000815
-0.05244529 0.25073159 0.00000776
-0.61739284 -0.19269076 0.02171743
-0.17917590 -0.75634009 0.00000300
-0.21507238 -0.68435478 0.00000364
-0.38364875 -0.20979550 0.00000674
-0.10355536 0.58161438 0.00138131
-0.20468211 -0.61218971 0.00000351
-0.42322484 0.02661117 0.01083713
-0.29441541 0.08075118 0.00000645
-0.21113293 -0.69749308 0.00000357
-0.19359244 -0.49677828 0.00000340
-0.11609258 -0.55198103 0.00000208
-0.68010998 -0.11875380 0.03154435
-0.30314925 0.33024698 0.01143471
-0.73818594 -0.20849837 0.03374561
-0.48989341 0.21515299 0.02607719
-0.21967962 -0.75323915 0.00000368
-0.55241466 -0.71773964 0.00000922
-0.21855900 0.33700708 0.00282357
-0.47066829 0.21945581 0.02424073
-0.06734749 -0.34306833 0.00000140
-0.23593831 -0.19147275 0.00000430
-0.70551908 -0.28393540 0.02701706
-0.08811504 -0.35550392 0.00000174
-0.47460440 -0.00008241 0.01508260
-0.29159582 -0.10565276 0.00000527
-0.62590104 0.00378704 0.03118024
-0.31170377 0.25889245 0.00922407
-0.31606007 0.13188067 0.00414461
-0.14011344 -0.17790996 0.00000271
-0.12166373 0.49826938 0.00000331
-0.09963815 0.68319559 0.00539815
-0.15749954 0.26290286 0.00000601
-0.26300883 0.49590310 0.01443173
-0.28058729 0.48795280 0.01593578
-0.01839895 0.11962144 0.00001008
-0.51622802 -0.01712937 0.01872155
-0.41657460 -0.54178172 0.00000708
-0.22087017 0.04643675 0.00000803
-0.76281351 -0.18348572 0.03742909
-0.75529391 -0.65905511 0.01590058
-0.05477979 -0.33272982 0.00000120
-0.71157181 -0.15362325 0.03333632
-0.42101654 -0.65514088 0.00000708
-0.73220110 -0.57862526 0.01697658
-0.44542289 0.24352168 0.02263217
-0.05540512 0.50986564 0.00000415
-0.57802135 -0.50506908 0.00395164
-0.26600185 0.13970421 0.00000607
-0.30692941 -0.77546018 0.00000511
-0.14204206 0.19226913 0.00000721
-0.28496954 0.48227331 0.01614951
-0.73713022 -0.31135517 0.02914958
-0.49445748 0.13365617 0.02300419
-0.58530927 -0.42397779 0.00825476
-0.06238178 -0.25167722 0.00000138
-0.33113083 0.46689385 0.02033891
-0.36633882 -0.74611300 0.00000611
-0.37725088 -0.44429472 0.00000648
-0.40470621 -0.04878753 0.00559983
-0.55088818 0.00775395 0.02345565
-0.76852411 -0.39563361 0.02877973
-0.29664895 0.29123744 0.00904940
-0.32372406 0.24509007 0.00988777
-0.41484863 -0.44498858 0.00000711
-0.65310723 -0.59969562 0.00773088
-0.00427112 -0.41326609 0.00000024
-0.24768858 -0.77825814 0.00000412
-0.25519365 -0.14088106 0.00000465
-0.21200565 0.04760501 0.00000815
-0.55252880 -0.38249150 0.00661247
-0.74000585 -0.76621228 0.00961861
-0.41211399 0.23594318 0.01879488
-0.45341641 -0.71204710 0.00000758
-0.17033248 0.56643730 0.00775002
-0.05217082 0.57141566 0.00000336
-0.76163125 -0.45225245 0.02558525
-0.14205790 -0.27846971 0.00000268
-0.20997936 0.48222467 0.00825222
-0.00073521 0.79341716 0.00000100
-0.05410618 -0.62977606 0.00000100
-0.60486126 -0.11404204 0.02382740
-0.02398726 0.61339563 0.00000320
-0.15342857 0.35725591 0.00000477
-0.59577405 -0.12754580 0.02228187
-0.00086176 0.66509259 0.00000284
-0.43826261 -0.71795410 0.00000733
-0.76233417 -0.57023972 0.02051448
-0.56770718 0.13045809 0.03057668
-0.58373958 -0.05037609 0.02437969
-0.01837244 0.75688577 0.00005539
-0.59148240 -0.49361098 0.00586847
-0.09175009 0.09929347 0.00000925
-0.51258886 -0.22797222 0.00914500
-0.72186327 0.04134194 0.04292092
-0.29708970 -0.44257012 0.00000515
-0.21618181 -0.60206163 0.00000371
-0.76742816 -0.07130694 0.04280627
-0.33321097 -0.52735513 0.00000570
-0.31374958 0.02714350 0.00000689
-0.40480474 -0.65526652 0.00000681
-0.28796554 0.04939616 0.00000698
-0.23753223 -0.03663160 0.00000442
-0.76919550 -0.10236114 0.04163828
-0.01403150 0.12731422 0.00001004
-0.53237051 -0.73930007 0.00000887
-0.30311853 -0.29699376 0.00000535
-0.27596584 -0.46872416 0.00000479
-0.14325684 -0.52162427 0.00000255
-0.67908150 -0.08871315 0.03274593
-0.24603362 0.53619897 0.01440156
-0.62647074 0.02583929 0.03220177
-0.51396126 -0.66383302 0.00000862
-0.37753963 0.38592419 0.02169443
-0.64398241 -0.43316981 0.01403123
-0.08968216 -0.62554520 0.00000160
-0.49057946 0.13414972 0.02261743
-0.25349462 0.51227611 0.01414396
-0.16349836 -0.34990895 0.00000300
-0.47904018 -0.41431978 0.00000819
-0.17738025 0.22641195 0.00000621
-0.60459566 -0.23838031 0.01837791
-0.14058508 -0.14653867 0.00000274
-0.23284826 -0.12985623 0.00000428
-0.57493454 0.02197567 0.02660743
-0.44760630 -0.66404974 0.00000751
-0.19150195 -0.15371060 0.00000358
-0.56767267 -0.40477303 0.00723532
-0.77274895 -0.36061063 0.03075165
-0.13897508 0.51235425 0.00209044
-0.45085680 0.34605461 0.02767500
-0.01395023 0.23136233 0.00000861
-0.28925264 -0.42874306 0.00000503
-0.70939165 0.00037632 0.03982164
-0.05635812 0.49815795 0.00000430
-0.25953415 -0.18763044 0.00000469
-0.51940906 -0.07729393 0.01643309
-0.54122764 -0.07470210 0.01884322
-0.56054395 -0.10664378 0.01948414
-0.46268392 -0.71091324 0.00000774
-0.30576727 0.32750240 0.01159066
-0.58186686 -0.15020208 0.01982980
-0.48318475 -0.51500994 0.00000820
-0.39294860 0.39350951 0.02364747
-0.04602200 -0.51147360 0.00000094
-0.62449712 -0.27667075 0.01880360
-0.36176145 0.42360321 0.02167618
-0.00703263 0.50717819 0.00000492
-0.68133181 -0.28043017 0.02462340
-0.62037665 -0.47736803 0.00961877
-0.22266731 0.33749852 0.00327753
-0.17402194 0.16174960 0.00000715
-0.27391437 -0.68846935 0.00000462
-0.42306381 -0.62722844 0.00000713
-0.27628568 -0.69752502 0.00000465
-0.41650501 -0.30303249 0.00000722
-0.05997115 0.66156083 0.00027855
-0.71476418 -0.12880708 0.03475448
-0.61303771 -0.58972806 0.00394687
-0.74391288 -0.38387677 0.02670142
-0.25401455 0.18615854 0.00000561
-0.61860722 -0.67775166 0.00069514
-0.00454072 0.41615725 0.00000621
-0.22755204 -0.57076329 0.00000392
-0.18754342 -0.30808637 0.00000342
-0.30691990 -0.43338844 0.00000532
-0.27495617 0.37606966 0.01046447
-0.12896505 0.49150428 0.00012743
-0.50032306 -0.16693667 0.01051497
-0.43913022 -0.53215665 0.00000746
-0.64811403 -0.11223738 0.02845986
-0.36255616 -0.48935094 0.00000621
-0.02112827 0.07351698 0.00001067
-0.76673251 -0.64946276 0.01752305
-0.51140690 -0.72738868 0.00000853
-0.02342758 -0.77584255 0.00000040
-0.12486248 0.20032579 0.00000736
-0.77322030 -0.00357859 0.04636925
-0.15223484 0.08487650 0.00000854
-0.51233649 -0.46657866 0.00000871
-0.03405041 0.60149854 0.00000322
-0.63040775 -0.78960174 0.00001047
-0.14862750 0.18924315 0.00000716
-0.74852556 -0.08976259 0.04001143
-0.67959082 -0.45860595 0.01667109
-0.29799470 -0.38178083 0.00000521
-0.12514167 -0.38192886 0.00000234
-0.22451729 0.15151428 0.00000653
-0.77905387 -0.15629910 0.04032428
-0.30383909 -0.15170497 0.00000545
-0.35333002 -0.35474366 0.00000614
-0.51343173 0.19810338 0.02781195
-0.03355405 -0.49530521 0.00000075
-0.24832723 -0.52965897 0.00000429
-0.49376145 -0.20245071 0.00827562
-0.25914031 0.05972464 0.00000727
-0.29997355 0.15208918 0.00333213
-0.03921407 -0.29942203 0.00000096
-0.55604601 -0.16071606 0.01665287
-0.52427292 -0.45773935 0.00035658
-0.68172657 -0.19172268 0.02853288
-0.13447382 0.62504941 0.00653039
-0.09682176 0.39721999 0.00000508
-0.57701248 -0.16328624 0.01874821
-0.11171456 0.43429261 0.00000434
-0.00283957 0.17584841 0.00000954
-0.06408170 -0.36845800 0.00000133
-0.66419959 0.05430057 0.03741496
-0.39755493 -0.68788725 0.00000667
-0.17359346 0.34332255 0.00000466
-0.46062720 0.14514183 0.01994326
-0.43904549 0.17997923 0.01919010
-0.21993852 -0.02045633 0.00000414
-0.02508363 0.69431400 0.00000207
-0.50598860 0.05379682 0.02073611
-0.05449706 0.01223363 0.00001101
