ply
format ascii 1.0
element vertex 1408
property float x
property float y
property float z
end_header
-0.30633390 0.06483285 0.00000000
0.29653913 0.62354642 0.07252243
-0.15531172 -0.40775833 0.00000000
0.63621116 0.56449467 0.24199446
-0.30106387 -0.06594104 0.00000000
-0.76181221 0.77353901 0.00000000
-0.25851390 0.62156725 0.00000000
0.37117705 -0.24109259 0.00000000
-0.24131598 0.12621786 0.00000000
-0.43619934 0.63758379 0.00000000
-0.75546360 -0.72505897 0.00000000
-0.54690790 0.41998461 0.00000000
-0.33375290 -0.25012505 0.00000000
0.07805672 0.69667286 0.00000000
0.79335147 -0.05970790 0.00000000
0.52176398 -0.37795228 0.00000000
0.54239315 -0.60805911 0.00000000
0.08273964 -0.35833475 0.00000000
0.23001608 -0.30255029 0.00000000
0.57433695 0.10025699 0.00000000
0.12789324 -0.53939706 0.00000000
-0.54468900 0.68052137 0.00000000
0.56831211 -0.76580113 0.00000000
0.36480188 -0.33794153 0.00000000
0.11741320 -0.49198541 0.00000000
0.24571736 -0.72711915 0.00000000
-0.77720165 0.65903145 0.00000000
0.04769670 -0.16704723 0.00000000
0.46053112 -0.43042523 0.00000000
-0.73403287 0.28436011 0.00000000
0.15855448 0.63857847 0.00000000
0.71272463 -0.09635263 0.00000000
0.70631337 0.03282685 0.00000000
-0.63913089 -0.55286455 0.00000000
-0.24630459 0.02594779 0.00000000
0.56969219 0.21266171 0.00000000
0.20722888 -0.41554278 0.00000000
-0.31927097 -0.67679620 0.00000000
-0.50388622 0.78440511 0.00000000
-0.05966581 -0.00442304 0.00000000
0.46513438 -0.34122550 0.00000000
-0.25194249 -0.47023013 0.00000000
-0.22539370 -0.39499173 0.00000000
-0.66981709 -0.35404757 0.00000000
0.36355829 -0.00159396 0.00000000
-0.29984561 0.73292071 0.00000000
0.24784780 0.70889062 0.09465789
0.63464379 0.48103392 0.19064410
-0.01644832 -0.52922601 0.00000000
0.31937900 -0.23854832 0.00000000
-0.63605547 0.72373855 0.00000000
-0.76792610 -0.41029721 0.00000000
0.29758242 -0.16578969 0.00000000
0.03386499 -0.60402942 0.00000000
-0.06494478 -0.61100721 0.00000000
-0.07831938 -0.70583141 0.00000000
-0.59233183 0.03694919 0.00000000
0.27573857 -0.27679169 0.00000000
-0.50097853 -0.51691288 0.00000000
0.18558176 0.19138484 0.00000000
0.64421809 -0.32220441 0.00000000
0.41355190 -0.29954037 0.00000000
-0.69775701 -0.60291445 0.00000000
-0.49997050 -0.22892696 0.00000000
0.23013276 -0.10838161 0.00000000
0.56852782 -0.72944778 0.00000000
-0.13394830 -0.56994623 0.00000000
0.46257094 -0.38111955 0.00000000
-0.76826489 -0.07814606 0.00000000
-0.12154384 0.67575252 0.00000000
0.22100556 -0.13705236 0.00000000
-0.22902741 0.60156691 0.00000000
0.77156967 -0.58777541 0.00000000
0.66123641 0.55888069 0.25371733
0.08599466 -0.43273163 0.00000000
-0.01042840 -0.33597854 0.00000000
0.20633769 0.08410795 0.00000000
-0.23738860 -0.17352390 0.00000000
-0.46545610 0.73511571 0.00000000
-0.01019361 0.13857797 0.00000000
0.64671814 0.57328504 0.25364852
0.35442537 0.08117871 0.00000000
0.38536739 0.37141460 0.00000000
-0.31515282 0.44315806 0.00000000
-0.01444461 -0.59022725 0.00000000
0.59968758 -0.68733728 0.00000000
0.37817854 -0.28996488 0.00000000
-0.54865956 0.07858300 0.00000000
0.49043947 0.29556510 0.00000000
0.36760604 -0.67157567 0.00000000
-0.45329851 0.09568491 0.00000000
0.70392901 -0.79250318 0.00000000
-0.65470928 0.02771243 0.00000000
0.13089640 0.17308816 0.00000000
0.24610499 0.34760532 0.00000000
0.27270964 -0.56860226 0.00000000
-0.35953078 0.69623762 0.00000000
-0.63748592 0.13992304 0.00000000
-0.70389581 -0.29595223 0.00000000
-0.18497497 -0.42042136 0.00000000
-0.34800175 0.10136756 0.00000000
0.17108861 0.41470319 0.00000000
0.00089222 0.38189870 0.00000000
0.57295793 -0.26783735 0.00000000
-0.12421481 -0.29226795 0.00000000
-0.14228408 0.61608303 0.00000000
0.70939642 -0.08914606 0.00000000
0.28454015 0.68737233 0.10382180
0.22409888 -0.49027917 0.00000000
-0.69969779 0.44677690 0.00000000
-0.43340892 -0.59366417 0.00000000
0.63974822 0.35404390 0.11703517
-0.56581414 0.77431560 0.00000000
-0.18987712 -0.53455019 0.00000000
-0.04154093 -0.27355528 0.00000000
-0.27415055 0.14681578 0.00000000
0.55823839 0.57682467 0.20235148
-0.42148042 0.02672897 0.00000000
0.71058089 0.37484130 0.17237219
-0.15425532 0.63230199 0.00000000
-0.52408522 -0.47627929 0.00000000
0.35694581 0.26286241 0.00000000
-0.07121673 -0.66174608 0.00000000
-0.15847281 0.04645547 0.00000000
0.39139766 -0.61110538 0.00000000
0.01574198 -0.39926288 0.00000000
-0.75166273 -0.02574418 0.00000000
-0.44442248 0.39871523 0.00000000
-0.15493152 0.47965035 0.00000000
0.51318461 -0.24509428 0.00000000
-0.16165616 -0.43782192 0.00000000
-0.42726138 -0.62706584 0.00000000
0.55811334 0.68232816 0.26599190
0.05442798 0.24866818 0.00000000
-0.32326704 0.71221828 0.00000000
-0.74385220 0.25809401 0.00000000
0.20578225 0.77124947 0.10691357
0.56328022 0.32438165 0.05294119
-0.21507519 -0.63714087 0.00000000
-0.22205199 -0.14854473 0.00000000
-0.18270656 0.37809378 0.00000000
-0.22705986 -0.21914487 0.00000000
-0.40553060 -0.06836326 0.00000000
-0.56531888 -0.61390024 0.00000000
-0.65100890 0.59020334 0.00000000
0.64323956 -0.74514461 0.00000000
0.58299601 -0.20289162 0.00000000
-0.06273299 0.70441407 0.00000000
0.43400088 0.02344989 0.00000000
-0.45508215 0.39462882 0.00000000
-0.65961140 0.62203372 0.00000000
-0.50105274 0.65837872 0.00000000
0.72928476 0.14091885 0.04239781
-0.54296160 -0.78407604 0.00000000
-0.58021492 0.34274206 0.00000000
-0.18726355 -0.10832369 0.00000000
0.74887824 -0.71154219 0.00000000
-0.03490299 -0.73104727 0.00000000
-0.07158531 0.10596350 0.00000000
0.03437474 0.44982976 0.00000000
0.22011805 0.29480886 0.00000000
-0.10197829 -0.51116538 0.00000000
-0.21597485 0.77147382 0.00000000
-0.72203332 -0.50992835 0.00000000
0.40079379 -0.75449866 0.00000000
-0.17327984 -0.27119884 0.00000000
-0.21030188 0.15817599 0.00000000
0.13923010 -0.72862285 0.00000000
0.38930160 0.71690506 0.18492483
-0.47320822 0.32641748 0.00000000
0.74062121 -0.45353848 0.00000000
0.48763764 0.32775858 0.00929865
-0.57248890 0.73843414 0.00000000
0.68920159 0.30114684 0.11495546
0.77600795 -0.01325587 0.00000000
-0.57361239 0.37753862 0.00000000
-0.74501127 -0.20622171 0.00000000
0.24619775 -0.21825071 0.00000000
0.50056446 0.60645223 0.18541376
0.49893770 -0.57821554 0.00000000
0.34083849 -0.36487994 0.00000000
0.04896862 -0.32219076 0.00000000
-0.75649887 0.66331702 0.00000000
-0.02332815 0.42455301 0.00000000
0.06453500 -0.58649367 0.00000000
0.54229647 -0.64887476 0.00000000
-0.75120789 0.68201160 0.00000000
-0.72120488 0.19015835 0.00000000
0.61378950 -0.10297929 0.00000000
-0.38016582 0.30133510 0.00000000
0.29832235 -0.42248833 0.00000000
0.66298443 -0.51063281 0.00000000
-0.02526513 -0.27441654 0.00000000
-0.60413176 -0.11925930 0.00000000
0.41955978 -0.08068984 0.00000000
-0.05588895 -0.71492392 0.00000000
-0.71899307 -0.78974986 0.00000000
0.03081894 0.10951905 0.00000000
-0.72551048 -0.10648429 0.00000000
0.25922179 0.22483145 0.00000000
0.52769512 -0.43794796 0.00000000
0.24044560 0.12684684 0.00000000
0.71084887 -0.13583536 0.00000000
-0.60958803 -0.11721217 0.00000000
0.31175846 -0.20403169 0.00000000
-0.73921734 0.52963722 0.00000000
-0.32283655 0.28902137 0.00000000
-0.14356109 0.75480759 0.00000000
-0.31569219 0.39613265 0.00000000
0.39161032 0.59995359 0.11568951
0.20265414 -0.01703246 0.00000000
0.14198966 -0.63563687 0.00000000
0.02642262 0.69565105 0.00000000
-0.01764637 0.14545627 0.00000000
-0.35819423 -0.75468946 0.00000000
-0.61161631 -0.53782099 0.00000000
0.70188588 0.26052365 0.09808265
0.73746932 -0.03120757 0.00000000
-0.54393423 -0.38980535 0.00000000
-0.15778248 -0.54084361 0.00000000
0.42847538 -0.20033275 0.00000000
0.37103599 0.44425398 0.00923449
0.09449763 0.56716603 0.00000000
0.36315137 -0.02337034 0.00000000
-0.40498561 -0.45097151 0.00000000
0.17569028 -0.75482476 0.00000000
0.06514209 -0.66829193 0.00000000
0.14779323 0.10259311 0.00000000
0.50407511 -0.62638134 0.00000000
0.15663365 0.29576567 0.00000000
-0.05506582 0.50164706 0.00000000
0.33494589 -0.24921054 0.00000000
0.49630734 -0.29509181 0.00000000
0.49102187 -0.45076689 0.00000000
0.72792125 -0.34104243 0.00000000
0.13452446 -0.55260676 0.00000000
-0.70499814 -0.58265328 0.00000000
0.57851565 0.15626182 0.00000000
0.53605974 0.18925764 0.00000000
0.58775204 0.59420568 0.23067217
-0.72045171 0.44955423 0.00000000
-0.63212693 0.75047475 0.00000000
0.01367851 -0.41189009 0.00000000
-0.44299018 0.02361728 0.00000000
-0.54837126 0.64419937 0.00000000
-0.17865989 -0.68808472 0.00000000
0.53985703 0.63153565 0.22429179
0.33015847 0.59195650 0.07374802
-0.41104764 -0.28191751 0.00000000
0.63572365 -0.10613518 0.00000000
0.28032717 -0.75330424 0.00000000
-0.78555256 -0.06636803 0.00000000
0.69043505 0.37384480 0.15960398
0.28082708 -0.50818944 0.00000000
-0.11777191 -0.59628212 0.00000000
-0.65535629 -0.15740164 0.00000000
0.09695647 -0.58384091 0.00000000
-0.73629373 0.47519904 0.00000000
-0.16643122 0.70971936 0.00000000
0.60711503 0.69382662 0.30252916
-0.32243407 -0.18117975 0.00000000
-0.23063973 0.67548400 0.00000000
-0.59354359 -0.69333625 0.00000000
0.18624114 0.27237451 0.00000000
-0.65276849 -0.35819384 0.00000000
0.75263894 0.29135793 0.14735471
-0.77125096 -0.06891669 0.00000000
-0.17795253 -0.04402011 0.00000000
0.72078615 0.39616108 0.19141074
-0.12342427 0.53392571 0.00000000
0.00003047 0.33290192 0.00000000
0.16105665 0.18852712 0.00000000
0.03949227 0.13578913 0.00000000
-0.50446904 -0.15766241 0.00000000
-0.35333505 0.51288790 0.00000000
-0.10580609 0.30581075 0.00000000
-0.78187788 -0.47902134 0.00000000
-0.48942718 0.32396135 0.00000000
0.50950408 0.63605654 0.20869133
-0.75299042 0.45799285 0.00000000
0.08023366 -0.56591803 0.00000000
0.16643181 -0.09470870 0.00000000
-0.13531531 0.18258670 0.00000000
0.30916268 0.49943364 0.00519207
-0.38859943 -0.74770176 0.00000000
0.07427017 0.10424906 0.00000000
-0.56353235 0.17862973 0.00000000
0.04376004 -0.37529203 0.00000000
0.28128830 0.55568987 0.02233236
0.69906753 0.60323256 0.30334938
0.03129021 0.18525393 0.00000000
-0.63218725 0.44402656 0.00000000
-0.68223447 0.65401429 0.00000000
-0.15041065 0.74302280 0.00000000
0.42247555 0.05219544 0.00000000
-0.15890728 0.67909867 0.00000000
0.39211217 0.56321919 0.09380801
-0.05359883 0.45433122 0.00000000
0.36369938 0.34057605 0.00000000
0.10100738 -0.65350652 0.00000000
0.64133298 0.25699517 0.05938274
0.22266741 0.48389867 0.00000000
0.16931920 -0.70955366 0.00000000
0.12857386 -0.11158264 0.00000000
0.47639737 0.52411753 0.12109517
-0.66946590 -0.73243475 0.00000000
-0.51162428 0.71710688 0.00000000
0.50574577 -0.36108938 0.00000000
0.60710096 0.66705096 0.28635022
-0.46611741 0.49633005 0.00000000
-0.65754360 0.35692915 0.00000000
-0.34531194 0.42687893 0.00000000
0.57252872 0.52376676 0.17893887
-0.29880190 -0.43596086 0.00000000
0.45634654 0.38822457 0.02691788
-0.72688133 0.79852003 0.00000000
-0.72226799 0.51773268 0.00000000
0.59128213 -0.50610232 0.00000000
-0.38368669 -0.28942689 0.00000000
-0.00152348 0.70939237 0.00000000
0.37374997 0.25304255 0.00000000
-0.31138533 0.77522922 0.00000000
0.68489712 -0.47315902 0.00000000
0.35661685 -0.11898207 0.00000000
0.70463902 -0.13360673 0.00000000
0.69631439 0.67406893 0.34446636
-0.72134060 0.11536236 0.00000000
-0.03416809 0.53343952 0.00000000
-0.72921532 -0.11129421 0.00000000
0.08403620 0.61686826 0.00000000
0.36569652 -0.27085391 0.00000000
0.19906607 -0.63270926 0.00000000
0.56032425 0.67546445 0.26318195
0.10038196 -0.62115407 0.00000000
0.32126573 0.69816387 0.13251834
-0.03631501 0.72273493 0.00000000
0.13250124 -0.71399784 0.00000000
-0.38560984 0.03870093 0.00000000
-0.12566483 -0.47740960 0.00000000
-0.21323510 -0.37199742 0.00000000
-0.59466994 -0.18776254 0.00000000
0.31117579 -0.55334765 0.00000000
0.46920273 0.43562981 0.06331088
-0.51281273 -0.20453864 0.00000000
0.45287460 -0.51566410 0.00000000
0.32942691 0.38383999 0.00000000
0.70714551 0.47670692 0.23181620
-0.48655260 0.55261558 0.00000000
-0.05726019 -0.76188242 0.00000000
-0.06810557 -0.49070099 0.00000000
0.36267084 0.31335610 0.00000000
0.37376556 -0.12757838 0.00000000
0.27290934 -0.68776834 0.00000000
-0.75663447 0.59657991 0.00000000
-0.31486318 -0.13488874 0.00000000
-0.77694690 0.18796059 0.00000000
0.19359566 -0.79040009 0.00000000
-0.14454845 0.13793105 0.00000000
-0.04670561 0.26400214 0.00000000
0.43757913 -0.42197973 0.00000000
-0.35852671 0.75261980 0.00000000
-0.10128315 0.77027172 0.00000000
-0.52748269 0.18982233 0.00000000
0.37396124 0.18858235 0.00000000
-0.59767252 -0.23649557 0.00000000
0.33589613 0.67993963 0.13034792
0.15014261 -0.20294665 0.00000000
-0.24887802 -0.05442001 0.00000000
0.15963569 -0.32933173 0.00000000
-0.42531586 0.72360206 0.00000000
-0.60260290 -0.70767599 0.00000000
0.19824526 0.45907208 0.00000000
-0.31694010 -0.51949894 0.00000000
-0.69835544 0.26844665 0.00000000
-0.42019340 0.16108580 0.00000000
-0.72708553 0.11254501 0.00000000
-0.49683505 0.06777867 0.00000000
0.25757983 0.29222232 0.00000000
-0.65444982 -0.30023840 0.00000000
-0.19071643 -0.45908776 0.00000000
-0.10838399 -0.17521264 0.00000000
-0.03178212 0.63298112 0.00000000
-0.23244105 -0.07619205 0.00000000
0.04206881 -0.46621063 0.00000000
0.64750212 0.62120640 0.28306279
-0.04551010 -0.59398115 0.00000000
-0.12836686 -0.28586078 0.00000000
-0.74277931 -0.66872907 0.00000000
-0.60605776 0.50240141 0.00000000
-0.43506241 -0.63797963 0.00000000
-0.18496954 0.46037263 0.00000000
-0.20542523 0.35939264 0.00000000
-0.25507811 -0.04440776 0.00000000
0.66852236 0.23194389 0.06067397
0.64070469 -0.15243541 0.00000000
0.21771181 -0.38810858 0.00000000
0.16727389 0.14730664 0.00000000
-0.13995898 -0.15268113 0.00000000
0.36283401 -0.00880288 0.00000000
-0.33019355 0.41106078 0.00000000
-0.17025915 0.15834676 0.00000000
0.20967044 -0.17202887 0.00000000
-0.71401703 0.44042253 0.00000000
-0.06171860 -0.16779698 0.00000000
0.23580328 0.21692649 0.00000000
0.57800144 -0.37954164 0.00000000
0.33765748 -0.05061041 0.00000000
-0.78423589 0.53516811 0.00000000
0.00517988 -0.12192707 0.00000000
0.20891874 0.54745889 0.00000000
0.48289558 -0.20661069 0.00000000
-0.38397771 -0.75003642 0.00000000
-0.76034683 0.73007542 0.00000000
-0.44464782 -0.10754742 0.00000000
0.35872254 0.55405164 0.06810696
-0.64421469 0.24096391 0.00000000
0.22199333 0.18154202 0.00000000
0.59203619 -0.68767005 0.00000000
0.37484795 -0.39423651 0.00000000
-0.73002511 -0.76021343 0.00000000
-0.78976035 0.55826706 0.00000000
-0.37285733 0.35133433 0.00000000
0.56496650 -0.30841827 0.00000000
0.66038418 0.19860302 0.03562402
-0.14722933 -0.57689154 0.00000000
0.22922553 0.60943997 0.02335138
-0.04450725 0.75525415 0.00000000
-0.55807012 0.68674362 0.00000000
0.08336627 0.53128290 0.00000000
0.76656538 -0.56286556 0.00000000
-0.49212065 -0.12450211 0.00000000
-0.77776617 0.47506106 0.00000000
0.73471761 -0.15226717 0.00000000
-0.58737373 0.11205284 0.00000000
-0.58865005 0.75028461 0.00000000
0.27593172 0.53473985 0.00644534
0.74654633 -0.22893554 0.00000000
-0.40852627 0.55903721 0.00000000
0.68816954 -0.15829182 0.00000000
-0.28505951 0.00733425 0.00000000
-0.45157200 -0.51923275 0.00000000
-0.48709744 -0.04138015 0.00000000
0.49518624 -0.35398552 0.00000000
0.30047753 -0.58330721 0.00000000
0.58981663 0.32738858 0.07078294
-0.45332655 -0.60634720 0.00000000
0.57018381 0.44207177 0.12818556
0.31092381 -0.15093248 0.00000000
0.52784187 -0.00641837 0.00000000
-0.62696934 0.27101085 0.00000000
0.56600547 -0.04172485 0.00000000
-0.31502438 -0.38662851 0.00000000
-0.77389336 -0.06578559 0.00000000
-0.72108161 0.76783323 0.00000000
0.41160932 0.63216734 0.14722191
-0.48378038 -0.79030281 0.00000000
0.38113782 0.39278099 0.00000000
0.56323731 -0.79992938 0.00000000
0.65040404 -0.26124439 0.00000000
0.27539036 0.30965403 0.00000000
0.09384707 -0.63657361 0.00000000
0.14734729 0.33496466 0.00000000
-0.07259229 -0.69652820 0.00000000
0.34527394 0.34436688 0.00000000
-0.52418739 -0.37290308 0.00000000
0.46876174 -0.58428711 0.00000000
0.58967853 0.14025873 0.00000000
0.08230825 0.67351586 0.00000000
-0.31219110 0.43943390 0.00000000
0.63961875 -0.25834683 0.00000000
0.51750624 0.05702909 0.00000000
0.01789615 -0.22247067 0.00000000
-0.67270905 -0.25252661 0.00000000
-0.40510961 -0.28888011 0.00000000
0.39716366 0.67492545 0.16432045
-0.50768971 0.02300067 0.00000000
0.60109383 -0.00262548 0.00000000
-0.54694951 0.41280752 0.00000000
0.57952172 -0.24918681 0.00000000
0.35039431 -0.73739666 0.00000000
0.21327566 -0.63473028 0.00000000
0.04997404 -0.62329859 0.00000000
0.55472529 0.57839143 0.20117608
0.45473817 -0.68521911 0.00000000
0.03789193 -0.63658679 0.00000000
-0.42937776 0.02527779 0.00000000
-0.06257383 0.27799734 0.00000000
0.48219931 -0.63281739 0.00000000
-0.37625441 -0.63057023 0.00000000
-0.46560618 -0.32077810 0.00000000
0.57093143 0.09705404 0.00000000
0.53278160 -0.72991127 0.00000000
0.42544454 -0.68677485 0.00000000
0.16868787 0.60314387 0.00000000
-0.09997822 0.23913564 0.00000000
0.21641953 -0.05383621 0.00000000
-0.67714983 -0.31764856 0.00000000
-0.13734892 0.62176031 0.00000000
-0.03871894 0.24521825 0.00000000
-0.01035890 -0.61230242 0.00000000
-0.26251119 0.54067969 0.00000000
0.16323310 -0.59635204 0.00000000
-0.78593868 -0.21613196 0.00000000
0.65876758 0.63326186 0.29714680
0.51194161 -0.29352939 0.00000000
0.56330174 0.24947202 0.00771491
-0.41457096 0.12429466 0.00000000
-0.76386851 -0.69099188 0.00000000
-0.12848729 0.16282004 0.00000000
-0.12919590 0.33846676 0.00000000
0.45780843 0.43506601 0.05608915
-0.36794049 0.40096796 0.00000000
0.52335835 -0.51905835 0.00000000
0.69587189 0.54547465 0.26653820
-0.18644825 -0.24128577 0.00000000
0.53152317 -0.59226990 0.00000000
-0.56978244 -0.56673723 0.00000000
0.26610398 -0.51867741 0.00000000
-0.46924984 0.79708010 0.00000000
0.25539571 -0.54457420 0.00000000
-0.45783791 -0.27587670 0.00000000
0.14050984 0.76482743 0.06361582
0.78626490 -0.28935766 0.00000000
-0.38450611 0.45454958 0.00000000
-0.04294812 -0.11861316 0.00000000
0.78855532 -0.20456627 0.00000000
-0.57507849 0.51254535 0.00000000
0.05979576 -0.78910726 0.00000000
0.69483227 0.25732070 0.09188853
-0.76323396 0.52131939 0.00000000
-0.48150307 0.78622884 0.00000000
-0.70834500 0.61664170 0.00000000
-0.67785847 -0.19489469 0.00000000
0.73978937 -0.37883967 0.00000000
0.14282924 -0.55634528 0.00000000
-0.10861953 -0.36393347 0.00000000
-0.76542634 0.66099185 0.00000000
-0.46294758 -0.63828987 0.00000000
-0.11984426 0.64167953 0.00000000
0.09472057 0.18409720 0.00000000
-0.73476893 0.01925253 0.00000000
-0.57786196 -0.78564876 0.00000000
-0.28213915 -0.12412008 0.00000000
-0.64660650 -0.16211814 0.00000000
-0.45745817 -0.72218490 0.00000000
-0.54767698 -0.77623236 0.00000000
-0.67839229 0.76431406 0.00000000
0.30398262 -0.36205989 0.00000000
0.24175864 -0.25630793 0.00000000
0.26000687 -0.05041879 0.00000000
0.19448535 0.06825482 0.00000000
-0.36512268 -0.48853827 0.00000000
0.65852875 -0.30258521 0.00000000
-0.59593838 -0.65997005 0.00000000
0.07579908 0.30477318 0.00000000
0.67496425 -0.69630247 0.00000000
-0.61908209 0.57593495 0.00000000
0.04192324 0.18218282 0.00000000
-0.40698004 0.54654270 0.00000000
0.18519160 -0.41414604 0.00000000
0.38360131 0.14321065 0.00000000
-0.52325720 -0.12804712 0.00000000
-0.13994955 0.24720769 0.00000000
0.13064513 -0.60582829 0.00000000
0.64670295 -0.08039845 0.00000000
-0.53754151 -0.71810782 0.00000000
-0.65066934 0.09969015 0.00000000
0.54090524 -0.39032272 0.00000000
0.48711619 -0.11637400 0.00000000
-0.71318793 0.46107730 0.00000000
-0.26473826 -0.14550737 0.00000000
-0.07430205 0.59171385 0.00000000
-0.79338515 0.75401455 0.00000000
0.23979913 0.22310162 0.00000000
-0.06177324 -0.36639810 0.00000000
0.33442917 -0.01612293 0.00000000
0.06202307 0.45593506 0.00000000
-0.20713553 0.05837195 0.00000000
-0.76747829 0.60506141 0.00000000
0.10463698 0.33302474 0.00000000
-0.48170930 0.30665115 0.00000000
-0.78897536 -0.51315695 0.00000000
-0.21306261 0.52351844 0.00000000
0.66023189 -0.68694037 0.00000000
0.72198147 -0.38599834 0.00000000
-0.04551989 0.15239601 0.00000000
0.05407726 0.56989443 0.00000000
-0.42217007 0.18522795 0.00000000
0.41025233 -0.03563539 0.00000000
0.59728783 -0.24865144 0.00000000
-0.25792500 -0.67210549 0.00000000
0.29551989 -0.04599057 0.00000000
-0.74368012 -0.05137330 0.00000000
0.45004895 0.53481191 0.11164139
0.61373776 -0.29446027 0.00000000
-0.53115273 -0.72849464 0.00000000
-0.49252892 -0.33238319 0.00000000
0.66034603 -0.26959571 0.00000000
0.23836513 -0.40534884 0.00000000
-0.08356293 -0.60788935 0.00000000
0.28525940 0.64868921 0.08089460
0.19754504 -0.79493737 0.00000000
0.04269178 -0.58858174 0.00000000
-0.10270339 0.72024143 0.00000000
-0.56007695 0.23113120 0.00000000
-0.30666688 0.31757462 0.00000000
-0.07490912 0.63163882 0.00000000
-0.23840632 -0.02471825 0.00000000
0.18080971 0.16369206 0.00000000
-0.46208146 -0.34448832 0.00000000
0.32069209 -0.22666593 0.00000000
-0.68287808 0.01776790 0.00000000
-0.79549128 0.59488189 0.00000000
0.77080733 -0.51487643 0.00000000
0.26227778 0.62154233 0.05062109
-0.74523389 -0.04485251 0.00000000
0.03566065 0.21843371 0.00000000
0.31193173 -0.07475836 0.00000000
-0.46473771 -0.72209930 0.00000000
0.51242793 -0.34536138 0.00000000
-0.43248379 0.38694638 0.00000000
0.66124690 -0.51194930 0.00000000
-0.02254523 0.53866380 0.00000000
0.54634607 0.37627563 0.07405404
0.51749551 0.09901847 0.00000000
0.35552400 0.67450052 0.13891681
-0.50757641 0.47426072 0.00000000
0.20938116 -0.18291478 0.00000000
-0.39617586 -0.45865649 0.00000000
0.50514859 -0.75345886 0.00000000
-0.51808214 0.38640720 0.00000000
-0.72673881 -0.48795068 0.00000000
-0.11718028 0.64030439 0.00000000
-0.40580031 -0.51651299 0.00000000
-0.12392358 -0.16588360 0.00000000
-0.30825114 -0.41407463 0.00000000
0.42922941 -0.26288757 0.00000000
-0.22520433 -0.60638791 0.00000000
-0.15128341 0.67995816 0.00000000
-0.29185644 0.64244610 0.00000000
0.09284515 0.25479597 0.00000000
0.00570790 -0.72459006 0.00000000
-0.79949081 0.21907750 0.00000000
0.28921509 0.67859238 0.10134269
-0.47879636 -0.65107715 0.00000000
-0.62758267 -0.26866272 0.00000000
0.26187703 -0.53940117 0.00000000
-0.37937382 0.24158971 0.00000000
0.55366343 -0.05573107 0.00000000
-0.58603036 -0.56426316 0.00000000
-0.42688042 -0.18320607 0.00000000
-0.16680495 -0.33986464 0.00000000
-0.53254545 -0.09451790 0.00000000
0.50978488 -0.56541383 0.00000000
0.03404211 0.53572929 0.00000000
-0.40263152 -0.34992030 0.00000000
-0.32138187 0.33068803 0.00000000
0.28218293 0.02620737 0.00000000
-0.75780940 -0.23541486 0.00000000
-0.70018578 0.27234438 0.00000000
0.27187315 0.33279487 0.00000000
0.08027701 -0.26481804 0.00000000
-0.60848981 -0.33213449 0.00000000
0.10446269 -0.05057181 0.00000000
-0.75870460 0.43983772 0.00000000
-0.40002656 0.72521991 0.00000000
0.09632128 0.45322549 0.00000000
-0.69744170 0.29911190 0.00000000
0.16941530 0.59350139 0.00000000
-0.32312864 0.72938782 0.00000000
0.01470463 0.31479803 0.00000000
-0.73581386 -0.74981433 0.00000000
-0.47388408 0.50853497 0.00000000
-0.37959021 -0.32497773 0.00000000
0.38837838 0.19307299 0.00000000
-0.50419760 -0.60812390 0.00000000
-0.43322191 0.06163600 0.00000000
0.10737206 -0.60698855 0.00000000
0.34085897 0.60248089 0.08656614
-0.28573829 0.28722125 0.00000000
-0.38257581 -0.37215990 0.00000000
-0.52508020 0.56411552 0.00000000
0.29569811 -0.21788615 0.00000000
0.51807415 -0.49940968 0.00000000
0.12174844 0.73195809 0.03243496
0.70605081 0.09288999 0.00000000
-0.17749609 0.65177286 0.00000000
0.16444591 -0.49567354 0.00000000
-0.04247475 0.66334784 0.00000000
0.32819682 -0.67927921 0.00000000
0.34696180 0.02178033 0.00000000
-0.43442032 -0.00981885 0.00000000
0.16056252 -0.64889514 0.00000000
-0.10946962 -0.72722977 0.00000000
-0.38048157 -0.34865201 0.00000000
-0.69003713 -0.13136260 0.00000000
0.61058885 -0.39179921 0.00000000
0.13289794 -0.46510848 0.00000000
0.64299798 0.25167108 0.05717294
0.79890013 -0.61887628 0.00000000
0.31633791 0.33392400 0.00000000
-0.79196411 0.48139390 0.00000000
0.21562465 -0.45163399 0.00000000
0.61612821 0.53548014 0.21234345
0.63373792 0.62695777 0.27822366
-0.66222960 0.52274901 0.00000000
-0.62443876 -0.63675439 0.00000000
-0.60308945 -0.50299615 0.00000000
-0.13974687 -0.01315588 0.00000000
-0.56860667 -0.48545551 0.00000000
0.37099728 0.25888246 0.00000000
0.45640576 -0.09749935 0.00000000
-0.68007803 0.47814575 0.00000000
-0.49743176 -0.15370604 0.00000000
-0.03803963 0.04914591 0.00000000
0.56275082 0.43387410 0.11874594
0.30884746 0.56715703 0.04590108
0.03923093 0.47054189 0.00000000
-0.79048824 -0.74207300 0.00000000
-0.40325597 0.16993183 0.00000000
0.59037787 0.71761525 0.30678770
-0.23972800 0.53224981 0.00000000
-0.65876311 0.44684622 0.00000000
0.74462235 -0.14442882 0.00000000
0.64481878 -0.40499806 0.00000000
0.02973634 0.36567804 0.00000000
-0.69196135 -0.29815289 0.00000000
0.33709854 0.24819174 0.00000000
0.42973647 0.26687482 0.00000000
-0.05752885 -0.79122925 0.00000000
0.03869629 -0.34629849 0.00000000
-0.12925436 -0.47374910 0.00000000
-0.79377806 0.07435440 0.00000000
0.53969175 -0.04756493 0.00000000
-0.51296359 -0.17867523 0.00000000
0.02365966 0.55615556 0.00000000
0.52048528 0.42872772 0.09011303
-0.70493114 0.43973577 0.00000000
0.26199067 0.43028533 0.00000000
0.01213987 -0.69769943 0.00000000
-0.64951724 -0.58986574 0.00000000
-0.23535946 -0.54501271 0.00000000
-0.54459214 -0.27808404 0.00000000
0.73866069 0.12831403 0.04044785
-0.36802599 0.64497256 0.00000000
-0.43648112 -0.40097904 0.00000000
-0.41518036 -0.10004133 0.00000000
-0.75884485 -0.62742364 0.00000000
0.12389820 -0.23303653 0.00000000
0.64996839 0.51660866 0.22138333
-0.71629536 0.50891894 0.00000000
0.21845792 0.52384353 0.00000000
0.73507237 -0.18198673 0.00000000
0.40775195 0.20935886 0.00000000
-0.48897555 -0.37414595 0.00000000
0.44990495 -0.55522680 0.00000000
-0.57822841 0.75062281 0.00000000
0.55725771 0.16099437 0.00000000
-0.23988049 -0.76627421 0.00000000
0.51936686 0.18935128 0.00000000
-0.31124461 0.21982321 0.00000000
-0.22010812 0.50251478 0.00000000
-0.62277406 0.17914033 0.00000000
0.13060577 0.23993438 0.00000000
-0.44756338 -0.73697996 0.00000000
-0.79142380 -0.63234907 0.00000000
-0.09741444 0.62081015 0.00000000
-0.07973322 0.66632783 0.00000000
0.43685061 -0.10701897 0.00000000
-0.38255277 0.02252282 0.00000000
0.30931684 0.10459947 0.00000000
0.04797442 -0.38615015 0.00000000
0.31263247 -0.57016736 0.00000000
-0.28811729 0.11235636 0.00000000
0.52288073 -0.66542387 0.00000000
0.20963483 0.59803510 0.00463260
0.09427331 -0.55776834 0.00000000
-0.44522420 0.08531862 0.00000000
0.34056035 0.00379495 0.00000000
0.13274981 0.43513656 0.00000000
-0.54244041 -0.17082977 0.00000000
0.56363100 -0.34536931 0.00000000
0.69874519 0.38463259 0.17113754
-0.58784378 0.63782763 0.00000000
0.00414019 -0.01912023 0.00000000
0.14676909 -0.59773791 0.00000000
0.36939582 0.59167290 0.09727290
-0.12848620 -0.12075562 0.00000000
0.54766995 -0.52822292 0.00000000
0.23426783 0.19005886 0.00000000
-0.33455804 -0.76132208 0.00000000
0.73615354 -0.56053364 0.00000000
0.70248735 0.14663555 0.02966679
-0.79849565 0.75143594 0.00000000
0.12790225 -0.68906009 0.00000000
-0.40829578 0.01211820 0.00000000
-0.61541921 -0.74394560 0.00000000
0.72380465 0.44670102 0.22375578
0.01897493 0.67202830 0.00000000
0.67730075 -0.76643199 0.00000000
0.53736079 -0.36841556 0.00000000
0.15415394 0.04878344 0.00000000
-0.51844609 0.26085690 0.00000000
-0.13169524 -0.51991338 0.00000000
0.60957819 -0.43218833 0.00000000
-0.10093698 0.54050720 0.00000000
-0.56252873 0.22624984 0.00000000
-0.64891934 0.75312823 0.00000000
-0.36505768 -0.37640595 0.00000000
-0.78191257 0.36663529 0.00000000
0.05876318 0.54568791 0.00000000
-0.47558352 0.73800325 0.00000000
0.28344390 0.26103288 0.00000000
0.48928982 -0.73027068 0.00000000
0.38004050 -0.44984096 0.00000000
0.53323203 0.47950041 0.12847356
-0.54632986 0.45253098 0.00000000
-0.68276060 0.42256713 0.00000000
0.22208314 0.55128181 0.00000000
-0.05797902 0.03381413 0.00000000
-0.20147456 0.17689121 0.00000000
-0.63582546 0.04161894 0.00000000
-0.27452263 0.55068660 0.00000000
-0.23545276 -0.50323635 0.00000000
-0.42969096 0.29736492 0.00000000
0.66337937 -0.63231283 0.00000000
0.58727700 0.37797281 0.09979796
-0.51396900 0.32882628 0.00000000
-0.35132959 0.62711310 0.00000000
-0.14269137 0.68657994 0.00000000
-0.00149195 0.40244481 0.00000000
0.38026604 0.64357364 0.13518159
0.27989316 0.07408225 0.00000000
-0.43244508 -0.08271989 0.00000000
0.44125420 0.40956968 0.03069407
0.45409811 -0.15631890 0.00000000
0.27113181 -0.35046709 0.00000000
-0.64828324 0.50935179 0.00000000
0.54841107 -0.10451260 0.00000000
0.68506289 0.64474458 0.31996170
0.70827061 0.13148978 0.02401263
-0.70155990 0.72038293 0.00000000
0.73965031 0.14868419 0.05334738
0.57809353 0.36202669 0.08462174
-0.46999636 0.04436004 0.00000000
-0.66090035 0.26829678 0.00000000
0.52459073 -0.77038288 0.00000000
0.38074785 -0.47549349 0.00000000
-0.74591130 0.36038595 0.00000000
-0.41198221 -0.12327359 0.00000000
-0.68236244 -0.79618949 0.00000000
-0.66980374 0.18644756 0.00000000
0.17848890 -0.34779835 0.00000000
-0.67399114 0.05160611 0.00000000
-0.26741564 -0.46732110 0.00000000
0.71110922 -0.47717261 0.00000000
-0.64320803 -0.58354294 0.00000000
0.25492421 0.25168711 0.00000000
-0.06175526 0.29714000 0.00000000
-0.44291574 -0.05098626 0.00000000
0.44288337 0.20870697 0.00000000
0.29683650 0.28681707 0.00000000
-0.17820224 0.07361353 0.00000000
-0.21250618 0.28383255 0.00000000
-0.01272909 0.37504020 0.00000000
0.22807945 0.18242235 0.00000000
0.00155736 -0.51024330 0.00000000
-0.01014774 -0.18419026 0.00000000
0.26131046 -0.64582807 0.00000000
-0.68533075 0.30529311 0.00000000
-0.58727485 -0.75277436 0.00000000
-0.03966226 0.13677211 0.00000000
-0.08737642 -0.63248998 0.00000000
0.33204946 0.14103436 0.00000000
-0.53650093 -0.17809667 0.00000000
-0.15283848 0.24097136 0.00000000
0.78390640 -0.30353481 0.00000000
-0.39374524 -0.08090022 0.00000000
0.43037340 0.42896169 0.03583413
-0.20038633 -0.21597111 0.00000000
-0.61888129 -0.65219349 0.00000000
-0.71001714 0.08584622 0.00000000
0.59653324 -0.18527021 0.00000000
0.63612026 -0.64751762 0.00000000
-0.71440190 -0.44648743 0.00000000
-0.51019460 -0.51148659 0.00000000
-0.63838291 -0.24411364 0.00000000
0.00988178 0.61232483 0.00000000
-0.24089859 -0.05401832 0.00000000
-0.68288237 0.73540664 0.00000000
0.64326125 0.38501349 0.13785982
-0.47589529 -0.31509334 0.00000000
-0.05448268 -0.65538085 0.00000000
0.73102719 0.42158407 0.21294893
0.13687664 0.02574159 0.00000000
-0.66882426 -0.23710746 0.00000000
0.58231050 0.03643057 0.00000000
0.10248467 0.16848452 0.00000000
-0.11389190 0.32826683 0.00000000
0.23726255 -0.79847610 0.00000000
-0.54389173 -0.57469720 0.00000000
0.55149353 0.15328081 0.00000000
0.14507331 -0.26098853 0.00000000
-0.29822165 0.28537041 0.00000000
0.03761206 -0.44498450 0.00000000
-0.41183892 -0.48020464 0.00000000
-0.28142861 0.10027332 0.00000000
0.34734216 -0.07584210 0.00000000
-0.40080914 -0.25263190 0.00000000
-0.72197402 0.35726091 0.00000000
0.73070681 0.37681168 0.18571657
-0.67938000 0.19122572 0.00000000
-0.76576364 -0.43662843 0.00000000
-0.58731949 -0.54617828 0.00000000
-0.69290465 0.74370754 0.00000000
0.23894344 0.20795317 0.00000000
-0.27298266 -0.30246347 0.00000000
0.58308899 0.25268555 0.02160549
0.17069136 0.40210101 0.00000000
-0.24251752 -0.19374157 0.00000000
0.26886323 0.34367856 0.00000000
0.36606264 -0.65498132 0.00000000
0.67271584 -0.40156978 0.00000000
0.15162461 0.09352310 0.00000000
0.42342740 -0.61041188 0.00000000
0.51699013 0.64405090 0.21804024
-0.42770320 0.74228394 0.00000000
0.05890389 0.24405193 0.00000000
0.66631091 -0.05303725 0.00000000
-0.36395067 0.53920096 0.00000000
0.13827568 -0.18989991 0.00000000
-0.46876210 0.45441890 0.00000000
-0.08540194 -0.11770099 0.00000000
0.70578265 0.38259286 0.17415579
-0.14647333 0.74758828 0.00000000
0.50114906 -0.78281200 0.00000000
-0.17376468 0.30431712 0.00000000
0.45812714 0.41227090 0.04251523
-0.49409327 -0.61093450 0.00000000
-0.61048573 -0.30736810 0.00000000
0.52933341 0.09167430 0.00000000
-0.02440860 -0.20615149 0.00000000
-0.11703348 0.46982786 0.00000000
-0.30000558 -0.60954982 0.00000000
-0.54100817 0.31757650 0.00000000
-0.48664388 -0.14595342 0.00000000
-0.19907118 -0.03443057 0.00000000
-0.42962983 -0.24056613 0.00000000
0.38280225 0.22206590 0.00000000
0.27820244 -0.64833730 0.00000000
-0.24235824 -0.34701639 0.00000000
-0.03325896 -0.45999333 0.00000000
-0.09367810 0.74491906 0.00000000
0.53514630 -0.64985096 0.00000000
0.07799536 -0.79122359 0.00000000
0.58540040 -0.72309440 0.00000000
-0.46341234 -0.20898925 0.00000000
0.07406132 0.09052639 0.00000000
0.33766657 -0.16270842 0.00000000
-0.10375430 0.21096216 0.00000000
0.69136095 -0.02439528 0.00000000
0.26026943 0.60755122 0.04095871
0.52161789 0.20005687 0.00000000
0.06553833 0.67690408 0.00000000
0.42201820 -0.00695165 0.00000000
-0.11035814 0.55983442 0.00000000
0.36644360 0.49764919 0.03870740
0.73670334 -0.39525485 0.00000000
-0.48338026 0.36068356 0.00000000
0.59616232 0.37673879 0.10441871
-0.47455007 0.74425840 0.00000000
0.29691494 0.36561587 0.00000000
-0.78531718 -0.30038154 0.00000000
-0.53303760 0.59890538 0.00000000
-0.45986199 -0.07307788 0.00000000
0.61184162 -0.76818055 0.00000000
-0.60532230 0.17428972 0.00000000
0.01960051 0.58928686 0.00000000
-0.78947890 -0.26777434 0.00000000
0.48025236 0.61690623 0.17946029
-0.03978783 -0.24449933 0.00000000
-0.21977286 0.14649384 0.00000000
-0.23378158 -0.10483506 0.00000000
0.43482277 -0.44651631 0.00000000
-0.14885820 0.13073130 0.00000000
0.46563822 -0.55238956 0.00000000
-0.78698236 0.33142376 0.00000000
0.27013594 -0.18539324 0.00000000
-0.62236059 0.39973381 0.00000000
0.65038085 0.50924373 0.21718457
-0.17851487 0.61910707 0.00000000
0.51861089 0.41549748 0.08099105
0.74487305 0.13108768 0.04587464
-0.13090773 -0.42092609 0.00000000
0.55060875 0.41082737 0.09749479
-0.22482926 -0.24535985 0.00000000
-0.78404784 -0.47614914 0.00000000
0.48408496 -0.14393564 0.00000000
0.37412170 -0.63612223 0.00000000
0.14905801 -0.78652900 0.00000000
-0.62031931 0.46649870 0.00000000
-0.35682178 -0.28843388 0.00000000
-0.66776210 -0.57756764 0.00000000
-0.66323978 0.66991705 0.00000000
-0.29953626 0.72077692 0.00000000
0.09727563 -0.73343807 0.00000000
-0.37898925 0.44690219 0.00000000
0.72826219 -0.27250692 0.00000000
-0.26451498 -0.39770159 0.00000000
0.18097728 -0.36964515 0.00000000
0.15386754 -0.33872539 0.00000000
0.30575341 -0.40182039 0.00000000
-0.65621191 0.31801692 0.00000000
0.62467998 0.31936663 0.08699296
0.35135475 0.30775306 0.00000000
-0.11571422 -0.44858035 0.00000000
-0.60576946 -0.37329066 0.00000000
-0.30845910 -0.68092048 0.00000000
-0.29321364 0.67487293 0.00000000
0.29150686 -0.10394371 0.00000000
0.76000148 -0.33689022 0.00000000
-0.14420120 0.60428274 0.00000000
0.35538790 -0.77220327 0.00000000
-0.03358924 -0.37879068 0.00000000
0.15134740 -0.29068655 0.00000000
-0.49641776 -0.23603888 0.00000000
-0.14242266 0.76320797 0.00000000
-0.72412848 0.51027375 0.00000000
0.21476667 0.27100495 0.00000000
0.15236732 0.03920427 0.00000000
-0.23732559 0.22096805 0.00000000
-0.65599298 0.66839147 0.00000000
-0.16141170 -0.60955793 0.00000000
0.63292223 0.05054463 0.00000000
-0.54952133 0.45312071 0.00000000
-0.22454582 -0.42761663 0.00000000
-0.28917402 0.34627837 0.00000000
0.66330802 0.68488628 0.33106598
0.54990262 -0.55611569 0.00000000
-0.14691523 0.70064914 0.00000000
0.15319967 -0.36190337 0.00000000
0.21260729 -0.02689589 0.00000000
-0.75492495 -0.72777456 0.00000000
-0.29134423 -0.12085008 0.00000000
0.18965808 -0.77440435 0.00000000
0.43443483 0.47107983 0.06372280
0.70233256 0.62034041 0.31565297
-0.35583198 0.74114382 0.00000000
0.31673351 -0.70592523 0.00000000
-0.54626131 -0.46310288 0.00000000
0.37868062 -0.40156159 0.00000000
0.30688944 0.39646336 0.00000000
0.14109695 0.55110073 0.00000000
-0.72076023 0.08564233 0.00000000
-0.33302423 0.67767280 0.00000000
-0.37313840 0.40388855 0.00000000
0.63132888 0.56178671 0.23741059
0.61012435 -0.33833998 0.00000000
0.05512757 -0.14588369 0.00000000
0.02771627 -0.67937601 0.00000000
0.70319813 -0.39700913 0.00000000
0.32458663 0.07593238 0.00000000
0.15421945 -0.35507643 0.00000000
-0.65734541 0.55579007 0.00000000
-0.58035713 0.38748088 0.00000000
0.24832805 -0.34522432 0.00000000
-0.11917555 0.07502258 0.00000000
0.64472318 0.16627780 0.00664429
-0.23497866 -0.72456408 0.00000000
0.78387421 0.09473275 0.04747277
-0.32427710 -0.20720381 0.00000000
0.45731866 -0.32033181 0.00000000
0.50230539 -0.58705622 0.00000000
-0.18219976 0.30365470 0.00000000
-0.44789895 -0.48035780 0.00000000
-0.22393210 0.20727640 0.00000000
0.41406935 0.64089400 0.15397780
0.43815351 0.34034717 0.00000000
0.20455971 0.00826619 0.00000000
0.52001947 0.11383745 0.00000000
-0.49345970 0.42157218 0.00000000
-0.02993081 0.60824472 0.00000000
0.34817860 0.15919255 0.00000000
0.12979028 -0.14185463 0.00000000
-0.43646106 0.02211343 0.00000000
-0.59852099 -0.56441945 0.00000000
0.09906026 0.27424520 0.00000000
-0.68256885 0.25122836 0.00000000
0.16945118 0.65947068 0.01746702
0.72160083 -0.61637318 0.00000000
-0.44167122 -0.00075491 0.00000000
0.24951459 0.31060421 0.00000000
0.59271514 -0.17289051 0.00000000
0.62937522 0.05175945 0.00000000
0.51544088 0.34089959 0.03402562
-0.55529732 0.27244878 0.00000000
-0.26264679 -0.78346843 0.00000000
0.38032821 -0.09197301 0.00000000
0.46409470 0.44150996 0.06377716
-0.32949045 0.24918985 0.00000000
-0.19394332 -0.03288712 0.00000000
0.51859516 0.44639239 0.09963954
-0.19919261 -0.49325895 0.00000000
-0.74740970 -0.23641078 0.00000000
0.62388110 -0.44610694 0.00000000
0.47012261 0.52316368 0.11672968
-0.11680399 0.59405702 0.00000000
-0.31603572 0.72886699 0.00000000
0.27075478 0.51075357 0.00000000
-0.61783564 0.35479295 0.00000000
0.57647491 -0.20498314 0.00000000
-0.57286012 -0.73966289 0.00000000
-0.51971251 -0.27579740 0.00000000
0.40418959 0.41814688 0.01348999
-0.33211988 0.31534722 0.00000000
-0.46210936 0.06082163 0.00000000
0.05206046 -0.42615652 0.00000000
0.51676714 -0.42960131 0.00000000
-0.28372705 -0.00463590 0.00000000
0.72056723 -0.21060346 0.00000000
0.62011331 -0.36931890 0.00000000
-0.62046319 -0.45497137 0.00000000
-0.76632231 -0.34417063 0.00000000
0.54697967 -0.55699557 0.00000000
0.64464062 0.71070915 0.33538735
0.77068251 -0.44458902 0.00000000
0.66958010 -0.28978696 0.00000000
-0.29885751 -0.17402112 0.00000000
-0.68260467 0.30430415 0.00000000
-0.56382829 -0.60291487 0.00000000
0.18438035 0.59996670 0.00000000
-0.67876321 0.51773399 0.00000000
0.09303291 -0.12576705 0.00000000
-0.27200818 -0.76985776 0.00000000
0.30867738 -0.25037292 0.00000000
-0.13493729 -0.34180626 0.00000000
0.64758164 -0.61436838 0.00000000
0.69100130 0.37981847 0.16355355
0.71183211 0.59633636 0.30689341
-0.04347354 -0.40946573 0.00000000
0.14398538 -0.14385188 0.00000000
-0.22013184 -0.70053518 0.00000000
0.72767627 -0.60180408 0.00000000
-0.25691417 0.48511511 0.00000000
-0.24573137 0.59335512 0.00000000
0.69856352 -0.01933089 0.00000000
0.10609091 -0.32619917 0.00000000
-0.43740603 0.70103329 0.00000000
0.14111930 -0.38027436 0.00000000
0.23913206 -0.06058665 0.00000000
-0.14486325 0.73857653 0.00000000
0.40298384 0.30384231 0.00000000
-0.58635229 -0.33862862 0.00000000
0.54779607 0.05868787 0.00000000
-0.53332776 0.36409676 0.00000000
-0.26795635 0.49190775 0.00000000
0.77946204 -0.26649222 0.00000000
0.75405210 0.08516602 0.02368515
-0.61085564 0.25436574 0.00000000
0.02856863 -0.02166850 0.00000000
-0.28354281 0.00726856 0.00000000
-0.58397996 -0.16905089 0.00000000
0.62471372 -0.01854040 0.00000000
0.13439317 0.61373454 0.00000000
0.19773504 0.02301832 0.00000000
-0.18916044 -0.48067179 0.00000000
0.19361980 -0.38164833 0.00000000
0.53539765 -0.62516844 0.00000000
0.67476898 0.56982434 0.26849905
-0.75688225 0.15281512 0.00000000
-0.04436672 0.05859000 0.00000000
0.39533794 0.03690503 0.00000000
0.00617691 0.58024144 0.00000000
0.05138659 0.75373042 0.00309086
-0.13409539 -0.74458414 0.00000000
0.40393612 0.70435768 0.18618526
-0.66736239 0.47997934 0.00000000
0.22205967 0.66677129 0.05364723
-0.25401399 0.73956352 0.00000000
0.74771190 0.10420754 0.03135567
0.50181514 -0.54140502 0.00000000
-0.14766099 -0.31154713 0.00000000
-0.06279445 -0.66158217 0.00000000
0.70389909 0.10392243 0.00472414
-0.31771180 -0.61453551 0.00000000
-0.63171083 -0.45402092 0.00000000
0.70320058 0.59251851 0.29937497
0.05958321 0.32490036 0.00000000
-0.29365578 -0.70251644 0.00000000
0.76226091 -0.34497103 0.00000000
0.27943680 0.23236649 0.00000000
-0.64193404 -0.04064510 0.00000000
-0.51681006 -0.63711792 0.00000000
-0.33146065 0.02751890 0.00000000
0.48996490 0.71336436 0.24357912
0.54650372 -0.71404946 0.00000000
0.71742803 0.12328227 0.02458629
0.64098024 0.16577859 0.00408239
-0.69080180 -0.17806031 0.00000000
-0.18135133 0.72954595 0.00000000
0.45887825 0.64489937 0.18345775
0.46564150 -0.64826906 0.00000000
-0.30262035 -0.18445279 0.00000000
0.40604287 -0.63606656 0.00000000
-0.64871776 0.31754327 0.00000000
0.44958675 -0.22455896 0.00000000
-0.09868909 0.38795149 0.00000000
-0.39945900 0.66276902 0.00000000
0.18280379 0.40500823 0.00000000
-0.09025129 -0.62981915 0.00000000
-0.49923959 -0.23819686 0.00000000
-0.37224421 -0.52859795 0.00000000
0.44916511 0.71470606 0.21974958
0.31687641 0.03051167 0.00000000
0.41128939 0.08060164 0.00000000
0.47755498 0.56339788 0.14551644
0.21188684 -0.10868995 0.00000000
-0.16811335 -0.72057426 0.00000000
-0.32776687 0.58216935 0.00000000
0.52253366 0.39064226 0.06834958
0.54677200 -0.35056147 0.00000000
0.31823137 0.49707943 0.00924706
-0.28013939 0.61392742 0.00000000
0.07246022 0.45961773 0.00000000
-0.49941787 0.66548318 0.00000000
0.69842595 -0.34178373 0.00000000
-0.73212677 -0.70042926 0.00000000
0.60676223 -0.31445009 0.00000000
0.32294163 0.11751078 0.00000000
0.46899781 0.64811796 0.19151288
0.58219177 -0.11191116 0.00000000
-0.19791953 -0.10327298 0.00000000
-0.11309436 0.41964650 0.00000000
-0.05677608 0.33564749 0.00000000
0.48486775 0.65319961 0.20416601
0.51346630 0.10392715 0.00000000
0.50350571 0.67643696 0.22945540
-0.31483522 -0.27744877 0.00000000
0.37132654 -0.14819640 0.00000000
-0.09413604 -0.66875333 0.00000000
-0.68036836 -0.24274313 0.00000000
0.56863022 0.37191272 0.08487701
-0.48691475 -0.33923355 0.00000000
0.69790471 -0.57507527 0.00000000
-0.04981434 -0.74875820 0.00000000
-0.54751116 -0.06864666 0.00000000
0.14817798 -0.34517634 0.00000000
0.45272112 0.16122109 0.00000000
-0.42225799 0.48102084 0.00000000
0.23877649 0.40657547 0.00000000
0.30183637 -0.54495788 0.00000000
-0.44517654 -0.17375968 0.00000000
-0.74877882 0.26676574 0.00000000
-0.72791380 0.62560481 0.00000000
-0.24395791 -0.12895641 0.00000000
-0.58808589 0.57093734 0.00000000
0.76032102 -0.79767072 0.00000000
0.70255816 -0.36569914 0.00000000
0.35638663 -0.46261951 0.00000000
-0.32946771 0.60684603 0.00000000
0.28460443 0.02691970 0.00000000
-0.31906760 0.11353490 0.00000000
-0.20395152 0.40673539 0.00000000
0.02880844 0.66576630 0.00000000
0.41248643 0.55071950 0.09856359
-0.77443850 -0.47620723 0.00000000
-0.13506134 -0.22147100 0.00000000
0.65848660 -0.10699608 0.00000000
0.78792059 -0.32029647 0.00000000
-0.54972702 0.74356115 0.00000000
0.35732368 0.59721619 0.09333003
-0.40165660 0.38563910 0.00000000
-0.39055121 0.73658782 0.00000000
0.56277972 0.28580892 0.02934418
0.04922855 -0.08508632 0.00000000
-0.44741800 -0.19158836 0.00000000
0.41433421 0.46548691 0.04820601
-0.10754192 0.34296608 0.00000000
0.19693154 -0.05140849 0.00000000
0.22639018 0.70190662 0.07748145
-0.78945535 -0.58517390 0.00000000
-0.47035679 -0.20796522 0.00000000
0.68806201 0.57681763 0.28075036
-0.70043927 0.67972296 0.00000000
0.58218378 -0.43379387 0.00000000
0.44961938 0.36827388 0.01080665
-0.68448514 0.44644597 0.00000000
0.51428646 0.69475365 0.24702793
-0.53128088 0.34515408 0.00000000
-0.11427681 -0.20455901 0.00000000
0.09055547 0.26239198 0.00000000
0.69221663 0.62813425 0.31425065
0.32089978 0.26795283 0.00000000
0.12628287 -0.22216153 0.00000000
-0.41780704 0.66957653 0.00000000
0.74093801 -0.19845517 0.00000000
-0.10478616 0.43514627 0.00000000
-0.35031864 -0.30465123 0.00000000
-0.76789355 -0.41839212 0.00000000
-0.26914382 0.68755490 0.00000000
0.51621556 -0.30215067 0.00000000
-0.20746528 -0.33418179 0.00000000
-0.02451397 -0.35556224 0.00000000
0.65929872 0.36546952 0.13574220
0.04992690 0.64710808 0.00000000
-0.38113701 0.03751509 0.00000000
-0.35762903 0.65714008 0.00000000
0.49978521 0.07918940 0.00000000
0.45137078 0.60815245 0.15673153
0.35728854 -0.30706266 0.00000000
0.76693088 -0.60669798 0.00000000
0.45534194 -0.07190101 0.00000000
0.58175045 0.61862600 0.24179564
-0.51691419 0.09669967 0.00000000
-0.63700891 -0.17738378 0.00000000
0.52186239 0.54681128 0.16225757
0.32829088 0.40779549 0.00000000
-0.51038420 0.76809520 0.00000000
-0.62675840 -0.37313697 0.00000000
0.36343086 0.30452949 0.00000000
-0.66377354 0.54147464 0.00000000
0.27025536 -0.54559463 0.00000000
-0.03628170 -0.07218794 0.00000000
0.20862696 0.39085594 0.00000000
-0.03214340 -0.35898829 0.00000000
0.32552102 -0.12511693 0.00000000
-0.49232492 -0.31153691 0.00000000
0.08879149 -0.64107215 0.00000000
-0.69407284 0.11815778 0.00000000
-0.78055829 0.52822578 0.00000000
-0.70856601 0.08714890 0.00000000
0.21135662 -0.51785958 0.00000000
0.01039106 0.03157436 0.00000000
-0.05287965 -0.03966942 0.00000000
0.68854839 0.20676519 0.05756220
-0.01289530 -0.62231791 0.00000000
0.02024732 0.30963713 0.00000000
-0.41767511 0.28543124 0.00000000
0.44637397 0.07106907 0.00000000
0.15267783 0.55032498 0.00000000
0.17227912 0.50643802 0.00000000
-0.26127592 0.47546065 0.00000000
-0.76297480 -0.18322429 0.00000000
0.74359751 -0.17231940 0.00000000
0.10632125 -0.62459201 0.00000000
-0.11071071 -0.12859806 0.00000000
-0.66802073 -0.02098840 0.00000000
-0.40051988 -0.11035143 0.00000000
0.17959087 -0.19738857 0.00000000
-0.73671645 -0.34546259 0.00000000
-0.77764052 0.36798716 0.00000000
-0.01177519 0.64795870 0.00000000
0.70027733 0.11426722 0.00878430
-0.51644051 0.53898853 0.00000000
-0.53914255 -0.00563976 0.00000000
0.09680864 0.29302457 0.00000000
-0.53340572 -0.63024825 0.00000000
-0.08563004 -0.08008384 0.00000000
-0.56549418 0.53554332 0.00000000
-0.01203000 0.14357978 0.00000000
0.22224493 0.37120751 0.00000000
-0.48912489 0.64407957 0.00000000
-0.60936517 0.53280175 0.00000000
-0.32574263 -0.72185153 0.00000000
0.30364391 -0.63215184 0.00000000
-0.71505237 -0.07286068 0.00000000
-0.70147455 -0.01205628 0.00000000
-0.23550054 -0.10501489 0.00000000
-0.64155364 -0.53555381 0.00000000
-0.56454760 -0.14232039 0.00000000
-0.14340492 0.01147891 0.00000000
0.17771257 0.50465721 0.00000000
0.43245766 0.61555856 0.14978223
0.10735271 0.48579842 0.00000000
0.36977732 0.70394558 0.16530719
0.43588322 -0.30274305 0.00000000
0.42368513 0.02804457 0.00000000
-0.01135167 0.32151976 0.00000000
0.40383270 -0.55542392 0.00000000
0.73748326 0.09627212 0.02038607
0.75670993 -0.13664512 0.00000000
-0.55117059 -0.38470340 0.00000000
0.34002531 0.37504885 0.00000000
-0.11346083 -0.48998821 0.00000000
0.03733872 0.52062142 0.00000000
0.54388124 -0.52617735 0.00000000
0.37828630 -0.22482166 0.00000000
-0.04956758 0.40258124 0.00000000
0.74982274 0.30845028 0.15597636
-0.68325597 -0.57200938 0.00000000
0.74378425 0.11157696 0.03343422
0.00165623 0.75550604 0.00000000
0.52188718 -0.16004595 0.00000000
0.21079364 0.52822328 0.00000000
0.55149847 0.68526465 0.26377046
-0.10376406 0.43244988 0.00000000
-0.43851706 0.62111968 0.00000000
-0.28716204 0.40361449 0.00000000
-0.51876771 -0.72333586 0.00000000
-0.34931046 -0.31935140 0.00000000
-0.10405109 -0.46374342 0.00000000
-0.34342319 0.38383895 0.00000000
-0.08880240 -0.25608087 0.00000000
-0.54667026 0.20190091 0.00000000
0.19523169 0.44818109 0.00000000
-0.08987265 -0.43232992 0.00000000
-0.75075448 -0.13514186 0.00000000
-0.39222711 0.18541218 0.00000000
