ply
format ascii 1.0
element vertex 1408
property float x
property float y
property float z
end_header
-0.23428962 -0.44702786 0.00000000
-0.66923034 0.04774150 0.00000000
-0.57867640 0.67302883 0.00000000
0.33803073 -0.24934082 0.00000000
-0.70910358 0.47774550 0.00000000
0.79461628 -0.28007787 0.00000000
-0.38169816 -0.59416687 0.00000000
-0.01125756 -0.27584511 0.00000000
0.11603898 0.72453505 0.00200619
0.62403595 0.57854682 0.01990578
0.08275803 -0.68591660 0.00000000
0.26645434 -0.13969941 0.00000000
-0.34254938 -0.31752473 0.00000000
-0.61875188 0.69429106 0.00000000
-0.30567971 -0.78376317 0.00000000
-0.05313866 0.75919080 0.00000000
0.41177705 -0.34671620 0.00000000
0.44431570 -0.79937494 0.00000000
-0.01614578 -0.52477974 0.00000000
0.58903104 0.02562214 0.00000000
0.54297346 0.41790110 0.00795446
0.32286978 0.07107147 0.00000000
0.33961821 -0.67303997 0.00000000
-0.32258025 -0.63097757 0.00000000
0.45301190 -0.68466830 0.00000000
-0.01386684 0.36396074 0.00000000
-0.77897269 0.75593835 0.00000000
-0.39139086 0.42000774 0.00000000
-0.73322630 -0.74610347 0.00000000
-0.15595099 0.61931074 0.00000000
0.50784057 0.15230194 0.00000000
-0.35690695 -0.45599088 0.00000000
-0.01519257 -0.42622519 0.00000000
-0.77339947 0.50981355 0.00000000
-0.51202691 0.64325762 0.00000000
0.20159334 -0.35538086 0.00000000
0.73694032 -0.56019294 0.00000000
0.62747937 0.34747985 0.00865088
0.21513814 0.22778714 0.00000000
0.37307772 0.20228764 0.00000000
0.21166143 -0.67183363 0.00000000
0.07598116 -0.20566639 0.00000000
0.58452016 -0.41922304 0.00000000
-0.43970075 -0.23372623 0.00000000
-0.75231719 -0.65695709 0.00000000
0.60756516 0.05483099 0.00000000
0.27156731 -0.26632336 0.00000000
-0.29113024 -0.44522950 0.00000000
0.29553127 0.04775306 0.00000000
-0.24108668 0.73554069 0.00000000
0.47853792 0.09529961 0.00000000
-0.53637660 0.77329302 0.00000000
-0.45215124 0.23739231 0.00000000
-0.43648115 0.60979724 0.00000000
-0.67730570 0.64483398 0.00000000
-0.22926924 0.62922615 0.00000000
-0.56522346 -0.56454450 0.00000000
0.24998088 -0.48005009 0.00000000
-0.10247769 0.53368348 0.00000000
-0.08118340 0.51727605 0.00000000
-0.57765120 0.39104509 0.00000000
-0.14959534 -0.34975919 0.00000000
0.73590732 -0.28475976 0.00000000
0.40067199 -0.23304343 0.00000000
0.55750877 -0.54128498 0.00000000
-0.62957931 -0.60568124 0.00000000
-0.25884610 0.56357557 0.00000000
-0.66220266 -0.03789939 0.00000000
0.11260110 0.22847658 0.00000000
-0.24396981 0.54834247 0.00000000
0.64631796 -0.61325026 0.00000000
0.44360328 -0.10866710 0.00000000
0.34710231 0.45005658 0.00000000
-0.46534750 -0.66038597 0.00000000
0.02779031 -0.57903641 0.00000000
-0.28815570 0.64137095 0.00000000
0.68184960 -0.72412056 0.00000000
0.61703324 0.71367699 0.02624114
0.45145747 0.64956772 0.01488425
0.15273581 -0.33149055 0.00000000
-0.71489775 -0.12506646 0.00000000
0.02803667 0.11737693 0.00000000
-0.05579464 0.51952899 0.00000000
-0.62436861 0.34352645 0.00000000
-0.39793986 -0.44997779 0.00000000
-0.11572163 0.75739664 0.00000000
0.06167740 0.22688849 0.00000000
-0.13605119 -0.74428636 0.00000000
-0.37368926 0.70226884 0.00000000
0.54183400 0.27062562 0.00061607
0.28738165 -0.72103512 0.00000000
-0.22309150 0.42592472 0.00000000
-0.58470827 0.62010348 0.00000000
0.77180105 0.15215531 0.00612904
-0.45963833 -0.08948758 0.00000000
-0.47683874 0.35678944 0.00000000
0.26899296 0.74548733 0.01060504
-0.51114637 0.55655968 0.00000000
-0.37973881 -0.06865220 0.00000000
-0.45500159 -0.31466857 0.00000000
-0.49682570 0.37563312 0.00000000
0.57150900 -0.01224612 0.00000000
-0.24798945 -0.26000026 0.00000000
-0.62851858 0.47483823 0.00000000
-0.14166746 0.46231920 0.00000000
-0.63761860 0.32829255 0.00000000
0.65399647 0.25341210 0.00531083
0.18786968 0.50274801 0.00000000
0.61901391 0.44774011 0.01318968
-0.76095188 -0.23339184 0.00000000
0.48155096 0.59228820 0.01354001
-0.48731300 0.10126438 0.00000000
0.31089467 -0.65882260 0.00000000
-0.67479086 -0.66574728 0.00000000
-0.03070808 0.25204825 0.00000000
-0.41394383 -0.63319784 0.00000000
-0.79337049 -0.30956718 0.00000000
-0.34790447 0.65883541 0.00000000
-0.11067484 -0.13664614 0.00000000
0.71789527 -0.09585702 0.00000000
-0.47833455 0.44009501 0.00000000
0.54298282 -0.67595136 0.00000000
-0.00618669 -0.75400394 0.00000000
0.63654447 -0.44667539 0.00000000
0.72776192 0.15579861 0.00413166
0.77688318 -0.25020081 0.00000000
-0.34874511 -0.45979264 0.00000000
-0.71962661 0.77354956 0.00000000
-0.60896420 -0.73773676 0.00000000
0.32320189 0.65970075 0.00904364
0.06222951 0.73228347 0.00000000
0.75669771 0.49401751 0.02228567
-0.01425971 -0.46213692 0.00000000
0.72534865 0.78670108 0.03520758
0.33178076 -0.48932397 0.00000000
0.24566238 -0.06478646 0.00000000
-0.01315276 0.78350407 0.00000000
-0.76841033 0.62321675 0.00000000
-0.63356102 0.37787431 0.00000000
0.46371543 -0.29795644 0.00000000
0.13305023 -0.19115999 0.00000000
0.11042246 0.45660558 0.00000000
0.49299863 -0.64801908 0.00000000
0.35681465 0.42585424 0.00000000
-0.55925333 0.21591207 0.00000000
-0.41531777 -0.46930772 0.00000000
0.77494174 -0.64219147 0.00000000
0.23448431 -0.02469045 0.00000000
0.67768323 -0.46971214 0.00000000
-0.44426250 -0.58744162 0.00000000
-0.12714618 0.67777723 0.00000000
0.11783816 -0.64736223 0.00000000
-0.12890106 0.61752623 0.00000000
0.73978299 -0.15595739 0.00000000
-0.76773793 -0.52749985 0.00000000
0.58457845 0.00394751 0.00000000
-0.73838407 0.10939392 0.00000000
-0.38473016 -0.66560644 0.00000000
0.23366845 -0.37407863 0.00000000
-0.66817242 -0.28825030 0.00000000
-0.44504187 0.41305816 0.00000000
0.59221947 -0.25760698 0.00000000
-0.04424481 0.03258911 0.00000000
-0.51600385 -0.48120123 0.00000000
-0.48512191 0.68696821 0.00000000
0.20125400 0.33940151 0.00000000
-0.54576027 -0.77309865 0.00000000
-0.64745057 0.08405138 0.00000000
0.61927384 0.22646539 0.00226158
0.22720733 0.36146200 0.00000000
-0.66277111 -0.14587049 0.00000000
0.23489659 -0.16633579 0.00000000
0.02960285 -0.68195486 0.00000000
0.44042197 -0.39373386 0.00000000
-0.51421243 -0.32597512 0.00000000
-0.00793968 0.13455684 0.00000000
-0.71246040 -0.50762063 0.00000000
-0.12287606 -0.44752234 0.00000000
0.70187235 -0.01180354 0.00000000
-0.14588399 0.39351511 0.00000000
-0.02509628 0.08598539 0.00000000
0.16262433 0.69778955 0.00298717
0.43061921 0.37227535 0.00014312
-0.01456742 0.35065964 0.00000000
-0.53084207 -0.34340060 0.00000000
-0.03566435 0.02301025 0.00000000
0.25613078 0.51080567 0.00000000
-0.66644800 -0.40586621 0.00000000
-0.22903901 -0.76918912 0.00000000
-0.23197509 0.22595909 0.00000000
0.18292287 0.39054301 0.00000000
0.75866526 0.46163458 0.02078178
0.23538744 -0.26879328 0.00000000
-0.20465998 -0.30699587 0.00000000
0.46693954 -0.48478675 0.00000000
-0.19776943 0.47997269 0.00000000
-0.39730617 -0.22018480 0.00000000
0.60555446 0.02595266 0.00000000
0.50287151 0.70489621 0.02016220
-0.62413353 -0.44015536 0.00000000
0.43967468 -0.15970114 0.00000000
-0.65060335 -0.67848891 0.00000000
-0.34502822 -0.18311048 0.00000000
0.62687296 -0.52297807 0.00000000
-0.55013919 0.61784011 0.00000000
-0.13357431 0.31188971 0.00000000
-0.50929600 -0.45120555 0.00000000
-0.21464701 -0.26796174 0.00000000
-0.32290360 0.46436948 0.00000000
0.49882931 -0.47271946 0.00000000
-0.62679487 -0.55759352 0.00000000
-0.56783867 0.39384109 0.00000000
-0.35212186 0.60082406 0.00000000
0.44853240 0.31877959 0.00000000
0.12256374 0.46405840 0.00000000
0.25470880 -0.12304290 0.00000000
-0.64608186 0.16575605 0.00000000
0.11009716 0.03158920 0.00000000
0.16521181 -0.05562649 0.00000000
-0.04293712 -0.49340504 0.00000000
0.56965184 -0.53291094 0.00000000
-0.38883391 0.11837112 0.00000000
0.10456254 -0.08102400 0.00000000
0.55403793 0.04410325 0.00000000
-0.76225185 0.28849921 0.00000000
0.64711380 -0.75059587 0.00000000
0.01114122 -0.41244313 0.00000000
0.17806426 0.70432717 0.00407385
-0.18226971 0.35151210 0.00000000
-0.65152699 -0.22441094 0.00000000
-0.02804735 -0.56552285 0.00000000
-0.69777042 -0.23953843 0.00000000
-0.50768882 0.26836649 0.00000000
-0.37432688 0.29548287 0.00000000
0.08747239 -0.37648508 0.00000000
-0.64987731 -0.72810656 0.00000000
-0.17348999 0.60485691 0.00000000
-0.21161820 0.39841789 0.00000000
-0.43773049 -0.00427680 0.00000000
0.52516991 0.63647091 0.01788141
0.13754657 0.56623846 0.00000000
0.53996181 0.59163356 0.01639578
-0.74607790 0.28597036 0.00000000
-0.66239107 -0.09086183 0.00000000
0.24295625 -0.01871565 0.00000000
-0.05156070 0.10792767 0.00000000
0.29960746 -0.71624064 0.00000000
-0.04829669 0.43249565 0.00000000
-0.38107964 0.22078151 0.00000000
-0.06813822 0.49160254 0.00000000
-0.36087704 0.74763906 0.00000000
0.52521831 0.21643363 0.00000000
-0.30220380 -0.27624217 0.00000000
-0.50213170 -0.19545059 0.00000000
0.14113356 -0.79543203 0.00000000
-0.12681545 -0.75740868 0.00000000
-0.54637730 0.49443251 0.00000000
0.66529137 -0.47909978 0.00000000
0.32024962 0.41219687 0.00000000
0.79580247 -0.68563896 0.00000000
-0.03427898 -0.12833266 0.00000000
-0.78890944 0.48810506 0.00000000
-0.14236192 -0.44745758 0.00000000
-0.63882953 -0.43418664 0.00000000
0.04896180 -0.27907366 0.00000000
-0.18262839 -0.02643462 0.00000000
-0.65594751 -0.63695687 0.00000000
-0.59352762 -0.52722818 0.00000000
0.62164080 0.44519776 0.01319386
-0.21854813 -0.18149975 0.00000000
0.50418246 0.44571450 0.00741167
0.46691942 0.44250029 0.00541027
0.07228386 -0.02322053 0.00000000
-0.71883965 -0.29053518 0.00000000
-0.75738609 0.67691106 0.00000000
0.33217031 -0.63118702 0.00000000
0.20698071 0.65285021 0.00295835
0.65833026 0.57551408 0.02145152
0.69174773 0.01928657 0.00000000
0.52557844 0.49378905 0.01084665
-0.07333545 0.03563930 0.00000000
0.79892164 0.20904784 0.01028307
0.15131247 0.23269914 0.00000000
0.72467089 -0.33105716 0.00000000
-0.16560084 -0.23560771 0.00000000
0.52476364 -0.57999551 0.00000000
0.33083612 0.34400126 0.00000000
-0.32282433 0.37296307 0.00000000
0.52790064 0.44085467 0.00834412
0.08150118 0.04695312 0.00000000
-0.77452159 0.15403534 0.00000000
-0.65000916 0.43587101 0.00000000
-0.76247436 0.79964733 0.00000000
0.05491597 0.29751793 0.00000000
0.66937435 0.27668571 0.00722196
-0.09235584 0.30085662 0.00000000
-0.10872240 0.53337651 0.00000000
0.31762198 -0.77468520 0.00000000
0.31993884 0.34869635 0.00000000
0.25265509 -0.72993010 0.00000000
0.50776869 0.04118563 0.00000000
-0.12926649 -0.56396854 0.00000000
-0.66925788 0.40297180 0.00000000
-0.58757842 0.69718814 0.00000000
0.74660677 -0.42665878 0.00000000
-0.74870551 -0.43863237 0.00000000
0.23207007 -0.48859325 0.00000000
-0.31626955 -0.64797658 0.00000000
0.46811968 0.26620647 0.00000000
0.52682322 -0.27089140 0.00000000
-0.37126675 0.70319676 0.00000000
0.16304328 0.19607081 0.00000000
0.16930673 -0.03306770 0.00000000
0.78066128 0.21287146 0.00956925
0.02005420 0.04462866 0.00000000
0.61785340 0.01913106 0.00000000
0.40530658 0.69132614 0.01466708
-0.76687646 -0.67120910 0.00000000
-0.22501183 0.13227472 0.00000000
0.34401605 -0.45376435 0.00000000
-0.33113170 0.73065764 0.00000000
0.67407787 -0.15859772 0.00000000
-0.07397197 -0.71421123 0.00000000
-0.04825340 -0.04012664 0.00000000
-0.69394523 -0.28489149 0.00000000
0.26491830 0.43698546 0.00000000
0.60459399 -0.00049304 0.00000000
0.26486704 0.24090885 0.00000000
-0.72383350 -0.32851964 0.00000000
-0.00496534 -0.52749759 0.00000000
-0.60718971 -0.75658745 0.00000000
0.44257516 0.44769210 0.00446327
-0.64297229 0.47985896 0.00000000
0.29448807 -0.33880091 0.00000000
0.02376066 0.72231472 0.00000000
0.76956844 -0.18199976 0.00000000
0.56686282 0.21027742 0.00000000
0.34568876 0.09764698 0.00000000
-0.63144267 -0.33696574 0.00000000
-0.61763209 -0.41596529 0.00000000
0.69482177 -0.15689407 0.00000000
-0.43279812 -0.30066726 0.00000000
0.19632208 -0.14634284 0.00000000
0.50727892 0.46824506 0.00867881
0.70748079 -0.69876498 0.00000000
-0.45316294 -0.37299085 0.00000000
0.37157655 0.17214094 0.00000000
-0.01234894 -0.43317404 0.00000000
-0.15879609 -0.44457933 0.00000000
-0.73882169 0.44455639 0.00000000
0.15103710 -0.01361612 0.00000000
-0.25022578 -0.49956354 0.00000000
0.70369023 -0.34506783 0.00000000
-0.62976182 -0.33572409 0.00000000
-0.22121650 -0.04913339 0.00000000
-0.43566349 -0.22427572 0.00000000
0.07708630 0.40021223 0.00000000
-0.04921450 -0.65404075 0.00000000
0.06799245 0.75405973 0.00109037
0.40189368 0.29964417 0.00000000
0.62803251 -0.54676300 0.00000000
-0.15659305 -0.34077668 0.00000000
0.75131208 -0.58298677 0.00000000
0.23663218 -0.08658955 0.00000000
0.40560567 0.24055761 0.00000000
-0.56919342 0.32022029 0.00000000
0.69247800 0.04144467 0.00000000
0.15379603 -0.39114732 0.00000000
0.16938537 -0.61945033 0.00000000
0.78378546 -0.18440622 0.00000000
0.34537247 -0.26722315 0.00000000
-0.75456214 -0.22312579 0.00000000
0.37680447 0.26876816 0.00000000
-0.15282340 0.39485201 0.00000000
0.22856434 0.45302373 0.00000000
0.27125454 -0.55793440 0.00000000
-0.23473936 -0.76375550 0.00000000
0.53837186 -0.68565166 0.00000000
-0.61952662 -0.31831315 0.00000000
-0.65004689 0.56955624 0.00000000
-0.09486115 -0.37895516 0.00000000
0.51944530 0.24139062 0.00000000
-0.06038223 -0.20248073 0.00000000
-0.65873104 0.42680761 0.00000000
-0.17512435 0.17079657 0.00000000
0.00501999 -0.53424042 0.00000000
0.59294295 -0.73282760 0.00000000
-0.38445267 -0.47956124 0.00000000
-0.19546649 -0.60656834 0.00000000
-0.41305867 0.01957399 0.00000000
-0.17849544 -0.54086918 0.00000000
0.42067695 -0.11681807 0.00000000
-0.54943758 -0.01455531 0.00000000
0.69060940 -0.14963619 0.00000000
0.69142574 -0.75585085 0.00000000
0.30051830 0.70372331 0.01009877
0.49474031 -0.74524707 0.00000000
-0.04832076 0.38360378 0.00000000
-0.22382766 -0.38691768 0.00000000
0.62309396 0.77956086 0.02979850
0.20376226 0.47298768 0.00000000
-0.17533122 -0.70099729 0.00000000
-0.59845859 0.62390643 0.00000000
0.74046224 -0.78422713 0.00000000
0.23811895 0.35267439 0.00000000
-0.24078622 0.66433930 0.00000000
0.41017768 -0.38228416 0.00000000
-0.65346223 -0.18262295 0.00000000
-0.51777524 0.27905813 0.00000000
-0.51402843 0.52747971 0.00000000
-0.01473751 0.32679930 0.00000000
0.04414474 0.07235376 0.00000000
0.15008274 -0.43853092 0.00000000
-0.70035118 -0.22512573 0.00000000
0.35559839 0.71386129 0.01332351
0.75631744 -0.17512079 0.00000000
0.62802094 0.49561170 0.01600205
-0.40317890 -0.30490467 0.00000000
0.76985329 0.46959838 0.02172874
-0.56515044 -0.51385373 0.00000000
-0.73491132 -0.24185649 0.00000000
0.29662746 -0.06109290 0.00000000
0.09161804 -0.25371218 0.00000000
0.78647834 0.77123350 0.03746535
0.74723536 -0.15243950 0.00000000
0.21088478 0.52645260 0.00000000
0.69071567 -0.08649311 0.00000000
-0.26910686 -0.63390625 0.00000000
0.50437021 -0.15925612 0.00000000
-0.27074286 -0.65123248 0.00000000
-0.71623939 -0.58294719 0.00000000
-0.64419895 0.54419243 0.00000000
0.71088642 -0.13241872 0.00000000
-0.78350949 -0.65076512 0.00000000
0.51584786 -0.72635394 0.00000000
-0.67458928 0.46265993 0.00000000
-0.30385509 0.79958606 0.00000000
0.40367377 0.72063279 0.01603544
-0.14319298 0.79493988 0.00000000
-0.62979913 -0.26737708 0.00000000
0.60235113 -0.78524047 0.00000000
0.77086520 0.25384471 0.01111081
0.27454978 0.34203619 0.00000000
-0.79770505 -0.33820319 0.00000000
-0.76548558 0.58387351 0.00000000
-0.39457509 -0.39457518 0.00000000
-0.45556867 0.57614756 0.00000000
-0.00191118 0.12869167 0.00000000
0.65741831 0.48800087 0.01707929
-0.36332148 0.62437838 0.00000000
0.68871313 -0.03993150 0.00000000
-0.14886490 0.15201575 0.00000000
-0.52494824 0.52510399 0.00000000
0.70120448 0.00007936 0.00000000
0.02062996 0.08815900 0.00000000
0.60904330 0.21698713 0.00128708
0.18308201 0.76395452 0.00727027
-0.02165325 0.40971747 0.00000000
-0.28386307 -0.16594063 0.00000000
0.53478867 0.07842799 0.00000000
0.08686848 0.71187901 0.00000000
0.38133970 0.46646366 0.00236364
-0.78727704 0.58628029 0.00000000
0.37178475 -0.69484532 0.00000000
0.27390641 0.02590690 0.00000000
0.09858645 0.24171764 0.00000000
0.57434005 0.49402687 0.01326943
-0.29548502 0.78041774 0.00000000
0.51624709 0.53818750 0.01258055
0.04257744 -0.24049352 0.00000000
0.64237857 0.59869605 0.02180903
-0.67649198 0.67405647 0.00000000
0.03776960 -0.26455325 0.00000000
-0.58410037 -0.19624145 0.00000000
0.74834621 -0.72508210 0.00000000
0.78691614 0.24897486 0.01166366
-0.57097769 0.16895916 0.00000000
0.66799635 -0.25272870 0.00000000
-0.56111997 0.34166226 0.00000000
-0.62568998 -0.49349406 0.00000000
-0.36033478 -0.02171168 0.00000000
0.47482729 -0.42252043 0.00000000
-0.47020411 0.41937506 0.00000000
0.49629086 -0.65746135 0.00000000
-0.68360102 -0.35222775 0.00000000
0.79351246 0.45398006 0.02212632
0.06715943 -0.36863238 0.00000000
-0.67032361 0.48024726 0.00000000
-0.73484313 -0.28574410 0.00000000
-0.58893728 -0.54953396 0.00000000
0.68199831 0.25749120 0.00689707
0.19746630 -0.28875592 0.00000000
-0.67642933 0.39638028 0.00000000
-0.11096661 0.41922137 0.00000000
-0.62035733 0.03479311 0.00000000
-0.44507560 -0.71213871 0.00000000
0.27265319 -0.30811334 0.00000000
0.33530700 0.25256178 0.00000000
-0.67200398 0.22606012 0.00000000
-0.78477049 -0.39914733 0.00000000
0.19077615 0.04111610 0.00000000
-0.09541233 0.31692275 0.00000000
0.27622843 0.11418977 0.00000000
-0.51350611 -0.33450359 0.00000000
-0.49067301 0.54875785 0.00000000
0.52931958 0.55742317 0.01417803
-0.27808410 -0.28427905 0.00000000
-0.76189542 0.48480016 0.00000000
-0.07037075 -0.53294069 0.00000000
-0.67949289 -0.17225190 0.00000000
-0.53594649 0.32217559 0.00000000
0.34703454 0.05664694 0.00000000
-0.17864545 -0.51606971 0.00000000
0.78658324 -0.67104608 0.00000000
-0.57810640 -0.44689816 0.00000000
0.69342643 -0.10435426 0.00000000
0.42448932 -0.68199295 0.00000000
0.68790489 0.59113097 0.02368604
0.40188310 -0.57539213 0.00000000
-0.70591837 -0.73224139 0.00000000
-0.68356586 0.62996119 0.00000000
0.72317332 -0.00453869 0.00000000
-0.47683179 0.49541637 0.00000000
0.61834782 -0.03943374 0.00000000
-0.23796196 -0.53352684 0.00000000
-0.79590350 -0.43675822 0.00000000
-0.45562661 -0.31260854 0.00000000
0.24495918 0.17325203 0.00000000
0.71374208 -0.14846669 0.00000000
-0.03808698 -0.43979013 0.00000000
0.54726863 -0.01477484 0.00000000
0.13618915 0.42727068 0.00000000
0.25902691 -0.58581537 0.00000000
-0.58343178 -0.43287802 0.00000000
0.03943162 0.10479399 0.00000000
0.39543802 -0.25754312 0.00000000
0.63116401 0.08189887 0.00000000
-0.55990762 -0.58146244 0.00000000
-0.70307648 0.71364081 0.00000000
-0.29191554 0.78644425 0.00000000
0.04248454 0.68119907 0.00000000
0.65370321 -0.55601573 0.00000000
-0.00515323 0.31736100 0.00000000
-0.34889516 -0.74957651 0.00000000
-0.64194775 -0.66211331 0.00000000
0.67512524 -0.20137209 0.00000000
0.61828202 0.72225702 0.02672714
0.73464447 0.10768477 0.00209297
-0.18318355 0.55769455 0.00000000
0.74659449 -0.50963199 0.00000000
0.25037882 0.65491384 0.00520621
0.25032184 -0.42531070 0.00000000
-0.41780564 0.30115962 0.00000000
-0.21415798 -0.15169674 0.00000000
0.70937097 -0.58244431 0.00000000
0.73012507 -0.25979948 0.00000000
0.76102459 0.20706394 0.00831116
-0.75811523 -0.29860258 0.00000000
-0.11138634 0.06724063 0.00000000
-0.47085842 -0.47040710 0.00000000
0.41412601 -0.35503614 0.00000000
-0.65554243 0.43241721 0.00000000
-0.33326262 -0.34572065 0.00000000
0.18847658 -0.28688741 0.00000000
-0.52234542 -0.59137112 0.00000000
0.50674462 -0.71174562 0.00000000
-0.45971131 -0.26169810 0.00000000
-0.13212378 0.73699456 0.00000000
-0.57853806 -0.16242681 0.00000000
0.35561854 -0.22644955 0.00000000
0.10297093 -0.14802977 0.00000000
0.42710602 -0.27527350 0.00000000
-0.07885982 0.71589547 0.00000000
-0.66665322 -0.22558863 0.00000000
-0.08021971 0.45071304 0.00000000
0.45442596 0.70047259 0.01754806
-0.51384687 0.26386687 0.00000000
-0.35607100 -0.66840196 0.00000000
-0.41700768 0.49243334 0.00000000
0.66221583 -0.57467043 0.00000000
-0.45067191 0.03554648 0.00000000
-0.20653754 -0.62193358 0.00000000
0.71188277 0.18434727 0.00475811
-0.38503215 0.41295427 0.00000000
-0.74266714 -0.02108533 0.00000000
0.00014198 0.30367798 0.00000000
0.55831701 0.12326206 0.00000000
0.60322028 -0.07105501 0.00000000
-0.58576792 -0.07569068 0.00000000
0.43951979 -0.34681812 0.00000000
0.13480352 0.57075280 0.00000000
-0.35295185 0.14709488 0.00000000
-0.32698277 0.32324991 0.00000000
0.14165212 0.16063167 0.00000000
-0.21449757 -0.39015165 0.00000000
0.50576591 0.05078267 0.00000000
-0.33713353 -0.02856028 0.00000000
-0.72476757 0.51202619 0.00000000
0.11670928 0.69516855 0.00058730
0.20320298 -0.70331562 0.00000000
-0.00229888 -0.70398027 0.00000000
0.35833585 -0.24423940 0.00000000
-0.39624864 -0.78641802 0.00000000
-0.29336965 0.45110944 0.00000000
-0.65831989 0.33345649 0.00000000
-0.41665125 -0.78069079 0.00000000
0.58466232 -0.28393626 0.00000000
-0.45951802 -0.40923691 0.00000000
-0.03423200 0.56547207 0.00000000
-0.76334721 0.48659608 0.00000000
0.32530385 -0.42280990 0.00000000
-0.16966066 0.13063449 0.00000000
0.69517231 -0.43790615 0.00000000
0.17820565 -0.09226326 0.00000000
-0.30834380 -0.77064961 0.00000000
-0.79640329 0.29044133 0.00000000
-0.52022594 -0.43795416 0.00000000
-0.38704783 -0.21829562 0.00000000
-0.26347208 -0.42800307 0.00000000
-0.73446417 0.51071376 0.00000000
0.59188771 -0.37563434 0.00000000
-0.14472210 0.26761609 0.00000000
0.49224040 0.42944643 0.00601682
-0.01751744 -0.07681901 0.00000000
-0.05370659 0.08456564 0.00000000
0.66040623 0.51926041 0.01877266
0.14496274 0.64841539 0.00000000
-0.31823966 -0.33684254 0.00000000
0.61402303 -0.15306590 0.00000000
0.52843583 0.23638342 0.00000000
-0.03642697 -0.54578340 0.00000000
-0.12500066 0.15318851 0.00000000
0.23343413 0.73521078 0.00833869
0.48101485 -0.14898346 0.00000000
-0.06649393 -0.54914069 0.00000000
0.06765776 -0.03482742 0.00000000
-0.70809561 -0.12219949 0.00000000
-0.76218486 0.44631672 0.00000000
0.19872516 0.47032157 0.00000000
-0.48988286 -0.44273940 0.00000000
0.14489530 0.05714123 0.00000000
-0.75700945 -0.54506075 0.00000000
0.60263926 -0.71468097 0.00000000
-0.63908476 -0.12085467 0.00000000
0.45705658 -0.19094843 0.00000000
0.70335555 -0.14472483 0.00000000
-0.70495337 0.19394644 0.00000000
0.28234953 0.72171950 0.01009024
-0.39882126 0.78401667 0.00000000
0.68897259 -0.29675162 0.00000000
-0.26564834 0.19267014 0.00000000
-0.26959494 -0.33062986 0.00000000
-0.00238533 0.27876285 0.00000000
-0.57874370 -0.12056562 0.00000000
0.18820411 0.67912245 0.00332897
0.41672745 0.25979406 0.00000000
-0.01557343 0.76551574 0.00000000
0.05993810 -0.11801122 0.00000000
-0.12431786 -0.05159494 0.00000000
0.50228572 0.05819601 0.00000000
-0.79107094 0.40559083 0.00000000
0.75953567 0.71979463 0.03358973
-0.45043278 0.54261851 0.00000000
0.73168808 0.12255477 0.00268204
0.73145121 0.47851953 0.02027105
-0.69434792 0.70302737 0.00000000
0.76534647 -0.75940955 0.00000000
-0.02210671 -0.46475452 0.00000000
0.29747143 -0.71936464 0.00000000
-0.61054665 -0.13485505 0.00000000
-0.46078414 -0.14268951 0.00000000
-0.17081468 0.20595498 0.00000000
-0.01563327 -0.79207790 0.00000000
-0.79250759 -0.54721582 0.00000000
-0.37657613 -0.19381990 0.00000000
-0.27139163 -0.02852500 0.00000000
0.41703618 0.02996074 0.00000000
-0.11416650 0.57666415 0.00000000
0.51838851 -0.74366200 0.00000000
0.51762825 0.16580167 0.00000000
0.21643758 -0.46043271 0.00000000
-0.50309956 0.21047859 0.00000000
-0.53025484 -0.64750415 0.00000000
0.72741294 0.26689225 0.00960744
-0.69729424 -0.15074591 0.00000000
0.25160578 -0.03146663 0.00000000
0.00183508 -0.62416917 0.00000000
-0.73409128 0.64060849 0.00000000
0.24498373 0.47208974 0.00000000
0.74753118 0.65775442 0.02992853
-0.25545603 0.63530993 0.00000000
-0.54785264 0.24006645 0.00000000
0.66834128 -0.14601098 0.00000000
0.30488619 0.59174299 0.00477784
-0.28306052 0.53207570 0.00000000
-0.08296831 -0.23482603 0.00000000
0.72838157 0.00281206 0.00000000
-0.13600203 -0.46426475 0.00000000
0.78276336 0.01613118 0.00000000
-0.24178769 0.03169183 0.00000000
-0.40128353 -0.02851567 0.00000000
0.24923222 -0.35167810 0.00000000
0.40707293 0.73833019 0.01707857
0.25477532 -0.18418141 0.00000000
-0.04346131 -0.01954590 0.00000000
-0.79035044 -0.41739851 0.00000000
-0.05490214 -0.24010225 0.00000000
0.64388382 -0.18434581 0.00000000
0.64481419 0.44827452 0.01449180
0.63913655 -0.58924705 0.00000000
0.42064485 0.11504837 0.00000000
0.30141363 0.61999124 0.00600288
-0.45164698 -0.43786338 0.00000000
0.17044014 0.58335322 0.00000000
-0.59063601 0.66161197 0.00000000
0.70616996 -0.34763753 0.00000000
-0.27864087 0.55892503 0.00000000
-0.04928224 0.25261638 0.00000000
-0.79020560 -0.45847833 0.00000000
0.34085703 -0.47154698 0.00000000
0.36436507 0.23212117 0.00000000
-0.67149585 0.28079817 0.00000000
-0.20547701 0.71174920 0.00000000
0.77936280 -0.53286171 0.00000000
0.23253785 -0.48713195 0.00000000
0.47681645 0.41659793 0.00461889
-0.54514676 0.18020377 0.00000000
0.26401746 0.67734337 0.00698960
0.19319519 -0.30691028 0.00000000
0.23649658 -0.12702435 0.00000000
0.05422643 0.55817622 0.00000000
-0.32801393 0.71459454 0.00000000
0.34085259 -0.06068214 0.00000000
0.16727105 0.27456957 0.00000000
-0.42861611 0.26160517 0.00000000
-0.50476998 -0.41374308 0.00000000
0.53370816 -0.59829086 0.00000000
0.39914873 0.27206236 0.00000000
0.01597523 -0.15644206 0.00000000
-0.31316340 0.24750116 0.00000000
-0.35919246 0.32691079 0.00000000
-0.70021069 0.12211734 0.00000000
0.01613184 -0.42654368 0.00000000
0.08270466 0.57515150 0.00000000
0.05394337 0.00622003 0.00000000
-0.57411903 0.32809207 0.00000000
0.17996648 0.71085393 0.00449063
-0.54407257 0.25992483 0.00000000
0.38670853 0.11043162 0.00000000
0.73690742 0.74328220 0.03363223
0.07162905 -0.28704432 0.00000000
-0.55576384 0.15711744 0.00000000
0.77439129 0.59598207 0.02820226
0.53616273 0.29703397 0.00164141
-0.33069798 -0.70849180 0.00000000
-0.75742072 0.16202284 0.00000000
-0.60819423 0.74255526 0.00000000
-0.35975024 -0.09272514 0.00000000
-0.20306873 0.50423872 0.00000000
-0.37969643 0.31679764 0.00000000
-0.20422029 -0.00701722 0.00000000
0.35252357 0.32708055 0.00000000
-0.28879261 -0.00957466 0.00000000
0.61634696 0.71828163 0.02643489
-0.65562683 0.73811322 0.00000000
-0.30641228 0.61502546 0.00000000
0.48797935 -0.50119305 0.00000000
0.05390733 0.41003463 0.00000000
0.56399041 -0.52591997 0.00000000
0.53109717 -0.63577962 0.00000000
-0.77308512 0.00607146 0.00000000
0.30388030 0.44624671 0.00000000
0.42926851 -0.64117229 0.00000000
-0.04418448 -0.47555736 0.00000000
0.49006939 -0.39262792 0.00000000
0.67463106 -0.16686183 0.00000000
0.27826750 -0.06808195 0.00000000
-0.51457351 -0.05481734 0.00000000
0.69479936 0.60673779 0.02479863
-0.38080582 0.20343882 0.00000000
0.45022923 0.67363602 0.01601360
-0.74278522 -0.34057128 0.00000000
-0.06729576 0.62484223 0.00000000
-0.74699765 0.30718967 0.00000000
-0.43719918 -0.71768910 0.00000000
0.53471136 -0.23019543 0.00000000
0.10455289 -0.55873746 0.00000000
-0.04467260 0.43798128 0.00000000
0.64396757 0.74991417 0.02936470
0.54717922 -0.43150729 0.00000000
-0.16602954 0.16517133 0.00000000
-0.53526783 0.64614218 0.00000000
0.66498119 0.30618706 0.00846343
-0.38311869 0.19046021 0.00000000
-0.20049800 -0.68009526 0.00000000
-0.65549344 0.15770839 0.00000000
0.74938661 -0.21936753 0.00000000
0.29852119 0.22685669 0.00000000
-0.54331660 -0.14699899 0.00000000
0.31329712 0.00511157 0.00000000
0.16518597 0.54098535 0.00000000
-0.08176167 0.46356574 0.00000000
-0.55965298 -0.38902086 0.00000000
-0.65823507 -0.41859835 0.00000000
-0.13821644 -0.67354900 0.00000000
0.57728136 -0.12274074 0.00000000
-0.23708098 -0.64119178 0.00000000
0.33257672 -0.73372424 0.00000000
0.56887257 -0.35316443 0.00000000
-0.49561676 0.72748137 0.00000000
0.76501799 -0.41003281 0.00000000
-0.65748429 0.00017541 0.00000000
0.61361611 -0.06663058 0.00000000
0.48045009 -0.79966795 0.00000000
0.52933621 0.20713872 0.00000000
0.72978038 0.22019105 0.00741535
-0.01714022 -0.50182039 0.00000000
-0.63917941 0.34156269 0.00000000
-0.29135928 -0.40170109 0.00000000
0.07864959 -0.79950941 0.00000000
0.13439612 0.46075350 0.00000000
-0.42848033 -0.38037071 0.00000000
-0.69940954 -0.24838427 0.00000000
-0.10427598 -0.71363407 0.00000000
-0.15543987 0.29197055 0.00000000
-0.32802734 -0.18343338 0.00000000
0.35478681 0.74916762 0.01502913
0.39123330 0.51307905 0.00515774
-0.51130092 0.22765946 0.00000000
-0.05067651 0.02743398 0.00000000
-0.62468052 -0.45816588 0.00000000
0.15410841 0.78828430 0.00704066
0.57595336 0.62458014 0.01980447
0.75650513 -0.19238082 0.00000000
0.49194121 -0.32697377 0.00000000
0.09762574 0.18069065 0.00000000
-0.27275562 -0.70555341 0.00000000
0.70689195 -0.56503808 0.00000000
-0.73789430 -0.44992340 0.00000000
0.72957295 -0.30036151 0.00000000
-0.18908416 0.07067264 0.00000000
-0.72624701 -0.68889183 0.00000000
-0.73836374 -0.14567828 0.00000000
0.00985549 0.30463386 0.00000000
0.58525383 -0.00390027 0.00000000
-0.77169561 -0.74271429 0.00000000
-0.11639195 0.33809584 0.00000000
-0.36246625 -0.66155398 0.00000000
0.53777546 0.36140025 0.00490375
0.73134798 0.46705058 0.01969886
-0.42801258 -0.52982211 0.00000000
0.32234949 0.16654216 0.00000000
0.22645617 0.61550164 0.00207461
-0.23550525 -0.39509887 0.00000000
-0.55714315 -0.70515233 0.00000000
-0.53348082 -0.46256843 0.00000000
0.65626991 0.13335364 0.00000000
-0.44804606 0.30079806 0.00000000
0.18926702 -0.32796189 0.00000000
-0.09330767 -0.14141051 0.00000000
-0.43471366 0.22829141 0.00000000
0.05455220 0.58916742 0.00000000
0.66002363 -0.34800482 0.00000000
-0.21349441 0.75929713 0.00000000
0.44925982 0.32042268 0.00000000
-0.38878572 0.79335201 0.00000000
0.56617653 -0.05901014 0.00000000
-0.13717557 0.42194599 0.00000000
0.02023445 0.31112856 0.00000000
0.72668993 0.10077969 0.00135824
0.73032773 -0.16479050 0.00000000
-0.23283316 0.11256916 0.00000000
0.52342403 -0.13515320 0.00000000
0.71875602 0.69025469 0.03011273
-0.13645416 -0.05645014 0.00000000
0.72811478 -0.24922107 0.00000000
-0.48193145 -0.40119752 0.00000000
-0.17035681 -0.49976057 0.00000000
-0.74241787 0.05805744 0.00000000
0.40440175 -0.27406371 0.00000000
-0.05988229 0.60917485 0.00000000
0.68284863 -0.44079304 0.00000000
0.73666698 -0.60725641 0.00000000
-0.60598236 -0.00922148 0.00000000
-0.58920497 -0.21251324 0.00000000
-0.12924498 0.61548775 0.00000000
0.76488757 -0.18544626 0.00000000
-0.62687618 -0.36578932 0.00000000
-0.76257259 0.24966608 0.00000000
-0.64614546 -0.28460529 0.00000000
0.47678718 0.38135615 0.00287490
0.67583168 0.20397253 0.00394593
-0.40452018 -0.00054543 0.00000000
0.51855242 0.70972735 0.02117643
0.04453507 0.41368422 0.00000000
0.50247985 0.42062804 0.00608708
0.12705754 -0.44763449 0.00000000
-0.77644897 -0.27284414 0.00000000
-0.62811899 0.73660600 0.00000000
0.41823420 0.46048313 0.00389219
-0.22196633 0.27253270 0.00000000
0.28171852 0.30758616 0.00000000
0.69861042 -0.43807974 0.00000000
0.19093385 -0.21819542 0.00000000
-0.28685442 0.27001914 0.00000000
0.39964643 -0.57711464 0.00000000
0.66108048 -0.26327825 0.00000000
-0.15322705 0.51176518 0.00000000
-0.44792262 -0.70691431 0.00000000
-0.54178202 0.22398064 0.00000000
0.05985331 0.13265538 0.00000000
0.24871977 0.31106308 0.00000000
-0.03224688 0.52823412 0.00000000
0.21447521 -0.74966621 0.00000000
-0.43346775 0.05959022 0.00000000
0.56064230 -0.41853258 0.00000000
-0.52178890 0.51519901 0.00000000
-0.44153401 0.10176029 0.00000000
-0.69024193 0.30231211 0.00000000
0.45159084 0.43207622 0.00413693
-0.54239851 0.46664250 0.00000000
0.50695795 -0.76300448 0.00000000
-0.11323347 -0.23222049 0.00000000
0.79134512 0.37210110 0.01797064
-0.48138326 -0.75167400 0.00000000
0.33838740 -0.46906617 0.00000000
0.01279606 -0.20892251 0.00000000
0.41220263 0.42373064 0.00177672
0.49096432 -0.19606809 0.00000000
-0.26105380 -0.73989034 0.00000000
-0.22177359 -0.03548609 0.00000000
0.51120412 0.79403430 0.02498171
0.08507082 -0.18771116 0.00000000
0.09678390 -0.40165487 0.00000000
-0.07360715 -0.14434280 0.00000000
-0.24697053 -0.11533433 0.00000000
0.34995255 -0.57730335 0.00000000
0.71659833 -0.07443280 0.00000000
-0.56702560 -0.17991698 0.00000000
-0.09725664 0.47962853 0.00000000
-0.08768938 0.15392403 0.00000000
0.37764537 0.42048132 0.00000000
-0.03400032 -0.68621296 0.00000000
0.52484554 -0.10429572 0.00000000
-0.58626515 0.22561890 0.00000000
0.19240180 0.06521809 0.00000000
-0.20061921 0.79600626 0.00000000
0.24073294 0.75989890 0.00992030
0.55589014 0.15796845 0.00000000
0.68082148 0.17613928 0.00281643
-0.51284331 0.10389351 0.00000000
0.57822645 -0.43642974 0.00000000
0.13300858 -0.47371772 0.00000000
0.19721755 0.14840707 0.00000000
-0.24154712 -0.61054480 0.00000000
-0.06573881 0.19468826 0.00000000
0.76130807 0.62864757 0.02917052
-0.09472395 -0.61884886 0.00000000
-0.61468405 -0.59738213 0.00000000
0.11518771 0.39626825 0.00000000
0.16265327 -0.75455004 0.00000000
0.71860725 0.53726935 0.02254090
0.41934156 -0.32634804 0.00000000
-0.27443123 0.02070419 0.00000000
0.17548992 0.07829484 0.00000000
-0.43644899 -0.67236656 0.00000000
0.22895283 0.60414243 0.00163640
0.44241032 0.42128229 0.00314929
0.50509083 -0.45534033 0.00000000
0.46012968 -0.27561271 0.00000000
0.58571517 -0.07411767 0.00000000
-0.26458180 -0.72815102 0.00000000
0.01465312 -0.16503860 0.00000000
0.42351428 -0.72580826 0.00000000
0.03395010 -0.44276884 0.00000000
-0.37032655 0.75397831 0.00000000
0.77373791 0.18808658 0.00800143
0.65519893 0.25008056 0.00520556
-0.74166578 0.49872148 0.00000000
-0.70785826 -0.47462124 0.00000000
0.10232685 -0.26923397 0.00000000
-0.23119724 0.05482777 0.00000000
0.76380587 -0.43787253 0.00000000
-0.75406504 -0.68440902 0.00000000
0.11911289 -0.71762973 0.00000000
0.41114300 0.65839201 0.01332721
0.45419884 -0.59209353 0.00000000
0.32443380 -0.41407797 0.00000000
0.77025247 -0.70148551 0.00000000
0.24634987 -0.25085336 0.00000000
0.44589457 0.43332607 0.00391707
0.44603986 0.61954057 0.01313166
0.21058251 0.28700316 0.00000000
0.49976227 -0.33702376 0.00000000
0.36519212 -0.31931180 0.00000000
-0.23220655 0.18173015 0.00000000
-0.56865722 0.26434919 0.00000000
0.72147769 -0.53356063 0.00000000
-0.46703216 0.25025478 0.00000000
0.03102113 -0.48548895 0.00000000
0.39958310 -0.36876509 0.00000000
-0.54399663 -0.09368469 0.00000000
0.23377018 0.01739032 0.00000000
-0.48693502 0.42146131 0.00000000
-0.52771306 -0.51759982 0.00000000
0.51690710 0.68027145 0.01963860
0.22353002 -0.52058536 0.00000000
-0.07265131 -0.28716373 0.00000000
0.04095585 -0.32034037 0.00000000
0.30240285 0.58939695 0.00453905
-0.76755387 0.72881138 0.00000000
0.59318370 0.49557787 0.01427785
-0.47632751 0.41466257 0.00000000
0.67434180 -0.65059471 0.00000000
-0.60631591 -0.02952575 0.00000000
0.11164325 0.62821424 0.00000000
0.20102245 -0.55917257 0.00000000
0.06584714 0.70626301 0.00000000
0.30110359 0.10197385 0.00000000
0.33015174 0.03530973 0.00000000
0.30932698 -0.34926245 0.00000000
-0.42950454 0.26437262 0.00000000
-0.64424694 -0.63446039 0.00000000
-0.60556585 -0.57738763 0.00000000
0.55014336 0.48472235 0.01161296
0.73059243 -0.53090787 0.00000000
0.44893128 0.21579999 0.00000000
-0.55699271 0.29740313 0.00000000
-0.62980914 0.71471983 0.00000000
0.67473203 0.32877341 0.01006235
-0.70863402 -0.41968575 0.00000000
-0.46791840 0.76477963 0.00000000
-0.12201402 -0.37989947 0.00000000
0.12804540 -0.56310141 0.00000000
-0.24649563 -0.06763593 0.00000000
-0.70419478 0.57002020 0.00000000
0.55187929 -0.42656583 0.00000000
0.32150429 -0.69198555 0.00000000
-0.31100002 -0.42548239 0.00000000
-0.42258388 -0.65733147 0.00000000
0.62097096 0.30350247 0.00615460
-0.25534064 0.57056522 0.00000000
0.01297868 -0.59196734 0.00000000
0.05293661 0.59407598 0.00000000
-0.63706869 0.51924664 0.00000000
-0.75195277 -0.66397941 0.00000000
-0.70845407 0.05805818 0.00000000
-0.05924045 -0.47619298 0.00000000
0.48552299 0.42631516 0.00552985
0.19083580 -0.34282997 0.00000000
-0.43766987 0.45469922 0.00000000
-0.77406269 0.10472894 0.00000000
-0.23988177 0.10160706 0.00000000
-0.78837490 -0.78601342 0.00000000
-0.68611073 0.02160175 0.00000000
0.53576893 -0.67619485 0.00000000
-0.44237170 0.67498446 0.00000000
0.24838936 0.27397576 0.00000000
0.59237283 -0.11050344 0.00000000
-0.55306596 0.38565978 0.00000000
0.65608275 0.63573271 0.02431795
0.08590610 -0.55018210 0.00000000
-0.29611975 0.74706143 0.00000000
0.23386130 -0.22581053 0.00000000
-0.01407856 0.57851565 0.00000000
0.46083054 0.67548686 0.01662930
-0.29165080 -0.69958788 0.00000000
-0.10370034 -0.73765779 0.00000000
-0.25775456 -0.00824390 0.00000000
-0.61563224 0.30153945 0.00000000
0.19143309 -0.73194677 0.00000000
0.73456186 0.28148347 0.01068239
0.73401779 -0.63037920 0.00000000
-0.31076366 -0.71610159 0.00000000
0.34278983 0.46679148 0.00047375
0.73343784 0.76361281 0.03446593
0.00949737 -0.09334070 0.00000000
0.68603915 -0.46309641 0.00000000
-0.58851719 -0.55168432 0.00000000
-0.15006632 -0.69972086 0.00000000
0.29940495 -0.19582731 0.00000000
-0.26732737 0.33162099 0.00000000
0.34525126 -0.60599691 0.00000000
0.40831375 0.08428787 0.00000000
0.47849247 0.32453638 0.00014976
-0.25921378 -0.16442876 0.00000000
-0.69821757 0.51821667 0.00000000
0.77797383 0.71581686 0.03430472
0.21998991 0.50759459 0.00000000
0.70573646 -0.16917050 0.00000000
0.53308368 -0.17538032 0.00000000
0.71510661 -0.77781063 0.00000000
-0.79213697 -0.06189854 0.00000000
0.39981037 0.74417192 0.01700832
0.20828387 0.77978635 0.00929920
0.71828926 -0.56657022 0.00000000
0.10068519 -0.44282329 0.00000000
-0.43530425 -0.09625380 0.00000000
-0.29290155 -0.78860921 0.00000000
0.44223839 -0.19218384 0.00000000
0.78244197 0.37163788 0.01750752
-0.73807496 0.30291751 0.00000000
-0.44092530 -0.35947478 0.00000000
-0.78379852 -0.29168013 0.00000000
-0.62702549 -0.41423509 0.00000000
0.65734690 0.23057269 0.00434720
-0.75401264 0.30705297 0.00000000
-0.59154499 -0.08053665 0.00000000
0.06945572 0.55785811 0.00000000
-0.43737176 0.77495855 0.00000000
0.65446556 0.70712024 0.02776780
0.11659422 0.20802301 0.00000000
0.63389719 0.06953139 0.00000000
0.37746173 -0.75856870 0.00000000
0.44442189 0.16295499 0.00000000
0.25193030 0.56278241 0.00072747
-0.12167992 0.13335735 0.00000000
-0.00897656 0.57073683 0.00000000
0.33528629 -0.21690290 0.00000000
-0.50971985 -0.72009701 0.00000000
-0.35244834 0.66845620 0.00000000
-0.58058465 0.49133971 0.00000000
-0.26549199 -0.53039747 0.00000000
0.07446986 0.15342319 0.00000000
0.77188343 0.64608938 0.03055585
-0.04926853 -0.49704042 0.00000000
-0.05597886 0.39424291 0.00000000
0.07084837 0.44273311 0.00000000
0.05636732 0.20122495 0.00000000
0.38176325 0.73859715 0.01584032
-0.05909105 0.08607760 0.00000000
0.71338201 0.33820969 0.01243998
-0.61144280 -0.00599317 0.00000000
-0.10487782 0.79575568 0.00000000
0.37638611 0.75361031 0.01631679
0.57528275 -0.47795132 0.00000000
-0.12320652 -0.78300118 0.00000000
-0.35341504 0.60199958 0.00000000
0.47699189 -0.34348652 0.00000000
-0.04019583 0.44104204 0.00000000
0.59361559 0.55574441 0.01727415
0.63713181 0.15981063 0.00000000
-0.42933246 0.49005610 0.00000000
-0.70942289 -0.38189420 0.00000000
-0.30878210 0.11664850 0.00000000
-0.24736823 -0.72295719 0.00000000
0.02473552 0.48544416 0.00000000
0.35379168 -0.09718227 0.00000000
-0.42692587 0.67352325 0.00000000
-0.23145126 0.15381810 0.00000000
-0.59023982 -0.33187804 0.00000000
0.19782200 -0.00292618 0.00000000
0.47902116 -0.38617110 0.00000000
-0.09669280 0.10556787 0.00000000
0.73190135 0.07854590 0.00051657
-0.13654676 0.45252770 0.00000000
-0.37539297 -0.57883769 0.00000000
-0.50465667 -0.21242648 0.00000000
0.16344634 0.21149993 0.00000000
0.13158023 0.07330593 0.00000000
0.56898069 0.60588652 0.01853538
0.24985912 0.14136484 0.00000000
-0.23632945 -0.52328962 0.00000000
-0.44309679 -0.29373035 0.00000000
-0.14104573 0.68128914 0.00000000
-0.50879568 0.64251029 0.00000000
-0.63892567 -0.47382757 0.00000000
-0.17662968 0.57642800 0.00000000
-0.70685887 0.58671159 0.00000000
-0.48616034 0.11964990 0.00000000
-0.53689027 0.53303492 0.00000000
0.79703146 -0.28571424 0.00000000
-0.25879043 -0.44516680 0.00000000
-0.26303467 -0.07239360 0.00000000
0.30396932 -0.38516089 0.00000000
0.15054993 0.35057497 0.00000000
-0.02046152 -0.24801765 0.00000000
0.63809335 0.51466984 0.01744242
0.66302049 0.09948077 0.00000000
0.70272923 0.10074900 0.00017198
-0.64504659 -0.61715919 0.00000000
0.36224279 0.45554271 0.00087941
-0.35373887 -0.10546146 0.00000000
0.36209944 -0.28079969 0.00000000
-0.41312301 -0.26590320 0.00000000
-0.09524684 -0.23822346 0.00000000
-0.24973080 -0.42541301 0.00000000
0.42342228 0.07755874 0.00000000
-0.63407683 -0.65454662 0.00000000
-0.03180528 -0.32264629 0.00000000
-0.65266502 0.46852621 0.00000000
0.41938111 -0.65016335 0.00000000
-0.30271670 -0.38257557 0.00000000
0.47594157 0.41731986 0.00461132
0.73870593 0.34831047 0.01419156
-0.52314079 -0.12579301 0.00000000
0.24880666 -0.12037414 0.00000000
0.07254521 -0.63148487 0.00000000
0.50695628 -0.23070914 0.00000000
-0.00581920 -0.45635629 0.00000000
0.57322294 0.65762955 0.02130362
0.56315315 -0.33185935 0.00000000
-0.72610646 0.59695804 0.00000000
0.35655621 0.05053519 0.00000000
-0.63154036 -0.26839429 0.00000000
0.15627585 0.71089357 0.00332120
0.23147856 0.05529647 0.00000000
-0.10228488 0.18482742 0.00000000
-0.53436965 -0.21461992 0.00000000
0.35779795 0.14321923 0.00000000
0.76274937 -0.70723504 0.00000000
0.56478798 0.35316417 0.00583216
-0.68848032 -0.44262472 0.00000000
0.07021869 0.58699459 0.00000000
-0.46562797 -0.63786674 0.00000000
0.56509590 -0.51235372 0.00000000
0.01771083 0.75161457 0.00000000
-0.52539873 -0.19198613 0.00000000
0.42265064 0.56707889 0.00938120
0.58853358 0.76535094 0.02738703
-0.05224298 0.43684468 0.00000000
-0.10535155 0.77706444 0.00000000
-0.69269735 0.41792846 0.00000000
-0.54728281 0.13662475 0.00000000
0.65653265 0.49814990 0.01753732
-0.73604834 -0.15444492 0.00000000
0.67938668 -0.21342599 0.00000000
0.09616819 0.16578200 0.00000000
-0.67302138 0.09543752 0.00000000
-0.04440677 0.69457060 0.00000000
0.44189760 0.45251778 0.00466838
0.15865815 0.01100721 0.00000000
-0.11437510 -0.64516050 0.00000000
-0.62541014 0.65520138 0.00000000
0.68935466 -0.29175821 0.00000000
-0.24081142 0.06316731 0.00000000
0.57824039 -0.13332282 0.00000000
-0.14565811 -0.57123578 0.00000000
-0.46647027 -0.59950697 0.00000000
0.08824550 0.25839952 0.00000000
-0.41328466 0.35535187 0.00000000
0.23613283 0.24688585 0.00000000
0.21260194 -0.59206980 0.00000000
-0.48299095 -0.02129809 0.00000000
0.00002681 -0.45156586 0.00000000
0.75826997 -0.16109943 0.00000000
-0.55067039 -0.56643939 0.00000000
-0.11837878 -0.65022326 0.00000000
-0.61734194 0.26742721 0.00000000
-0.55174178 0.50231802 0.00000000
0.55387408 0.46470022 0.01080743
-0.60503191 0.64914846 0.00000000
-0.43938223 -0.62200701 0.00000000
-0.33924001 0.14000382 0.00000000
0.14984825 0.50078642 0.00000000
-0.53797817 -0.14174701 0.00000000
0.55837506 0.47890127 0.01173216
-0.35120529 0.27267697 0.00000000
-0.06865752 -0.38283223 0.00000000
0.19412293 0.11035916 0.00000000
0.44290656 -0.43318051 0.00000000
-0.03172221 -0.37061870 0.00000000
0.03771755 0.34911686 0.00000000
0.18087354 -0.29369116 0.00000000
0.59651840 -0.36670193 0.00000000
-0.48211014 0.66135210 0.00000000
-0.53277260 0.59849799 0.00000000
-0.33382097 -0.10517111 0.00000000
-0.07303622 0.20769262 0.00000000
0.64375186 -0.47920835 0.00000000
-0.72972369 -0.70401251 0.00000000
0.40177312 -0.12928967 0.00000000
-0.68704015 -0.46271199 0.00000000
-0.05390355 0.53176451 0.00000000
0.01053462 -0.04305957 0.00000000
-0.31273276 0.03217916 0.00000000
0.16498499 0.33977076 0.00000000
-0.00986588 0.10610096 0.00000000
-0.20836738 0.33412582 0.00000000
0.68998933 -0.26515749 0.00000000
-0.10498859 -0.51038754 0.00000000
-0.10713991 -0.74158818 0.00000000
-0.43777454 0.64146179 0.00000000
0.55616987 -0.67661601 0.00000000
0.28093010 -0.23556921 0.00000000
-0.20804916 -0.55352235 0.00000000
0.01783182 -0.33528733 0.00000000
0.54745317 -0.29023817 0.00000000
0.77533382 0.30246210 0.01373565
-0.40483764 -0.55961674 0.00000000
-0.26786181 -0.09770649 0.00000000
-0.64771789 0.31319839 0.00000000
-0.40550649 -0.39537242 0.00000000
0.31779060 0.66665500 0.00911993
-0.15672150 -0.49949092 0.00000000
0.64557582 0.01297949 0.00000000
0.53554517 -0.40138856 0.00000000
0.19216993 -0.09075939 0.00000000
-0.08769398 -0.75862712 0.00000000
-0.09594554 0.33449745 0.00000000
0.38507709 -0.09368079 0.00000000
0.55667073 -0.17326240 0.00000000
-0.58246982 -0.34377012 0.00000000
0.58164114 -0.01130646 0.00000000
-0.07952780 -0.37482148 0.00000000
-0.21093266 0.70732272 0.00000000
0.45108271 -0.49787295 0.00000000
0.66181338 -0.78492779 0.00000000
0.58363330 0.01551400 0.00000000
0.72640604 -0.75684285 0.00000000
-0.39221925 -0.77037007 0.00000000
0.06093991 0.61578631 0.00000000
-0.49420094 0.61713398 0.00000000
0.07186282 0.75932771 0.00154222
0.38846773 0.70115227 0.01432034
-0.43679023 0.16446637 0.00000000
0.51419568 -0.41408214 0.00000000
-0.10759813 -0.42189601 0.00000000
0.01497856 -0.67237478 0.00000000
0.24766740 -0.48982984 0.00000000
0.78993410 -0.11770178 0.00000000
0.16311087 0.12371979 0.00000000
0.07462779 -0.77918607 0.00000000
0.36387146 -0.08122031 0.00000000
0.49305639 0.39568692 0.00438792
-0.50894201 0.56611937 0.00000000
0.68036354 -0.64933246 0.00000000
-0.65720719 -0.76068425 0.00000000
-0.13328266 -0.05749564 0.00000000
0.68631518 0.22362937 0.00543622
-0.06898369 0.46868569 0.00000000
0.58889413 0.13512899 0.00000000
0.14715467 -0.62708980 0.00000000
-0.14681478 0.45930800 0.00000000
0.27327311 0.03823104 0.00000000
-0.52691650 0.09842812 0.00000000
0.44162652 0.42544198 0.00331621
-0.20195539 0.02151467 0.00000000
0.03778087 0.48766783 0.00000000
0.08794408 -0.34986398 0.00000000
-0.76595724 -0.79095542 0.00000000
-0.64913636 0.78843355 0.00000000
-0.50665611 -0.26871845 0.00000000
-0.45270836 -0.61383206 0.00000000
-0.72804511 -0.52534443 0.00000000
-0.33796605 -0.57038450 0.00000000
-0.49509498 0.15290450 0.00000000
0.53031391 0.60605794 0.01663196
-0.16423441 0.49659306 0.00000000
0.63818872 0.15739058 0.00000000
0.32639724 -0.19432919 0.00000000
0.73796016 -0.76815259 0.00000000
-0.12324195 -0.55577141 0.00000000
0.66640043 -0.27383634 0.00000000
0.74058735 -0.27020648 0.00000000
0.61157387 0.75483197 0.02800614
-0.06847657 0.11925335 0.00000000
0.09175338 -0.49633330 0.00000000
-0.41704756 -0.55224442 0.00000000
0.27395794 0.31683084 0.00000000
-0.65421480 -0.78224522 0.00000000
-0.35004956 -0.55191183 0.00000000
-0.32281843 -0.24295183 0.00000000
-0.20722307 -0.02308608 0.00000000
-0.08762304 -0.43843827 0.00000000
-0.72808212 -0.00937721 0.00000000
0.68137074 -0.48825806 0.00000000
0.18791360 0.30807602 0.00000000
-0.02333394 0.72912151 0.00000000
-0.62329841 0.24116413 0.00000000
-0.26218340 0.47476166 0.00000000
-0.16633239 0.24409166 0.00000000
-0.73589259 -0.63128209 0.00000000
-0.33501831 -0.12263239 0.00000000
0.03682237 0.27067927 0.00000000
-0.48035657 0.17199458 0.00000000
0.13792329 0.78779322 0.00621610
0.69479263 -0.61287367 0.00000000
-0.56686145 0.01642468 0.00000000
0.63009793 0.79788947 0.03105108
-0.78480655 -0.45472115 0.00000000
0.38905302 0.40965858 0.00000000
0.18543425 -0.77285659 0.00000000
-0.28081253 -0.56855285 0.00000000
0.34184429 -0.50073576 0.00000000
-0.13782088 0.18496421 0.00000000
0.77242017 -0.26677081 0.00000000
0.58283103 0.60554767 0.01920346
-0.43248898 -0.77004874 0.00000000
-0.38416040 -0.23675632 0.00000000
-0.13547885 -0.13855764 0.00000000
0.25870344 0.68490636 0.00710080
-0.07594500 0.50819468 0.00000000
-0.33477849 0.74272269 0.00000000
-0.23185308 -0.03337001 0.00000000
0.07310672 0.35765702 0.00000000
-0.22718832 0.69571286 0.00000000
-0.76666731 -0.02881649 0.00000000
-0.31116909 -0.56822854 0.00000000
-0.34920940 -0.50786465 0.00000000
-0.34659091 -0.39527303 0.00000000
-0.22106944 0.46983013 0.00000000
0.26457742 0.51818711 0.00000000
0.08663449 -0.08511948 0.00000000
0.11682141 0.22294956 0.00000000
-0.51252389 -0.29625896 0.00000000
0.47521609 -0.27502191 0.00000000
0.79291052 0.21382882 0.01022225
