ply
format ascii 1.0
element vertex 1409
property float x
property float y
property float z
end_header
-0.68600208 0.10240662 0.00000000
-0.58703756 -0.64095598 0.00000000
0.36303699 0.35295260 0.00000000
-0.09650466 -0.62736881 0.00000000
-0.10282422 0.50313640 0.00000000
-0.50793868 0.49993521 0.00000000
0.32621208 -0.75150466 0.00000000
0.27184209 0.05033658 0.00000000
-0.21202208 -0.34818459 0.00000000
-0.31110293 -0.09812943 0.00000000
-0.06999397 0.50028247 0.00000000
-0.41917291 0.59182531 0.00000000
-0.14397831 0.51056755 0.00000000
-0.14698942 -0.64180303 0.00000000
0.24073350 -0.62192029 0.00000000
-0.50069159 0.36404359 0.00000000
-0.35646224 0.15204974 0.00000000
0.03176595 0.51946259 0.00000000
0.54186583 -0.48958129 0.00000000
-0.13234036 -0.32679287 0.00000000
-0.10296613 0.40445423 0.00000000
0.69661283 -0.70957690 0.00000000
0.26636529 0.30068073 0.00000000
0.39180478 -0.78346187 0.00000000
0.51020235 -0.53020763 0.00000000
0.13500556 -0.27250561 0.00000000
0.47234172 -0.45478383 0.00000000
0.26720580 -0.58663684 0.00000000
-0.13766262 -0.68080908 0.00000000
-0.17091309 0.09514543 0.00000000
-0.24034005 -0.35487765 0.00000000
-0.66093594 0.11532832 0.00000000
-0.41949001 -0.24379545 0.00000000
-0.36537889 -0.61929286 0.00000000
0.40026888 -0.42457473 0.00000000
-0.38197100 -0.37773004 0.00000000
-0.02188205 0.60039568 0.00000000
-0.55153227 -0.13605885 0.00000000
-0.51777196 0.53233439 0.00000000
0.63203031 -0.03148483 0.00000000
0.19898389 -0.51519161 0.00000000
0.73842108 -0.43200567 0.00000000
-0.71043319 -0.61114776 0.00000000
-0.66463238 0.19227466 0.00000000
0.40323067 0.41819346 0.04399693
-0.37478712 0.20860352 0.00000000
0.22911650 0.44933540 0.00000000
0.51153487 0.43510386 0.30112770
0.10312024 0.19337045 0.00000000
-0.64530611 -0.07966270 0.00000000
-0.52755761 0.54551363 0.00000000
-0.34275270 0.35432315 0.00000000
0.43133968 0.44594431 0.15870640
-0.07295630 0.00522962 0.00000000
0.53630710 -0.22147526 0.00000000
-0.47716749 0.15793978 0.00000000
-0.62158233 0.76466846 0.00000000
0.46885827 -0.20598887 0.00000000
0.13250192 0.21768039 0.00000000
-0.19148415 -0.37545586 0.00000000
0.25832275 -0.29913953 0.00000000
-0.14691667 -0.58478171 0.00000000
0.56951463 0.24105474 0.02170651
-0.58340907 -0.02417643 0.00000000
-0.31560132 -0.34088150 0.00000000
0.01265925 0.59419739 0.00000000
-0.10875852 0.10194181 0.00000000
-0.71089339 -0.49063748 0.00000000
-0.10990346 0.65630400 0.00000000
0.50549287 -0.32904115 0.00000000
0.55747670 -0.44600695 0.00000000
-0.03092866 -0.33909905 0.00000000
0.10795975 -0.04274088 0.00000000
-0.49127761 0.51859558 0.00000000
0.32571062 -0.37170544 0.00000000
-0.64633060 -0.28507373 0.00000000
-0.26805994 -0.24762321 0.00000000
0.54473335 -0.64593190 0.00000000
0.25105733 -0.21388280 0.00000000
0.15781385 0.47056177 0.00000000
-0.28856027 0.34448510 0.00000000
0.64107692 0.00392012 0.00000000
0.24377944 -0.47003570 0.00000000
0.20150973 0.30452287 0.00000000
0.79711026 -0.72583050 0.00000000
-0.49623865 0.72840804 0.00000000
0.06771553 -0.41913489 0.00000000
-0.08623221 0.15956333 0.00000000
-0.69137818 -0.46160838 0.00000000
0.52739298 -0.24983387 0.00000000
-0.36779505 -0.77462286 0.00000000
-0.32684207 0.19151914 0.00000000
-0.28807646 0.30743828 0.00000000
-0.60835826 -0.55176419 0.00000000
-0.01453326 -0.57836765 0.00000000
-0.15471761 0.10956310 0.00000000
-0.13357747 0.64548308 0.00000000
0.01026281 -0.07712210 0.00000000
0.58128303 0.35501012 0.27988300
0.63870496 0.09533367 0.00000000
-0.20833874 0.22390489 0.00000000
0.54515594 0.27019617 0.03152796
0.31795713 -0.08638569 0.00000000
-0.00742656 0.56723768 0.00000000
-0.56134528 0.45102182 0.00000000
0.50625396 0.34037337 0.09575230
0.75435346 -0.79155803 0.00000000
-0.59007162 -0.58437252 0.00000000
-0.29097742 -0.11527173 0.00000000
-0.01299869 -0.71853799 0.00000000
-0.33483943 0.08858258 0.00000000
0.53821129 0.08171423 0.00000000
0.45761979 -0.11077363 0.00000000
0.34760234 0.52270603 0.14438175
0.30675355 -0.49950251 0.00000000
0.68032539 -0.57984602 0.00000000
-0.11021362 0.12753132 0.00000000
0.66482776 0.22657146 0.18769230
-0.72377390 -0.58280540 0.00000000
0.73072118 -0.37015265 0.00000000
0.00199285 -0.22396594 0.00000000
-0.05265464 -0.19226733 0.00000000
-0.27050468 0.05508049 0.00000000
-0.72286224 0.73262596 0.00000000
0.22168972 0.20612746 0.00000000
-0.10806109 0.59054047 0.00000000
-0.03827905 0.06290541 0.00000000
0.63773143 0.18046808 0.03737519
0.36823958 0.53826618 0.21871382
-0.10383614 0.22913958 0.00000000
0.75640661 -0.62127143 0.00000000
0.66246021 -0.01698041 0.00000000
-0.69874460 0.63683414 0.00000000
-0.03146165 0.22527376 0.00000000
0.57914686 -0.72270435 0.00000000
0.36798504 -0.07317618 0.00000000
0.16880643 0.21761987 0.00000000
0.55523020 0.24761491 0.00584453
-0.50635350 0.79044938 0.00000000
0.10421183 0.63719749 0.00000000
-0.21324100 -0.51883405 0.00000000
-0.36675504 -0.79727387 0.00000000
0.09721863 -0.48712426 0.00000000
-0.10180523 -0.12921534 0.00000000
-0.17888269 -0.48004544 0.00000000
0.61756682 -0.52185619 0.00000000
0.68730032 0.12645018 0.02823905
0.24539562 -0.35720986 0.00000000
-0.13748471 0.72688127 0.00000000
-0.05613143 0.42476079 0.00000000
0.50310099 0.32744607 0.06273107
-0.13958052 -0.62676024 0.00000000
-0.12673682 -0.42908984 0.00000000
0.17374587 0.25840187 0.00000000
-0.76771379 -0.27180102 0.00000000
0.21648067 0.14977245 0.00000000
0.70549428 -0.25999364 0.00000000
0.00757120 -0.39034623 0.00000000
0.60883921 -0.37395790 0.00000000
-0.21791762 0.02299275 0.00000000
0.39750436 -0.38964343 0.00000000
-0.55892336 0.39447856 0.00000000
-0.12928750 0.40788937 0.00000000
0.75453907 -0.43191898 0.00000000
0.69408923 0.15352003 0.09776868
-0.07220126 -0.13022287 0.00000000
0.43392661 -0.63798916 0.00000000
0.37299466 0.46247625 0.07284232
-0.26463738 -0.77787471 0.00000000
0.65592515 -0.50001198 0.00000000
0.61675882 0.15286876 0.00000000
-0.58635616 -0.20983355 0.00000000
-0.55043322 -0.45398077 0.00000000
0.10498354 0.15370931 0.00000000
-0.40742749 0.44467321 0.00000000
-0.63718057 -0.33049360 0.00000000
0.67140317 0.13914041 0.02165346
0.43419033 -0.30938390 0.00000000
0.57757485 0.41651952 0.39857885
0.53342831 0.34496528 0.16098499
-0.14225848 -0.00610393 0.00000000
0.31221715 0.40178618 0.00000000
-0.10693175 -0.44460788 0.00000000
0.25503495 0.39816406 0.00000000
0.05149307 0.01627273 0.00000000
-0.17405555 0.66288495 0.00000000
-0.64543039 0.12838641 0.00000000
-0.70430738 0.54990870 0.00000000
0.75377899 0.05616291 0.02041794
0.49922946 0.08323297 0.00000000
-0.70797986 0.03037443 0.00000000
0.74737954 -0.44430467 0.00000000
0.33344859 0.59142613 0.25643489
-0.74876881 -0.25444639 0.00000000
0.08196532 -0.41454589 0.00000000
0.11230682 -0.76328957 0.00000000
0.24327841 0.65651280 0.20492533
0.17198524 -0.06675693 0.00000000
0.74431306 -0.04542589 0.00000000
-0.26905125 -0.55735928 0.00000000
-0.23487654 -0.25077543 0.00000000
-0.04720637 -0.53944099 0.00000000
0.29515952 0.55159688 0.09601732
-0.33607486 -0.54283684 0.00000000
-0.00586379 -0.05300623 0.00000000
0.03080567 0.12589429 0.00000000
-0.50455481 -0.63660783 0.00000000
0.32028073 0.60773271 0.26288024
0.78825176 -0.11728286 0.00000000
-0.55488700 0.63886589 0.00000000
0.15353842 0.51960039 0.00000000
0.42479831 0.42477557 0.10180305
-0.28696093 0.45053768 0.00000000
0.39915103 -0.05754262 0.00000000
0.56523615 -0.28764224 0.00000000
0.71844131 0.12901080 0.09744591
-0.36730635 -0.48454201 0.00000000
-0.36250383 -0.12930481 0.00000000
-0.64188516 0.30573773 0.00000000
0.55158162 -0.49767166 0.00000000
0.58548665 -0.39116430 0.00000000
-0.71226197 -0.44711050 0.00000000
0.20548889 0.63747859 0.08823667
0.05034946 0.30735800 0.00000000
0.07466271 -0.09065251 0.00000000
0.00704083 0.09363756 0.00000000
0.52890152 0.38493475 0.23376727
0.78492975 -0.63827240 0.00000000
0.06927106 0.43165797 0.00000000
-0.72067434 0.18271148 0.00000000
0.60338461 0.32005078 0.25347933
0.27036992 0.34971985 0.00000000
-0.32575038 0.58535826 0.00000000
0.22858426 -0.56105614 0.00000000
-0.68339217 -0.14439900 0.00000000
0.04542466 -0.39400923 0.00000000
0.27728322 0.37308523 0.00000000
0.20378713 -0.03036081 0.00000000
-0.62303197 0.71533710 0.00000000
-0.50360298 -0.15232983 0.00000000
0.69629431 -0.49758965 0.00000000
-0.45264602 -0.42360386 0.00000000
-0.04980437 -0.18221754 0.00000000
0.76527786 -0.46067673 0.00000000
0.13342606 0.12228545 0.00000000
0.25544050 -0.12949857 0.00000000
0.75321454 -0.14560767 0.00000000
0.57351446 -0.06523804 0.00000000
0.06793951 0.47452411 0.00000000
0.47865817 -0.30869958 0.00000000
-0.37501952 0.71499234 0.00000000
0.20977350 0.42468026 0.00000000
-0.56940657 0.66203195 0.00000000
0.13362576 0.51129603 0.00000000
0.31391403 0.37932986 0.00000000
-0.45841491 0.59149432 0.00000000
-0.75130373 -0.33825973 0.00000000
0.35918334 0.51138264 0.14491081
0.30223277 -0.10507521 0.00000000
0.35863134 -0.16388047 0.00000000
-0.25588745 0.53684175 0.00000000
0.67044890 -0.31402805 0.00000000
-0.43411177 0.27550220 0.00000000
-0.43419668 0.25119489 0.00000000
-0.76677859 0.67222410 0.00000000
0.07125273 0.73746234 0.01789857
0.01735640 0.44953391 0.00000000
0.54358280 0.29376838 0.07670343
0.71884644 -0.56869304 0.00000000
-0.68602002 0.79707140 0.00000000
-0.20713481 0.20013016 0.00000000
0.41349891 -0.16185953 0.00000000
0.53917849 -0.44312796 0.00000000
0.78762197 -0.24377406 0.00000000
-0.14267230 -0.36138645 0.00000000
0.22289509 0.31954408 0.00000000
0.48094079 -0.32152376 0.00000000
0.23199196 0.59352010 0.05239165
0.15209948 0.30179697 0.00000000
-0.64044642 -0.32134750 0.00000000
0.40669656 -0.04213090 0.00000000
0.08101464 0.62628436 0.00000000
-0.25809917 -0.33028212 0.00000000
0.48571911 0.35035503 0.07408101
-0.55003297 0.45228511 0.00000000
-0.19338702 -0.69009376 0.00000000
0.52267641 -0.27534261 0.00000000
-0.12313419 -0.22643714 0.00000000
-0.18093073 0.39379150 0.00000000
0.68722129 -0.74784559 0.00000000
-0.23950762 -0.59317452 0.00000000
-0.03560469 0.41685674 0.00000000
0.18590400 -0.07121524 0.00000000
-0.68789577 0.38602102 0.00000000
-0.79939902 -0.03710244 0.00000000
-0.79777348 -0.45004478 0.00000000
0.79438776 -0.36435428 0.00000000
0.49729604 -0.00723805 0.00000000
0.02325330 0.42040673 0.00000000
-0.03532343 -0.00299075 0.00000000
-0.59479290 0.51111138 0.00000000
-0.08595984 0.72680902 0.00000000
0.36343533 0.44212180 0.01141372
-0.78336453 0.10895786 0.00000000
0.70886135 -0.17972793 0.00000000
0.56397754 -0.75009161 0.00000000
-0.50698751 0.57493323 0.00000000
-0.13915458 0.72927147 0.00000000
-0.24598731 -0.72150069 0.00000000
-0.16226412 0.53836709 0.00000000
0.09832202 -0.02607226 0.00000000
0.36772156 -0.73560613 0.00000000
-0.26320004 0.24244918 0.00000000
-0.72135621 0.09650071 0.00000000
-0.35346815 0.15023801 0.00000000
-0.23050547 -0.51036948 0.00000000
-0.20081642 0.44460747 0.00000000
0.29945025 0.35993576 0.00000000
0.57425809 0.30582601 0.16445640
0.58310241 0.26794884 0.10483686
-0.10124778 0.44883448 0.00000000
0.43896854 -0.17774662 0.00000000
-0.39146698 -0.17323276 0.00000000
-0.78630894 0.31745836 0.00000000
0.31340563 -0.47163925 0.00000000
0.41277418 -0.15486801 0.00000000
-0.75577271 0.31471735 0.00000000
0.31301934 -0.64111143 0.00000000
0.70662516 0.04660300 0.00000000
-0.72829705 -0.32644972 0.00000000
0.14455539 -0.42116952 0.00000000
0.47685206 -0.73256868 0.00000000
-0.26564723 -0.17574614 0.00000000
0.41991609 -0.04644984 0.00000000
0.19018024 -0.64748907 0.00000000
-0.15087862 0.75842971 0.00000000
0.44818896 0.39316478 0.08492283
0.12080226 -0.13553613 0.00000000
0.30092379 0.20690446 0.00000000
-0.14496537 -0.18335798 0.00000000
-0.23809823 0.16979110 0.00000000
-0.12654716 -0.23953281 0.00000000
-0.74118692 0.15741782 0.00000000
-0.14397624 0.69024605 0.00000000
0.08907335 0.07456771 0.00000000
-0.29431266 0.56843984 0.00000000
-0.27378470 -0.06489335 0.00000000
0.28776535 -0.38293546 0.00000000
-0.05963056 0.64722294 0.00000000
0.45865682 -0.50850874 0.00000000
-0.64308095 0.35892728 0.00000000
0.37000886 0.52481008 0.19471467
0.19366342 0.48439303 0.00000000
-0.18229364 0.10828810 0.00000000
0.44004363 -0.56712842 0.00000000
0.39008445 -0.46215713 0.00000000
-0.03941275 -0.58739018 0.00000000
-0.42592436 0.07746456 0.00000000
0.33428577 0.61100256 0.29835454
-0.70414180 -0.52740639 0.00000000
-0.40439218 -0.01059625 0.00000000
-0.75130194 0.39965925 0.00000000
0.51849836 0.30130231 0.04066305
0.50184679 -0.39934361 0.00000000
-0.49240091 -0.18930419 0.00000000
-0.54379576 -0.73855364 0.00000000
-0.72674191 0.36104053 0.00000000
0.39687145 0.29475486 0.00000000
-0.76278698 -0.19412795 0.00000000
0.37824121 0.58179212 0.32863373
0.60758966 -0.74958712 0.00000000
0.15577157 -0.00613324 0.00000000
0.36742634 0.44676164 0.02913735
-0.69755852 -0.62722999 0.00000000
-0.21111609 0.32060927 0.00000000
0.49691406 0.42351699 0.24730973
0.64035046 0.29807830 0.28426853
-0.36965519 -0.25879735 0.00000000
-0.00893133 0.31470653 0.00000000
-0.22264537 0.44757801 0.00000000
0.13224381 -0.33753055 0.00000000
-0.07613893 -0.43626001 0.00000000
0.49532202 0.39301214 0.18139806
-0.76952273 0.64448255 0.00000000
0.77697980 -0.33896863 0.00000000
-0.50681841 0.46692821 0.00000000
-0.06082878 0.36672711 0.00000000
-0.46213251 -0.30273888 0.00000000
0.62226188 -0.58032459 0.00000000
-0.76127678 0.66083556 0.00000000
-0.35646698 0.00822587 0.00000000
-0.66994643 -0.53160167 0.00000000
-0.29718420 0.32100165 0.00000000
-0.74319535 -0.79138321 0.00000000
0.09981550 0.30365857 0.00000000
-0.08920231 -0.54107237 0.00000000
0.68822956 -0.64197218 0.00000000
0.70824385 -0.60187143 0.00000000
0.31055102 0.49983397 0.02132783
-0.15477221 0.20471925 0.00000000
0.43139866 0.44909075 0.16528879
-0.14900512 -0.51550448 0.00000000
0.59613127 -0.42672506 0.00000000
0.33045220 0.54205310 0.14889321
-0.39141268 -0.58845621 0.00000000
0.31737185 0.51484954 0.06616936
0.07252170 -0.39158207 0.00000000
-0.33904374 0.21696712 0.00000000
-0.70535517 0.58949715 0.00000000
-0.77241981 -0.73568183 0.00000000
-0.50645256 0.41332200 0.00000000
0.45100820 0.52553487 0.36253682
0.40875828 -0.53640276 0.00000000
0.12004191 0.05796751 0.00000000
0.75832248 0.01936064 0.00000000
0.31977507 -0.13451123 0.00000000
0.71496034 -0.57598341 0.00000000
0.24510804 0.30268171 0.00000000
0.40363365 -0.21865682 0.00000000
0.25539297 -0.79432988 0.00000000
-0.32192975 -0.04668575 0.00000000
-0.52839798 -0.01017784 0.00000000
0.04997506 0.42754418 0.00000000
0.25161904 -0.64998454 0.00000000
-0.55425495 -0.04546136 0.00000000
0.00376125 0.27363446 0.00000000
-0.60243589 0.18599004 0.00000000
-0.02373778 -0.66002387 0.00000000
0.02824774 0.33693343 0.00000000
-0.42770216 0.18901588 0.00000000
-0.62347043 -0.60528445 0.00000000
-0.68714976 0.02140320 0.00000000
-0.24498954 -0.57594466 0.00000000
-0.34305882 0.13936555 0.00000000
-0.76689279 -0.50813591 0.00000000
-0.23795776 0.71797460 0.00000000
-0.19686721 -0.54768246 0.00000000
-0.33507329 0.35939595 0.00000000
0.22042596 -0.01357014 0.00000000
0.02457221 -0.42353904 0.00000000
0.26972589 -0.10511816 0.00000000
0.24539571 -0.79607600 0.00000000
0.67227674 0.15358956 0.05311908
-0.36257583 0.73509955 0.00000000
0.75399554 -0.17308967 0.00000000
0.42646223 0.37579271 0.00463258
-0.62853509 -0.72669154 0.00000000
0.40188763 0.32585275 0.00000000
0.07134609 0.26790637 0.00000000
0.04814573 0.76889902 0.03500376
0.28740442 0.22158545 0.00000000
0.67276978 0.07703161 0.00000000
-0.70580399 -0.31862584 0.00000000
0.42870075 0.57137060 0.41085255
0.10802410 0.53424853 0.00000000
0.48716390 -0.21785328 0.00000000
-0.53727901 0.19692436 0.00000000
0.25486428 -0.09396707 0.00000000
-0.61050379 -0.01812239 0.00000000
-0.52095127 0.07267454 0.00000000
-0.22887337 -0.10050945 0.00000000
-0.73922890 0.17890956 0.00000000
0.61063284 -0.35388556 0.00000000
0.37318805 -0.51275921 0.00000000
0.19936563 0.65736240 0.11649422
-0.24721132 0.10652089 0.00000000
0.31230000 0.62129664 0.27434546
-0.34129798 0.47847164 0.00000000
-0.21756841 -0.74166852 0.00000000
0.38098180 0.09010264 0.00000000
-0.51648498 -0.55353117 0.00000000
-0.74947250 0.42521426 0.00000000
-0.55015355 -0.24476491 0.00000000
-0.11365267 0.35308248 0.00000000
-0.72960663 -0.21964018 0.00000000
-0.42247441 -0.42060587 0.00000000
0.33288640 0.61139518 0.29628712
0.01077898 0.33934072 0.00000000
-0.66551137 0.48508981 0.00000000
-0.09709851 -0.11250952 0.00000000
-0.26181737 -0.08207474 0.00000000
0.18024354 -0.20376278 0.00000000
-0.00347676 0.13455652 0.00000000
-0.39157689 -0.62030214 0.00000000
-0.66871274 -0.43143353 0.00000000
-0.25318736 -0.30680314 0.00000000
-0.16716324 -0.37778974 0.00000000
-0.48870575 -0.24927795 0.00000000
0.47506583 -0.08463437 0.00000000
-0.64233994 -0.79358107 0.00000000
0.15686920 -0.79026961 0.00000000
0.61176878 0.19997118 0.02411028
0.68250126 0.12777413 0.02110278
-0.52141392 -0.19128659 0.00000000
0.41722623 -0.13569009 0.00000000
0.11720215 0.46550590 0.00000000
0.57875961 0.16861480 0.00000000
-0.07292818 0.29924974 0.00000000
0.73821628 0.11856007 0.11659348
0.23770648 0.43503916 0.00000000
0.31142133 0.24681105 0.00000000
-0.44963855 0.75201976 0.00000000
-0.34438050 0.32719621 0.00000000
0.58486253 -0.24573857 0.00000000
-0.20233886 0.61719853 0.00000000
-0.45342082 0.08022468 0.00000000
0.59331107 -0.21150690 0.00000000
-0.33022803 -0.05035768 0.00000000
0.31994560 0.54276562 0.12878086
0.33194765 0.38992029 0.00000000
0.35471222 -0.66915280 0.00000000
0.48254094 0.46195248 0.29672229
0.19752660 -0.36220247 0.00000000
-0.28884825 0.16218187 0.00000000
-0.58208203 0.58273876 0.00000000
0.70135933 -0.66608965 0.00000000
0.53979105 0.30079812 0.08335275
0.20618786 0.03909619 0.00000000
-0.28099850 -0.74625677 0.00000000
0.51777864 0.47749513 0.40100065
-0.30179980 0.32108700 0.00000000
0.47587788 0.07621558 0.00000000
0.34566206 0.45741087 0.00631236
0.42901781 -0.24349286 0.00000000
-0.07718683 0.14362212 0.00000000
0.26942369 -0.59257072 0.00000000
0.13030300 0.55954462 0.00000000
0.34320778 0.18368274 0.00000000
-0.34508291 0.32579735 0.00000000
-0.40726131 0.33729565 0.00000000
0.10251640 0.03322038 0.00000000
0.32554305 0.41238627 0.00000000
0.79711586 -0.12249460 0.00000000
0.12347312 0.73708063 0.12435042
0.24345791 -0.46564305 0.00000000
0.48477805 -0.54230893 0.00000000
-0.64087033 0.35714179 0.00000000
0.10726207 -0.51583117 0.00000000
-0.03607151 0.55713278 0.00000000
0.74901813 -0.45239887 0.00000000
0.09334887 0.17367718 0.00000000
-0.20169713 -0.57899785 0.00000000
0.16609664 -0.34208724 0.00000000
-0.59430963 0.54586571 0.00000000
-0.67824686 -0.21352173 0.00000000
-0.07878425 -0.76021099 0.00000000
0.08289969 -0.77562708 0.00000000
0.71890354 0.12525769 0.09068803
0.21090196 0.50554997 0.00000000
0.36046475 -0.29803550 0.00000000
-0.27927187 -0.13994282 0.00000000
-0.37221649 -0.42830426 0.00000000
-0.05555350 -0.07418505 0.00000000
-0.33993366 0.71106845 0.00000000
-0.36765030 -0.46687421 0.00000000
-0.47523782 0.79414254 0.00000000
-0.57307929 -0.11488078 0.00000000
-0.62496799 0.65510356 0.00000000
0.14375713 0.56537533 0.00000000
-0.77534819 -0.63333136 0.00000000
-0.65450281 -0.47079870 0.00000000
0.37429363 0.56701458 0.29018131
-0.18738124 -0.06547396 0.00000000
0.47329971 -0.46974069 0.00000000
-0.50845671 -0.10443103 0.00000000
0.03990053 -0.06410848 0.00000000
0.01162064 0.17707063 0.00000000
-0.44021463 0.43052912 0.00000000
-0.75662404 -0.50456977 0.00000000
-0.27919790 -0.35489357 0.00000000
0.64992678 -0.15995236 0.00000000
0.48339579 0.54946685 0.47819012
-0.54214901 -0.30689535 0.00000000
0.10438605 -0.03604865 0.00000000
-0.60287696 -0.08688557 0.00000000
-0.29353341 -0.37901178 0.00000000
0.11110177 -0.09973693 0.00000000
0.58048159 0.32619336 0.21906134
-0.05634939 0.70386279 0.00000000
-0.70318919 0.57043314 0.00000000
-0.76300526 0.20858672 0.00000000
-0.55575311 -0.30751076 0.00000000
-0.16103721 -0.33941108 0.00000000
0.78630883 -0.43481219 0.00000000
0.78698969 -0.03997783 0.00000000
-0.75977516 -0.74840760 0.00000000
0.32620952 0.62725168 0.31513774
0.52247584 0.40148991 0.25456840
0.55749977 -0.54592973 0.00000000
-0.63855505 0.42474648 0.00000000
0.63478482 -0.44792247 0.00000000
0.54623461 0.42267290 0.34685713
0.52687931 0.17139859 0.00000000
-0.57954460 0.27057254 0.00000000
-0.16735660 0.75989252 0.00000000
-0.64547735 0.12745628 0.00000000
0.53969145 0.34114322 0.16599777
-0.16488944 0.59746170 0.00000000
0.78231645 -0.65737599 0.00000000
0.04398635 0.73935515 0.00000000
-0.65155184 0.74999994 0.00000000
-0.77183145 -0.02458555 0.00000000
0.12988280 0.30087906 0.00000000
-0.26021072 -0.73699367 0.00000000
-0.16441528 -0.18999553 0.00000000
-0.68524092 0.24048117 0.00000000
-0.56498843 -0.05583260 0.00000000
-0.39288864 -0.02028971 0.00000000
-0.15955621 0.26609495 0.00000000
0.33254775 -0.34597665 0.00000000
0.71872169 -0.16160566 0.00000000
-0.39444298 0.18263695 0.00000000
0.26090556 -0.40283287 0.00000000
-0.19088964 0.70184612 0.00000000
-0.63765258 0.13347702 0.00000000
-0.30137414 0.58221263 0.00000000
-0.79338372 0.02061954 0.00000000
-0.23606715 0.77931118 0.00000000
0.75656193 0.07859687 0.07220136
-0.67773414 -0.25712189 0.00000000
-0.07618190 -0.09035062 0.00000000
0.16459443 0.64235717 0.01427731
-0.15510394 -0.05832479 0.00000000
0.14802659 0.65491366 0.00603983
0.53488553 -0.77219898 0.00000000
0.40792185 0.52231556 0.26744723
-0.29783466 0.16300292 0.00000000
0.41875702 0.54180264 0.32971457
-0.06341918 0.21984564 0.00000000
0.31750241 0.08387992 0.00000000
-0.15563335 0.74343258 0.00000000
-0.19865265 -0.12857258 0.00000000
-0.63570601 -0.76485777 0.00000000
0.49933752 -0.41344932 0.00000000
-0.55087620 -0.08605082 0.00000000
-0.13064860 -0.19237937 0.00000000
0.42850995 -0.55009711 0.00000000
0.08475520 0.12239117 0.00000000
0.01326571 0.19649844 0.00000000
-0.59079844 0.49840894 0.00000000
0.74838698 -0.76460457 0.00000000
-0.42188153 0.53728241 0.00000000
0.65320408 -0.11729373 0.00000000
-0.51186186 -0.55154157 0.00000000
0.29558137 0.55576462 0.10544220
-0.48640978 -0.60275376 0.00000000
0.35755512 -0.41248456 0.00000000
0.40519431 0.21738134 0.00000000
-0.34673861 0.17061979 0.00000000
0.27513856 0.64026892 0.23699369
-0.62093574 0.05369127 0.00000000
0.23323031 -0.61265337 0.00000000
-0.57152855 -0.29857588 0.00000000
-0.44393584 -0.53495544 0.00000000
-0.24399529 0.09727231 0.00000000
0.03626194 0.18280797 0.00000000
-0.38497716 -0.43565723 0.00000000
-0.41535598 -0.18320177 0.00000000
0.74866331 -0.41780299 0.00000000
-0.62801754 0.64790165 0.00000000
0.48829347 -0.21474651 0.00000000
0.10677347 -0.58740008 0.00000000
-0.72616714 0.08249208 0.00000000
0.68106711 -0.14198188 0.00000000
-0.33973226 0.32000887 0.00000000
-0.28457424 -0.77612871 0.00000000
0.62027454 -0.15556724 0.00000000
-0.19308421 0.34959227 0.00000000
0.01167913 -0.24307086 0.00000000
-0.33577344 -0.12231975 0.00000000
-0.65687239 -0.23011532 0.00000000
-0.77451062 0.03462743 0.00000000
-0.35980493 -0.70524222 0.00000000
-0.47471964 -0.48920140 0.00000000
0.55924457 -0.68679976 0.00000000
-0.61762732 -0.75268334 0.00000000
0.12955189 -0.34521639 0.00000000
0.18751332 0.69464397 0.16871372
0.31782413 0.51890004 0.07541582
-0.21374466 -0.20335212 0.00000000
-0.68040222 0.40225878 0.00000000
-0.12047410 -0.07812876 0.00000000
0.44163650 0.44524875 0.17842272
0.45037499 -0.31172925 0.00000000
-0.71798754 -0.40119138 0.00000000
-0.32538778 0.27823922 0.00000000
0.74966437 -0.55233896 0.00000000
-0.75791276 0.17664646 0.00000000
-0.68590099 -0.07132060 0.00000000
-0.21860926 0.15999876 0.00000000
-0.33876041 -0.32263726 0.00000000
0.26554960 -0.06899889 0.00000000
0.39970952 0.30747432 0.00000000
0.02686540 0.19709475 0.00000000
0.13899823 -0.08612026 0.00000000
-0.13868399 -0.20474584 0.00000000
-0.73641211 0.07127552 0.00000000
-0.31868815 0.41147941 0.00000000
-0.16837040 -0.72330147 0.00000000
0.64632529 -0.40534955 0.00000000
-0.55048072 -0.09515350 0.00000000
0.77773935 -0.01678136 0.00000000
0.60225260 0.13466658 0.00000000
0.73917627 -0.05195479 0.00000000
0.55348682 0.43387577 0.38475502
0.19331579 -0.73160291 0.00000000
-0.02817861 -0.07247706 0.00000000
0.04411465 -0.30053335 0.00000000
-0.59840333 -0.72290808 0.00000000
0.07896710 -0.12452083 0.00000000
0.20731162 -0.72354925 0.00000000
-0.40216890 -0.60875267 0.00000000
0.18804336 -0.71072918 0.00000000
0.24806203 -0.46203786 0.00000000
0.38789338 -0.47338882 0.00000000
-0.36721998 -0.19512929 0.00000000
0.13356076 0.52181715 0.00000000
0.78395188 -0.72894996 0.00000000
-0.79161537 -0.68692714 0.00000000
-0.00671203 -0.09994920 0.00000000
-0.16090044 0.63671958 0.00000000
0.39716789 0.52262396 0.24599709
-0.14647546 0.17629023 0.00000000
0.70521355 0.05060243 0.00000000
0.40432689 0.23804097 0.00000000
-0.70556664 -0.26475957 0.00000000
-0.78243524 0.34250304 0.00000000
-0.14744599 -0.46801031 0.00000000
0.68460804 -0.51625317 0.00000000
0.04984367 -0.49869695 0.00000000
-0.34610337 -0.50969124 0.00000000
-0.09867000 -0.27889827 0.00000000
-0.31261492 0.56668627 0.00000000
-0.34958622 -0.54022878 0.00000000
0.05674532 -0.35263824 0.00000000
0.01466410 0.38155863 0.00000000
-0.28698131 -0.16431321 0.00000000
0.39992672 0.40348408 0.00700620
-0.66304380 -0.50190991 0.00000000
0.59634602 -0.59866107 0.00000000
-0.40227678 0.59959066 0.00000000
0.09309482 0.12821399 0.00000000
0.24757707 -0.14389259 0.00000000
-0.33852518 -0.59550470 0.00000000
-0.13323072 -0.59113747 0.00000000
0.46510273 -0.64541113 0.00000000
0.36275148 0.52628946 0.18284950
-0.17565119 -0.18601012 0.00000000
0.42812714 -0.14803655 0.00000000
0.39949706 -0.54960310 0.00000000
0.20028131 0.63108903 0.06442170
0.58896285 0.14590678 0.00000000
0.57307661 -0.41189346 0.00000000
-0.29768592 0.06395538 0.00000000
0.55341291 -0.15703896 0.00000000
0.72126937 -0.76107168 0.00000000
-0.60579723 0.74103475 0.00000000
0.30104080 -0.55349445 0.00000000
0.54001933 0.29600313 0.07397491
0.58453345 -0.77676475 0.00000000
-0.03152023 -0.16162255 0.00000000
-0.70239252 0.05336983 0.00000000
-0.63962787 0.64883542 0.00000000
-0.04069879 0.10890817 0.00000000
0.23373038 -0.61741197 0.00000000
0.06260294 0.70956463 0.00000000
0.25644243 -0.04199328 0.00000000
0.11508937 -0.67259061 0.00000000
0.43459889 0.23461735 0.00000000
-0.52405620 0.40339071 0.00000000
-0.60664803 0.08691833 0.00000000
0.65949762 -0.65310705 0.00000000
0.11576743 -0.08056934 0.00000000
0.13969362 0.69647491 0.07427491
-0.55501258 -0.13292187 0.00000000
0.57760668 0.32014289 0.20073292
-0.17219548 0.17143422 0.00000000
-0.72165525 -0.18954170 0.00000000
-0.24815010 0.58014673 0.00000000
-0.49596745 -0.53811961 0.00000000
-0.64943159 -0.55280685 0.00000000
0.49329823 0.17920406 0.00000000
-0.32489222 0.63644034 0.00000000
-0.05394959 0.29478759 0.00000000
0.21333922 -0.55557936 0.00000000
-0.17982791 -0.65313709 0.00000000
-0.51656979 -0.18959878 0.00000000
-0.29678106 -0.35061690 0.00000000
0.48903295 0.01953727 0.00000000
0.38727015 -0.55326122 0.00000000
-0.05512247 0.11378609 0.00000000
-0.14019094 -0.63947386 0.00000000
0.09319522 0.60913783 0.00000000
0.68470877 0.12041903 0.01053210
0.15070288 -0.14606699 0.00000000
0.18046539 0.62671208 0.01474114
0.02623828 0.35189176 0.00000000
0.46390525 0.21754687 0.00000000
-0.37652189 -0.79598606 0.00000000
-0.09302078 0.35767365 0.00000000
-0.12632819 -0.17871398 0.00000000
0.73617154 -0.61683887 0.00000000
-0.58688134 -0.08185310 0.00000000
-0.64350539 0.67449933 0.00000000
-0.36366805 -0.41965228 0.00000000
0.42272463 0.26327407 0.00000000
-0.27225080 -0.46707141 0.00000000
-0.36826777 -0.57776940 0.00000000
0.54328525 -0.33722815 0.00000000
0.06922975 -0.49533436 0.00000000
0.22825304 0.17105243 0.00000000
0.61566442 -0.46071225 0.00000000
0.43411040 0.55374199 0.38576072
0.59855872 -0.07856206 0.00000000
0.51277030 -0.66681725 0.00000000
-0.25506407 0.50970083 0.00000000
0.64795119 -0.73747689 0.00000000
-0.17474094 0.50837022 0.00000000
-0.27887285 0.30539429 0.00000000
-0.75751674 -0.09343011 0.00000000
-0.48881212 0.43421546 0.00000000
0.00313621 0.22334608 0.00000000
-0.31536144 0.33634174 0.00000000
-0.23519316 0.78872555 0.00000000
-0.28287905 -0.27759081 0.00000000
0.05505337 -0.25096002 0.00000000
-0.77996445 0.68332016 0.00000000
0.66023111 0.25768903 0.24215364
-0.20620503 0.47803926 0.00000000
-0.46754423 0.46426600 0.00000000
-0.19143561 0.71370322 0.00000000
-0.05642336 -0.59990758 0.00000000
-0.72908723 -0.40255693 0.00000000
-0.28252667 0.59039688 0.00000000
0.54268605 -0.22318298 0.00000000
0.40732309 0.48532006 0.19024678
-0.24960586 -0.10654569 0.00000000
-0.27113509 -0.29768628 0.00000000
-0.75129837 -0.37500504 0.00000000
0.67533648 0.06079063 0.00000000
0.46954560 0.52756059 0.40476358
0.70307040 -0.35089421 0.00000000
0.75115311 0.05847873 0.01978129
0.28790253 -0.72951245 0.00000000
-0.36520928 0.70629102 0.00000000
-0.08029289 0.23736233 0.00000000
0.44771418 0.40973842 0.11798214
0.26779464 0.14805809 0.00000000
0.58231491 0.40935245 0.39359486
0.53378427 -0.40804717 0.00000000
0.77119094 -0.59094387 0.00000000
0.48943126 -0.17298922 0.00000000
0.03148032 0.28413239 0.00000000
-0.48252052 0.32835296 0.00000000
0.08336796 -0.37606534 0.00000000
-0.49868312 -0.67934954 0.00000000
0.33141416 0.54974729 0.16666871
0.06171416 0.20201351 0.00000000
-0.22007561 -0.76786095 0.00000000
-0.60971129 -0.06971560 0.00000000
0.10290739 -0.24891889 0.00000000
0.34942579 -0.42897317 0.00000000
-0.14693616 -0.26814997 0.00000000
-0.46686950 -0.08915473 0.00000000
-0.08771829 0.33874625 0.00000000
-0.23845947 0.25140843 0.00000000
0.74975961 -0.22964934 0.00000000
-0.28116775 -0.45947024 0.00000000
0.45868102 0.34664607 0.01094132
0.12785175 -0.03728682 0.00000000
0.37102708 -0.04479065 0.00000000
-0.72718132 -0.12827469 0.00000000
0.61730307 -0.56977838 0.00000000
-0.51940739 0.42298418 0.00000000
-0.77794480 0.01503163 0.00000000
0.29316115 0.29494891 0.00000000
-0.32623303 -0.13580915 0.00000000
-0.26825365 0.41946939 0.00000000
0.38491768 0.47948855 0.13226163
-0.67442340 -0.63719672 0.00000000
0.42473155 0.39762691 0.04591560
0.64193314 -0.40694246 0.00000000
0.57066059 -0.27144948 0.00000000
0.69136280 -0.09843331 0.00000000
-0.66366613 0.50079846 0.00000000
0.57870609 0.02106939 0.00000000
0.58311433 -0.61528242 0.00000000
0.27418059 -0.07762457 0.00000000
0.04066828 0.76692128 0.01558741
0.05595804 0.21600358 0.00000000
-0.11315400 0.43199506 0.00000000
0.15409277 0.53319490 0.00000000
0.29130250 -0.58000851 0.00000000
-0.49559730 0.55482882 0.00000000
-0.48930842 0.35309339 0.00000000
0.59041232 -0.45024607 0.00000000
0.38123274 0.14882635 0.00000000
-0.04837293 0.18540962 0.00000000
0.44828087 0.40685424 0.11322315
0.14234398 -0.63647813 0.00000000
0.37296143 0.25752845 0.00000000
0.57768130 0.38451517 0.33307591
0.59641844 0.06281048 0.00000000
0.79331189 -0.03101170 0.00000000
0.08925464 -0.59098011 0.00000000
0.46507254 -0.21703623 0.00000000
-0.08052734 -0.42263162 0.00000000
0.06619426 0.07576664 0.00000000
0.54840875 0.25322378 0.00335446
-0.74446982 0.57312274 0.00000000
-0.39994535 -0.49434233 0.00000000
-0.55801076 0.00691657 0.00000000
0.26636681 0.19190010 0.00000000
-0.49556777 -0.26802403 0.00000000
0.72288060 -0.41051137 0.00000000
0.67244226 -0.16290158 0.00000000
-0.53059608 0.25245649 0.00000000
0.23423555 0.51793063 0.00000000
-0.53293085 0.30807894 0.00000000
-0.28918937 0.18488485 0.00000000
0.62788594 -0.42164734 0.00000000
-0.02942709 -0.14214569 0.00000000
-0.14961644 0.09899820 0.00000000
-0.46794441 0.69238704 0.00000000
-0.06546664 -0.64081711 0.00000000
-0.11732494 0.15577213 0.00000000
-0.15129340 -0.72694570 0.00000000
0.34706572 0.20682955 0.00000000
-0.03567403 0.69466251 0.00000000
0.64479637 -0.72889483 0.00000000
-0.51442075 -0.44289824 0.00000000
-0.06768422 0.63681781 0.00000000
0.38174620 0.56547415 0.30232200
0.44775400 -0.70174295 0.00000000
-0.03101507 -0.40162748 0.00000000
0.17833336 0.53514707 0.00000000
-0.78694606 -0.31618610 0.00000000
0.28572920 -0.51551455 0.00000000
0.31185657 0.06213157 0.00000000
-0.37516826 0.69477171 0.00000000
0.37333760 0.43571442 0.01859054
0.56460631 0.04668487 0.00000000
0.35327417 0.05596661 0.00000000
-0.78166324 0.32436049 0.00000000
0.03425271 -0.52556288 0.00000000
0.35255602 0.01010422 0.00000000
0.69677490 -0.62623394 0.00000000
-0.73305601 0.67580342 0.00000000
-0.11189269 0.68240112 0.00000000
-0.37633374 -0.62008482 0.00000000
0.53696871 0.23169450 0.00000000
0.21184851 -0.37465242 0.00000000
0.12365877 0.69496781 0.03825209
0.55127424 0.43791375 0.38850349
-0.39001998 -0.43996099 0.00000000
-0.22321288 0.33040684 0.00000000
-0.64854985 -0.01438836 0.00000000
0.39096728 -0.47917661 0.00000000
0.54477102 -0.34793079 0.00000000
-0.60236168 -0.20364258 0.00000000
0.57025331 0.43818322 0.42803076
0.31541261 0.20504087 0.00000000
0.40477613 0.06142111 0.00000000
0.42336610 -0.65104032 0.00000000
0.23635785 0.02419070 0.00000000
-0.18248418 -0.00766625 0.00000000
-0.74486130 -0.12127636 0.00000000
-0.44013080 -0.04801964 0.00000000
-0.54829574 0.04963708 0.00000000
0.55444670 -0.09334560 0.00000000
0.63611192 -0.27829686 0.00000000
0.03264260 0.59170085 0.00000000
-0.50612599 0.06943787 0.00000000
-0.46219808 -0.07552238 0.00000000
-0.51704240 0.15749225 0.00000000
-0.29358435 -0.79177684 0.00000000
-0.69037068 -0.12666374 0.00000000
0.74107742 -0.20216495 0.00000000
0.45629075 -0.17571385 0.00000000
0.01720533 -0.25589028 0.00000000
0.37503254 0.50128615 0.15672407
0.54274642 0.41795120 0.32999793
0.40163484 0.53264141 0.27574110
0.13443029 -0.19933647 0.00000000
-0.15659229 0.54547048 0.00000000
0.47054583 0.50495285 0.36039212
-0.20835982 -0.04461921 0.00000000
-0.41747156 -0.67095131 0.00000000
0.08963964 0.72017944 0.02016573
0.30638602 0.36658734 0.00000000
0.69105291 -0.31135947 0.00000000
-0.07819732 -0.53673410 0.00000000
0.77828264 -0.58714414 0.00000000
-0.34974152 -0.16760109 0.00000000
-0.76278478 0.09877234 0.00000000
-0.04029043 -0.06472022 0.00000000
-0.07666631 -0.09001813 0.00000000
0.76321012 -0.32167217 0.00000000
-0.02385354 0.35327911 0.00000000
-0.15858820 0.43604606 0.00000000
0.16978826 0.14359915 0.00000000
0.73282701 -0.32816470 0.00000000
0.43358719 0.24627575 0.00000000
0.49346590 0.46969539 0.33505711
0.27407470 -0.69640505 0.00000000
0.73341411 -0.72917694 0.00000000
-0.49394387 0.08003624 0.00000000
-0.30063292 -0.38692474 0.00000000
0.28151658 -0.09592837 0.00000000
0.46096414 0.43603113 0.19918393
-0.02671675 0.39542145 0.00000000
0.77126199 -0.56803685 0.00000000
-0.18277462 0.62760556 0.00000000
0.03743903 -0.22741252 0.00000000
0.20358127 0.60366386 0.01488005
-0.73333615 -0.77315724 0.00000000
0.75861341 0.07806848 0.07532910
0.20283952 0.55573124 0.00000000
0.58646601 -0.56327832 0.00000000
-0.29691732 0.58750927 0.00000000
0.53794652 0.34105846 0.16224045
0.29878682 -0.01796282 0.00000000
0.08069947 0.32708856 0.00000000
-0.23105989 0.61603147 0.00000000
-0.12875713 -0.61499256 0.00000000
-0.29168826 0.63926494 0.00000000
0.21249054 0.09076744 0.00000000
0.77709371 0.02658162 0.00754939
0.34774214 -0.21933959 0.00000000
-0.47268954 0.15499809 0.00000000
-0.64964443 0.51631600 0.00000000
0.58755243 -0.45933807 0.00000000
0.30617836 -0.68917388 0.00000000
0.01269851 0.03696550 0.00000000
0.17491353 0.54605925 0.00000000
-0.52970791 -0.50196630 0.00000000
-0.72472906 -0.01206212 0.00000000
0.06651077 -0.55564499 0.00000000
0.72116333 0.09030455 0.02355159
0.16953725 -0.51721913 0.00000000
0.58410716 -0.24672793 0.00000000
-0.25760931 0.03565765 0.00000000
-0.25084090 -0.30681470 0.00000000
-0.36627832 0.53460848 0.00000000
0.62639052 0.33162263 0.32448539
0.15517531 0.71470463 0.14350188
-0.45418116 0.11065437 0.00000000
-0.07090086 -0.74165982 0.00000000
0.03847669 0.48288035 0.00000000
-0.24008767 -0.77075702 0.00000000
0.45717949 -0.75952089 0.00000000
-0.32250667 0.77408504 0.00000000
-0.36122993 0.45552358 0.00000000
0.14881305 0.05023645 0.00000000
-0.78892505 -0.26420623 0.00000000
-0.03976780 -0.47255018 0.00000000
-0.43756211 0.33425382 0.00000000
-0.18699218 -0.65611959 0.00000000
-0.09190145 0.14360185 0.00000000
0.51815486 -0.78901392 0.00000000
-0.68265146 0.61998433 0.00000000
-0.11857704 -0.47820365 0.00000000
-0.35109851 -0.79465008 0.00000000
0.66662651 -0.10492848 0.00000000
0.34000126 0.57661968 0.23948559
-0.30392262 0.17770112 0.00000000
0.17388247 -0.23199283 0.00000000
0.21294060 0.10092844 0.00000000
0.53457320 0.20686954 0.00000000
-0.67140287 0.03382898 0.00000000
0.51902694 0.34493184 0.13134274
0.20101181 0.49117628 0.00000000
-0.09888379 -0.36084580 0.00000000
-0.28827304 0.63032770 0.00000000
-0.34577385 0.55091214 0.00000000
0.31170580 0.58001918 0.18836126
-0.19840991 -0.13462119 0.00000000
-0.06061268 0.11069933 0.00000000
-0.18129385 0.36439481 0.00000000
0.20979084 -0.20517994 0.00000000
-0.54491711 0.66587335 0.00000000
-0.36047289 0.70232534 0.00000000
-0.30812994 -0.35391414 0.00000000
0.62593406 -0.51212692 0.00000000
-0.13455591 0.50718868 0.00000000
-0.64188182 -0.13575318 0.00000000
0.07162278 -0.05235965 0.00000000
-0.18312050 0.39270401 0.00000000
0.74363589 -0.71881622 0.00000000
0.58877510 -0.54903066 0.00000000
-0.72827846 -0.66655779 0.00000000
-0.32719046 0.06628702 0.00000000
0.60247147 0.04726740 0.00000000
0.41741958 -0.07843724 0.00000000
-0.14863749 -0.79942411 0.00000000
-0.48801601 -0.55148476 0.00000000
0.30345389 0.54369402 0.09682129
0.14716384 0.68762058 0.07143258
-0.03475005 0.49575880 0.00000000
-0.07810072 0.79214633 0.00000000
0.48181880 0.50328261 0.38011152
-0.63752395 -0.29791024 0.00000000
0.32471028 -0.60758096 0.00000000
0.64271736 -0.69956058 0.00000000
-0.06769920 -0.10053426 0.00000000
0.39434454 0.53269917 0.26088887
-0.13210288 0.49080011 0.00000000
0.10807875 0.61017287 0.00000000
0.72033042 -0.65758675 0.00000000
-0.48621246 0.67097253 0.00000000
-0.49160171 -0.12515505 0.00000000
-0.69453448 -0.40688497 0.00000000
0.12049818 -0.49110755 0.00000000
0.24761988 -0.05767065 0.00000000
-0.59001797 0.10411418 0.00000000
0.15600629 0.10636471 0.00000000
-0.33745754 -0.70543224 0.00000000
-0.38639525 0.57173222 0.00000000
0.07474185 0.47680119 0.00000000
0.49620977 0.26080477 0.00000000
0.51920182 0.29093561 0.02081948
-0.01384326 0.44184622 0.00000000
-0.43251780 -0.01416992 0.00000000
-0.64126939 0.32164323 0.00000000
-0.34423682 -0.79805434 0.00000000
0.46220261 0.40437037 0.13671111
-0.44351691 0.55756426 0.00000000
0.21703793 0.15516125 0.00000000
0.00025499 0.17075586 0.00000000
0.44692254 -0.37914968 0.00000000
-0.67967635 -0.44795504 0.00000000
-0.55635935 0.44067666 0.00000000
-0.58328813 -0.62703985 0.00000000
0.25386888 0.02908847 0.00000000
-0.25194141 -0.11707620 0.00000000
0.49602172 0.34835473 0.09113004
-0.39097640 -0.78992772 0.00000000
-0.75705975 -0.70581335 0.00000000
0.08816633 0.14996579 0.00000000
0.68413681 0.17292278 0.11717511
0.28623688 -0.31787917 0.00000000
0.24425144 -0.75433737 0.00000000
0.78666955 0.01847156 0.01055946
0.70901787 -0.23761588 0.00000000
0.37009594 0.10154591 0.00000000
-0.27514213 0.72019011 0.00000000
0.04088231 -0.55115104 0.00000000
-0.06074611 0.28676298 0.00000000
0.70648664 -0.63812643 0.00000000
-0.26407874 0.41565159 0.00000000
0.53649771 -0.27137488 0.00000000
-0.20809127 -0.11428854 0.00000000
0.39191094 0.32642075 0.00000000
-0.70917904 -0.72790003 0.00000000
0.68520570 -0.45763633 0.00000000
-0.78876501 -0.48931304 0.00000000
0.21197201 0.64885336 0.12490819
0.26439586 0.35285157 0.00000000
-0.64360338 0.79639745 0.00000000
0.71221530 -0.48207355 0.00000000
-0.04663754 0.03113346 0.00000000
0.47889483 -0.17405809 0.00000000
0.69902211 0.10796980 0.01436011
-0.44428292 0.00912736 0.00000000
0.08468255 0.59623045 0.00000000
0.12360538 -0.77211845 0.00000000
0.69419765 -0.69970858 0.00000000
0.35604995 0.51855147 0.15319765
0.48816040 0.07388898 0.00000000
-0.37806424 -0.36141023 0.00000000
-0.14272068 -0.12272746 0.00000000
0.46904948 -0.55107957 0.00000000
0.08213806 0.68670267 0.00000000
0.06858684 0.29392391 0.00000000
0.25643429 -0.02827700 0.00000000
-0.57048154 -0.07901933 0.00000000
-0.49042779 -0.29254171 0.00000000
-0.45911250 -0.49357516 0.00000000
-0.23410404 0.28813875 0.00000000
0.51049000 0.10795307 0.00000000
-0.07699096 -0.03480626 0.00000000
-0.08276710 0.44894886 0.00000000
-0.19842790 0.69766885 0.00000000
-0.51185048 0.21612483 0.00000000
0.43081763 0.49915263 0.26689866
0.42307407 0.44771186 0.14536250
-0.56100094 0.71109152 0.00000000
0.38033664 -0.31220409 0.00000000
-0.17329527 -0.21035002 0.00000000
-0.03895033 -0.38512561 0.00000000
0.36947894 0.52058899 0.18495846
-0.05848233 -0.53974128 0.00000000
0.77215415 -0.58302855 0.00000000
-0.60343754 -0.32435572 0.00000000
-0.43732405 0.65660095 0.00000000
0.53218246 0.30322745 0.07271697
-0.17733450 -0.27462581 0.00000000
-0.56203717 -0.34228989 0.00000000
0.63921219 0.31099334 0.30845237
0.10605381 -0.65927213 0.00000000
-0.09979515 -0.18602087 0.00000000
-0.31012464 0.61459422 0.00000000
-0.52996165 -0.04148489 0.00000000
-0.32263935 -0.05808426 0.00000000
-0.20120728 0.42602375 0.00000000
0.20103364 0.32482788 0.00000000
-0.53383344 -0.63030815 0.00000000
-0.04048759 0.78056192 0.00000000
0.60626704 0.07477549 0.00000000
-0.79501486 0.39451241 0.00000000
-0.32238892 0.44100571 0.00000000
-0.37989908 -0.50354934 0.00000000
-0.02547157 0.57706207 0.00000000
-0.06021958 0.71770316 0.00000000
-0.57086051 0.64618129 0.00000000
0.61566889 -0.53307474 0.00000000
-0.35361290 0.67134422 0.00000000
0.75289375 -0.45038402 0.00000000
-0.16029426 -0.78036648 0.00000000
0.11205556 0.26097798 0.00000000
-0.47767228 -0.16440979 0.00000000
0.54064614 -0.27227089 0.00000000
-0.25517002 -0.03365022 0.00000000
-0.63451558 0.33671665 0.00000000
0.59476417 0.30084881 0.19634536
0.62996733 0.25505778 0.17460290
0.05478631 0.26049650 0.00000000
-0.00142697 0.56665266 0.00000000
-0.05462540 -0.07062648 0.00000000
0.65512443 -0.29741716 0.00000000
0.42007309 0.44819975 0.14020181
0.68627489 -0.49537554 0.00000000
-0.61643392 -0.02522707 0.00000000
0.55277473 0.15914509 0.00000000
-0.16612566 0.72419131 0.00000000
0.30564463 -0.64581585 0.00000000
0.60049576 -0.47947431 0.00000000
-0.32991570 0.51960933 0.00000000
0.69853634 -0.31409153 0.00000000
-0.24616624 0.01634729 0.00000000
0.06508286 -0.51819426 0.00000000
-0.11852166 0.22064213 0.00000000
-0.47341588 -0.65341645 0.00000000
-0.27580225 -0.55868781 0.00000000
0.12413681 0.25716388 0.00000000
-0.19778852 -0.32810423 0.00000000
0.76959026 0.05841124 0.05750367
0.21192737 0.49682018 0.00000000
-0.56541008 0.39667371 0.00000000
-0.44694546 -0.29179779 0.00000000
0.16663019 0.58579499 0.00000000
-0.16457765 0.56066835 0.00000000
0.49519086 -0.48596454 0.00000000
0.02640735 -0.16172217 0.00000000
-0.34134772 -0.03133612 0.00000000
0.48396331 0.33728084 0.04362736
-0.15947516 0.38822371 0.00000000
-0.08293724 0.04174086 0.00000000
-0.59698731 -0.66575664 0.00000000
-0.17281772 0.25857392 0.00000000
0.38495231 0.59945554 0.37868732
-0.24024782 0.43425277 0.00000000
0.32106224 0.54124027 0.12794152
-0.01147053 -0.39788142 0.00000000
0.49768496 -0.21477696 0.00000000
-0.19680829 0.15586467 0.00000000
0.17456420 -0.33481219 0.00000000
0.22261447 -0.66891426 0.00000000
-0.17931102 -0.55702370 0.00000000
0.68054652 0.06769553 0.00000000
0.07594078 0.17433444 0.00000000
0.58569741 -0.37985623 0.00000000
-0.45593849 -0.51208687 0.00000000
0.67677832 0.20859450 0.17531694
-0.02058461 0.18256181 0.00000000
-0.66535938 -0.52335888 0.00000000
-0.72246492 0.57960480 0.00000000
-0.53701419 -0.62780344 0.00000000
0.15660743 0.68054962 0.07630491
0.20265628 -0.75818741 0.00000000
-0.11098918 -0.35159281 0.00000000
0.29973733 -0.44428068 0.00000000
-0.67808300 -0.16900888 0.00000000
0.73771828 -0.56465632 0.00000000
0.49661589 0.39251712 0.18303858
0.63228601 0.24005137 0.14854842
0.44768789 -0.27623183 0.00000000
-0.32549322 0.04006901 0.00000000
0.13302016 0.67798442 0.02260015
0.33329332 0.42284834 0.00000000
0.65196115 0.25765347 0.22509801
-0.71318185 0.37210742 0.00000000
0.53672636 0.10627628 0.00000000
0.20476645 0.44187322 0.00000000
-0.53275949 -0.35844770 0.00000000
0.57119548 -0.32366616 0.00000000
0.00365580 -0.31414583 0.00000000
0.56828743 0.09287282 0.00000000
-0.16150223 0.39690089 0.00000000
0.55287498 0.37834832 0.26947191
-0.36805445 0.70568067 0.00000000
-0.01351874 0.52270085 0.00000000
-0.65037721 -0.28696522 0.00000000
0.37614784 0.25839218 0.00000000
-0.39165270 -0.43692347 0.00000000
0.50930291 -0.76988292 0.00000000
-0.47622794 -0.00631022 0.00000000
-0.63755661 -0.27973607 0.00000000
-0.48635113 0.49296942 0.00000000
0.26071292 0.18077856 0.00000000
-0.23703814 -0.62886214 0.00000000
-0.37633020 0.67380428 0.00000000
0.29348552 0.55292070 0.09529817
0.58593947 -0.28281093 0.00000000
0.41149667 -0.05189387 0.00000000
0.35415885 -0.73833704 0.00000000
-0.71392894 0.73682022 0.00000000
0.63360322 0.21606752 0.10200199
0.32363951 -0.28505906 0.00000000
0.42468059 -0.04272242 0.00000000
0.01543520 -0.15368009 0.00000000
0.47985533 -0.30784056 0.00000000
-0.28956679 0.25876939 0.00000000
-0.53371722 -0.75501996 0.00000000
-0.06726998 -0.25963536 0.00000000
0.59997267 0.08492891 0.00000000
0.01551284 0.77802837 0.00000000
-0.46590096 0.26029661 0.00000000
0.35190335 0.06563547 0.00000000
0.31880540 -0.67620903 0.00000000
0.79530382 -0.70887190 0.00000000
0.24087960 -0.79936212 0.00000000
0.61140484 -0.24161208 0.00000000
0.19146962 0.70230055 0.19256094
-0.39760748 0.35130581 0.00000000
0.00544959 0.60915291 0.00000000
0.71474940 0.14881334 0.13052943
-0.06687925 0.12433404 0.00000000
-0.23018287 0.79648298 0.00000000
0.05577920 -0.43987265 0.00000000
0.39724031 0.51854008 0.23775952
0.25687143 0.45490715 0.00000000
0.38539368 -0.78386068 0.00000000
0.04264482 0.33035725 0.00000000
0.15250067 0.11290607 0.00000000
-0.33120140 -0.68020707 0.00000000
0.77740687 -0.18497576 0.00000000
-0.58531892 -0.31303465 0.00000000
0.23887224 0.41085812 0.00000000
0.60181803 0.36367202 0.33983931
0.47955072 0.40310803 0.16974352
-0.78033912 0.27159080 0.00000000
0.47978994 -0.72834611 0.00000000
0.39442101 -0.61202985 0.00000000
-0.62365735 0.64332205 0.00000000
-0.74094176 -0.01774137 0.00000000
0.51100570 -0.47864398 0.00000000
0.28118163 0.05188509 0.00000000
0.32233039 0.06307150 0.00000000
-0.28173271 -0.76959205 0.00000000
0.07033775 -0.79139870 0.00000000
0.09934748 -0.20085207 0.00000000
0.63428080 -0.62104601 0.00000000
-0.79712182 0.01057866 0.00000000
-0.61343288 0.75064421 0.00000000
-0.19655274 -0.38615143 0.00000000
0.19096401 0.57832426 0.00000000
-0.70705557 0.04599664 0.00000000
0.36283454 0.61301893 0.36112070
-0.32504395 0.45690146 0.00000000
-0.38073567 -0.55128658 0.00000000
0.45736510 -0.53656465 0.00000000
-0.01505205 0.50451744 0.00000000
-0.29100654 -0.18662703 0.00000000
-0.19067782 -0.02605265 0.00000000
0.22709435 0.64356178 0.14509590
-0.68914187 -0.58454895 0.00000000
-0.02639989 -0.45168254 0.00000000
0.25169310 0.46031013 0.00000000
-0.65713364 0.26131421 0.00000000
-0.70831877 0.12051442 0.00000000
-0.43652850 -0.01678548 0.00000000
-0.63078529 -0.09794575 0.00000000
0.57822198 0.07412943 0.00000000
-0.29113430 -0.72447270 0.00000000
-0.28801864 0.58745575 0.00000000
0.33739033 -0.78650618 0.00000000
0.54920596 -0.09235577 0.00000000
-0.73262876 0.34368154 0.00000000
-0.62463754 -0.58592826 0.00000000
-0.03192739 0.65605557 0.00000000
0.40133682 -0.40366897 0.00000000
-0.61960268 -0.75002068 0.00000000
-0.44355130 0.00621231 0.00000000
-0.26898801 0.72243387 0.00000000
0.20512196 -0.51450157 0.00000000
0.37478471 0.41951805 0.00000000
0.34028333 0.16659915 0.00000000
0.42206806 -0.27820516 0.00000000
-0.43338609 0.74570316 0.00000000
-0.52127421 0.12964693 0.00000000
-0.18181328 0.27504796 0.00000000
0.12044198 0.18232043 0.00000000
-0.03127753 -0.70390457 0.00000000
-0.46805739 0.71664393 0.00000000
0.28796130 -0.16298991 0.00000000
0.51726478 0.37267327 0.18469170
-0.22529428 -0.63512152 0.00000000
-0.35659578 0.48403743 0.00000000
