ply
format ascii 1.0
element vertex 1375
property float x
property float y
property float z
end_header
-0.52962512 -0.30044663 -0.00000023
-0.14704873 -0.66724783 -0.00000008
0.16258559 0.49425426 0.30255467
0.28894594 0.15361321 -0.00000062
-0.30044609 -0.16399936 -0.00000040
-0.12728290 -0.34440774 -0.00000028
-0.19028738 0.24995206 -0.00000066
0.04625869 0.75004023 0.00781898
0.58957410 0.01256942 -0.00000079
0.36245885 0.33727032 0.21191357
0.71392000 -0.15560663 -0.00000074
0.47647601 0.25858006 0.13725223
-0.18929492 -0.74771279 -0.00000003
0.00199430 -0.36251014 -0.00000027
-0.57899350 -0.66114181 -0.00000009
0.61341262 0.15002006 -0.00000096
0.32778323 0.09110024 -0.00000059
0.07209031 0.62704170 -0.00000089
-0.31464395 0.30400971 -0.00000057
-0.24135675 0.27179730 -0.00000065
0.22887626 0.45709193 0.24099509
0.39163360 0.08659613 -0.00000066
0.72239679 0.06717955 0.02202666
-0.32646647 -0.71050340 -0.00000006
-0.79404378 -0.40809530 0.00000000
-0.09748119 0.60068905 -0.00000086
0.51534849 0.07124016 -0.00000077
0.54542035 0.22185189 0.06916523
-0.46877310 0.47869214 -0.00000041
-0.16170266 0.44093022 -0.00000076
-0.59344375 -0.41303721 -0.00000014
-0.56434238 -0.06692238 -0.00000024
-0.31638807 -0.20283493 -0.00000037
-0.09109642 0.02574051 -0.00000052
-0.34604514 -0.04941085 -0.00000047
-0.33465725 0.34163642 -0.00000056
-0.49697062 0.40417084 -0.00000038
0.23550837 0.41794974 0.30970240
-0.76838279 -0.49536565 0.00000000
0.60050833 -0.20122810 -0.00000057
-0.74574721 -0.66315883 0.00000000
0.60636586 -0.21233410 -0.00000057
-0.69240880 0.37724879 -0.00000013
0.11132288 0.62466621 0.13527925
0.55973971 -0.20352747 -0.00000053
0.60047919 -0.11045442 -0.00000067
-0.74586296 -0.02874411 -0.00000005
0.20239824 0.35409936 -0.00000074
0.44490990 -0.17519960 -0.00000043
0.33735991 0.37077051 0.19415803
-0.57741225 -0.38965535 -0.00000017
0.67739296 -0.59700537 -0.00000023
0.18734786 -0.73099160 -0.00000004
-0.79909301 -0.14629556 0.00000000
0.76569921 -0.07701821 -0.00000088
-0.65118587 -0.05886120 -0.00000015
-0.36181554 -0.28227755 -0.00000032
-0.05163044 0.39099661 -0.00000074
-0.44702560 0.02584758 -0.00000038
-0.69193083 -0.28272876 -0.00000006
-0.03399522 0.21857208 -0.00000064
0.53351748 -0.53480071 -0.00000017
-0.67058891 0.07754540 -0.00000015
0.56463170 -0.42498904 -0.00000030
0.51764113 -0.45674872 -0.00000021
0.41184109 0.24665098 0.29906523
-0.20487285 -0.42340788 -0.00000024
-0.42935270 0.10149374 -0.00000041
0.51843303 0.17139179 -0.00000088
0.36023021 0.22831085 0.44689992
-0.42400932 -0.37483075 -0.00000027
-0.47297776 -0.66321379 -0.00000009
0.46630695 0.22213112 0.23577669
0.11754066 0.64304131 0.08330446
0.61151814 -0.14860985 -0.00000064
-0.22849035 -0.33123842 -0.00000029
0.59531331 -0.75595933 -0.00000003
-0.48929670 0.11933867 -0.00000035
0.41283131 0.33249813 0.11554003
-0.40515068 -0.45633048 -0.00000021
0.03807465 0.19315560 -0.00000062
0.55324817 0.13233224 0.24181612
-0.32449809 -0.44009694 -0.00000022
0.33842370 0.29653898 -0.00000082
-0.14677784 0.48228887 -0.00000079
-0.42171445 0.77534461 -0.00000047
0.19979320 0.13967039 -0.00000059
-0.20022188 0.40346467 -0.00000071
-0.32541266 -0.72815329 -0.00000004
0.24658006 -0.22213085 -0.00000036
0.26132360 0.35306320 0.39227635
0.65904540 -0.00904229 -0.00000084
0.11272074 0.37810576 -0.00000074
-0.41429374 -0.77640069 -0.00000001
0.30608448 0.21224855 -0.00000070
0.08016963 0.44996357 -0.00000078
-0.30189854 -0.67191219 -0.00000008
0.20390542 0.53239721 0.13461763
-0.06069204 -0.29265869 -0.00000032
0.58739984 0.06834485 -0.00000085
0.66471207 -0.12294666 -0.00000072
-0.61442906 -0.29243493 -0.00000014
-0.12232652 -0.08101414 -0.00000045
-0.03906915 0.17918894 -0.00000061
-0.60615259 -0.46184400 -0.00000012
-0.72863269 -0.26528862 -0.00000003
0.12666267 0.65128201 -0.00000098
0.51865190 -0.01470719 -0.00000068
0.25864577 0.45655787 -0.00000091
0.78347534 -0.32026553 -0.00000060
0.69023931 -0.39902106 -0.00000046
0.70436835 -0.54633284 -0.00000032
-0.77433091 0.45518529 -0.00000003
0.49952966 -0.00012601 -0.00000068
0.20060453 0.56175727 0.07954312
0.11970851 -0.28126755 -0.00000032
0.24710505 0.47633797 0.16179565
0.45333475 -0.28387168 -0.00000033
0.49176985 0.23112768 0.16294856
0.03880523 -0.43037611 -0.00000023
-0.49505538 -0.44372261 -0.00000022
-0.52046108 -0.12934718 -0.00000027
-0.53792191 0.07690668 -0.00000029
0.11061107 0.60508573 0.17816521
-0.37049267 -0.66527897 -0.00000008
0.63948351 -0.24214239 -0.00000057
-0.56441349 0.09341244 -0.00000027
-0.41765553 0.63723016 -0.00000048
0.36909047 -0.00734288 -0.00000053
0.70982176 -0.27014133 -0.00000062
-0.45906481 0.56679565 -0.00000043
-0.78487170 0.39039695 -0.00000002
0.21444951 0.54110533 0.09392922
-0.68878210 0.72054332 -0.00000014
0.54375124 0.04541158 -0.00000078
0.19021685 -0.74960899 -0.00000003
0.73000306 -0.46510744 -0.00000042
0.42847499 0.26187989 0.23172557
-0.55957329 -0.38574052 -0.00000019
0.00010415 0.55515528 -0.00000085
-0.00332149 -0.61508209 -0.00000012
-0.29744649 0.06974103 -0.00000054
-0.57932377 -0.05960245 -0.00000022
-0.45742011 -0.71658146 -0.00000005
-0.06747807 -0.56555820 -0.00000015
0.01431075 0.51134855 -0.00000082
0.73766714 -0.09645479 -0.00000083
-0.14458691 -0.11069809 -0.00000043
0.51834345 0.03917241 -0.00000074
0.15631892 -0.66253936 -0.00000009
-0.37188837 0.62953353 -0.00000054
0.32605752 0.42356843 0.10645956
-0.35365182 -0.65492094 -0.00000009
-0.61832374 0.39682555 -0.00000023
-0.00916630 0.61940217 -0.00000089
-0.09708312 -0.47036129 -0.00000021
-0.31894779 -0.63594115 -0.00000010
-0.32483178 -0.02671441 -0.00000048
-0.00180723 -0.28234038 -0.00000032
0.65956300 -0.43126532 -0.00000039
-0.62647039 0.75882304 -0.00000022
-0.21699198 0.19837613 -0.00000062
-0.35566759 0.34927636 -0.00000054
0.59469128 -0.63813549 -0.00000010
-0.50130904 -0.02779259 -0.00000031
-0.10155829 -0.20479633 -0.00000037
-0.15685992 0.75377840 -0.00000080
-0.30431560 0.12320009 -0.00000055
0.14233278 -0.16646104 -0.00000040
0.40916815 0.31126553 -0.00000092
0.08385668 0.44945890 -0.00000078
-0.58171570 -0.51548541 -0.00000014
-0.02683262 0.03743629 -0.00000052
0.47602060 0.19846331 0.26526800
-0.05567944 -0.65910816 -0.00000009
0.22092555 0.55752325 0.04554406
0.44973129 -0.19495729 -0.00000042
-0.48762017 0.17939240 -0.00000037
0.57532692 0.17382848 0.10745408
-0.29035807 -0.43320605 -0.00000023
0.69251347 -0.57182443 -0.00000028
0.59942335 -0.60312903 -0.00000014
0.57080007 0.18846846 0.08608060
-0.67888212 -0.18405305 -0.00000010
0.71400112 -0.47380179 -0.00000040
0.45595682 0.30050850 -0.00000095
-0.27180257 0.72842443 -0.00000066
0.29412517 0.34103099 0.34838244
0.37797850 -0.52024633 -0.00000017
0.16247734 0.48712894 0.31784210
-0.34600717 0.61284000 -0.00000057
-0.70239300 -0.01976392 -0.00000010
0.48916498 0.19518173 0.24442354
0.25069016 0.36351973 -0.00000080
0.33002037 -0.51121145 -0.00000018
-0.59036720 -0.29201418 -0.00000017
0.41135788 -0.47603518 -0.00000020
-0.08526806 0.25925598 -0.00000066
-0.36443087 -0.28733507 -0.00000032
-0.22556913 0.39784265 -0.00000069
-0.69214261 0.44259876 -0.00000013
-0.55725348 -0.64593232 -0.00000010
0.33029443 -0.46489507 -0.00000021
-0.67269266 -0.03718760 -0.00000013
-0.08105850 -0.28986928 -0.00000032
-0.15080048 -0.11974953 -0.00000043
-0.04526434 0.21859746 -0.00000064
0.76823378 -0.46016195 -0.00000042
-0.69344974 -0.58922553 -0.00000001
0.17426576 -0.09571891 -0.00000044
0.36683393 0.27634060 0.33143711
0.55954903 0.14939766 0.19243281
0.46152151 0.24682644 0.19369827
-0.23983227 -0.06361360 -0.00000046
-0.38586998 0.01890056 -0.00000045
-0.28802747 -0.06640755 -0.00000046
-0.35125035 -0.16284727 -0.00000040
-0.53709006 0.24612926 -0.00000033
-0.79090017 -0.57199699 0.00000000
-0.70633209 0.52036768 -0.00000012
0.32892933 0.25874352 0.44873452
0.08375570 -0.53997874 -0.00000016
-0.63164669 -0.14024313 -0.00000015
-0.59535205 -0.69815981 -0.00000006
-0.77435911 0.63938379 -0.00000003
0.00637623 0.26442644 -0.00000067
0.66320032 -0.75429976 -0.00000005
0.63546962 -0.15767121 -0.00000066
0.30791014 0.43692029 0.11659458
-0.79112667 -0.15807626 0.00000000
0.12737624 -0.21117163 -0.00000037
-0.12794466 -0.43432188 -0.00000023
-0.27501962 0.15294401 -0.00000059
-0.74023151 -0.21929900 -0.00000002
0.12079547 0.46914172 -0.00000079
-0.08190375 -0.05610392 -0.00000046
0.33587736 -0.31585562 -0.00000030
-0.76154292 0.38692340 -0.00000005
0.49288279 0.26611322 0.08665653
0.41408038 -0.61891186 -0.00000011
0.52969015 -0.11414919 -0.00000059
0.58161551 -0.65911579 -0.00000009
-0.18803792 -0.75622028 -0.00000003
0.46902856 -0.31015855 -0.00000032
0.21794614 0.46054900 -0.00000087
-0.18941405 -0.77432287 -0.00000002
0.26237926 0.53122497 0.01351400
-0.20527698 0.64766687 -0.00000074
0.03754197 -0.65284401 -0.00000009
-0.59603512 -0.74605834 -0.00000003
0.40427873 0.25343534 0.30070940
-0.28663483 0.56558156 -0.00000064
0.63722855 -0.36718771 -0.00000043
0.55820864 0.06820480 -0.00000081
-0.44178140 0.69462448 -0.00000045
-0.62638509 0.25538230 -0.00000022
0.76152319 -0.41363907 -0.00000048
0.41866434 0.31217459 -0.00000093
0.42669582 0.13618772 -0.00000075
-0.36626020 -0.27691072 -0.00000033
-0.76285022 -0.30848268 0.00000000
-0.58086574 0.64993691 -0.00000027
-0.42695823 -0.33298668 -0.00000029
0.33560857 0.07845775 -0.00000059
0.42813978 -0.63232315 -0.00000010
0.15823308 0.32527781 -0.00000070
0.48458067 0.27051508 0.09489950
-0.44038546 -0.73892045 -0.00000004
-0.35893309 0.19225033 -0.00000051
-0.38412625 -0.48064044 -0.00000020
0.01754689 0.04344405 -0.00000053
0.32877305 -0.01268904 -0.00000049
-0.69094199 -0.64503974 0.00000000
0.46761790 0.27541310 0.12039761
-0.18908840 -0.05098484 -0.00000047
-0.36531571 0.70737201 -0.00000054
0.46323544 0.07917549 -0.00000073
0.41918680 0.01980888 -0.00000061
0.35951349 0.24624512 0.41051221
0.57313263 0.18384410 -0.00000095
-0.32932800 0.03863430 -0.00000051
0.18584432 0.58061314 -0.00000096
-0.12063947 -0.40721914 -0.00000025
-0.57411700 0.52559459 -0.00000028
0.44099462 0.19370793 0.34934258
-0.02631077 -0.27440161 -0.00000033
-0.28509641 0.74023604 -0.00000064
-0.04967868 -0.43121308 -0.00000023
0.37520415 0.00286145 -0.00000055
-0.14361873 0.45337081 -0.00000078
-0.51598495 0.49021441 -0.00000036
-0.19362234 -0.23002329 -0.00000036
-0.74201566 0.77645648 -0.00000007
-0.21522325 -0.01537617 -0.00000049
-0.18832032 0.52073663 -0.00000075
-0.41548473 -0.46461672 -0.00000021
0.02193094 0.52143919 -0.00000083
0.31042796 -0.37978500 -0.00000026
0.64844894 -0.75976491 -0.00000003
-0.08925398 -0.79300290 -0.00000000
-0.63334644 -0.42761177 -0.00000010
-0.27188590 0.53462517 -0.00000066
0.31520745 0.13516872 -0.00000063
0.42064238 -0.67495978 -0.00000008
-0.48512053 0.52377671 -0.00000039
0.38241920 0.28296942 -0.00000086
0.15734465 -0.64528674 -0.00000010
-0.43804628 -0.55578953 -0.00000015
0.79216069 -0.78693295 -0.00000002
-0.31939703 -0.71588790 -0.00000005
-0.69867814 0.44099858 -0.00000013
-0.77194399 -0.13458018 -0.00000001
0.37128761 0.34916702 0.16811150
0.46802318 -0.27577797 -0.00000035
0.30501899 0.27685511 0.46098945
-0.19714810 0.15182334 -0.00000059
0.06470791 0.73371130 -0.00000100
0.17989177 0.49381372 0.26691085
-0.24977095 -0.19268849 -0.00000038
-0.42551079 -0.10900956 -0.00000038
0.15084144 0.61551005 -0.00000096
-0.70845145 0.25384855 -0.00000011
0.50932914 -0.15570131 -0.00000052
-0.24637946 0.35534126 -0.00000066
0.67036760 -0.22253972 -0.00000062
0.34745398 -0.43418720 -0.00000023
0.40585372 0.30806741 0.18191966
-0.55903411 -0.16815419 -0.00000023
-0.74728876 -0.53113180 0.00000000
-0.37113813 0.44709048 -0.00000054
-0.47233349 0.63307005 -0.00000041
0.60794055 -0.18727195 -0.00000060
0.28924060 -0.70729053 -0.00000006
-0.58739477 0.74319589 -0.00000027
-0.10597807 -0.13452327 -0.00000042
0.14165181 0.64712191 0.02372296
0.46243507 0.25671756 0.17086318
-0.44697657 0.29408017 -0.00000043
-0.63338137 0.11983727 -0.00000020
-0.69616055 -0.47240466 -0.00000002
-0.30322766 0.51819754 -0.00000062
0.49071443 0.20756163 0.21498464
0.57453912 -0.32679477 -0.00000041
-0.66401708 -0.76940721 -0.00000000
0.58601606 0.18519661 -0.00000097
-0.15313645 -0.71500224 -0.00000005
0.23210326 0.06196790 -0.00000054
-0.29647794 0.16800781 -0.00000057
-0.45012608 0.35562944 -0.00000044
0.37812409 0.23460957 0.39577121
0.10850261 0.14093277 -0.00000059
-0.29819629 -0.74593526 -0.00000003
0.06178190 0.73677689 0.00304282
-0.35416460 0.10629421 -0.00000050
0.44327781 -0.31331444 -0.00000030
-0.40959507 0.00232447 -0.00000042
0.44948846 -0.37780088 -0.00000026
0.18276304 0.56409848 0.11230207
-0.10675590 0.52022547 -0.00000083
-0.40452635 0.14807059 -0.00000045
-0.42034841 -0.15611094 -0.00000038
-0.67424226 0.44676334 -0.00000016
0.40163243 -0.72528553 -0.00000005
-0.78217691 -0.75955713 0.00000000
-0.24310128 -0.29468808 -0.00000032
0.01508594 0.73778254 -0.00000096
-0.69669372 0.74233800 -0.00000013
0.11873115 -0.11237848 -0.00000043
-0.67573506 -0.49486184 -0.00000004
-0.77517319 -0.69127101 0.00000000
0.66878158 -0.40030175 -0.00000043
0.22913535 0.48269269 0.18634266
-0.08448482 0.11722146 -0.00000057
0.38728049 0.08442072 -0.00000065
-0.34107047 0.02300347 -0.00000049
-0.17929816 0.07124972 -0.00000054
-0.30310079 -0.37638029 -0.00000026
-0.55067641 0.23119552 -0.00000031
-0.05265500 -0.68240249 -0.00000007
-0.15449521 -0.67506564 -0.00000008
0.13766620 0.36502507 -0.00000073
0.27115214 0.15524389 -0.00000060
-0.26504016 0.54451632 -0.00000067
-0.74417830 -0.36180303 0.00000000
-0.15668476 0.18017650 -0.00000061
0.34700930 -0.21833672 -0.00000036
-0.38834327 -0.38780683 -0.00000026
-0.72036093 -0.67316639 0.00000000
0.14624022 -0.28198034 -0.00000032
0.33678377 0.30162704 0.34150448
0.69810408 0.06612345 0.07560000
0.03469214 0.62315840 -0.00000089
0.48478413 0.23303740 0.17367643
-0.45293605 0.63334268 -0.00000043
0.25966784 0.33402207 0.43601727
0.34382218 0.37940323 0.16225557
0.14548175 -0.19144148 -0.00000038
0.31943142 0.39291525 0.18524718
0.43929791 -0.28053752 -0.00000032
-0.28836003 0.48847458 -0.00000064
-0.23664488 0.47793734 -0.00000069
-0.26894549 -0.33074939 -0.00000029
0.72806561 -0.54762685 -0.00000032
0.01416889 0.74695593 -0.00000097
-0.78213924 -0.70064223 0.00000000
-0.20161320 -0.64485878 -0.00000010
0.44537717 0.32390505 0.06491723
0.37305465 -0.34740502 -0.00000028
-0.42567122 0.45449609 -0.00000047
-0.72027487 -0.06041789 -0.00000007
0.40744245 -0.41191143 -0.00000024
-0.36012641 0.50977021 -0.00000055
-0.34608200 -0.20508811 -0.00000037
0.70369726 -0.39310151 -0.00000048
0.58054703 -0.78460109 -0.00000001
0.16294096 -0.47890779 -0.00000020
-0.74355417 0.26332530 -0.00000007
0.46429962 0.10308537 -0.00000075
-0.75925285 -0.71654612 0.00000000
-0.20420967 0.17474426 -0.00000061
0.65332013 0.09307305 0.11329182
0.34275395 -0.54560411 -0.00000016
0.23659948 -0.49880552 -0.00000019
0.11695520 -0.10361412 -0.00000044
-0.10025722 -0.52577686 -0.00000017
0.15519223 0.49802721 -0.00000084
0.50216323 0.28683501 0.02324847
-0.28565195 -0.56100053 -0.00000015
-0.73774344 0.41936359 -0.00000008
0.47334754 0.13631798 -0.00000080
-0.46483105 0.25471911 -0.00000040
-0.69014752 -0.32133910 -0.00000006
-0.54311347 0.41845793 -0.00000032
0.19818580 0.53926367 -0.00000093
-0.26333463 0.79958826 -0.00000067
0.73014712 -0.34035623 -0.00000056
0.59145248 0.06454664 -0.00000085
-0.45977563 0.57973510 -0.00000043
-0.51006591 -0.02583805 -0.00000030
0.35213926 -0.17639072 -0.00000039
0.20814846 0.20183873 -0.00000063
0.51137316 -0.60300350 -0.00000012
0.39369285 -0.02780508 -0.00000054
-0.67366219 -0.22334933 -0.00000009
-0.61503351 -0.74395603 -0.00000004
-0.23079856 0.44942281 -0.00000069
0.12141711 -0.02994702 -0.00000048
0.79706252 -0.53773141 -0.00000033
0.10584068 0.62858933 0.13857420
-0.32173362 0.61409068 -0.00000060
0.61802638 0.00956945 -0.00000082
0.69099522 -0.61641181 -0.00000023
0.06150839 0.71631658 0.04686248
0.11446710 -0.78150147 -0.00000001
0.12223086 0.19499142 -0.00000062
-0.49790916 0.57216603 -0.00000038
0.24360304 0.27095211 -0.00000070
-0.06442118 0.31290463 -0.00000070
0.57279068 -0.29103529 -0.00000045
-0.53598279 -0.74850893 -0.00000003
0.14308983 0.57290530 0.17753512
0.14911219 0.44041860 -0.00000078
-0.69851267 0.07978238 -0.00000012
0.63959992 0.13413104 0.05551504
-0.50885701 -0.73205829 -0.00000004
-0.58198172 -0.51094419 -0.00000014
0.16415101 -0.75598478 -0.00000003
-0.58054948 0.13319395 -0.00000026
0.01306193 0.30839160 -0.00000069
0.46010125 0.17630464 0.34574288
-0.58656198 -0.37489587 -0.00000016
-0.45988387 0.76667774 -0.00000043
-0.56545389 0.41144487 -0.00000029
-0.48067412 -0.65044332 -0.00000009
-0.23484682 -0.62271088 -0.00000011
-0.06078905 -0.06418958 -0.00000046
-0.54637557 0.14180630 -0.00000030
-0.50964391 -0.61854273 -0.00000011
0.25406978 0.07273090 -0.00000055
-0.18201317 -0.29036975 -0.00000032
-0.07363741 -0.54472005 -0.00000016
0.05688926 -0.26756865 -0.00000033
0.34068149 0.42513898 0.07223339
-0.53799915 -0.04383319 -0.00000027
0.12081056 0.36005187 -0.00000073
0.40069994 -0.69884467 -0.00000006
-0.16439453 0.70071930 -0.00000079
0.22974208 0.18436819 -0.00000062
-0.24182561 0.30515537 -0.00000065
0.55503809 0.20797746 0.07816140
0.27451101 0.32643554 0.42068124
0.39906615 -0.05113392 -0.00000052
0.14502051 0.41988862 -0.00000076
-0.46796003 0.59388435 -0.00000042
0.33697584 0.45897490 0.00855478
0.25399646 -0.28000975 -0.00000032
0.15647107 -0.18154249 -0.00000039
0.13932943 0.54896593 0.23607603
-0.06703778 -0.59736323 -0.00000013
-0.42048058 -0.72528660 -0.00000005
0.40195933 0.08512293 -0.00000067
0.18911231 -0.03174169 -0.00000048
0.23249751 -0.37976867 -0.00000026
0.05407152 -0.41145337 -0.00000024
-0.49786258 0.64769024 -0.00000038
-0.79836059 -0.79758769 0.00000000
0.45392048 -0.67276448 -0.00000008
0.12042634 0.57747108 0.21578281
-0.51453394 -0.44962448 -0.00000022
-0.78396052 -0.75745189 0.00000000
0.15110372 -0.54938334 -0.00000016
0.24209344 0.53855366 -0.00000098
-0.45095694 -0.36892813 -0.00000027
-0.06243006 0.13086134 -0.00000058
-0.41638327 -0.53925133 -0.00000016
-0.41307309 -0.69493979 -0.00000007
0.64376479 0.13377646 0.04746225
-0.50836891 -0.13689514 -0.00000029
-0.67314810 -0.71326745 -0.00000000
0.64357483 -0.05493696 -0.00000077
0.29331860 0.38689861 0.25314999
0.57545906 -0.29574269 -0.00000044
0.16948235 0.22530580 -0.00000064
-0.60640615 0.37129518 -0.00000024
-0.59113246 -0.22181997 -0.00000018
-0.21580990 -0.33996823 -0.00000029
-0.21201257 0.25509384 -0.00000066
-0.35933816 -0.05762308 -0.00000046
0.34018472 0.24813826 -0.00000077
0.27695718 0.05959693 -0.00000054
-0.63915437 0.57523978 -0.00000020
-0.51526773 -0.65705520 -0.00000009
-0.55116516 -0.50784403 -0.00000017
0.29867670 -0.75116307 -0.00000003
-0.42870113 0.51102328 -0.00000046
0.11121222 0.26140267 -0.00000066
-0.67107236 -0.38027784 -0.00000007
0.15044588 -0.03328925 -0.00000048
0.67218071 -0.52414894 -0.00000030
-0.29780951 -0.49122056 -0.00000019
-0.16511086 -0.34317437 -0.00000029
0.03458251 -0.32317227 -0.00000030
0.12339188 0.58882254 0.18552507
0.47671628 -0.35983363 -0.00000028
0.37869287 0.21479313 -0.00000078
0.40178967 0.39670405 -0.00000100
-0.61105150 0.64493960 -0.00000024
-0.21245649 -0.68268591 -0.00000007
-0.70590842 0.06455658 -0.00000011
-0.12194759 -0.05403839 -0.00000047
-0.42493257 -0.30362701 -0.00000031
0.31377977 -0.35565493 -0.00000028
-0.00870449 0.18012992 -0.00000061
-0.71674484 0.17482424 -0.00000010
0.30473322 0.37634939 0.25132111
0.40627980 0.36264387 0.06567492
0.34394491 -0.64429539 -0.00000010
-0.45452645 0.72299767 -0.00000043
-0.36308715 -0.79374093 -0.00000000
-0.54254866 0.36977634 -0.00000032
0.19864511 0.27154258 -0.00000067
0.32208803 -0.60876584 -0.00000012
-0.77727860 0.67905945 -0.00000003
-0.25529641 -0.47724470 -0.00000020
0.25218949 -0.65623921 -0.00000009
-0.57559556 0.08804581 -0.00000026
-0.37701088 -0.09404752 -0.00000043
0.22471395 -0.20044415 -0.00000037
-0.65695447 0.10805054 -0.00000017
-0.24105687 0.45949069 -0.00000068
-0.06987220 0.20788150 -0.00000063
0.77804828 -0.30811110 -0.00000061
-0.62548637 -0.42908591 -0.00000011
0.26516247 0.00788602 -0.00000050
0.21769509 0.38456446 0.41790578
-0.66379762 0.06593488 -0.00000016
-0.37238652 0.10843511 -0.00000048
-0.01652484 0.23357679 -0.00000065
0.57292444 -0.17246836 -0.00000057
0.10999761 0.58805144 0.21546219
-0.62001169 0.48431113 -0.00000022
0.72989064 -0.05400894 -0.00000087
-0.25966036 -0.47759831 -0.00000020
0.43526286 -0.18267515 -0.00000042
0.37770447 -0.30545166 -0.00000031
-0.06571700 -0.21537283 -0.00000037
0.55374914 0.16093692 0.18030302
0.46892178 -0.01635517 -0.00000063
0.07153991 -0.00000760 -0.00000050
-0.23464893 0.64587945 -0.00000071
0.31706291 0.30979809 0.36591375
-0.70910144 0.39372331 -0.00000011
-0.29764178 -0.25381657 -0.00000034
-0.33584014 -0.50440627 -0.00000018
0.32770151 -0.61672539 -0.00000011
-0.57528239 -0.68730366 -0.00000007
-0.72754872 0.28612107 -0.00000009
-0.52545208 -0.58712554 -0.00000013
0.33873662 0.05914927 -0.00000057
-0.11584841 0.36932626 -0.00000073
-0.64874601 0.46871462 -0.00000019
0.40980291 -0.30097306 -0.00000031
-0.15364464 -0.13411513 -0.00000042
-0.53648114 0.14520530 -0.00000031
-0.24198368 -0.32370639 -0.00000030
-0.24652798 -0.05896352 -0.00000046
0.32367310 0.42663470 0.10501855
-0.79553121 0.08793343 -0.00000001
0.18642230 0.49170166 0.25757286
0.56787479 -0.25980797 -0.00000048
-0.30504617 0.40521979 -0.00000060
-0.64055979 0.30910608 -0.00000020
-0.64412534 0.01726886 -0.00000017
0.49711415 0.23960349 0.13374054
0.76873022 -0.05739028 -0.00000091
0.19350806 -0.10889299 -0.00000043
0.57812220 0.12165293 0.21181647
0.13880149 0.55053729 -0.00000088
0.61156976 0.08799992 -0.00000089
0.30329499 0.42686370 0.14760248
0.14625236 0.38161990 -0.00000074
0.72897619 -0.02141054 -0.00000090
-0.72630554 -0.30748215 -0.00000002
0.72360265 -0.67799973 -0.00000015
0.31033924 -0.73643512 -0.00000004
0.49386036 -0.70937920 -0.00000006
-0.37585959 0.71957356 -0.00000053
-0.10203962 0.69659609 -0.00000087
0.27075887 -0.74078184 -0.00000004
-0.63462096 -0.57255995 -0.00000007
-0.43546477 -0.14406762 -0.00000036
-0.36887702 0.32830456 -0.00000052
0.68629247 0.01823689 -0.00000090
0.02724031 -0.22861019 -0.00000036
0.38841450 -0.01412690 -0.00000055
0.50826311 0.27248707 0.04068031
0.68189192 -0.73436219 -0.00000008
-0.51017344 -0.75447416 -0.00000003
-0.33721504 0.72764587 -0.00000058
-0.49436027 0.65741551 -0.00000038
-0.08404747 -0.29526088 -0.00000032
-0.68526351 0.77421176 -0.00000014
-0.25996324 -0.76932710 -0.00000002
-0.29397801 0.19197838 -0.00000058
0.21891619 -0.47862604 -0.00000020
-0.12870838 0.37155432 -0.00000073
0.13285813 -0.08006053 -0.00000045
-0.57493126 0.56827831 -0.00000028
-0.66974592 -0.43431446 -0.00000006
-0.79662722 0.78294361 -0.00000000
-0.07213319 0.34475771 -0.00000072
-0.42269179 0.61321199 -0.00000047
-0.01550078 0.08572486 -0.00000055
0.09720767 -0.72390777 -0.00000005
0.21139640 0.08967683 -0.00000056
0.46518496 0.29490346 0.08434778
0.24209566 0.38012737 -0.00000081
0.24044947 -0.43468353 -0.00000023
0.53363842 -0.74749494 -0.00000003
0.16437933 0.58251214 0.11223860
-0.39872205 -0.09827076 -0.00000041
0.45285398 0.12782352 -0.00000077
-0.02529796 -0.45522377 -0.00000022
0.13719764 0.55080032 0.23670450
-0.70919991 -0.75031537 0.00000000
-0.38910893 0.44164878 -0.00000051
0.46578416 0.30139935 -0.00000096
-0.05808384 -0.15381145 -0.00000040
-0.67099524 0.75303805 -0.00000016
0.77847379 -0.63570011 -0.00000021
-0.33718860 0.46013391 -0.00000058
0.15372144 0.55306810 -0.00000090
0.72961348 -0.24738903 -0.00000066
0.34929949 -0.79861540 -0.00000000
-0.40466851 0.62495643 -0.00000049
0.53188956 -0.00904149 -0.00000070
-0.79219043 -0.30229321 0.00000000
-0.75848925 -0.39342231 0.00000000
0.10122425 -0.13900059 -0.00000041
0.53544247 0.16484353 0.21073677
0.49950948 -0.03008402 -0.00000065
-0.26014811 0.37908655 -0.00000065
-0.08952290 -0.42453879 -0.00000023
0.61775929 -0.30460763 -0.00000048
0.31655037 0.09000902 -0.00000058
-0.79530042 0.52081573 -0.00000001
0.49940464 -0.63193256 -0.00000011
-0.70302820 0.77123475 -0.00000012
-0.72468895 -0.71931642 0.00000000
0.16298762 0.49471036 0.30074102
0.28479433 0.43262348 -0.00000091
0.14442296 0.64166975 -0.00000099
-0.32517537 0.51552999 -0.00000059
-0.52628011 -0.71932948 -0.00000005
0.24595647 -0.09263566 -0.00000044
0.58355272 0.19049920 0.05483664
-0.07595675 0.74713260 -0.00000091
0.31745008 0.38947806 0.19669896
-0.30596346 -0.10196456 -0.00000044
-0.06126210 -0.61751395 -0.00000011
0.01681767 0.45202717 -0.00000078
-0.13667187 -0.23172107 -0.00000036
0.68454808 -0.01013750 -0.00000087
-0.25064924 -0.70833898 -0.00000006
0.31733280 -0.56859851 -0.00000014
0.23956493 0.50169241 0.12414616
0.10863633 0.66491073 0.05590369
0.37966678 0.41706333 0.00690762
-0.58975542 -0.41364965 -0.00000015
-0.16128244 -0.24449372 -0.00000035
0.05727006 -0.55434239 -0.00000015
0.26089162 0.31443486 -0.00000076
0.41021857 0.30183607 -0.00000091
-0.63488203 -0.04171094 -0.00000017
0.07801871 0.68011099 0.08848674
-0.61324883 0.54867047 -0.00000023
-0.58352661 0.67033815 -0.00000027
-0.02542617 0.77910537 -0.00000097
-0.21994074 -0.56632459 -0.00000015
0.32346737 -0.65786809 -0.00000009
0.33818772 0.41456708 0.09984694
0.02447265 0.11319025 -0.00000057
0.48730320 0.28893232 -0.00000097
0.43656382 0.29316539 0.14851019
-0.38139921 -0.30384561 -0.00000031
0.37239844 -0.30901366 -0.00000031
-0.06304927 -0.65733039 -0.00000009
0.32763007 0.29063258 0.38408571
0.73401815 -0.42061695 -0.00000047
0.01544845 0.77127409 0.02805774
0.66905642 0.03601137 -0.00000090
-0.70534414 0.15278225 -0.00000012
0.16649102 0.51342225 0.25379103
0.45897886 0.29592073 0.09531403
-0.37477481 0.79562807 -0.00000053
0.08173832 0.58240032 -0.00000086
-0.41190842 0.13686323 -0.00000044
0.73398638 -0.71816498 -0.00000010
-0.27528781 0.36396605 -0.00000063
0.79535323 -0.45186630 -0.00000044
0.74712598 -0.03443056 -0.00000091
-0.17946237 -0.01542199 -0.00000049
-0.67480212 -0.00263418 -0.00000013
-0.34467313 0.58675003 -0.00000057
-0.18783963 -0.57793558 -0.00000014
0.43903285 0.21171761 0.31542668
0.04544375 0.58892101 -0.00000087
0.43742359 -0.53610814 -0.00000016
0.05881756 0.04832188 -0.00000053
-0.57998723 -0.03894275 -0.00000023
-0.25009370 0.13786882 -0.00000059
0.23225681 0.56672543 0.00214788
-0.37276390 -0.36128217 -0.00000027
0.08589477 0.45889708 -0.00000079
0.25571063 0.54127926 -0.00000100
0.14688487 0.55997157 0.19684893
-0.61963427 0.24693780 -0.00000023
-0.40117845 0.59591395 -0.00000050
0.62162822 0.16690117 0.02423942
0.49729738 -0.43072176 -0.00000023
-0.72117466 0.13943139 -0.00000010
0.74953502 -0.61488497 -0.00000023
0.01378715 0.60001385 -0.00000088
-0.41152367 -0.45678082 -0.00000021
-0.54294449 -0.50516862 -0.00000018
0.08023276 0.27632186 -0.00000067
0.35136336 -0.19200279 -0.00000038
0.73620760 -0.54222184 -0.00000032
0.05037876 -0.46483430 -0.00000021
0.33622548 0.30100748 0.34399372
-0.21388815 0.39120561 -0.00000070
0.24520490 0.48064530 0.15670827
0.71669453 -0.65841901 -0.00000018
0.33571544 -0.04711069 -0.00000047
-0.70902407 -0.31559333 -0.00000004
0.52668905 -0.55167079 -0.00000016
-0.55747777 -0.55960906 -0.00000015
-0.73795873 -0.35323736 -0.00000000
0.43202966 -0.51157826 -0.00000018
-0.70561934 0.50873566 -0.00000012
0.74844462 -0.57433814 -0.00000028
0.71945858 0.01055652 -0.00000093
0.28241852 0.46562293 0.10980831
0.12590760 0.58134985 0.19600126
0.52877879 0.01010748 -0.00000072
0.75455004 -0.45294192 -0.00000043
0.12743431 0.66903108 0.00746712
0.39724994 -0.19681042 -0.00000038
-0.55624253 -0.44230756 -0.00000018
-0.35343885 0.54053497 -0.00000056
-0.30072582 0.23771420 -0.00000058
-0.15466854 0.21092346 -0.00000063
0.14177711 -0.06836626 -0.00000046
-0.51710898 0.06286386 -0.00000031
0.74461377 -0.78815091 -0.00000001
0.28331214 -0.09751519 -0.00000044
0.55318332 -0.41072586 -0.00000030
0.10471335 -0.05380740 -0.00000047
0.20235184 0.42705548 0.36053121
0.03288964 0.43888071 -0.00000077
-0.37370786 0.53561229 -0.00000053
-0.73602492 0.76311362 -0.00000008
0.31817850 -0.09134485 -0.00000044
-0.62347931 -0.14314856 -0.00000016
0.61305922 -0.15663797 -0.00000063
0.03456313 -0.40284413 -0.00000025
0.05474004 -0.67540860 -0.00000008
-0.71521431 -0.46626076 -0.00000001
0.17225043 0.54028046 -0.00000091
0.61939627 0.16609848 0.03065299
0.18858594 -0.07361714 -0.00000045
0.20361660 -0.47160959 -0.00000021
-0.49931476 -0.06103987 -0.00000031
-0.37412986 -0.70312858 -0.00000006
-0.21817911 0.37467945 -0.00000069
0.32982868 -0.44473016 -0.00000022
0.11447446 -0.36464411 -0.00000027
0.10659120 -0.11570283 -0.00000043
0.33839846 0.43403354 -0.00000097
0.19298624 0.53954196 0.14259449
-0.73489338 0.24179348 -0.00000008
0.52742112 -0.17501479 -0.00000052
0.21147458 -0.35467243 -0.00000028
-0.72100592 -0.10641054 -0.00000006
-0.49728113 0.27729520 -0.00000037
0.21869795 0.58119005 0.00023358
-0.20654850 -0.42729944 -0.00000023
0.56168705 0.17185993 0.14044160
0.08556997 -0.03532280 -0.00000048
-0.11519654 0.50192535 -0.00000081
-0.65434492 0.61593699 -0.00000018
-0.19261397 -0.78367805 -0.00000001
-0.41133058 0.40265813 -0.00000049
-0.07663496 0.34206977 -0.00000071
-0.72162360 0.50244176 -0.00000010
0.77209032 -0.32379127 -0.00000060
-0.60991764 0.21348156 -0.00000024
0.06615029 -0.77462536 -0.00000002
-0.78754264 -0.35923287 0.00000000
0.25578004 0.23754798 -0.00000067
0.18283243 0.43868685 -0.00000081
-0.10223637 -0.10337459 -0.00000044
0.34847000 0.43816388 0.02824548
-0.01611258 -0.75155824 -0.00000003
0.39560002 -0.46222648 -0.00000021
-0.25151518 0.57099265 -0.00000069
-0.18791923 -0.64345491 -0.00000010
0.14630713 0.24380866 -0.00000065
0.74642652 -0.56731850 -0.00000029
-0.58766782 -0.25701088 -0.00000018
-0.09442139 0.59821153 -0.00000086
-0.24690349 -0.68877590 -0.00000007
0.04585150 -0.09385139 -0.00000044
-0.12871122 -0.29658246 -0.00000031
-0.12104496 0.14590564 -0.00000059
0.54404217 0.14169209 0.24149102
-0.23515660 -0.73737538 -0.00000004
0.20070818 0.56331384 0.07603428
0.59168154 0.18718682 0.04465745
0.28693148 -0.46615386 -0.00000021
0.24208787 -0.13983078 -0.00000041
-0.76348621 -0.14358400 -0.00000001
0.40447935 0.37829763 0.03639678
0.64117229 0.11976054 -0.00000096
0.34410611 -0.18018065 -0.00000039
0.60936069 -0.52872425 -0.00000023
0.23905016 0.53150153 0.06223414
-0.02724009 0.40426216 -0.00000075
0.48339000 -0.17051256 -0.00000048
0.17285299 -0.75763458 -0.00000003
0.55208534 -0.05274019 -0.00000068
0.39876768 0.26381335 0.29042348
0.28878459 0.35334966 0.33363482
0.03680004 0.46705487 -0.00000079
-0.48013988 0.66779882 -0.00000040
0.42264488 0.36044312 -0.00000098
0.01579824 0.46918908 -0.00000079
-0.51002860 0.12944323 -0.00000033
-0.06330975 -0.08649061 -0.00000045
0.05142470 -0.60040331 -0.00000012
0.38445321 0.41045883 -0.00000099
0.31140509 -0.15152088 -0.00000041
-0.43739244 0.08548754 -0.00000040
0.32144648 -0.73060507 -0.00000004
0.46245286 -0.61002594 -0.00000012
0.53489769 -0.03515383 -0.00000068
-0.59003192 0.33437696 -0.00000026
0.11633294 0.39387652 -0.00000075
-0.21929108 -0.48122993 -0.00000020
-0.00793783 -0.43954629 -0.00000023
0.56864285 0.03292287 -0.00000079
-0.67724931 -0.37518033 -0.00000006
0.50780720 -0.67655969 -0.00000008
0.28404853 0.44486386 0.15023649
-0.10808411 0.05408256 -0.00000053
0.20559596 -0.69094181 -0.00000007
-0.56424850 0.32250082 -0.00000029
-0.01932224 -0.78688163 -0.00000001
0.36244938 0.42197862 0.03290747
0.49302089 -0.47517842 -0.00000020
-0.13852891 -0.50280535 -0.00000019
-0.30097130 0.02520321 -0.00000052
0.41418660 0.36574557 0.04240915
0.69231582 -0.18549141 -0.00000069
0.50006485 -0.60419458 -0.00000012
-0.09921144 0.15588629 -0.00000060
0.33806279 -0.49155840 -0.00000019
-0.61496413 0.16265889 -0.00000023
0.19527736 0.18492691 -0.00000062
0.63809580 0.09254089 -0.00000093
-0.26362103 0.07614745 -0.00000055
-0.46274307 0.27422550 -0.00000041
-0.47995642 0.39000013 -0.00000040
0.79285723 -0.36718172 -0.00000054
0.58730221 0.09655884 -0.00000088
0.01120398 -0.65789962 -0.00000009
-0.70559973 0.70149994 -0.00000012
-0.74832118 -0.75984675 0.00000000
-0.33187628 0.49286988 -0.00000059
0.08269189 0.54569364 -0.00000084
-0.49805531 -0.19132996 -0.00000029
-0.73025441 0.49787638 -0.00000009
-0.77122170 -0.66388762 0.00000000
-0.65186459 -0.24449469 -0.00000011
0.73405290 0.04075497 0.05323904
0.47053292 0.21714874 0.23737533
0.15668599 -0.74828225 -0.00000003
-0.51987368 0.22508994 -0.00000034
0.30794111 -0.53473550 -0.00000017
0.23233381 0.11814381 -0.00000057
-0.29987553 0.64602339 -0.00000063
0.11443738 0.40059671 -0.00000075
0.40955853 -0.70868444 -0.00000006
-0.74447459 0.39218935 -0.00000007
0.29070488 0.48913115 0.04261234
0.24613824 0.45710725 -0.00000090
-0.46808949 -0.02896073 -0.00000035
-0.38912210 0.33125910 -0.00000050
-0.08310978 0.38842213 -0.00000074
-0.64003527 -0.64880598 -0.00000005
0.73786348 0.04322705 -0.00000098
-0.12685253 0.73514557 -0.00000084
-0.47199655 -0.42088357 -0.00000024
-0.36656800 0.05995504 -0.00000047
-0.54934967 0.79695112 -0.00000031
0.52199394 -0.28248838 -0.00000040
-0.67968261 0.52416664 -0.00000015
0.13562600 -0.24327238 -0.00000035
0.27245849 0.28848678 0.50522029
0.22523992 0.36923468 0.43435860
0.18564402 0.58062047 0.07129498
0.23005651 -0.39333445 -0.00000025
0.15551543 -0.33739072 -0.00000029
0.07704936 0.49801171 -0.00000081
-0.17566365 -0.21469346 -0.00000037
0.45473105 0.20923494 0.28749701
0.75670516 -0.40901399 -0.00000049
-0.44906124 -0.74398601 -0.00000004
-0.14707151 -0.77748895 -0.00000001
0.18578997 0.48194495 0.27952912
0.13799767 -0.57955420 -0.00000014
0.21692567 0.44713664 0.28729117
0.10239677 -0.67824107 -0.00000008
-0.26480713 0.42932570 -0.00000065
-0.77781904 0.73367631 -0.00000003
0.13270161 0.61005735 0.12097207
0.08020574 -0.61382204 -0.00000012
-0.36951098 -0.35135704 -0.00000028
-0.79486710 0.31857243 -0.00000001
0.18748486 -0.38659129 -0.00000026
0.35642254 0.40801555 0.07515499
-0.76811075 0.75170308 -0.00000004
0.16171858 -0.13848622 -0.00000041
-0.54770368 0.73773181 -0.00000032
-0.40111521 0.03323818 -0.00000043
-0.76143366 0.15724792 -0.00000005
-0.69722122 0.35560128 -0.00000013
0.54014707 -0.46428633 -0.00000023
-0.59850776 0.22123910 -0.00000025
-0.76985550 0.52848285 -0.00000004
0.28386313 0.47597161 0.08488388
-0.28847921 -0.76086020 -0.00000002
0.17771623 -0.01619262 -0.00000049
-0.67394406 -0.43180487 -0.00000006
0.50876963 0.13149385 -0.00000083
0.44387800 0.18735111 0.35668343
0.17198130 -0.62834436 -0.00000011
0.11677267 -0.46406600 -0.00000021
0.34754083 0.38192508 0.14906661
-0.24794556 0.05097192 -0.00000053
-0.03080003 -0.43652302 -0.00000023
0.43026757 0.29938307 0.14867629
0.62426883 0.14626653 0.06226877
-0.72181940 0.16095687 -0.00000010
0.11572833 0.62507570 0.12510338
0.21988431 0.27040836 -0.00000067
-0.41524926 0.53898358 -0.00000048
-0.75076342 -0.39414749 0.00000000
-0.09370211 -0.06531836 -0.00000046
0.40267801 -0.51604134 -0.00000018
0.44239625 0.20545587 0.32155213
-0.55064231 0.28006187 -0.00000031
-0.76207095 0.78859347 -0.00000005
-0.69444293 0.77524614 -0.00000013
0.56364506 -0.26894829 -0.00000046
-0.14620751 -0.06994108 -0.00000046
0.03002700 0.28406250 -0.00000068
0.35254812 -0.23879230 -0.00000035
0.11128703 -0.20844336 -0.00000037
-0.40023515 0.55087066 -0.00000050
0.78370482 0.01286177 0.00725318
-0.53925693 -0.71452790 -0.00000005
0.60408258 -0.45413497 -0.00000031
-0.66684401 -0.12038278 -0.00000012
-0.49867925 -0.19371496 -0.00000029
-0.19378106 -0.26791844 -0.00000033
-0.64467496 -0.11620050 -0.00000014
0.19065885 0.20385079 -0.00000063
0.54057533 -0.10067223 -0.00000062
-0.52750945 0.74915808 -0.00000034
0.46558312 0.22982436 0.22104719
0.53091937 0.16770807 0.21424206
-0.56534380 -0.15040594 -0.00000022
-0.12348511 -0.55087364 -0.00000016
-0.31010383 0.25183129 -0.00000057
-0.49659380 0.50712538 -0.00000038
0.78619438 -0.17393915 -0.00000078
-0.48092973 -0.32650906 -0.00000028
0.24099836 0.38671583 0.36410990
-0.00436731 0.30117032 -0.00000069
-0.60505223 0.19638591 -0.00000024
-0.38632435 0.33481732 -0.00000050
-0.39500022 -0.74256086 -0.00000004
-0.63605088 0.57954049 -0.00000020
-0.72760934 0.33447623 -0.00000009
-0.14676654 0.20847079 -0.00000063
0.25720417 0.52020013 -0.00000098
-0.08267942 -0.47914362 -0.00000020
-0.61723566 -0.27144280 -0.00000015
-0.25056303 0.75460315 -0.00000069
0.22803460 -0.44041297 -0.00000022
-0.76189494 0.08072443 -0.00000005
-0.21930918 -0.15941584 -0.00000040
-0.43614331 0.51234823 -0.00000045
0.43770558 0.04947523 -0.00000067
0.46152383 -0.78139520 -0.00000001
-0.52127773 -0.78203279 -0.00000001
-0.25397077 0.23412994 -0.00000063
-0.19881533 -0.63375604 -0.00000010
0.18433841 0.41461292 -0.00000079
0.49127421 -0.65929067 -0.00000009
0.55555630 0.23307087 -0.00000099
-0.27599946 0.09973119 -0.00000056
0.24129432 0.23868205 -0.00000066
-0.69620436 -0.77425843 0.00000000
-0.09767301 -0.37620544 -0.00000026
-0.22554934 -0.13312414 -0.00000042
0.15338561 0.32105941 -0.00000070
-0.38055292 -0.60942197 -0.00000012
-0.45347929 0.66290432 -0.00000043
-0.41119224 0.34416959 -0.00000048
-0.28723270 -0.24687380 -0.00000035
0.49214023 0.23144092 0.16150376
0.10693379 -0.37728783 -0.00000026
0.78542334 -0.10206950 -0.00000087
-0.24479674 -0.69611776 -0.00000006
-0.63440847 0.07127371 -0.00000019
-0.38108635 0.08620015 -0.00000046
-0.74880725 -0.05385250 -0.00000004
0.69865161 0.07967966 0.04579258
0.07502517 0.60582489 -0.00000088
-0.04495119 -0.49941421 -0.00000019
0.12256110 -0.68942547 -0.00000007
0.41042522 -0.32979861 -0.00000029
0.56946546 0.14891154 0.17250250
-0.44927594 0.46219999 -0.00000044
0.41677988 -0.02363895 -0.00000057
0.18708710 0.60619020 -0.00000099
-0.61640275 -0.52664828 -0.00000010
0.26341403 -0.28675875 -0.00000032
-0.49984127 -0.47644359 -0.00000020
0.17880537 0.50151545 0.25292993
-0.43221113 0.09423390 -0.00000041
0.22510564 0.41114458 0.34606957
-0.31436485 -0.04230842 -0.00000047
-0.60206944 0.00756172 -0.00000021
0.31952503 -0.16451301 -0.00000040
-0.52172446 -0.57552207 -0.00000014
-0.46240339 -0.59392679 -0.00000013
-0.37531963 -0.58676517 -0.00000013
-0.45966652 0.13068125 -0.00000039
-0.78902048 -0.10193368 0.00000000
0.17932150 -0.07464730 -0.00000045
0.57851660 0.20279224 -0.00000098
0.25929257 0.50797880 -0.00000097
0.26101112 -0.71479583 -0.00000005
-0.44406092 -0.49398333 -0.00000019
0.15080234 -0.64102900 -0.00000010
-0.21054453 0.20742574 -0.00000063
-0.69516706 0.00411285 -0.00000011
-0.29904261 -0.71948993 -0.00000005
-0.51690185 -0.62595361 -0.00000011
-0.57854956 -0.70136946 -0.00000006
-0.00393872 0.22423995 -0.00000064
0.18017098 -0.19633161 -0.00000038
-0.15006825 0.45998394 -0.00000078
0.40428254 -0.00776720 -0.00000057
0.29782462 0.36785981 0.28386378
-0.05224378 0.62345791 -0.00000089
-0.22385176 0.05207257 -0.00000053
-0.12876877 0.15279540 -0.00000060
0.29003459 0.48314750 0.05667503
-0.30541781 0.68764675 -0.00000062
-0.79185575 0.45244524 -0.00000001
-0.22044000 -0.15094505 -0.00000041
-0.42086118 0.08528119 -0.00000042
-0.01993287 0.14486319 -0.00000059
0.09851436 -0.40371105 -0.00000025
-0.69352162 -0.51403379 -0.00000002
-0.21970727 -0.35626009 -0.00000028
0.06790185 0.46519160 -0.00000079
-0.40560722 0.75871140 -0.00000049
-0.03738250 -0.14327069 -0.00000041
-0.73864567 -0.26186010 -0.00000002
0.10682950 0.25129712 -0.00000066
0.11649334 0.52736706 -0.00000083
-0.37717971 0.46506146 -0.00000053
-0.59613770 0.03403747 -0.00000022
0.28777936 0.33343807 0.37784067
-0.37558314 -0.05903849 -0.00000044
-0.54711920 -0.75013584 -0.00000003
-0.58302081 0.30945355 -0.00000027
-0.70054787 -0.10629449 -0.00000009
0.40277600 0.23131323 0.35063839
0.60120583 -0.41062847 -0.00000035
-0.59433544 0.41371509 -0.00000026
-0.70391506 -0.59797674 0.00000000
-0.72189397 0.55541492 -0.00000010
0.60511506 0.15226291 0.09007613
-0.13640599 0.51116478 -0.00000080
-0.72213495 -0.77227640 0.00000000
0.52535206 -0.10952096 -0.00000059
0.01692272 -0.07137791 -0.00000046
0.02497255 -0.60792911 -0.00000012
0.52995187 0.18380637 -0.00000091
-0.35671470 -0.68294078 -0.00000007
0.66750741 -0.17310955 -0.00000067
-0.27324089 -0.76159549 -0.00000002
-0.20116018 0.39783114 -0.00000071
-0.46880734 0.49522933 -0.00000041
0.78165221 -0.02341154 -0.00000096
-0.22934631 0.16364163 -0.00000060
0.13981222 0.25741535 -0.00000066
0.26929271 -0.77423114 -0.00000002
-0.01267082 -0.04101259 -0.00000047
-0.70926309 -0.00128072 -0.00000010
-0.67599612 0.75330281 -0.00000016
-0.43556717 -0.53375793 -0.00000017
-0.51325095 0.10655969 -0.00000033
-0.27466041 -0.23755591 -0.00000035
0.47570553 0.16879524 0.32863522
0.17989565 0.58600587 0.07206210
-0.26290897 -0.68798763 -0.00000007
-0.54659832 0.62623334 -0.00000032
0.17904194 0.46498564 -0.00000083
-0.26396567 0.27160752 -0.00000062
0.57560939 -0.65194428 -0.00000009
0.57197243 0.18664332 0.08746017
0.54621488 -0.27316520 -0.00000044
-0.18945938 0.05890502 -0.00000054
0.27473903 0.02609070 -0.00000052
0.50448185 -0.40106952 -0.00000026
-0.64732015 0.29348648 -0.00000019
-0.00803363 0.77404475 -0.00000098
-0.23128608 -0.38378653 -0.00000026
-0.51270235 0.02989532 -0.00000031
-0.38114887 0.13096082 -0.00000047
0.79369736 -0.28334838 -0.00000065
0.35384884 0.14491372 -0.00000068
-0.30937773 -0.13411243 -0.00000042
-0.13259360 -0.32257137 -0.00000030
0.11694032 -0.31433329 -0.00000030
-0.78147298 -0.34936494 0.00000000
0.08435719 0.69063741 0.05284440
-0.21980593 0.66749650 -0.00000073
-0.62685126 -0.07919780 -0.00000017
-0.68651617 0.34589505 -0.00000014
-0.33921725 0.68550569 -0.00000058
0.27092189 0.19399245 -0.00000064
-0.16155669 0.76502573 -0.00000080
0.51949847 -0.10717937 -0.00000059
-0.60506552 -0.07640473 -0.00000019
-0.49407199 0.16940475 -0.00000036
0.01608226 -0.64837062 -0.00000009
0.35589412 0.18445890 -0.00000072
-0.54240757 0.13138881 -0.00000030
-0.26854447 -0.71028471 -0.00000006
-0.36495915 -0.25429881 -0.00000034
0.38545334 -0.79082286 -0.00000001
-0.40035045 0.13430132 -0.00000045
-0.35649016 -0.67505282 -0.00000008
0.16501936 -0.05481567 -0.00000047
-0.77357042 -0.04347957 -0.00000002
-0.79725367 -0.44891798 0.00000000
0.08811938 -0.17345448 -0.00000039
-0.61493212 0.73933446 -0.00000023
-0.19516461 0.72127932 -0.00000076
-0.69537616 0.17593043 -0.00000013
-0.66436595 0.58708400 -0.00000017
0.14636444 -0.43860370 -0.00000023
-0.50593513 -0.22278592 -0.00000027
0.53794044 -0.61068004 -0.00000012
-0.52860582 0.03293156 -0.00000030
-0.63301516 -0.25050849 -0.00000013
-0.01761229 0.14995949 -0.00000059
-0.41904482 0.39602271 -0.00000048
0.17809483 -0.08967404 -0.00000044
0.78327227 -0.69585335 -0.00000013
0.65118146 0.04830455 -0.00000089
0.03784835 -0.72863746 -0.00000004
-0.33333179 -0.23963469 -0.00000035
-0.45051506 0.32465366 -0.00000043
-0.73392493 -0.59650886 0.00000000
0.23299786 -0.43901750 -0.00000023
0.56239462 -0.09748083 -0.00000064
0.42362487 0.21691976 0.33699569
-0.33889091 0.27875552 -0.00000054
-0.58947790 -0.58257717 -0.00000012
-0.77130562 0.43364796 -0.00000004
0.03806423 0.38989717 -0.00000074
0.52261263 0.21743405 -0.00000094
0.66135061 -0.05565158 -0.00000079
-0.78680730 0.57897753 -0.00000002
0.65567017 -0.03527517 -0.00000081
-0.36488330 0.15022023 -0.00000049
-0.78586948 0.18527062 -0.00000002
-0.01660627 0.78293055 -0.00000098
0.31845275 0.31893536 0.34366563
0.57450747 0.07364175 -0.00000084
0.19098572 0.59574586 0.02803897
0.32713053 -0.77792889 -0.00000001
0.54382402 0.18436186 0.15177195
-0.41250724 -0.49090618 -0.00000019
-0.39297703 0.21098876 -0.00000047
-0.67209154 -0.43869734 -0.00000006
-0.72595751 -0.15085593 -0.00000005
-0.70210838 -0.65214604 0.00000000
0.52797139 -0.21496876 -0.00000048
-0.65131003 -0.16526455 -0.00000013
0.69704807 -0.45983520 -0.00000040
-0.17276637 0.07821382 -0.00000055
0.27569813 0.40322065 0.25589395
0.36513826 -0.09535508 -0.00000044
0.10048718 -0.52132040 -0.00000017
-0.71224642 0.35330915 -0.00000011
0.57330251 -0.73978674 -0.00000004
0.04786482 -0.05073499 -0.00000047
-0.57081002 -0.75979167 -0.00000003
0.13007580 0.56856561 0.21421045
-0.36500570 -0.37279519 -0.00000027
-0.59075868 -0.23132698 -0.00000018
0.17417958 -0.73811686 -0.00000004
0.23468769 0.32514632 -0.00000074
-0.27470133 0.04827635 -0.00000053
-0.02828910 0.20577870 -0.00000063
-0.38603312 -0.67211187 -0.00000008
0.35462809 -0.78374153 -0.00000001
-0.17096081 0.25087264 -0.00000066
0.06758784 0.72282284 0.02026339
-0.32687744 -0.77587622 -0.00000002
0.02898629 0.16568255 -0.00000060
-0.34725937 -0.15239933 -0.00000040
-0.39129531 -0.67295974 -0.00000008
0.32866138 0.32648668 0.30613178
-0.69840121 0.49261960 -0.00000013
-0.54815221 0.15688616 -0.00000030
0.49318004 -0.38493067 -0.00000026
-0.04217964 -0.10689506 -0.00000043
-0.56797236 -0.38926286 -0.00000018
0.09971210 -0.67100906 -0.00000008
-0.07695297 -0.15790115 -0.00000040
-0.01699196 -0.79033291 -0.00000001
0.02518967 -0.58151323 -0.00000014
0.10902471 0.62321073 -0.00000093
-0.17688777 -0.05744278 -0.00000046
0.23305957 0.35084802 -0.00000077
0.40546960 0.38689035 -0.00000099
0.26966915 -0.79878896 -0.00000000
-0.50678527 -0.20615332 -0.00000028
-0.40938383 -0.27787542 -0.00000033
0.14525668 -0.76039147 -0.00000002
0.30855256 -0.32656217 -0.00000030
-0.46873870 0.25710252 -0.00000040
0.01469853 0.71868974 -0.00000095
0.56138992 0.07642532 -0.00000083
0.20413806 0.58091265 0.03159138
0.31660095 -0.15755573 -0.00000040
0.70667243 -0.71058208 -0.00000011
0.03107349 0.39177248 -0.00000074
-0.15223691 -0.23826030 -0.00000035
0.34459707 0.32531571 -0.00000086
0.09063068 0.66334575 0.09726450
0.40629712 0.02370934 -0.00000061
-0.02303936 0.44022283 -0.00000078
-0.02285289 0.70335197 -0.00000094
0.58075434 -0.00179523 -0.00000076
0.31547618 0.42288697 -0.00000093
-0.26516718 0.39782238 -0.00000064
0.79382163 -0.62953722 -0.00000021
0.76757216 -0.52988839 -0.00000034
0.45614722 -0.28767660 -0.00000033
-0.35265017 -0.08711006 -0.00000045
0.18486252 0.51641452 0.20864083
-0.00577913 0.56442600 -0.00000085
-0.41783652 0.77989298 -0.00000048
0.30492625 0.37829792 0.24679513
-0.79359210 -0.77556092 0.00000000
0.19584097 -0.13063611 -0.00000042
-0.63291019 -0.51907760 -0.00000008
0.45321435 -0.61791897 -0.00000011
-0.35705644 -0.13023700 -0.00000042
-0.00160658 0.59934211 -0.00000087
-0.59828836 0.70773238 -0.00000025
-0.37453210 -0.52479631 -0.00000017
0.31640720 0.26482686 0.46234217
-0.11558374 -0.58007503 -0.00000014
0.22373602 -0.14129855 -0.00000041
-0.67199117 0.40928048 -0.00000016
-0.05010219 -0.17003649 -0.00000039
0.24272300 0.48257151 0.15788263
0.12522945 -0.70929730 -0.00000006
-0.51945925 0.72740823 -0.00000035
0.41948840 0.24255925 0.29155096
0.30187300 0.43416041 -0.00000093
-0.63452941 -0.60684806 -0.00000007
0.33438939 0.44953284 0.03397638
-0.38860840 0.47698805 -0.00000051
-0.50070971 0.11423481 -0.00000034
0.40894350 -0.70433283 -0.00000006
-0.03398395 0.34326160 -0.00000071
-0.79948121 0.66852820 -0.00000000
0.28369340 -0.27151904 -0.00000033
0.23020983 0.41579920 0.32544526
0.76252651 -0.63623279 -0.00000020
0.04393152 0.33127084 -0.00000071
0.08538567 -0.51627892 -0.00000018
0.65424955 0.06426048 -0.00000091
0.25405651 0.19945420 -0.00000063
-0.39169255 0.55912322 -0.00000051
0.24082752 0.44419193 0.24300036
0.44042012 0.30881858 0.10727803
0.04437446 0.61504406 -0.00000088
-0.52243727 0.23106274 -0.00000034
0.31932536 -0.35347784 -0.00000028
-0.59810388 0.14698476 -0.00000024
0.49091277 0.27445465 0.07319089
-0.78236938 0.36300328 -0.00000002
-0.68970996 0.48911956 -0.00000014
-0.09279974 0.12839285 -0.00000058
-0.59667659 -0.23902223 -0.00000017
-0.75310898 0.64492381 -0.00000006
0.70808870 0.07134978 0.04345248
0.49065268 -0.38086912 -0.00000026
-0.70740640 0.14055488 -0.00000012
-0.75244069 -0.17777067 -0.00000002
0.17994748 0.45638213 -0.00000083
0.18554959 0.19548966 -0.00000062
0.46159893 -0.32151634 -0.00000030
-0.54821914 -0.73507327 -0.00000004
-0.70551109 0.46033651 -0.00000012
-0.20264015 0.76556957 -0.00000075
-0.22274174 0.73502111 -0.00000072
0.41320917 0.20270741 -0.00000080
0.36918420 0.00599584 -0.00000055
0.28482646 0.40335849 0.23631082
