ply
format ascii 1.0
element vertex 1367
property float x
property float y
property float z
end_header
-0.49462166 -0.14418159 -0.18770994
-0.14406975 0.05092329 0.00000838
-0.47586796 -0.34885558 0.04428229
-0.27605966 0.13352481 0.18147857
-0.49874324 -0.00772664 -0.29766980
-0.56564230 -0.15014233 -0.31200945
-0.33597225 0.04530887 -0.04235775
-0.31707242 -0.44440535 0.00000306
-0.20853777 0.29653862 0.13522667
-0.22819161 -0.74326539 0.00000183
-0.18070716 0.43680760 -0.05487530
-0.43130532 -0.50360125 0.00000381
-0.39425075 -0.56819373 0.00000341
-0.34283075 -0.02766598 0.09636352
-0.32108709 0.02481521 0.24586695
-0.10577393 0.54463559 0.05596467
-0.52290350 -0.46241337 0.12706877
-0.62766480 -0.41207308 -0.22774111
-0.13500151 0.47407740 0.02467422
-0.36244297 -0.75504845 0.00000282
-0.46856928 -0.18543407 -0.10948745
-0.19422372 -0.48000523 0.00000207
-0.46474698 0.04188241 -0.27328688
-0.06110860 -0.07009631 0.00000183
-0.53383809 -0.16961838 -0.23971333
-0.46829358 0.07088509 -0.30150172
-0.51233238 -0.25260526 -0.13838930
-0.30317104 -0.44575879 0.00000295
-0.59624624 -0.17244439 -0.35075083
-0.57140571 -0.34679055 -0.17476261
-0.45430443 0.06578648 -0.27230611
-0.32750601 0.00932061 0.22304617
-0.31447867 -0.35521114 0.00000321
-0.44476569 -0.71134412 0.00000352
-0.47698253 -0.61737633 0.00000394
-0.25832540 -0.21547727 0.00000304
-0.34651786 0.06583527 -0.07689712
-0.18447009 0.35465282 0.00470517
-0.60732496 -0.71725959 0.00000474
-0.40331712 -0.04529591 -0.09642458
-0.27562290 -0.49719369 0.00000265
-0.25270310 -0.42152217 0.00000262
-0.07038992 -0.37453192 0.00000133
-0.45902184 -0.64776373 0.00000375
-0.56929755 -0.09424865 -0.36061749
-0.23644875 0.38067213 -0.11378630
-0.17783481 -0.41488537 0.00000206
-0.42672187 -0.65545630 0.00000349
-0.24894395 0.35189074 -0.11482576
-0.23217772 -0.69544870 0.00000195
-0.36474788 -0.08058706 0.04730965
-0.53886473 -0.50094533 0.07967069
-0.53991145 -0.44576448 -0.04331964
-0.03909823 -0.48498484 0.00000089
-0.05913135 0.49490833 0.00000518
-0.35157943 -0.30993021 0.00000357
-0.22433488 0.25841191 0.00550282
-0.69019949 -0.62270814 -0.18292832
-0.60071462 -0.61620796 -0.02555394
-0.56988436 -0.45675001 -0.08941637
-0.20036209 0.42689937 -0.08307287
-0.18728893 0.34783822 0.12267719
-0.02007542 0.07988389 0.00001068
-0.58537215 -0.35171869 -0.19638541
-0.71844363 -0.75025052 -0.13834760
-0.34489450 -0.03265660 0.20083912
-0.37147820 -0.09684132 0.18340747
-0.40165687 -0.16970263 0.26069021
-0.14298439 0.51639593 -0.04625267
-0.27508238 0.13588169 0.21153180
-0.61896729 -0.36061743 -0.25061747
-0.64886999 -0.76652014 0.03722113
-0.46711621 0.00067736 -0.24663386
-0.07023276 -0.33903483 0.00000139
-0.25402829 -0.60572052 0.00000228
-0.40726656 -0.65671021 0.00000334
-0.45908830 -0.30835104 0.16922353
-0.52318829 -0.78275752 0.00000398
-0.58058155 -0.13530666 -0.35024038
-0.26484847 -0.50584507 0.00000255
-0.13065314 0.07314045 0.00000842
-0.58288085 -0.38131753 -0.16963734
-0.46409202 -0.32043782 0.34053886
-0.49382901 -0.39222714 0.27002671
-0.22409561 0.33066127 -0.05382368
-0.28982279 -0.03727382 0.00000362
-0.44286793 -0.63707620 0.00000365
-0.51109111 -0.43389216 0.04508344
-0.11616290 -0.57981467 0.00000129
-0.10529328 -0.55081087 0.00000126
-0.16978721 0.39009765 0.03387830
-0.14048958 0.51013601 -0.03702708
-0.44890189 -0.28375992 0.19580267
-0.08324032 -0.79991561 0.00000063
-0.03557472 -0.08712384 0.00000161
-0.01909326 -0.36095217 0.00000097
-0.44608963 -0.27697730 0.36767364
-0.05930373 0.03102113 0.00001040
-0.36236495 -0.07006175 -0.00356808
-0.43730581 -0.25575951 0.08071469
-0.54817843 -0.44002369 -0.06262139
-0.67067116 -0.53273356 -0.21509649
-0.08866495 0.58594131 0.03671421
-0.54315960 -0.73682541 0.00000422
-0.36243016 0.05360494 -0.09656416
-0.13552049 -0.43756983 0.00000170
-0.33945316 0.08866961 -0.08123778
-0.25799710 0.17713808 0.09429046
-0.07735216 -0.47577077 0.00000119
-0.24268080 0.01682877 0.00000668
-0.07301986 0.68462682 -0.04574648
-0.35263461 -0.05134597 0.11858509
-0.40707326 -0.18277459 0.15646622
-0.61601818 -0.68720895 0.03278718
-0.09782905 0.39125028 0.00000553
-0.00863632 -0.47084343 0.00000068
-0.16825649 0.39379403 0.02195358
-0.44963169 -0.11425709 -0.12860847
-0.16237479 -0.19289047 0.00000236
-0.44619769 0.10936569 -0.29033872
-0.15154199 -0.32987434 0.00000202
-0.21903299 -0.75702447 0.00000173
-0.19777226 -0.01862486 0.00000296
-0.24105585 0.30253926 -0.06345466
-0.06545719 -0.33952042 0.00000136
-0.38524482 0.11200051 -0.18179408
-0.16917911 0.15490621 0.00000668
-0.40588200 -0.17990617 0.33418408
-0.60637647 -0.66393429 0.16755033
-0.37299398 0.09312582 -0.14540325
-0.08969596 0.14353219 0.00000849
-0.46002910 -0.31062785 0.29910561
-0.44351894 -0.68118840 0.00000357
-0.33038211 0.00239096 0.05092722
-0.03376289 -0.73338985 0.00000038
-0.44598329 -0.58890575 0.00000376
-0.48072484 -0.36058587 0.15468852
-0.25007328 0.19626035 0.18488611
-0.28522649 -0.54377186 0.00000263
-0.18078843 0.09670899 0.00000709
-0.32753161 0.00925912 0.21898833
-0.44617665 -0.27718091 0.20364855
-0.20604694 -0.24958563 0.00000259
-0.42294645 -0.22109905 0.22777344
-0.12613785 -0.38925660 0.00000172
-0.17492568 0.37768140 0.17162409
-0.34811601 -0.04043280 0.01796481
-0.64582860 -0.42287445 -0.25256351
-0.39819250 -0.27939290 0.00000398
-0.37606245 -0.01522200 -0.06958723
-0.38504404 -0.60404748 0.00000327
-0.10399352 -0.29148713 0.00000174
-0.46065986 -0.44538024 0.00000414
-0.62377572 -0.38672915 -0.23972447
-0.03916172 0.36083549 0.00000711
-0.63988358 -0.74482560 0.13137534
-0.28121260 0.12108748 0.14633621
-0.39230439 -0.14711529 0.06305146
-0.13964778 0.19338073 0.00000687
-0.56943899 -0.57476157 0.20748867
-0.13973270 0.56294006 -0.07531576
-0.01025337 -0.50793451 0.00000062
-0.08081769 -0.22487377 0.00000169
-0.55384582 -0.67974687 0.00000440
-0.11367872 0.19689810 0.00000738
-0.41324610 -0.31876397 0.00000402
-0.09560051 -0.16366976 0.00000191
-0.24036293 -0.13124388 0.00000307
-0.59481555 -0.16524684 -0.35356250
-0.31365582 -0.24621131 0.00000340
-0.42622977 -0.42887628 0.00000391
-0.33852792 -0.48820531 0.00000314
-0.09869964 -0.56068677 0.00000119
-0.66422212 -0.79526860 -0.00621973
-0.59059274 -0.62582606 0.02746492
-0.44639480 -0.66630614 0.00000362
-0.41184837 0.16196395 -0.26756081
-0.52229804 -0.26947176 -0.14379132
-0.62570357 -0.56060159 -0.11262904
-0.38153750 -0.21789180 0.00000397
-0.00071781 0.16959706 0.00001008
-0.14278124 -0.61973423 0.00000142
-0.60620159 -0.26129857 -0.30206609
-0.16742501 0.03961436 0.00000802
-0.10370924 -0.63935745 0.00000108
-0.64208388 -0.57911611 -0.12842450
-0.27548116 -0.04699880 0.00000349
-0.32387513 -0.62781692 0.00000277
-0.28124610 -0.53082287 0.00000263
-0.72374415 -0.81577325 -0.09874632
-0.22894827 0.24726778 0.08774217
-0.17124143 0.11240132 0.00000712
-0.27083504 -0.48048967 0.00000264
-0.06136709 -0.36939037 0.00000127
-0.63114601 -0.76700687 0.00000482
-0.16074608 0.54877293 -0.10277764
-0.39977062 -0.12344757 -0.03129635
-0.16668843 -0.01813923 0.00000272
-0.31725773 0.03405809 0.26929766
-0.41763669 0.03527731 -0.18290237
-0.18226042 0.35998476 0.03721672
-0.51091838 -0.32709119 -0.07988104
-0.11182943 0.08573470 0.00000867
-0.09588261 0.56851614 0.04220398
-0.33945429 0.05557476 -0.05638232
-0.12536678 -0.17923380 0.00000211
-0.02701063 -0.27596003 0.00000119
-0.60010809 -0.73750150 0.00000464
-0.16563529 -0.29641432 0.00000219
-0.52200389 -0.23375385 -0.17008471
-0.48391876 -0.18429784 -0.13817291
-0.62146437 -0.64448047 -0.04194326
-0.42912978 -0.23602746 0.23943035
-0.24833082 0.20047835 0.04301034
-0.27085677 -0.50577617 0.00000260
-0.39811066 -0.24514140 0.00000404
-0.46387714 -0.09840283 -0.16634639
-0.63420719 -0.68730813 -0.03288213
-0.13818239 0.06266597 0.00000838
-0.15204790 0.43291855 0.09636025
-0.38329133 -0.12536547 0.29192764
-0.22151138 0.36734444 -0.07669048
-0.24241440 0.38113150 -0.12494866
-0.49918589 -0.29437223 -0.08318174
-0.58411831 -0.74949455 0.00000450
-0.10122497 -0.71646523 0.00000092
-0.09359166 0.24994431 0.00000721
-0.01176484 0.43101701 0.00000690
-0.15363465 -0.68387240 0.00000138
-0.16075929 0.08068383 0.00000770
-0.47575083 0.06357684 -0.30953449
-0.18964155 0.19618671 0.00000579
-0.21491268 -0.59859186 0.00000200
-0.43947417 -0.15042670 -0.08302457
-0.07131236 -0.30748039 0.00000146
-0.26952165 -0.65192312 0.00000231
-0.40886119 -0.51944792 0.00000361
-0.32198554 -0.44795421 0.00000309
-0.03798634 0.00329680 0.00001116
-0.33213228 0.15337378 -0.11656236
-0.40710813 -0.55572224 0.00000353
-0.41842452 -0.11490613 -0.07153534
-0.50890499 -0.55496669 0.00000430
-0.21944475 0.40337068 -0.10000241
-0.19297878 -0.72315353 0.00000160
-0.25050253 -0.62470996 0.00000222
-0.34062001 0.22769149 -0.18777280
-0.33443108 -0.00740385 0.29890743
-0.30582777 0.29122999 -0.17240894
-0.12872167 -0.30512476 0.00000190
-0.34295636 -0.62997353 0.00000291
-0.11373257 -0.05882995 0.00000225
-0.24975146 -0.01965852 0.00000335
-0.52691305 -0.15083313 -0.24126565
-0.21859452 -0.00906905 0.00000313
-0.13919087 -0.36558568 0.00000186
-0.22393413 -0.01025166 0.00000317
-0.25565928 0.18278302 0.08158515
-0.22231232 0.26327872 0.20563078
-0.35927334 -0.02136835 -0.03453462
-0.32121724 0.02451870 0.02501838
-0.29582199 -0.49743327 0.00000280
-0.53549510 -0.09407454 -0.29945683
-0.06566123 0.51128364 0.00000486
-0.14142954 -0.13335197 0.00000232
-0.44117841 -0.63937163 0.00000363
-0.32682273 -0.71297646 0.00000263
-0.01642388 -0.39370176 0.00000089
-0.46579644 0.08077174 -0.30439961
-0.13336790 -0.05954177 0.00000239
-0.36528862 -0.47948706 0.00000336
-0.62382895 -0.58020020 -0.09450995
-0.14817438 -0.35119447 0.00000196
-0.50752282 -0.36367014 -0.04625063
-0.52137452 -0.74899900 0.00000403
-0.60827929 -0.66852695 0.06577860
-0.27049682 0.00210136 0.00000626
-0.52179277 -0.60640866 0.00000430
-0.33250508 -0.74009269 0.00000262
-0.19863893 -0.65897942 0.00000176
-0.33362687 -0.00546060 0.27702892
-0.43755874 -0.25637779 0.26109767
-0.48465353 -0.63255012 0.00000397
-0.57926655 -0.59848654 0.13226271
-0.53853971 -0.42461571 -0.05671667
-0.37494484 -0.01270697 -0.06944976
-0.36735567 -0.46527493 0.00000340
-0.21143425 0.08547339 0.00000657
-0.20309591 -0.10789335 0.00000283
-0.56203169 -0.55417347 -0.00200554
-0.50616133 -0.42199427 0.13299541
-0.34612513 -0.03562839 0.06650269
-0.32450986 -0.40412557 0.00000319
-0.05655829 0.66345358 0.02521393
-0.00467894 0.12859261 0.00001045
-0.02896968 0.24335741 0.00000865
-0.43417811 0.08700819 -0.25175136
-0.19779749 -0.62276030 0.00000182
-0.58619779 -0.37529117 -0.18017790
-0.46031862 -0.31131485 0.01720436
-0.33890396 -0.67978144 0.00000278
-0.64500159 -0.59647399 -0.12067794
-0.22746471 0.31317198 -0.04679658
-0.42715126 0.12784250 -0.26968041
-0.64983660 -0.70648396 -0.04681930
-0.28484908 0.11231345 0.08269971
-0.29989439 -0.67293644 0.00000250
-0.52908218 -0.38726461 -0.06762142
-0.44866374 -0.28318158 0.11648058
-0.17708296 -0.52156252 0.00000186
-0.15260734 -0.75224274 0.00000124
-0.14772113 0.18351263 0.00000682
-0.68908417 -0.72792226 -0.10188235
-0.13994567 -0.71385252 0.00000122
-0.17811009 -0.21662498 0.00000244
-0.18040860 -0.19447403 0.00000250
-0.19959398 -0.69469941 0.00000170
-0.31426391 0.04128587 0.26759490
-0.58882874 -0.62156671 0.01171036
-0.33821082 -0.71604908 0.00000271
-0.40381998 -0.17492166 0.18464158
-0.53206772 -0.20220518 -0.21202806
-0.21571928 -0.77948105 0.00000167
-0.45937869 0.09532438 -0.30369303
-0.53492385 -0.18955043 -0.22671153
-0.26664102 0.15627648 0.01448486
-0.47223964 -0.10035734 -0.18004152
-0.01260018 0.11226868 0.00001047
-0.46495605 -0.14809580 -0.13097961
-0.18616445 -0.46542338 0.00000203
-0.34593114 -0.02152641 -0.01022348
-0.44710338 -0.27941251 0.06825830
-0.59434271 -0.35990882 -0.20649979
-0.30318272 -0.67374754 0.00000252
-0.26402086 -0.65029389 0.00000227
-0.19980773 -0.22863007 0.00000258
-0.38613394 -0.47505972 0.00000352
-0.36846027 0.03972599 -0.09707389
-0.65732533 -0.69668943 -0.06775458
-0.59757471 -0.45308030 -0.14238144
-0.07565504 0.16204540 0.00000858
-0.15252715 -0.65061837 0.00000143
-0.30916658 -0.18527050 0.00000349
-0.07391228 -0.76395571 0.00000063
-0.01019259 0.77539051 0.00417581
-0.46564850 0.00895190 -0.25018755
-0.59891528 -0.19923562 -0.33546817
-0.07275361 0.56044173 0.00000416
-0.57199430 -0.21070166 -0.27804255
-0.04151361 -0.70736605 0.00000049
-0.21875116 -0.75160068 0.00000174
-0.01685301 0.54428047 0.00000552
-0.55505282 -0.41691631 -0.09244147
-0.15374649 0.03990537 0.00000830
-0.16945367 -0.18400706 0.00000243
-0.04381571 0.02935827 0.00001074
-0.46580079 -0.64061004 0.00000381
-0.55503672 -0.29744640 -0.18214293
-0.39005241 -0.44576275 0.00000361
-0.34261611 -0.01125597 -0.01192643
-0.47077638 -0.19977240 -0.10272026
-0.32102743 0.12036343 -0.07163228
-0.24709387 -0.14500993 0.00000309
-0.01106409 0.27587199 0.00000866
-0.10495300 0.58832550 -0.03131793
-0.45730531 -0.30405015 0.25494891
-0.44825757 -0.05510565 -0.17054392
-0.54515570 -0.31605524 -0.15024979
-0.30473816 -0.45581633 0.00000294
-0.03657156 0.67694783 0.00000361
-0.58158821 -0.49540478 -0.08160555
-0.04064465 0.62991339 0.00000405
-0.28381157 0.14309299 -0.02122219
-0.35889840 0.14555199 -0.15922146
-0.55492193 -0.09434261 -0.33448061
-0.16127551 0.55293828 -0.10686623
-0.25593349 0.18211032 0.21503314
-0.22491711 -0.76108676 0.00000177
-0.28441435 -0.60186893 0.00000252
-0.40610263 0.14483985 -0.24428040
-0.61040944 -0.52110797 -0.11455997
-0.02275429 0.62485945 0.00000449
-0.24173117 -0.53053242 0.00000233
-0.38600692 0.07305901 -0.15392701
-0.26299387 0.06883785 0.00000567
-0.20532928 0.30427986 0.19306834
-0.53182840 -0.38895828 -0.07132888
-0.45425239 -0.05466913 -0.18174174
-0.57390273 -0.27809572 -0.23088507
-0.40052664 -0.16697118 0.19389766
-0.69861138 -0.68885195 -0.14850204
-0.71026170 -0.74902463 -0.12443266
-0.01637941 0.76045382 0.01126284
-0.58611482 -0.23829508 -0.28292158
-0.33632475 0.23592342 -0.18616734
-0.60693538 -0.61682856 -0.03636753
-0.70726651 -0.76880312 -0.10414662
-0.27095476 -0.71184069 0.00000221
-0.11856982 0.57905960 -0.04904920
-0.13904715 -0.29703993 0.00000199
-0.20966271 0.19258095 0.00000540
-0.32916221 0.00531424 0.32275167
-0.30696249 0.14924958 -0.06782514
-0.19946630 0.45875290 -0.10537373
-0.19839318 0.16998094 0.00000590
-0.01073866 0.22933842 0.00000919
-0.07962923 0.60775340 0.05927679
-0.44653329 -0.27804378 0.24741520
-0.31107488 0.04898720 0.23742335
-0.65428734 -0.60806686 -0.12880805
-0.22823559 -0.06011415 0.00000311
-0.60422468 -0.24349803 -0.31185108
-0.32612029 0.22207297 -0.15726092
-0.62098724 -0.62928379 -0.05249195
-0.07589227 0.35400590 0.00000641
-0.04185127 0.70062441 -0.00124535
-0.22413586 -0.47607288 0.00000230
-0.14810269 -0.29643318 0.00000206
-0.29749191 0.33593392 -0.19087093
-0.40716663 -0.13171756 -0.03849561
-0.35093391 0.22940193 -0.20775937
-0.02077059 0.53024203 0.00000560
-0.20721084 0.29973951 0.16719329
-0.39357552 0.13411619 -0.21351086
-0.55258214 -0.27573162 -0.19400164
-0.40152723 -0.11968805 -0.03730515
-0.13408129 0.58136809 -0.07890950
-0.09650900 -0.73051298 0.00000086
-0.30898997 -0.64280409 0.00000263
-0.27625790 0.18361703 -0.03796296
-0.52986401 -0.38043147 -0.07417126
-0.64187115 -0.55515796 -0.14603311
-0.13422067 -0.75330108 0.00000110
-0.40042689 -0.16673338 0.26491010
-0.03331527 -0.59823662 0.00000063
-0.45673370 -0.41616666 0.00000417
-0.65520173 -0.75328892 -0.02139352
-0.60636818 -0.42478538 -0.17957759
-0.04172234 0.66957545 0.00000359
-0.29356548 0.28510988 -0.14557739
-0.31554011 -0.42947578 0.00000308
-0.46671960 -0.28484726 -0.03146696
-0.27570474 -0.68810576 0.00000229
-0.53971958 -0.20635609 -0.22278501
-0.52610856 -0.39441845 -0.05685653
-0.15665226 0.42863369 -0.00511798
-0.09194441 -0.12903117 0.00000195
-0.72141659 -0.79981977 -0.10650813
-0.63220888 -0.45541674 -0.20342627
-0.22306572 0.33971283 -0.05875483
-0.37585288 -0.10740354 0.20057231
-0.61156273 -0.34301364 -0.25041303
-0.36871001 -0.75053269 0.00000287
-0.56763119 -0.11079010 -0.34517217
-0.61726195 -0.38470525 -0.22943360
-0.34594902 -0.59891218 0.00000299
-0.65955073 -0.47134513 -0.24103987
-0.45450863 -0.67909646 0.00000366
-0.06265280 -0.70700544 0.00000065
-0.49192542 -0.38762629 0.14881352
-0.31519529 -0.73358566 0.00000250
-0.18123546 -0.15441070 0.00000258
-0.08473579 0.08667412 0.00000923
-0.11819522 0.00918194 0.00000940
-0.00091506 -0.55142522 0.00000046
-0.30391920 -0.17483778 0.00000347
-0.21178477 0.00296833 0.00000749
-0.47817841 -0.35443282 0.02767920
-0.24875861 0.28527868 -0.06445744
-0.42933586 -0.70700735 0.00000341
-0.50211042 0.02651725 -0.32949594
-0.66427964 -0.75161445 -0.03911151
-0.14987078 -0.52323562 0.00000165
-0.42055470 0.12673140 -0.25688457
-0.07407294 -0.04627151 0.00000197
-0.31698716 0.19812819 -0.12271522
-0.70819265 -0.81196082 -0.07341123
-0.30314705 0.33383527 -0.19954893
-0.04369365 0.35924083 0.00000704
-0.61408114 -0.56418312 -0.08886495
-0.41049036 -0.46953088 0.00000372
-0.33546066 -0.35317871 0.00000337
-0.15675282 0.42155558 0.15204081
-0.63362640 -0.35681680 -0.28005236
-0.15044425 0.04172559 0.00000835
-0.52115399 -0.30173022 -0.11748842
-0.44179553 -0.23477691 -0.02388050
-0.09419334 0.57259756 0.00188110
-0.36628264 -0.46280697 0.00000340
-0.42559713 -0.77810830 0.00000325
-0.02020602 -0.00857318 0.00000164
-0.46426168 -0.00778086 -0.23510486
-0.33551031 -0.01000293 0.21912871
-0.19486184 0.32956037 0.06585588
-0.36753491 -0.08731910 0.13012539
-0.18498994 -0.63823360 0.00000170
-0.09770182 0.56411982 0.09726961
-0.67512596 -0.55995464 -0.20272899
-0.42927155 -0.10411907 -0.09930533
-0.06459904 -0.78319168 0.00000052
-0.32329470 0.13771753 -0.08877805
-0.31138027 0.27377337 -0.16936550
-0.56139582 -0.55534410 0.19305108
-0.24975243 -0.56227911 0.00000233
-0.24379003 -0.25373107 0.00000286
-0.67363775 -0.57008988 -0.19241828
-0.52211475 -0.46050525 0.03537239
-0.27303946 -0.43541139 0.00000274
-0.37374538 -0.53436947 0.00000332
-0.00245668 -0.48428306 0.00000058
-0.54910648 -0.04359929 -0.36204785
-0.37404853 -0.38827041 0.00000359
-0.31926256 -0.46138266 0.00000304
-0.00634256 -0.25668693 0.00000098
-0.37046593 -0.46680561 0.00000342
-0.12058542 -0.68544579 0.00000112
-0.41648394 -0.17097057 -0.02590812
-0.07236857 0.16859315 0.00000857
-0.16839013 0.39346701 0.07716863
-0.10560181 0.54504788 0.09654693
-0.54330450 -0.75330538 0.00000419
-0.33917934 -0.15507515 0.00000377
-0.15040146 -0.17425212 0.00000231
-0.31143826 0.25491220 -0.15530400
-0.38558832 -0.36162832 0.00000373
-0.63268453 -0.40804726 -0.23986670
-0.70848817 -0.77676016 -0.10038535
-0.16376637 -0.29050076 0.00000219
-0.05084419 0.53826487 0.00000487
-0.64880615 -0.53179193 -0.17615744
-0.55980188 -0.55149609 0.20748454
-0.08766076 -0.08120088 0.00000201
-0.07009049 0.05229809 0.00000993
-0.29460043 0.08875464 0.29814291
-0.03303639 -0.39601469 0.00000101
-0.05735512 -0.24010995 0.00000148
-0.00043982 -0.30400649 0.00000093
-0.43476689 -0.24963041 0.09057999
-0.53636080 -0.16389641 -0.24858516
-0.27911252 -0.17118816 0.00000328
-0.22327234 -0.75368643 0.00000177
-0.00190796 -0.18941011 0.00000113
-0.61724567 -0.37213451 -0.23884560
-0.09184007 -0.43608835 0.00000138
-0.40109470 -0.16834410 0.22887036
-0.14066622 -0.03911506 0.00000249
-0.53170955 -0.65879881 0.00000428
-0.53808081 -0.49905813 0.27398267
-0.05657786 -0.47224671 0.00000104
-0.54327852 -0.47373298 -0.02841858
-0.14124121 -0.07105875 0.00000243
-0.13435699 0.47562885 0.08118467
-0.22279032 -0.08191448 0.00000303
-0.42049369 -0.09152280 -0.09284979
-0.54799223 -0.25051165 -0.20462111
-0.51806980 -0.73195964 0.00000404
-0.26994818 -0.00872177 0.00000352
-0.23523463 -0.27841258 0.00000275
-0.45081896 0.08924086 -0.28360260
-0.47289664 -0.52609557 0.00000408
-0.32880700 0.00617613 0.26865590
-0.35935631 0.18512499 -0.18977505
-0.57218933 -0.50322229 -0.05869173
-0.34373745 -0.57227921 0.00000302
-0.26957050 0.34799236 -0.14929907
-0.39736164 -0.47380254 0.00000361
-0.51947242 -0.38947114 -0.04853948
-0.06065413 0.02118160 0.00001048
-0.27179414 0.14381678 0.25309992
-0.55596262 -0.40553463 -0.10263961
-0.53417325 -0.02489512 -0.34901866
-0.49744385 -0.29939866 -0.07624777
-0.56947362 -0.35480735 -0.16523802
-0.29813939 -0.57501781 0.00000267
-0.33048266 -0.68676722 0.00000271
-0.37868330 -0.07453184 -0.02979960
-0.40850273 -0.35057077 0.00000392
-0.30811498 0.05614232 0.12000516
-0.35172188 0.17905881 -0.17137551
-0.18110287 -0.58744663 0.00000176
-0.31255239 -0.50312644 0.00000291
-0.08351692 -0.44915229 0.00000129
-0.47794417 -0.42428187 0.00000431
-0.03607779 -0.39821899 0.00000103
-0.36253339 -0.76151311 0.00000281
-0.48377246 -0.49199256 0.00000423
-0.30227464 0.19224116 -0.09161578
-0.29374257 -0.38882321 0.00000299
-0.04337486 -0.46089098 0.00000096
-0.21378922 -0.57704264 0.00000203
-0.43311065 -0.22740303 -0.01367119
-0.27288204 0.18847558 -0.03549086
-0.37316784 -0.08993861 -0.00822720
-0.01654932 0.09058391 0.00001063
-0.42106965 -0.50855672 0.00000372
-0.26209643 0.00485723 0.00000641
-0.04106519 0.35046566 0.00000719
-0.44443977 -0.66322899 0.00000361
-0.45216352 -0.19520424 -0.07240195
-0.09857944 0.28937203 0.00000666
-0.31093526 0.04932619 0.21327817
-0.38703439 -0.06778187 -0.05001170
-0.01897651 0.09393119 0.00001054
-0.37301451 -0.10054879 0.14680539
-0.07120368 0.04634900 0.00000997
-0.28458932 0.33315682 -0.16538924
-0.55253112 -0.32451302 -0.15727073
-0.14031696 0.50737041 -0.03463689
-0.08323299 -0.28929180 0.00000159
-0.07421395 -0.18145093 0.00000172
-0.24598317 -0.33715865 0.00000272
-0.14615297 0.11583670 0.00000761
-0.45598966 -0.30086938 0.14958991
-0.07861361 -0.09454870 0.00000192
-0.46687669 -0.16756544 -0.11983906
-0.02367334 -0.33022287 0.00000106
-0.00802364 0.22332767 0.00000932
-0.64941931 -0.69834101 -0.05217864
-0.13383894 -0.12680291 0.00000227
-0.64865530 -0.66039169 -0.07929602
-0.19323552 0.10921557 0.00000669
-0.53353059 -0.06603904 -0.31695017
-0.08666417 0.03763041 0.00000975
-0.04053709 -0.19082773 0.00000145
-0.47464544 -0.13615923 -0.15751392
-0.69304627 -0.62462068 -0.18665372
-0.50179255 0.01970239 -0.32380092
-0.47221577 -0.30417168 -0.02691870
-0.21746165 0.27499467 0.13643888
-0.06558054 -0.43536597 0.00000118
-0.38902783 -0.23420779 0.00000400
-0.41806754 -0.35046554 0.00000400
-0.49165037 -0.60198224 0.00000408
-0.48350054 -0.03094804 -0.25258920
-0.18847921 -0.47755843 0.00000203
-0.02552031 0.75056124 -0.00914050
-0.10299409 -0.45496383 0.00000142
-0.03726335 -0.06380727 0.00000166
-0.37476522 -0.63129544 0.00000314
-0.44648039 -0.27791241 0.16102912
-0.52987611 -0.03911012 -0.33054984
-0.10064074 -0.20478764 0.00000188
-0.60511655 -0.52746129 -0.10019097
-0.42223385 0.12971967 -0.26217380
-0.15583850 -0.57394010 0.00000160
-0.19465324 -0.50030214 0.00000203
-0.24545325 0.04431377 0.00000632
-0.28412718 0.28496906 -0.12835746
-0.06948492 0.59021688 0.00000389
-0.49246663 -0.26190710 -0.09538184
-0.32025269 -0.76047742 0.00000249
-0.58935553 -0.39606735 -0.17029916
-0.45174041 -0.12835290 -0.12184506
-0.05909494 0.16969170 0.00000884
-0.13656615 0.04024637 0.00000866
-0.70408553 -0.69780874 -0.15170072
-0.64715302 -0.66111475 -0.07602906
-0.64065713 -0.71413499 -0.02442842
-0.56549537 -0.66567022 0.00000452
-0.44997078 -0.19133665 -0.07133090
-0.18138039 0.36210796 0.05433415
-0.49331638 -0.13352159 -0.19334958
-0.36206552 -0.07411298 0.23074006
-0.65204108 -0.73886567 -0.02649547
-0.51231712 -0.22355305 -0.16018206
-0.37476441 -0.08899169 -0.01183335
-0.22496934 0.40019304 -0.10763325
-0.45277619 -0.00731647 -0.21462744
-0.06129991 -0.50006127 0.00000102
-0.31016967 0.05116797 0.29433367
-0.26359463 0.16362232 0.12309732
-0.57111615 -0.57880998 0.13959926
-0.53907001 -0.16663645 -0.25143960
-0.58121955 -0.27001902 -0.25021830
-0.33286282 -0.35850376 0.00000334
-0.29323298 -0.75831330 0.00000229
-0.52711582 -0.36748710 -0.07891040
-0.17712300 -0.29147711 0.00000229
-0.19249687 -0.76492351 0.00000152
-0.61181164 -0.55711156 -0.09006115
-0.49230114 -0.10175295 -0.21536933
-0.56726748 -0.07210615 -0.37356707
-0.51742452 -0.21388879 -0.17670146
-0.05837749 0.24116674 0.00000805
-0.51574153 -0.02035728 -0.31900537
-0.20761727 0.29877022 0.01838374
-0.43390599 0.12125687 -0.27698210
-0.00491822 -0.77089745 0.00000002
-0.22190440 0.26426321 0.20947666
-0.06433996 0.64466912 0.00156030
-0.36276910 -0.01876459 -0.04282884
-0.40905023 0.03933281 -0.17037889
-0.52101183 -0.20164293 -0.19240361
-0.47163203 -0.73884398 0.00000367
-0.09860559 -0.70654649 0.00000092
-0.44964543 -0.53266203 0.00000389
-0.26512563 0.38166142 -0.16652817
-0.15307829 -0.74904567 0.00000125
-0.59490234 -0.23774716 -0.29926687
-0.62548107 -0.67421043 -0.02689708
-0.72130233 -0.77660245 -0.12373883
-0.19345760 -0.38136756 0.00000224
-0.43632707 -0.25340697 0.32551116
-0.63744140 -0.42033240 -0.23926488
-0.17540567 0.44078687 -0.04825113
-0.38520062 0.17106929 -0.22608042
-0.66823244 -0.76882631 -0.03335150
-0.39733934 -0.15927406 0.14038549
-0.05672349 0.17329870 0.00000885
-0.07265979 0.10828794 0.00000925
-0.03519540 0.74479502 -0.02235301
-0.31435946 -0.07202144 0.00000374
-0.34372064 -0.02981816 0.14386688
-0.19763291 0.32287511 0.00823122
-0.01078627 0.51204795 0.00000601
-0.20473990 0.30571094 0.09048881
-0.02868988 -0.22945762 0.00000129
-0.50868767 -0.58599353 0.00000424
-0.24296357 -0.24584621 0.00000287
-0.59918147 -0.43410867 -0.15954402
-0.09995232 -0.32563779 0.00000164
-0.52645731 -0.59170604 0.00000436
-0.59636992 -0.70320165 0.00000468
-0.19155386 -0.34887931 0.00000229
-0.01429715 0.16838621 0.00000980
-0.16343431 -0.17502438 0.00000240
-0.50785637 -0.70575988 0.00000401
-0.46842185 -0.33088875 0.27400032
-0.59251046 -0.79623502 0.00000448
-0.25759593 0.39873055 -0.16569543
-0.30921209 -0.46941707 0.00000295
-0.28793147 0.10486406 0.18148930
-0.19623549 0.32624459 0.05978789
-0.31104934 -0.51528442 0.00000288
-0.49182242 -0.20018373 -0.14057253
-0.66401136 -0.51750988 -0.21445490
-0.60727954 -0.32887083 -0.25326896
-0.32530859 -0.78678823 0.00000248
-0.48229399 -0.04458018 -0.24016228
-0.40622881 -0.18072958 0.00737994
-0.20133445 -0.13321511 0.00000277
-0.22645853 0.42090464 -0.12589002
-0.50218159 -0.26550072 -0.11029825
-0.27383927 0.32052106 -0.13640583
-0.22677131 -0.60984719 0.00000207
-0.37738135 0.04069845 -0.11398057
-0.29703584 -0.05749803 0.00000363
-0.42453191 -0.05724649 -0.12591605
-0.66024685 -0.79398566 0.11758423
-0.72169966 -0.80294174 -0.10467656
-0.32343385 0.01916716 0.02783231
-0.52440304 -0.61547214 0.00000430
-0.35836309 -0.06517108 0.00752579
-0.38208246 -0.48464841 0.00000347
-0.19340268 0.33307835 0.12453730
-0.04805943 -0.17218642 0.00000154
-0.47242048 -0.67658168 0.00000380
-0.38285863 -0.12431943 0.33172348
-0.07692373 -0.57228994 0.00000101
-0.31783256 0.22557300 -0.14486194
-0.37084714 -0.04917959 -0.03463225
-0.00279912 -0.00833578 0.00000147
-0.34153113 0.03593590 -0.04539749
-0.03724892 -0.55140609 0.00000075
-0.14508878 -0.18848528 0.00000224
-0.56740600 -0.14885750 -0.31617242
-0.35042137 0.13331439 -0.13465874
-0.23799679 -0.60873234 0.00000215
-0.69288534 -0.70675343 -0.12467411
-0.27532709 0.13529228 0.19475310
-0.33055946 0.00196056 0.07863321
-0.22653034 -0.06048841 0.00000310
-0.15850574 -0.75504524 0.00000128
-0.38377333 -0.12652352 0.16053224
-0.10390047 0.32001895 0.00000620
-0.07444231 -0.54420370 0.00000104
-0.34596762 -0.03145376 -0.00283345
-0.47357419 -0.00904780 -0.25103933
-0.55122572 -0.53079194 0.21260965
-0.45342395 -0.56184793 0.00000387
-0.12485834 0.53561890 -0.02782371
-0.46889868 -0.09859982 -0.17530359
-0.48902112 0.02246829 -0.30272043
-0.46419269 -0.32068089 0.34430304
-0.07505615 0.09666426 0.00000933
-0.22311664 -0.22554250 0.00000276
-0.47465792 -0.28637934 -0.04471018
-0.48590693 -0.37309262 0.06188204
-0.41805059 -0.19630142 -0.00972347
-0.07729651 0.68040454 -0.05032982
-0.32871106 0.00640879 0.25536555
-0.49311054 -0.53578180 0.00000422
-0.12183621 -0.61870897 0.00000126
-0.47157231 -0.33848885 0.13713571
-0.08889363 0.64802712 -0.04703984
-0.15521263 0.42528522 0.01058862
-0.24601910 0.30673143 -0.07560311
-0.02417645 0.21156330 0.00000911
-0.53552622 -0.42914528 -0.04785045
-0.32687604 0.01083677 0.28173250
-0.34655535 -0.03667637 0.32783240
-0.34365666 -0.31301826 0.00000351
-0.47305411 -0.05056629 -0.21891183
-0.08624862 -0.27929303 0.00000163
-0.04880282 -0.57993066 0.00000078
-0.13204381 0.35124508 0.00000526
-0.56507307 -0.16646995 -0.29871407
-0.65479392 -0.78082138 0.03489561
-0.26479435 -0.66871172 0.00000224
-0.13342682 0.54178816 -0.04799435
-0.08722498 -0.77405137 0.00000071
-0.33640951 -0.76142514 0.00000261
-0.02737784 0.58262783 0.00000487
-0.05629139 -0.53299654 0.00000093
-0.54124254 -0.50669104 0.25708795
-0.23675108 -0.61085051 0.00000214
-0.37369031 -0.03662490 -0.04921704
-0.27491745 -0.45771009 0.00000272
-0.00646066 -0.33905637 0.00000091
-0.31433651 0.19194263 -0.11326294
-0.48382327 -0.71352500 0.00000381
-0.34400919 0.22145027 -0.18923050
-0.34600952 0.09156123 -0.09529812
-0.38980049 0.03499997 -0.13221966
-0.12286517 -0.59704298 0.00000131
-0.39301503 -0.03188967 -0.08781364
-0.15978611 -0.44970623 0.00000186
-0.34775975 -0.36511227 0.00000344
-0.00942632 0.21765883 0.00000935
-0.04273172 -0.16049922 0.00000152
-0.39171514 0.12977184 -0.20687447
-0.68211108 -0.61823553 -0.17162143
-0.20105894 0.48616949 -0.12885419
-0.09139984 0.33097181 0.00000635
-0.35823461 -0.33004445 0.00000358
-0.30902532 0.19179995 -0.10352517
-0.20689090 -0.46615309 0.00000219
-0.69287491 -0.80415022 -0.05150302
-0.01382966 0.14919373 0.00001003
-0.18187717 0.48771647 -0.09523447
-0.03701319 0.74217910 -0.02368430
-0.24379286 0.37950236 -0.12622452
-0.22652660 -0.27853054 0.00000269
-0.50127983 -0.30155629 -0.08158273
-0.58640951 -0.42905563 -0.14018068
-0.18900144 -0.02527156 0.00000288
-0.13825849 0.00870025 0.00000898
-0.08600049 0.59644330 -0.00304922
-0.34995374 -0.29460901 0.00000359
-0.38776293 -0.13616088 0.29141328
-0.46736479 -0.32832655 0.03363250
-0.45219263 -0.48969200 0.00000399
-0.19169571 -0.05915978 0.00000284
-0.12558429 0.33690563 0.00000556
-0.56676179 -0.74843735 0.00000437
-0.02221045 -0.20484024 0.00000128
-0.08852376 0.40266463 0.00000560
-0.05333909 -0.24224195 0.00000145
-0.68769872 -0.76078469 -0.07468820
-0.40644801 0.11431100 -0.22197647
-0.18625368 0.19261317 0.00000590
-0.47409940 -0.66419423 0.00000383
-0.53219455 -0.58849490 0.00000441
-0.28342551 -0.04302238 0.00000356
-0.07297846 -0.09519943 0.00000187
-0.59258902 -0.27197739 -0.26936284
-0.18925473 0.34308976 0.15565443
-0.04548171 -0.40250760 0.00000109
-0.00891350 -0.26134402 0.00000108
-0.32490781 0.05298291 -0.02805899
-0.41956231 -0.56359506 0.00000361
-0.30215451 0.21976896 -0.11207405
-0.44772387 -0.60510468 0.00000374
-0.19869345 0.38035026 -0.04508417
-0.16223532 0.53209472 -0.09295106
-0.49174806 0.02409800 -0.30888915
-0.03443962 0.26235163 0.00000832
-0.00632455 0.54745138 0.00000571
-0.69027346 -0.65452963 -0.15916210
-0.09564926 0.56907743 0.06785413
-0.14204995 -0.63083100 0.00000139
-0.63453382 -0.68562472 -0.03473879
-0.44245237 -0.26818231 0.03057991
-0.17370066 0.24039021 0.00000563
-0.37608129 -0.00962315 -0.07382671
-0.28916472 0.10189049 0.13502605
-0.56072575 -0.62244260 0.00000456
-0.60936433 -0.51105016 -0.12021912
-0.21108374 0.29039484 0.10209550
-0.36171696 -0.48697591 0.00000332
-0.05735419 -0.49732721 0.00000100
-0.24540806 0.34588787 -0.10390549
-0.50584179 -0.42122814 0.25832522
-0.09061923 0.22905090 0.00000751
-0.55605507 -0.07295766 -0.35259637
-0.16973349 0.39022180 0.10273320
-0.53173321 -0.18211827 -0.22650835
-0.22064780 -0.51293343 0.00000220
-0.22178432 0.34489644 -0.06032474
-0.57281619 -0.07774448 -0.37939340
-0.04248532 0.20043632 0.00000885
-0.18138714 0.39693558 -0.02616047
-0.05045238 0.71592706 -0.02833524
-0.13943172 -0.08556061 0.00000239
-0.35714686 -0.78452814 0.00000272
-0.32497749 0.09755146 -0.06166070
-0.49170038 -0.38708031 0.08569083
-0.25621784 -0.05082453 0.00000334
-0.50043595 -0.33527511 -0.05472724
-0.13844462 -0.32026044 0.00000194
-0.12216342 0.53489947 -0.02239674
-0.03132486 -0.55104679 0.00000070
-0.22981827 -0.05975878 0.00000312
-0.16041806 -0.49807569 0.00000178
-0.23771127 -0.28578654 0.00000276
-0.12844048 -0.50914913 0.00000151
-0.33504516 -0.00887375 0.14147559
-0.49449554 -0.10132040 -0.21967316
-0.63619393 -0.37795997 -0.26882780
-0.03710123 0.53053278 0.00000525
-0.13037045 -0.30759907 0.00000191
-0.14821771 0.23462659 0.00000623
-0.01488458 0.43081582 0.00000684
-0.00528758 -0.75967860 0.00000004
-0.05695267 -0.27325797 0.00000142
-0.11301829 0.52714139 0.11825492
-0.48302713 -0.09802456 -0.20135374
-0.04462850 -0.25297296 0.00000136
-0.08216784 -0.65360701 0.00000089
-0.01959611 0.16941246 0.00000968
-0.22538674 -0.12866534 0.00000296
-0.30446023 -0.17601986 0.00000347
-0.11099380 0.47510150 0.00000431
-0.49301824 -0.13158277 -0.19426523
-0.61393654 -0.54222041 -0.10509834
-0.50593001 -0.61901677 0.00000416
-0.07433386 -0.36138076 0.00000138
-0.10368756 0.30721456 0.00000635
-0.34683195 0.18613672 -0.16782498
-0.14738688 0.44417763 0.01503166
-0.26820597 0.15247789 0.27035663
-0.48307720 -0.10262505 -0.19798921
-0.31362665 0.31286359 -0.20279936
-0.25812340 -0.20738241 0.00000306
-0.24025603 -0.29848313 0.00000275
-0.01754896 -0.63136399 0.00000045
-0.32058647 -0.60104573 0.00000279
-0.32302421 0.02014267 0.19541451
-0.59644186 -0.61894125 -0.01575357
-0.03695232 -0.35059932 0.00000112
-0.32324982 0.26112884 -0.18139084
-0.07511712 0.47765574 0.00000504
-0.57769746 -0.74642324 0.00000446
-0.57656950 -0.30619779 -0.21461385
-0.44259015 -0.26852772 0.33193269
-0.38458541 -0.12848996 0.29923734
-0.16178638 0.46886200 -0.04464298
-0.28947195 0.10113836 0.26522803
-0.44408381 -0.10227358 -0.12754939
-0.66883475 -0.56299537 -0.18903784
-0.21955699 0.32024065 -0.03776702
-0.16952941 0.52819580 -0.10324870
-0.21823646 -0.60549003 0.00000201
-0.57799578 -0.20577694 -0.29262340
-0.11934874 0.57447791 -0.04702030
-0.11907999 0.56272358 -0.03770430
-0.30940974 0.05302283 0.04126544
-0.01252694 0.77756566 -0.00586305
-0.28798631 -0.20304941 0.00000329
-0.41841462 -0.21015321 0.11023871
-0.37918991 -0.11545308 0.04142425
-0.56897771 -0.15020193 -0.31801251
-0.44216380 -0.26749748 0.31052688
-0.54630971 -0.77404672 0.00000417
-0.35888565 0.23946267 -0.22973458
-0.05015163 -0.64814860 0.00000066
-0.15672512 0.24202818 0.00000597
-0.09773803 0.04426761 0.00000944
-0.20790990 0.14641692 0.00000596
-0.34993640 -0.00084843 -0.03300977
-0.05395339 0.66974145 0.03556118
-0.28554496 0.33514625 -0.16861632
-0.63243759 -0.72037995 -0.00483407
-0.63268745 -0.59302944 -0.10093673
-0.59155744 -0.58691299 -0.03095265
-0.39866221 0.12324934 -0.21457230
-0.46236593 -0.25039986 -0.04944530
-0.27955061 -0.28732532 0.00000307
-0.58415776 -0.46710709 -0.10751842
-0.22512648 0.06230479 0.00000654
-0.67825043 -0.72539204 -0.08413870
-0.70338213 -0.78951734 -0.08154548
-0.50022167 -0.27351519 -0.10072498
-0.15480421 -0.03071327 0.00000261
-0.57984298 -0.44066170 -0.11955712
-0.60436833 -0.40543461 -0.19048525
-0.25543115 -0.16654141 0.00000311
-0.11296414 -0.15924478 0.00000205
-0.05346743 0.36358723 0.00000678
-0.18468967 0.21424651 0.00000569
-0.45077127 0.04734189 -0.25204584
-0.07465089 -0.28693208 0.00000153
-0.05443311 -0.13251090 0.00000166
-0.42170200 -0.44416803 0.00000385
-0.14880759 0.44073737 0.14524591
-0.35772699 0.09091042 -0.11605616
-0.33322629 0.26650855 -0.20352153
-0.16984268 -0.51932389 0.00000181
-0.50991184 -0.17232890 -0.19429374
-0.42962617 -0.08381020 -0.11520176
-0.25679541 0.21745701 -0.02808947
-0.54657918 -0.06290170 -0.34296718
-0.17441379 0.47456002 -0.07181956
-0.43897769 -0.18296158 -0.05768821
-0.20048527 -0.60199183 0.00000188
-0.02912641 0.17479876 0.00000942
-0.64055312 -0.74644196 0.09122762
-0.27174154 0.17138222 -0.02058406
-0.29370195 0.14280429 -0.03893922
-0.53355157 -0.48812383 0.23343363
-0.57243156 -0.16294096 -0.31470716
-0.40753332 -0.18389118 0.29529440
-0.66446781 -0.75355554 -0.03799479
-0.08228968 -0.24784887 0.00000166
-0.62044096 -0.38557884 -0.23454168
-0.53784537 -0.02654169 -0.35444039
-0.34952950 -0.04384580 0.03058016
-0.63020575 -0.60284340 -0.08906587
-0.36051235 0.11171708 -0.13673463
-0.51622778 -0.20663065 -0.17998283
-0.16468932 0.26483262 0.00000554
-0.49616620 -0.69532794 0.00000394
-0.37761718 0.01293173 -0.09355266
-0.07936092 -0.79080737 0.00000062
-0.06823331 -0.20321220 0.00000163
-0.13515984 0.47369483 0.02882586
-0.07104591 -0.26039344 0.00000155
-0.63079906 -0.71476305 -0.00608173
-0.49358609 -0.39163011 0.02132072
-0.41816285 0.00790314 -0.16329572
-0.42681682 -0.06208139 -0.12642770
-0.08795344 0.60162061 -0.01047915
-0.49837801 -0.60831207 0.00000412
-0.31925282 -0.07456705 0.00000377
-0.42580411 0.11580742 -0.25819814
-0.68940574 -0.72715664 -0.10304055
-0.01741177 0.76462758 -0.00500278
-0.55917323 -0.20867501 -0.25631720
-0.62036985 -0.28806266 -0.30765462
-0.16104069 -0.68554878 0.00000143
-0.30669203 0.21663550 -0.11794824
-0.26110432 -0.57310277 0.00000240
-0.09156016 -0.50936860 0.00000124
-0.43968523 0.07075420 -0.24952887
-0.33599982 -0.01119546 0.35381877
-0.12942021 0.20015009 0.00000701
-0.04558975 -0.08292996 0.00000169
-0.12324708 0.50245440 0.02888813
-0.33505648 -0.00890583 0.20045850
-0.21120182 -0.01536562 0.00000306
-0.37235180 0.15915613 -0.19383410
-0.45971048 -0.30985820 0.28966379
-0.05387414 0.61255533 0.00000397
-0.32753286 0.00926913 0.05627336
-0.59879762 -0.30833307 -0.25331464
-0.28014523 -0.45608866 0.00000276
-0.46660516 0.05318477 -0.28514549
-0.23663764 -0.59139234 0.00000218
-0.29958504 0.24956170 -0.12979221
-0.16751042 0.39973891 -0.00310387
-0.23384410 0.39258027 -0.11800759
-0.70627129 -0.68511277 -0.16519965
-0.29641598 0.08439240 0.03814305
-0.21143684 -0.10030177 0.00000291
-0.50529099 -0.30300915 -0.08776463
-0.19158365 -0.37840688 0.00000224
-0.19962788 0.31805372 0.07285484
-0.34391806 -0.14814653 0.00000382
-0.27511117 0.33185777 -0.14722709
-0.24410431 -0.32312778 0.00000274
-0.43826324 -0.22642761 -0.02374659
-0.62639564 -0.71226364 0.09834374
-0.05979656 -0.26668456 0.00000145
-0.37392998 0.05373780 -0.11751615
-0.05555659 -0.19936746 0.00000155
-0.48757866 -0.37712869 0.06453399
-0.27110538 0.16548257 -0.01499931
-0.39900866 -0.16329929 0.02517870
-0.04444455 0.18935256 0.00000893
-0.04716532 -0.07733613 0.00000171
-0.08177836 0.55331433 0.00000405
-0.09413648 -0.65284270 0.00000099
-0.21421710 0.28282312 0.19267514
-0.56814790 -0.56932050 -0.00171908
-0.04889782 0.72322476 -0.03099774
-0.65129638 -0.70761943 -0.04861341
-0.18170170 -0.66327447 0.00000163
-0.17888486 0.50251597 -0.10092452
-0.30506831 0.06349289 0.17805237
-0.14567876 0.14616121 0.00000728
-0.38381729 -0.12662779 0.11618507
-0.56449032 -0.51421618 -0.03647451
-0.07668731 -0.17807817 0.00000174
-0.25369143 0.18752882 0.14305203
-0.28455272 0.11301406 0.26805764
-0.36284083 -0.44621110 0.00000340
-0.10202836 0.62608308 -0.05437444
-0.40818772 -0.18547057 0.28389415
-0.09539349 0.05621385 0.00000935
-0.45118934 -0.28928879 0.36209357
-0.51986414 -0.62209916 0.00000426
-0.14319159 0.45430404 0.03705827
-0.01499711 -0.27556524 0.00000110
-0.63474298 -0.49695939 -0.17681953
-0.21129845 0.47151509 -0.13641421
-0.20695806 -0.00193090 0.00000306
-0.21002978 -0.25394884 0.00000261
-0.03112046 0.58304268 0.00000478
-0.39244571 0.19253807 -0.25534287
-0.17636254 0.13497470 0.00000676
-0.59308976 -0.39458933 -0.17818028
-0.42790368 0.11283331 -0.25977141
-0.26300457 0.16503654 0.25133151
-0.39353022 -0.15008771 0.39620328
-0.49147221 -0.77038258 0.00000376
-0.46943113 -0.33332506 0.26626989
-0.21612439 0.38963193 -0.08366255
-0.24866681 -0.47820324 0.00000248
-0.25188583 0.27108613 -0.05946789
-0.45137817 -0.70058429 0.00000359
-0.23086765 0.24263722 0.04773883
-0.09460177 0.51584035 0.00000420
-0.24923363 -0.12503284 0.00000315
-0.56124192 -0.55497259 0.21793324
-0.63033772 -0.72178036 0.05425666
-0.03497772 0.52985030 0.00000530
-0.31006119 0.21235889 -0.12084527
-0.10672629 0.54234082 0.00109357
-0.17561322 0.00353763 0.00000825
-0.51751220 -0.44940224 0.23754901
-0.14285719 0.35212880 0.00000502
-0.48360181 -0.57462317 0.00000407
-0.45492864 -0.12509459 -0.13007323
-0.09436018 0.63810766 -0.04950166
-0.63641751 -0.60387027 -0.09955784
-0.26348203 -0.54398924 0.00000247
-0.23884843 0.31158599 -0.06624707
-0.29191673 0.15372805 -0.04390700
-0.11957883 0.03649695 0.00000906
-0.58852702 -0.68296850 0.00000466
-0.09690841 -0.11547460 0.00000201
-0.20990311 -0.78954631 0.00000160
-0.09379081 0.58463192 -0.00830364
-0.64628929 -0.59045672 -0.12753224
-0.35348418 -0.05339357 0.03720922
-0.45719820 -0.07336071 -0.17304441
-0.51790756 -0.25840288 -0.14414389
-0.28434178 -0.55392170 0.00000261
-0.22925296 0.34583992 -0.07457600
-0.42718843 0.03571221 -0.20054889
-0.25550517 -0.59932637 0.00000230
-0.04185004 -0.26647004 0.00000132
-0.31092179 -0.66295958 0.00000260
-0.41383174 -0.19909240 0.18822861
-0.47772375 -0.02537979 -0.24629663
-0.49155343 -0.38672411 0.05195141
-0.01114307 -0.70704544 0.00000026
-0.31698900 0.21436559 -0.13491444
-0.54807127 -0.40425196 -0.08929419
-0.40764987 0.14380731 -0.24631041
-0.46735719 -0.17920446 -0.11196851
-0.09117957 0.14235716 0.00000847
-0.12393010 0.34808123 0.00000547
-0.06689887 0.37574953 0.00000636
-0.66084003 -0.70845348 -0.06529184
-0.64015985 -0.74549252 0.08999627
-0.13767616 -0.14140946 0.00000227
-0.22561435 -0.54924333 0.00000217
-0.32657126 0.14239353 -0.09823149
-0.67980808 -0.60752553 -0.17548952
-0.57167697 -0.13123530 -0.33715218
-0.16240346 0.40791211 0.17433532
-0.02745605 0.46149701 0.00000623
-0.11582186 -0.71758974 0.00000103
-0.02925632 0.17220990 0.00000944
-0.49603286 -0.22532693 -0.12932265
-0.27629432 0.31407580 -0.13601644
-0.20078124 -0.40443489 0.00000226
-0.27144516 0.14465967 0.24863221
-0.08090186 -0.67415607 0.00000085
-0.39118537 0.14597660 -0.21808524
-0.49794561 -0.58337450 0.00000416
-0.10131638 0.49192473 0.00000433
-0.18967229 0.47085768 -0.09670648
-0.29263014 -0.20276567 0.00000333
-0.03745620 0.63741744 0.00000404
-0.37129682 0.18262102 -0.20954563
-0.56199050 -0.55677730 0.10893720
-0.05528022 -0.68649471 0.00000063
-0.42415208 -0.07481516 -0.11203193
-0.65898895 -0.48059601 -0.23307316
-0.31855881 0.15477288 -0.09300090
-0.11084925 -0.61886877 0.00000118
-0.34667706 -0.79527754 0.00000262
-0.49804184 -0.40238765 0.03020851
-0.11809886 -0.27527732 0.00000187
-0.09211152 -0.56700474 0.00000113
-0.32438242 -0.77203608 0.00000250
-0.58041102 -0.31894311 -0.21200669
-0.59081835 -0.23651236 -0.29278907
-0.21733034 0.27531022 0.15467124
-0.25097641 0.26776767 -0.05532640
-0.52370918 -0.56777060 0.00000439
-0.57842827 -0.50479943 -0.06881976
-0.32295519 0.02032107 0.04847506
-0.03164471 0.22712927 0.00000878
-0.42541048 -0.44484895 0.00000388
-0.19802479 0.32191530 0.17955747
-0.34810993 -0.43149367 0.00000332
-0.11995075 0.45664313 0.00000433
-0.53227019 -0.44801047 -0.02777740
-0.52241123 -0.20936173 -0.18914358
-0.36223096 0.04266888 -0.08798888
-0.09868038 0.09714796 0.00000882
-0.43934500 -0.26069355 0.34018791
-0.60328072 -0.64070415 -0.01180845
-0.09212972 0.10802569 0.00000884
-0.14322442 0.53806752 -0.06296543
-0.58689439 -0.16435555 -0.33986914
-0.51061237 -0.37109953 -0.04627263
-0.34740493 -0.03872648 0.31640980
-0.25163761 -0.11981767 0.00000317
-0.04196625 -0.29927900 0.00000126
-0.06925274 -0.01937388 0.00000199
-0.23508760 -0.01839567 0.00000324
-0.10115079 -0.18343045 0.00000192
-0.19812223 0.05637278 0.00000718
-0.69350988 -0.74858147 -0.09439065
-0.05105673 0.32701051 0.00000724
-0.04962383 0.04868933 0.00001040
-0.10852374 0.36637780 0.00000559
-0.29381791 -0.29041401 0.00000317
-0.47757965 -0.35299456 0.19894485
-0.67080033 -0.78340220 -0.02706002
-0.27085394 0.24808978 -0.07658958
-0.36184508 0.17032921 -0.18317474
-0.03619560 -0.35188109 0.00000111
-0.43129814 -0.66494602 0.00000351
-0.16048013 -0.38367474 0.00000199
-0.49324828 -0.39081702 0.07931436
-0.31472868 0.04016639 0.23554651
-0.60440946 -0.60881537 -0.03780593
-0.49216792 -0.65697736 0.00000398
-0.57017529 -0.38377026 -0.14475705
-0.45770338 -0.05131193 -0.19052070
-0.44548362 -0.27551168 0.29574868
-0.13338801 -0.77306759 0.00000106
-0.42999366 -0.23810799 0.11984697
-0.03369678 0.09339111 0.00001024
-0.33710805 -0.17308149 0.00000372
-0.44726267 -0.37495780 0.00000417
-0.39636195 -0.27101079 0.00000398
-0.53350848 -0.04159949 -0.33526656
-0.37745771 -0.75535768 0.00000293
-0.41445521 -0.44499043 0.00000379
-0.29241890 -0.33325139 0.00000308
-0.27836284 0.26419401 -0.10230108
-0.12352803 0.01680198 0.00000920
-0.09768043 0.43657416 0.00000503
-0.30428788 -0.57016176 0.00000273
-0.55173671 -0.07881364 -0.34036767
-0.39794701 -0.16074495 0.23047744
-0.19748189 0.18184756 0.00000578
-0.12288743 -0.56242061 0.00000137
-0.31051895 0.26416758 -0.16058877
-0.54835361 -0.50563866 -0.01365726
-0.06938345 -0.51537842 0.00000106
-0.21932179 -0.25543886 0.00000268
-0.47448465 -0.54737860 0.00000405
-0.24634905 -0.29959357 0.00000280
-0.49601206 -0.39748850 0.05763848
-0.32253909 0.02132585 0.04549045
-0.53683549 -0.15919401 -0.25297770
-0.25719371 0.06936951 0.00000579
-0.43158647 -0.35817182 0.00000408
-0.55568695 -0.73484212 0.00000431
-0.49944991 -0.40579686 0.26165178
-0.12466069 0.06248984 0.00000866
-0.54357857 -0.14353444 -0.27696586
-0.64166206 -0.63522917 -0.08551463
-0.19253722 -0.75090903 0.00000154
-0.66870880 -0.52582866 -0.21672435
-0.16197957 0.40894803 0.01748211
-0.39820209 -0.49024466 0.00000358
-0.02232758 0.38628319 0.00000718
-0.54048544 -0.75500512 0.00000416
-0.22984214 0.24511132 0.06862900
-0.44518402 -0.60676509 0.00000372
-0.17350037 -0.56534624 0.00000175
-0.03588874 0.41708267 0.00000655
-0.34931409 -0.04333028 0.25057247
-0.48689243 -0.14605390 -0.17228882
-0.11389922 0.57656121 -0.03870364
-0.36091506 -0.07134821 0.38898239
-0.21790703 -0.40272886 0.00000239
-0.66277868 -0.50362116 -0.22265114
-0.46370518 -0.31950247 0.29330093
-0.14232466 -0.32646754 0.00000196
-0.56994981 -0.11831845 -0.34372193
-0.12880976 0.30990350 0.00000579
-0.39549229 0.06722214 -0.16674241
-0.27766272 0.21897046 -0.06706419
-0.28138006 0.23782118 -0.08796346
-0.39756843 -0.11026778 -0.03720227
-0.12241730 0.24028005 0.00000671
-0.28514066 0.11160252 0.16961388
-0.07255925 0.01414202 0.00001031
-0.50418502 -0.41722825 0.25564393
-0.13879018 0.26601705 0.00000608
-0.49236527 0.01551419 -0.30356106
-0.31082463 0.04960353 0.08480576
-0.50430226 -0.41750401 0.08373019
-0.46552515 -0.32388407 0.00500883
-0.60127473 -0.63710797 -0.01087220
-0.01128866 0.36931875 0.00000761
-0.58925748 -0.23245876 -0.29300338
-0.39971083 0.08794302 -0.18995520
-0.31673044 0.17802358 -0.10714915
-0.20465781 0.38472930 -0.05918824
-0.15163551 -0.49455473 0.00000172
-0.02144814 -0.38267726 0.00000094
-0.10159752 0.03361828 0.00000948
-0.39586523 -0.38711178 0.00000376
-0.60268587 -0.21752852 -0.32856581
-0.22548825 -0.52250159 0.00000222
-0.10838809 0.54165232 -0.00249046
-0.47451544 -0.63320905 0.00000389
-0.26144984 0.20660353 -0.02837717
-0.22323342 0.45371139 -0.14468314
-0.23554961 -0.22634682 0.00000285
-0.04602979 0.28351155 0.00000784
-0.23212563 -0.30415249 0.00000268
-0.37887591 0.05450545 -0.12706102
-0.20124032 -0.12946297 0.00000278
-0.45131561 -0.28958330 0.10497906
-0.28290629 -0.35262513 0.00000297
-0.15490308 -0.67162752 0.00000141
-0.14241497 0.45617682 0.06397139
-0.02154147 -0.28868487 0.00000112
-0.11004757 -0.10244079 0.00000214
-0.15147819 -0.38301510 0.00000192
-0.16733254 0.23117250 0.00000586
-0.55123645 -0.53081387 0.09050965
-0.42095640 -0.47349313 0.00000379
-0.06525098 0.05825076 0.00000997
-0.40870237 -0.18671666 0.36939633
-0.53487802 -0.75198239 0.00000413
-0.56858927 -0.47994608 -0.06964617
-0.71147448 -0.80131400 -0.08735857
-0.45764855 -0.30488232 0.35414809
-0.48714659 -0.21720158 -0.11931256
-0.47379440 0.07109847 -0.31163645
-0.09279439 0.57597160 0.04311197
-0.20679191 0.30075607 0.10239049
-0.60677123 -0.35875699 -0.22990052
-0.20797227 -0.59668100 0.00000195
-0.33434072 0.24660315 -0.19059134
