ply
format ascii 1.0
element vertex 1396
property float x
property float y
property float z
end_header
-0.36550301 -0.19087598 0.00000000
-0.37837455 0.10099438 0.00000441
0.76323152 -0.65025842 0.22607769
-0.56941605 -0.06440531 -0.00000090
0.72425848 -0.59839308 0.21453305
0.34219232 0.06537293 0.10136735
0.60464799 -0.01948082 0.17910227
-0.60993856 -0.49141753 -0.00000032
0.39865214 -0.41701341 0.11808497
0.67323172 0.00974090 0.19941875
0.41665789 -0.62497789 0.12341847
-0.11797751 -0.28785574 0.00000000
-0.75936675 -0.17671034 -0.00000151
-0.51692253 -0.13966896 -0.00000054
-0.79462022 -0.35352379 -0.00000112
0.25014168 0.01997990 0.07410321
-0.37699848 -0.51097548 0.00000000
-0.14944965 -0.15499006 0.00000000
-0.63385636 0.01057716 0.00000101
-0.06024926 0.03126712 0.00001062
-0.46510562 -0.65593159 0.00000000
0.14357395 0.56898248 0.04252937
0.62642431 -0.78153664 0.18555349
-0.11353937 -0.45808813 0.00000000
0.10628715 0.41324595 0.03148785
-0.13554373 0.33896315 0.00000487
0.11144224 -0.56304312 0.03301037
-0.73540694 -0.51122904 -0.00000072
-0.79331404 -0.27125937 -0.00000132
0.26673910 0.05023326 0.07901889
-0.30251959 -0.32102373 0.00000000
-0.46297258 -0.33941537 0.00000000
-0.01473973 0.06314971 0.00001083
0.36556104 0.12139861 0.10828788
0.37872866 -0.55531842 0.11218342
0.04243261 0.66874337 0.01257043
0.18929714 -0.71104991 0.05607181
-0.17324688 -0.00042704 0.00000000
0.08495037 -0.56796676 0.02516319
0.55802572 -0.35101584 0.16529280
-0.77620041 -0.26261851 -0.00000134
0.43298113 0.13529892 0.12825674
0.74084783 -0.79984158 0.21944769
-0.70841944 -0.27491429 -0.00000112
-0.76782548 -0.79137605 -0.00000002
0.27528858 0.15301155 0.08154954
0.39931011 0.00379131 0.11828617
0.45624307 -0.31455868 0.13514397
0.18785283 -0.35948601 0.05564399
0.19542132 0.44434240 0.05788832
0.09272628 -0.23674688 0.02746650
-0.25845563 0.27125525 0.00000387
-0.74445057 -0.18026231 -0.00000144
0.12651534 0.63958436 0.03747548
-0.31952620 -0.34240183 0.00000000
0.20847100 0.45269912 0.06175334
-0.64313084 -0.72178906 -0.00000005
-0.14566272 -0.64835721 0.00000000
0.58731836 0.17113277 0.17396915
0.54557520 -0.37582144 0.16160490
0.55811429 -0.08345475 0.16531871
-0.42399034 -0.10707675 -0.00000021
-0.52578068 -0.49459392 0.00000000
-0.45838588 -0.19609451 -0.00000020
-0.17091514 -0.12389298 0.00000000
0.12620236 -0.44340265 0.03738247
0.23502500 0.35953403 0.06962008
0.27658898 -0.39265412 0.08192858
0.55327803 -0.38562348 0.16388653
-0.36623013 0.26403251 0.00000192
-0.32699347 0.21029012 0.00000357
-0.02658959 0.48308182 0.00000435
0.17297482 -0.02082408 0.05123697
-0.00170037 -0.03989575 0.00000000
0.36376792 0.03608353 0.10775835
0.02821117 -0.04090571 0.00835645
-0.40993673 0.37568837 -0.00000078
-0.77523190 0.01585942 -0.00000179
-0.69606119 0.06754419 -0.00000113
0.04969967 -0.50038165 0.01472157
-0.23682173 0.42175147 0.00000177
-0.70066965 -0.18198508 -0.00000125
-0.75412530 0.04506983 -0.00000187
0.54815936 0.14619282 0.16237113
0.20443645 0.06627629 0.06056470
-0.05394769 0.73398411 0.00000007
0.14156373 -0.09584790 0.04193267
0.48628816 -0.75115895 0.14404368
-0.26172566 -0.42300206 0.00000000
-0.13802227 -0.39181697 0.00000000
0.68089896 -0.71377361 0.20168953
0.57976705 -0.72777253 0.17173313
-0.58375496 -0.03360344 -0.00000102
-0.31233048 -0.73364294 0.00000000
-0.75628364 -0.75979656 -0.00000010
0.32405367 -0.51539165 0.09598812
0.46575776 -0.77952015 0.13796236
-0.26268923 0.10690384 0.00000643
-0.40701118 -0.47046873 0.00000000
0.55206728 -0.09704787 0.16352756
0.47016460 -0.70066327 0.13926771
-0.53267765 -0.20260201 -0.00000050
0.54430467 -0.56107944 0.16122878
0.08896690 -0.45840141 0.02635293
-0.72861487 -0.74988723 -0.00000013
0.63403100 -0.73279333 0.18780661
0.14655270 0.51164204 0.04341270
0.41047984 0.11909865 0.12159239
0.21858867 0.53505486 0.06474856
-0.56386888 -0.60389209 0.00000000
-0.55950820 -0.76904476 0.00000000
-0.11163076 0.01256634 0.00001013
-0.35132241 0.29905581 0.00000162
0.47666383 -0.72608030 0.14119285
0.41803265 -0.42281809 0.12382568
0.35478938 0.05222061 0.10509871
-0.31121275 -0.32148126 0.00000000
0.36470625 -0.16562063 0.10802984
0.70786828 -0.54540753 0.20967783
-0.60191196 0.14996849 -0.00000070
0.54858780 -0.78888738 0.16249749
-0.53678697 -0.17100336 -0.00000057
-0.08592981 0.27483261 0.00000658
-0.56586444 -0.39988410 -0.00000029
0.57004207 -0.22662807 0.16885199
-0.23219611 0.38979015 0.00000239
-0.53789723 0.22275200 -0.00000069
-0.01202832 -0.64427829 0.00000000
0.24077860 0.35491237 0.07132431
-0.29571208 -0.31266528 0.00000000
0.22042039 0.40578091 0.06529349
-0.15669505 0.32514554 0.00000476
-0.67125988 -0.26452455 -0.00000098
0.62241071 -0.32687402 0.18436408
0.67825890 -0.41899115 0.20090684
-0.75252765 -0.39885250 -0.00000100
0.19621104 0.05562399 0.05812850
-0.01739453 0.15981223 0.00000934
0.23726220 -0.12258507 0.07027957
-0.21386293 -0.75436771 0.00000000
-0.42590401 0.23074181 0.00000133
-0.48454872 -0.28277802 -0.00000015
-0.01621668 0.33493534 0.00000673
-0.04249719 0.67127550 0.00000129
-0.08766160 0.24522457 0.00000700
0.27919886 -0.74309236 0.08270165
0.28959301 -0.13145936 0.08578051
-0.22682576 0.20291004 0.00000553
-0.21383546 -0.32852110 0.00000000
0.24783675 -0.46504399 0.07341186
0.68783367 -0.70508581 0.20374370
-0.40034568 0.13476814 0.00000342
0.49398398 0.17331740 0.14632444
-0.70724607 -0.20869048 -0.00000124
-0.47879389 0.23254041 0.00000028
0.03935542 0.35627905 0.01166362
-0.08367950 0.59989399 0.00000174
0.53599751 -0.07669370 0.15876755
-0.09376577 -0.58920932 0.00000000
-0.54033589 0.24697147 -0.00000114
-0.79639614 -0.00701023 -0.00000197
0.46644348 -0.52347994 0.13816547
-0.07781664 -0.39332032 0.00000000
0.14251959 0.50039011 0.04221834
-0.49979019 -0.66525036 0.00000000
0.67791539 -0.78620237 0.20080596
0.12252482 0.20247929 0.03630056
-0.40084913 0.13219316 0.00000346
0.02000572 -0.16277213 0.00592590
0.64267075 0.00194350 0.19036707
0.65005958 -0.50010127 0.19255409
0.13238449 -0.38151187 0.03921369
0.62566954 0.06582466 0.18533030
-0.35129514 -0.61936337 0.00000000
0.67793202 -0.48914179 0.20081012
-0.12165886 -0.05618863 0.00000000
-0.41176480 0.30309284 0.00000039
-0.36092648 -0.26086926 0.00000000
-0.46041897 -0.07684508 -0.00000041
0.28175905 -0.46903408 0.08346000
0.19035809 -0.65825528 0.05638607
-0.58168703 -0.73919189 0.00000000
-0.26009130 -0.27203086 0.00000000
0.26520082 0.10665388 0.07856242
-0.07567761 -0.04690684 0.00000000
-0.10543286 -0.77355796 0.00000000
-0.10335803 -0.72550613 0.00000000
0.10143350 0.45580253 0.03004958
0.19164579 0.44237807 0.05677008
-0.02379932 -0.53850061 0.00000000
0.23671305 -0.49628550 0.07011690
-0.38813278 0.19542499 0.00000265
-0.05954182 -0.26048777 0.00000000
-0.10717014 -0.34319973 0.00000000
0.00668138 0.14728862 0.00198871
-0.03025384 0.12645216 0.00000965
-0.15562756 0.18378958 0.00000689
0.33212477 0.19559322 0.09838303
0.20081772 0.43481779 0.05948685
0.66118389 -0.68038380 0.19584948
-0.03987310 -0.33676180 0.00000000
0.28279236 0.38419968 0.08376781
0.64838398 0.04937369 0.19205838
-0.49573672 -0.34523457 -0.00000009
-0.54963487 -0.55434948 0.00000000
-0.42723659 0.26904544 0.00000066
-0.57506734 -0.26063010 -0.00000058
0.02253410 0.62218720 0.00667721
-0.66217852 -0.41757706 -0.00000067
-0.27557161 0.06649298 0.00000684
0.60562736 0.09158274 0.17939354
0.63635659 -0.51773727 0.18849520
-0.59823143 0.18796702 -0.00000127
0.13797154 -0.31259480 0.04086862
0.35922393 0.01982416 0.10641277
-0.03783579 0.53410876 0.00000342
-0.50076199 0.03269003 0.00000320
0.29913774 0.48508707 0.08860723
0.08368472 -0.11893219 0.02478830
0.10078763 0.60286325 0.02985588
0.51647073 -0.20169531 0.15298371
0.06727030 -0.61196119 0.01992617
-0.16003278 -0.13916002 0.00000000
-0.16574912 0.32067230 0.00000469
-0.02650362 0.35511693 0.00000627
-0.68533212 0.03806997 -0.00000043
0.58918887 0.08004508 0.17452486
0.09022137 0.35831058 0.02673001
-0.21140394 -0.55722481 0.00000000
-0.17219390 -0.46924472 0.00000000
-0.73170632 -0.34716848 -0.00000109
-0.34473878 -0.51058596 0.00000000
0.03093915 0.35470712 0.00917075
0.32708427 0.14284422 0.09689106
0.52662408 -0.07610699 0.15599106
0.10823437 0.59322315 0.03206170
-0.26613784 -0.23933475 0.00000000
0.37439209 0.00070254 0.11090578
0.17129841 -0.11671795 0.05074040
0.35270405 0.06814480 0.10448076
-0.40778577 0.12560144 0.00000343
0.11629757 -0.03519094 0.03444857
-0.63166982 0.09795809 -0.00000040
0.37028334 -0.43293333 0.10968183
0.33783683 -0.72089702 0.10007083
-0.07692712 -0.78021038 0.00000000
0.48569185 0.03474174 0.14387096
0.16551480 -0.05039931 0.04902723
0.11037073 0.41359130 0.03269740
0.71980482 -0.17329586 0.21321277
0.37018305 -0.73090416 0.10965212
-0.68927747 -0.74788481 -0.00000013
-0.34518087 -0.30560863 0.00000000
0.26789534 0.32958499 0.07935648
-0.02044170 0.71061635 0.00000103
0.75512326 -0.06039705 0.22367421
-0.34327418 -0.25333032 0.00000000
-0.12747592 -0.18581253 0.00000000
-0.19608128 -0.07058340 0.00000000
-0.25784507 -0.49112242 0.00000000
0.10114617 -0.17206746 0.02996056
0.30072141 -0.65650845 0.08907686
-0.04765959 -0.36909693 0.00000000
0.00064470 0.00117989 0.00020283
0.40700224 -0.40425873 0.12055836
0.21513049 -0.71115196 0.06372393
0.68129426 -0.15458515 0.20180564
0.12922938 -0.52274543 0.03827911
-0.00855317 -0.41312486 0.00000000
-0.21651404 -0.79517353 0.00000000
0.42525142 -0.79649502 0.12596396
-0.07656815 -0.08322671 0.00000000
0.59623349 0.16440567 0.17660984
0.22462028 0.23442243 0.06654062
-0.35059342 -0.44291312 0.00000000
0.01589196 -0.50442553 0.00470737
-0.09512729 0.60345018 0.00000146
-0.00224051 -0.13402250 0.00000000
-0.28405812 0.09924939 0.00000623
-0.02070089 -0.30617508 0.00000000
-0.13880482 -0.35005340 0.00000000
-0.12194853 0.43427369 0.00000365
-0.65946734 -0.49890015 -0.00000052
-0.49923360 -0.53931332 0.00000000
0.47291863 -0.36493802 0.14008345
-0.18225469 0.06280481 0.00000831
-0.35805374 0.34223363 0.00000077
-0.15408479 -0.02272445 0.00000000
0.64298934 0.04617840 0.19046061
0.07724619 -0.18341994 0.02288114
0.57434142 -0.33161062 0.17012560
0.74201232 -0.64535236 0.21979219
0.05397774 0.06094744 0.01599911
0.41039625 -0.34699020 0.12156370
0.33034724 -0.42736089 0.09785234
-0.36287373 -0.62541759 0.00000000
0.19122162 -0.36198214 0.05664186
-0.26502362 -0.73815501 0.00000000
-0.44172895 -0.14662136 -0.00000021
-0.42906880 -0.37695485 0.00000000
-0.06694159 -0.30581018 0.00000000
0.39957222 -0.22772200 0.11835751
0.25460559 -0.37836266 0.07541686
-0.26085359 0.52829880 -0.00000047
-0.36553270 -0.31761009 0.00000000
0.01880644 0.68798620 0.00557211
-0.30658585 -0.60122365 0.00000000
-0.30843237 -0.67943656 0.00000000
0.04457282 -0.57686985 0.01320294
-0.36164600 -0.60451949 0.00000000
-0.64164758 0.15384389 -0.00000153
0.71477681 -0.57134753 0.21172433
-0.32625589 -0.25425088 0.00000000
-0.78465277 -0.01329095 -0.00000191
0.64997995 -0.38912550 0.19253036
-0.58053434 -0.28076395 -0.00000057
-0.05190059 -0.28833303 0.00000000
0.11590075 -0.52827477 0.03433102
-0.12900215 0.35881093 0.00000467
-0.35480574 -0.20779680 0.00000000
0.16195220 0.41154739 0.04797572
-0.19673008 0.03244783 0.00000854
0.02605131 0.60491431 0.00771926
-0.49752367 -0.47799161 0.00000000
0.21407558 -0.66498631 0.06341145
0.68959212 -0.34650058 0.20426375
-0.07326638 -0.50502521 0.00000000
-0.18709624 0.09601278 0.00000774
0.33904678 -0.64641494 0.10042924
0.27180925 0.18406712 0.08051842
0.01550934 0.16068952 0.00460334
0.31271052 -0.07020744 0.09262815
0.19696866 0.15977430 0.05835136
-0.19786596 -0.45540264 0.00000000
-0.76190686 -0.44377658 -0.00000089
-0.08104342 -0.70175749 0.00000000
0.42850789 -0.49513307 0.12692855
-0.64492333 -0.51653481 -0.00000043
0.06332278 -0.21677886 0.01875688
-0.17151368 0.25904879 0.00000553
-0.06170532 -0.78982133 0.00000000
0.20267639 0.43203732 0.06003742
-0.48916462 -0.52314872 0.00000000
-0.44357917 0.30767179 -0.00000029
-0.36934796 0.40296692 -0.00000046
0.44735894 0.05566104 0.13251677
0.27779630 0.35605782 0.08228855
0.00722719 -0.47654000 0.00214077
-0.66557634 -0.23153545 -0.00000102
-0.19886294 -0.42600554 0.00000000
0.39504153 -0.47945854 0.11701547
-0.17855315 -0.67234904 0.00000000
0.75095797 -0.53858268 0.22244173
0.40205377 -0.45706090 0.11909257
-0.36738518 -0.51914817 0.00000000
-0.19263187 0.18207134 0.00000636
0.45628983 -0.66815114 0.13515785
0.21363893 -0.03853490 0.06328211
-0.74542379 -0.53253275 -0.00000067
-0.49701020 0.02713019 0.00000337
-0.04247542 0.74595851 0.00000009
0.10287008 -0.52240378 0.03047120
0.03181492 0.38167185 0.00942975
0.15225366 0.02335698 0.04510887
0.62291825 -0.00632402 0.18451405
0.18517986 -0.61350346 0.05485223
0.25660247 0.43322390 0.07600974
-0.18537925 -0.23278204 0.00000000
0.63285136 -0.13645694 0.18745646
0.01675713 -0.48568967 0.00496364
0.08282497 0.23464377 0.02454104
0.16846763 0.39698702 0.04990579
0.61423475 -0.47894776 0.18194249
-0.10368293 -0.42998549 0.00000000
-0.49705169 0.26068631 -0.00000054
0.29350200 -0.61782384 0.08693839
-0.75106323 -0.43010217 -0.00000092
0.19757529 -0.16594464 0.05852388
-0.33871371 0.37542680 0.00000059
-0.47987908 -0.02705924 -0.00000059
0.56069553 -0.27901596 0.16608353
0.00193312 -0.22242177 0.00057261
0.21336354 -0.36749390 0.06320053
-0.52831775 0.09339530 0.00000166
0.69589865 -0.51543647 0.20613213
-0.42384285 -0.13919245 -0.00000015
0.71425956 -0.36809838 0.21157053
0.24223880 -0.15527147 0.07175369
0.35233265 -0.30172986 0.10436465
0.42161486 -0.56008118 0.12488677
0.50667375 0.11104621 0.15008417
-0.03433568 0.00305226 0.00001144
-0.07009934 0.44425312 0.00000428
0.20483205 0.56850165 0.06067338
-0.54248399 -0.48424986 -0.00000004
-0.21197338 -0.74148768 0.00000000
0.46518472 -0.18450372 0.13779239
0.69296587 -0.17394824 0.20526287
-0.75002682 -0.05808661 -0.00000168
0.64915758 -0.07295301 0.19228640
-0.14202023 -0.79062641 0.00000000
-0.53242558 -0.20064084 -0.00000050
-0.37454355 0.07248613 0.00000496
0.22744934 -0.15772347 0.06737289
0.13854811 0.34618920 0.04104450
-0.14484726 -0.41049880 0.00000000
0.65802372 -0.38626474 0.19491300
0.33443895 -0.36733219 0.09906435
0.39583454 -0.59428394 0.11725037
-0.31663316 0.37697044 0.00000099
0.58923048 -0.33691663 0.17453586
0.21503700 -0.75830775 0.06369623
0.41584346 -0.39002767 0.12317722
-0.60182923 -0.07032057 -0.00000103
0.17076783 -0.27609783 0.05058323
0.32674503 -0.29965308 0.09678533
0.34728125 -0.72001731 0.10286837
0.73293942 -0.61013913 0.21710452
0.48611063 -0.65427011 0.14399110
0.37239319 0.25062728 0.11030910
-0.23476669 -0.33229983 0.00000000
0.53973371 -0.51745820 0.15987477
0.14561179 0.20985670 0.04313878
0.06831117 0.07482352 0.02024445
0.49407297 0.21414262 0.14635004
-0.24534097 0.19922185 0.00000531
0.72609752 -0.06073824 0.21507658
0.38649559 -0.56293827 0.11448408
-0.06809804 -0.25020868 0.00000000
0.06844216 -0.65505368 0.02027329
-0.63910091 -0.74780071 0.00000000
0.28656834 0.18798313 0.08488984
0.36530995 -0.43923467 0.10820866
-0.14348131 0.23401453 0.00000632
0.02115526 -0.13475621 0.00626641
0.21487004 -0.15725864 0.06364677
-0.32181022 -0.78692931 0.00000000
-0.29101551 -0.36190397 0.00000000
-0.16894206 -0.16945742 0.00000000
0.64512140 -0.11434592 0.19109090
0.25552726 0.34296647 0.07569293
-0.17271280 -0.07639412 0.00000000
0.07837570 -0.54998475 0.02321571
-0.01895206 -0.02502788 0.00000000
0.70054686 -0.68438727 0.20750950
-0.41099730 -0.19912235 0.00000000
-0.71350604 -0.30320227 -0.00000109
-0.24918421 0.51636565 -0.00000005
-0.46723527 -0.44631174 0.00000000
0.23083484 0.46327087 0.06837707
-0.21131735 -0.59935689 0.00000000
-0.68711859 -0.57063562 -0.00000051
-0.38357854 -0.37033087 0.00000000
-0.39146501 -0.71342754 0.00000000
-0.71932900 -0.38561392 -0.00000097
-0.53140438 -0.10404145 -0.00000067
-0.51489395 0.19182222 0.00000027
-0.05943053 0.18164819 0.00000838
-0.34405813 -0.66657591 0.00000000
-0.52059829 0.12850437 0.00000122
-0.62037784 -0.56851774 -0.00000023
0.16403557 0.34090543 0.04859393
0.21627767 -0.07697717 0.06406373
0.04880675 -0.65806299 0.01445707
0.55565470 -0.58760726 0.16459078
0.06884916 -0.02469026 0.02039385
-0.78874481 -0.28963959 -0.00000128
0.31705520 0.19540368 0.09391959
-0.35032371 -0.15732163 0.00000000
-0.15601626 0.31146336 0.00000497
0.68010396 -0.68833482 0.20145397
-0.20864274 -0.19210780 0.00000000
0.44873312 0.12793034 0.13292246
0.72447926 -0.37467313 0.21459781
0.20037603 -0.66210836 0.05935349
-0.63332188 -0.50140828 -0.00000040
0.19346517 0.19101954 0.05731317
0.59722316 -0.44193649 0.17690349
0.25258943 0.53401351 0.07481924
0.23412064 -0.67453367 0.06934900
0.35371447 -0.15356423 0.10477396
0.07889700 0.60824239 0.02337201
-0.03636124 0.67589724 0.00000131
0.49059173 -0.01117562 0.14531793
0.11714575 -0.71424156 0.03469981
0.34014407 0.31821105 0.10075600
-0.24049249 -0.10738363 0.00000000
0.51402670 -0.58267719 0.15226014
0.40501532 0.15641384 0.11997318
-0.46883377 -0.27411100 -0.00000010
0.55327600 0.02469312 0.16388886
0.35636812 0.03090231 0.10556671
0.42202809 -0.66886562 0.12500916
-0.15274580 0.53661197 0.00000147
0.61927909 -0.42873660 0.18343660
-0.34269342 -0.01795136 -0.00000002
-0.17890972 -0.27025855 0.00000000
-0.76427662 -0.32258758 -0.00000119
-0.37261686 -0.05202032 -0.00000008
-0.37540084 -0.23680148 0.00000000
0.39766753 0.28982380 0.11779437
0.49336573 -0.57440156 0.14614014
0.27167135 -0.39298168 0.08047192
-0.14393166 -0.66934043 0.00000000
-0.62837750 -0.14516921 -0.00000101
-0.35976312 0.28391105 0.00000171
0.15334143 0.57766241 0.04542223
0.21942931 0.34691668 0.06500103
0.76487905 -0.09739662 0.22656414
0.51807761 -0.34562096 0.15345986
0.64173448 0.11612697 0.19008765
-0.71535045 -0.09906338 -0.00000146
0.25045395 -0.25941408 0.07418710
-0.08362342 -0.07445948 0.00000000
0.11865916 -0.41335747 0.03514810
-0.48598772 -0.39755446 0.00000000
0.45280015 -0.01667507 0.13412379
-0.63893569 -0.48101658 -0.00000046
-0.16440158 -0.33552352 0.00000000
0.00638557 -0.67629170 0.00189147
0.02998224 0.25891221 0.00888874
0.35806516 -0.24954826 0.10606268
-0.19217783 0.31113207 0.00000443
-0.39953989 -0.14044742 -0.00000004
0.39623755 -0.03549652 0.11736955
0.20197125 -0.62324321 0.05982602
-0.13878439 0.62591732 0.00000024
0.32101059 -0.49220350 0.09508672
0.19605334 -0.48522359 0.05807307
-0.13432360 -0.78126121 0.00000000
-0.55134380 -0.34823748 -0.00000032
0.51521540 -0.65513247 0.15261222
-0.53306961 -0.09304930 -0.00000070
-0.23386951 0.56090730 -0.00000050
-0.59939831 -0.33225012 -0.00000056
-0.17695640 -0.39837867 0.00000000
0.57748032 -0.28905135 0.17105532
0.74705726 -0.60792655 0.22128648
0.07210949 -0.47543553 0.02135959
-0.53254831 0.23397173 -0.00000077
0.72003984 -0.11824591 0.21328232
0.15258075 -0.64119911 0.04519603
-0.18476854 0.54754168 0.00000067
0.74487174 -0.48153085 0.22063871
0.03612190 0.26722330 0.01070717
-0.61706066 -0.02184496 -0.00000118
0.50113857 -0.23120880 0.14844224
0.18010712 -0.77585834 0.05334963
-0.78697425 -0.64325255 -0.00000039
-0.64377451 -0.64693880 -0.00000019
0.71108472 -0.11016106 0.21062972
-0.04147501 -0.21178634 0.00000000
-0.29266873 0.36732724 0.00000161
0.59134674 -0.06816134 0.17516240
-0.02446299 -0.43732524 0.00000000
-0.62313646 -0.44750622 -0.00000045
-0.65364254 0.07605513 -0.00000046
-0.66458565 0.10180274 -0.00000110
-0.39338103 -0.71780121 0.00000000
0.29231808 -0.43545863 0.08658770
-0.70646858 -0.31634805 -0.00000104
-0.60208654 -0.50102949 -0.00000027
0.42379600 0.20068176 0.12553500
0.22039434 0.36824244 0.06528647
-0.13302226 0.12916277 0.00000806
0.39959797 0.02065173 0.11837112
-0.19432035 -0.26158464 0.00000000
0.65588868 0.06034082 0.19428100
-0.40549511 0.14622758 0.00000313
-0.06216399 0.02080709 0.00001075
-0.73381352 -0.29021811 -0.00000120
-0.17112592 -0.21494034 0.00000000
0.38501003 -0.09529007 0.11404395
-0.29001108 0.41042838 0.00000094
0.74920917 -0.52485567 0.22192366
-0.34849331 -0.25866753 0.00000000
-0.20120212 -0.76188314 0.00000000
0.36311099 0.09501819 0.10756269
-0.21126176 0.47566804 0.00000136
-0.71972752 -0.49924546 -0.00000075
-0.56791562 -0.72187239 0.00000000
0.39556628 -0.76100904 0.11717090
-0.33886641 0.09213603 0.00000532
-0.18717475 0.09276194 0.00000778
-0.33565614 -0.18420711 0.00000000
-0.10218430 -0.36419508 0.00000000
0.69987780 -0.05649168 0.20731010
0.72741818 -0.48625374 0.21546869
0.27082485 -0.64624417 0.08022118
-0.43577781 -0.40193924 0.00000000
-0.23778792 0.48189929 0.00000075
-0.01097273 -0.04310920 0.00000000
0.01961917 0.07317987 0.00582197
0.71559030 -0.36089590 0.21196470
-0.67516965 -0.42427528 -0.00000072
-0.10661250 -0.00521414 0.00000000
-0.74871141 -0.57792991 -0.00000056
0.48957938 -0.11438612 0.14501821
0.75352663 -0.56415725 0.22320269
0.45945400 -0.69294757 0.13609514
0.20299624 -0.30237490 0.06012963
-0.59255421 -0.77967197 0.00000000
0.13997263 -0.24817851 0.04146137
0.69722849 -0.58859581 0.20652626
-0.04579554 -0.68321306 0.00000000
-0.06257356 -0.51019353 0.00000000
-0.67286938 -0.09770941 -0.00000128
0.11139462 0.65931475 0.03299651
0.19822042 0.54302007 0.05871555
0.70008618 -0.08158326 0.20737185
-0.70959234 0.08070658 -0.00000161
-0.45237771 0.02399793 0.00000428
-0.48741981 -0.70938033 0.00000000
0.08507659 0.19918665 0.02520850
0.13586961 0.48949319 0.04024889
-0.29116130 -0.51189202 0.00000000
-0.24454890 -0.22482271 0.00000000
0.50099075 -0.17128266 0.14839838
-0.02833549 0.19184053 0.00000869
0.45454431 -0.69770730 0.13464081
0.30650887 -0.58431172 0.09079117
-0.52092838 0.19008426 0.00000018
-0.27581021 0.00539572 0.00000776
-0.38204002 0.29931980 0.00000103
0.13939086 0.36279908 0.04129387
0.01009334 0.20574743 0.00299846
0.42008117 -0.28610939 0.12443247
0.38094068 -0.00583381 0.11283846
0.22888704 0.43161750 0.06780074
-0.36366311 0.43618909 -0.00000091
-0.11453308 -0.55959058 0.00000000
0.30999845 -0.61120641 0.09182481
-0.30665812 0.33788007 0.00000183
-0.13625203 -0.75190288 0.00000000
0.68781930 -0.35698703 0.20373864
0.53853899 0.11810710 0.15952221
0.02697662 0.70037180 0.00799192
-0.55253857 -0.74015105 0.00000000
-0.31085172 -0.69990081 0.00000000
-0.40386912 0.36218449 -0.00000044
0.59838015 -0.16085956 0.17724586
0.23120020 -0.44638342 0.06848394
-0.04677862 0.30150205 0.00000677
-0.07342703 -0.06622762 0.00000000
0.01338593 -0.56011343 0.00396505
0.47288665 0.01762539 0.14007851
0.12107299 0.58943158 0.03586444
0.41391110 0.14925802 0.12260814
0.42241955 -0.36870155 0.12512513
0.24230143 -0.73206794 0.07177224
-0.60047132 -0.54207385 -0.00000019
-0.10194880 0.20275292 0.00000742
-0.05573080 0.19744387 0.00000820
-0.26027602 0.43114451 0.00000116
-0.41509372 0.18737727 0.00000226
-0.27412847 -0.37683198 0.00000000
0.53169358 -0.42609054 0.15749311
-0.24206640 0.04179362 0.00000772
-0.27694502 -0.57208830 0.00000000
-0.13129047 -0.49875167 0.00000000
-0.47569883 -0.18894143 -0.00000028
0.09827721 -0.37058413 0.02911075
-0.71440005 -0.03487419 -0.00000157
0.52711189 -0.28464758 0.15613581
-0.37187070 -0.37524724 0.00000000
-0.05668955 0.22157191 0.00000782
0.71962667 -0.78599483 0.21316157
0.50504333 -0.69703501 0.14959916
0.00922649 -0.18668854 0.00273299
0.40270308 0.22717881 0.11928700
0.17239960 -0.72554731 0.05106658
0.72559464 -0.15330943 0.21492773
-0.44143072 -0.53166062 0.00000000
0.70620483 -0.72133511 0.20918559
-0.26357546 -0.13405283 0.00000000
0.24745990 -0.71724761 0.07330024
-0.20398466 -0.28088498 0.00000000
0.56716633 0.06608325 0.16800226
0.02732708 0.22603175 0.00810277
-0.00064567 -0.42456406 0.00000000
-0.25110269 -0.35849288 0.00000000
0.27718556 -0.25476587 0.08210529
0.41155985 -0.49113148 0.12190838
0.15109579 -0.17688537 0.04475617
-0.08080862 0.30649033 0.00000618
0.47418392 -0.18774208 0.14045803
-0.46932539 -0.19225594 -0.00000025
-0.56414747 -0.48045143 -0.00000014
0.69037759 -0.19093944 0.20449622
0.18671763 0.48172557 0.05530968
0.14897288 -0.10424899 0.04412734
-0.69288957 -0.08399336 -0.00000139
-0.55993181 -0.55710220 0.00000000
0.60537666 -0.09980423 0.17931820
0.22863062 0.36714038 0.06772599
-0.59301949 0.20492969 -0.00000145
-0.33965585 -0.54363525 0.00000000
0.47883564 -0.65590966 0.14183617
-0.29915109 -0.25061050 0.00000000
-0.15924340 -0.41443706 0.00000000
0.67400718 -0.16445996 0.19964714
0.44698772 -0.73690903 0.13240248
-0.46052912 0.24776705 0.00000038
-0.78850567 -0.46119839 -0.00000085
-0.42817760 -0.39108917 0.00000000
0.01135512 -0.08560801 0.00336351
0.03416773 0.40914509 0.01012624
-0.27735609 -0.22858138 0.00000000
-0.47625774 0.03281794 0.00000367
0.00393319 0.08028344 0.00117570
0.50966251 -0.71225160 0.15096740
0.43328610 -0.23665994 0.12834385
-0.35149059 -0.42428854 0.00000000
-0.25707683 -0.40324476 0.00000000
0.14326157 -0.31408957 0.04243558
-0.04237215 0.31125975 0.00000669
-0.22671925 0.51707757 0.00000037
0.11237537 -0.33353540 0.03328677
0.62793100 0.09066271 0.18599966
0.31265435 0.35364980 0.09261318
-0.69529653 -0.39135194 -0.00000086
-0.76135248 -0.77740043 -0.00000006
0.00880888 0.08656423 0.00261978
0.52606726 -0.13328345 0.15582620
-0.62460387 -0.63287508 -0.00000013
-0.28305027 0.38733032 0.00000146
0.56242895 -0.68076301 0.16659738
0.05097182 -0.39657459 0.01509839
-0.18748139 -0.47366983 0.00000000
-0.42880729 0.21636564 0.00000151
0.47891241 -0.73737282 0.14185891
0.49768785 -0.11377713 0.14741997
0.70708632 -0.15874299 0.20944543
-0.60040337 -0.75376868 0.00000000
0.46283880 -0.38186809 0.13709775
-0.02136447 -0.43128321 0.00000000
0.63527089 -0.17899282 0.18817319
0.74808222 -0.71044225 0.22159038
-0.19705328 0.36704573 0.00000345
-0.55796641 0.03862510 0.00000200
0.10792266 -0.40824485 0.03196783
-0.79110497 -0.45302179 -0.00000087
0.29948658 -0.52241212 0.08871109
0.52095044 0.21960467 0.15431076
0.13341227 0.41673133 0.03952222
-0.16897875 0.20449501 0.00000638
0.11111006 -0.34581205 0.03291197
0.67100281 -0.11722906 0.19875719
0.03592159 -0.67642236 0.01064035
0.44847503 -0.27909455 0.13284297
-0.19269013 -0.72010702 0.00000000
0.17343292 0.13186514 0.05138052
0.01100621 -0.58847713 0.00326016
-0.39470974 -0.30695742 0.00000000
-0.70310581 0.00513418 -0.00000022
-0.38676271 -0.63675171 0.00000000
-0.45711851 -0.68181372 0.00000000
-0.26931050 -0.37210727 0.00000000
-0.57977283 0.11772531 0.00000026
0.04655706 -0.74417371 0.01379069
-0.04995624 -0.14086431 0.00000000
-0.66481382 -0.53488880 -0.00000048
-0.42920601 -0.55945754 0.00000000
0.46846750 -0.03973282 0.13876460
0.42947677 -0.46022829 0.12721555
-0.59780002 -0.21712571 -0.00000075
0.05709411 0.35217896 0.01691785
-0.06772624 0.17767847 0.00000831
-0.55736512 -0.38113660 -0.00000029
0.43668759 -0.12469252 0.12935126
-0.05672561 0.05898263 0.00001026
-0.52652973 -0.64763546 0.00000000
-0.27769530 0.51511562 -0.00000057
0.04377239 -0.14648353 0.01296584
-0.50578749 -0.02245900 -0.00000070
-0.67291659 -0.08117275 -0.00000131
-0.35465929 -0.28846171 0.00000000
-0.36514458 -0.65903151 0.00000000
0.48946249 -0.53532124 0.14498396
0.06767964 -0.55811507 0.02004742
-0.10523815 0.55723238 0.00000203
-0.29341036 0.21379423 0.00000416
0.60227871 -0.04000426 0.17840049
-0.15023945 -0.72560787 0.00000000
-0.57724434 -0.57025814 -0.00000004
-0.03271938 0.07587389 0.00001037
0.72857553 -0.68353146 0.21581209
0.15537684 0.08528826 0.04603302
-0.68465757 -0.03298025 -0.00000145
0.65719992 -0.11725659 0.19466867
-0.73266470 -0.41984361 -0.00000095
0.22442666 -0.64856732 0.06647754
-0.38772711 -0.76756322 0.00000000
0.11555587 0.27922752 0.03423523
-0.44995537 -0.09484939 -0.00000034
0.27574450 0.43617564 0.08167935
0.47113276 0.12646621 0.13955702
-0.29454559 0.15684059 0.00000509
0.26392198 0.51695365 0.07817615
0.01703812 0.17553665 0.00505595
-0.07905815 0.18354717 0.00000805
0.35631552 -0.04711595 0.10554436
0.50668371 -0.08712189 0.15008458
-0.46378657 -0.49762860 0.00000000
0.12700851 0.07385251 0.03763054
0.72514415 -0.31985310 0.21479459
0.06409765 -0.30545703 0.01898640
-0.43335524 0.28403455 0.00000030
0.11711593 0.66557181 0.03469099
0.01590855 -0.19669801 0.00471228
-0.58903342 -0.51975274 -0.00000018
0.59039849 -0.02908150 0.17488146
-0.55365276 -0.71856260 0.00000000
0.26279697 0.03543626 0.07785146
0.28505599 0.44688624 0.08443711
-0.07652250 0.18887410 0.00000801
-0.24109381 0.18450093 0.00000559
0.57883608 -0.27825642 0.17145689
0.06708183 0.59693509 0.01987256
0.00305356 0.25654152 0.00091254
-0.48984379 0.02959802 0.00000346
0.21397959 -0.67899805 0.06338301
-0.17420827 -0.62051165 0.00000000
-0.70176423 -0.46438292 -0.00000076
-0.57521164 0.06160476 0.00000129
0.04613708 -0.56528866 0.01366629
-0.59188116 -0.21955314 -0.00000072
0.49506146 -0.06074325 0.14664195
0.33041769 -0.12529743 0.09787320
0.37339073 -0.19601345 0.11060228
-0.18808535 -0.40197670 0.00000000
0.18998989 -0.09299487 0.05627701
-0.42656514 -0.26788300 0.00000000
-0.65398556 -0.63719094 -0.00000025
-0.79396844 -0.46912456 -0.00000083
-0.75914329 -0.14382720 -0.00000157
-0.67764115 -0.02402538 -0.00000144
-0.37922853 0.27712467 0.00000145
-0.49796438 0.22366498 0.00000006
-0.46251136 -0.77054673 0.00000000
0.38291889 0.24630785 0.11342679
-0.07298092 0.71293312 0.00000005
-0.38780642 -0.62143892 0.00000000
-0.47151476 -0.63011831 0.00000000
-0.29555932 -0.68141103 0.00000000
0.48247761 -0.06862718 0.14291453
0.21003905 -0.04261220 0.06221578
0.11231113 -0.28340319 0.03326774
0.27588320 -0.65241665 0.08171952
0.13290606 -0.07837499 0.03936818
-0.35112336 -0.12968637 0.00000000
-0.28010866 0.16280724 0.00000526
-0.52573901 0.03041842 0.00000276
-0.68723238 -0.41833815 -0.00000078
-0.00529790 0.37914512 0.00000623
-0.42583773 -0.48142084 0.00000000
-0.54926258 -0.37714234 -0.00000026
-0.08655183 -0.18699311 0.00000000
-0.13222250 -0.51888734 0.00000000
-0.79598528 -0.71109349 -0.00000022
0.72023457 -0.13476889 0.21334001
-0.39636347 -0.00834021 -0.00000026
0.46433029 -0.62254387 0.13753954
-0.59499323 0.12055759 -0.00000008
0.47019130 0.20305951 0.13927674
-0.48694748 -0.61392486 0.00000000
-0.71566284 -0.75101268 -0.00000012
-0.29732510 -0.22265577 0.00000000
-0.31517047 -0.28736982 0.00000000
-0.00827076 -0.28654143 0.00000000
0.55867755 -0.22644989 0.16548572
0.74569428 -0.34600073 0.22088198
-0.34687662 -0.07566985 0.00000000
-0.24789733 0.10751742 0.00000665
0.63845229 -0.02469452 0.18911536
0.10200007 0.00164612 0.03022414
-0.24873064 -0.01396218 0.00000000
0.71329802 0.05512501 0.21128513
0.64650548 -0.32217997 0.19150113
0.08226275 -0.58028120 0.02436709
0.72194588 0.04264503 0.21384677
0.74302256 -0.67074513 0.22009151
-0.37656289 -0.69940352 0.00000000
-0.45194593 0.19822133 0.00000137
-0.09790552 -0.64525497 0.00000000
0.74435186 -0.40333533 0.22048451
-0.75296968 -0.28124604 -0.00000130
-0.01609756 -0.23559576 0.00000000
0.61925650 -0.70162386 0.18343024
0.64243358 -0.68974262 0.19029544
0.49208200 -0.24956836 0.14575966
-0.55517596 0.05087483 0.00000185
0.62920517 -0.51811433 0.18637688
0.27103439 0.19249433 0.08028876
-0.16666980 -0.69397271 0.00000000
-0.27808219 0.18504341 0.00000493
0.54885757 0.14362033 0.16257799
-0.44059423 -0.23859479 -0.00000004
-0.74617308 -0.71488702 -0.00000021
-0.13008660 -0.24379608 0.00000000
0.34225497 -0.35173932 0.10137953
-0.58540887 -0.72666854 0.00000000
-0.17785539 -0.74852133 0.00000000
-0.40718916 0.12301411 0.00000349
-0.77453029 -0.61464632 -0.00000046
0.23905641 0.09630684 0.07081863
-0.27215877 -0.67056596 0.00000000
0.63814318 -0.35897228 0.18902420
0.61654562 0.09617395 0.18262734
0.38864675 -0.22094238 0.11512127
-0.34081420 0.38177466 0.00000044
0.25864461 -0.32499781 0.07661326
-0.68484980 -0.40119645 -0.00000080
0.67042416 -0.35419968 0.19858606
-0.58821750 -0.24503343 -0.00000066
-0.57334358 0.12108188 0.00000033
-0.52540004 0.04973284 0.00000244
-0.55641472 -0.08353743 -0.00000081
-0.41001010 -0.36788586 0.00000000
0.25934529 0.12494499 0.07682774
-0.41149250 -0.21120614 0.00000000
0.41446990 0.14244187 0.12277378
0.22048473 -0.53549814 0.06530991
-0.26331750 0.49352416 0.00000006
0.34847462 -0.65624577 0.10322186
0.22411153 -0.38861415 0.06638420
0.66234863 -0.09328281 0.19619372
0.33984864 0.11388597 0.10067227
0.02620131 0.08168307 0.00777147
-0.25466409 -0.32371318 0.00000000
0.68384635 -0.37795928 0.20256186
0.52455413 -0.42170826 0.15537836
-0.07229856 -0.42938277 0.00000000
0.73795134 -0.32788971 0.21858834
-0.16141447 -0.58785838 0.00000000
-0.48838815 0.30405205 -0.00000109
-0.69543171 -0.50327212 -0.00000066
-0.16819841 0.17406186 0.00000685
-0.48487529 -0.20046180 -0.00000030
0.02569396 -0.14021757 0.00761082
-0.47729757 0.30904597 -0.00000097
-0.00058085 0.36964926 0.00000645
-0.40474853 0.12655339 0.00000348
0.08492814 -0.19157086 0.02515661
0.74540132 -0.21073186 0.22079483
-0.55611920 -0.22324099 -0.00000056
-0.24117562 -0.69767398 0.00000000
-0.00094134 0.61564976 0.00000275
-0.63569856 -0.04492505 -0.00000122
-0.38725311 -0.59905326 0.00000000
0.10901639 -0.03968815 0.03229180
0.09571102 0.64690751 0.02835143
0.03644796 0.49162626 0.01080042
0.09269197 0.27465996 0.02746304
-0.03945899 0.12464820 0.00000953
-0.04415632 0.45928437 0.00000444
-0.07880603 -0.52230704 0.00000000
-0.40343639 -0.46180195 0.00000000
0.33623847 -0.61750758 0.09959738
-0.48267162 -0.00373470 -0.00000064
-0.78918016 -0.31239706 -0.00000122
-0.52942294 0.12055710 0.00000118
-0.20797800 -0.71758407 0.00000000
0.00381588 0.26951638 0.00113814
0.33374912 0.35071108 0.09886129
-0.47351190 0.21872240 0.00000062
-0.25088015 -0.02745188 0.00000000
0.53821480 -0.02071712 0.15942425
0.09351410 0.68895763 0.02769995
-0.00149339 -0.30466795 0.00000000
0.01616111 0.46606961 0.00479186
0.49803728 0.25572443 0.14752346
0.50685900 0.25050014 0.15013647
-0.70897913 -0.42316937 -0.00000086
0.31271988 0.46275577 0.09263057
-0.51034057 -0.34633058 -0.00000015
-0.54168767 -0.05749295 -0.00000080
0.29463843 -0.78647417 0.08727501
0.27194521 -0.04869148 0.08055304
0.30155984 0.04384361 0.08933284
0.58579683 -0.34279138 0.17351879
-0.28204972 0.30460489 0.00000286
-0.56835663 -0.56066155 -0.00000002
-0.75236809 -0.63193488 -0.00000042
0.55030656 -0.11885421 0.16300604
0.16390634 0.53774875 0.04855218
0.64127254 -0.22341348 0.18995097
-0.72764987 -0.43514761 -0.00000091
-0.50531745 -0.49383366 0.00000000
-0.09963986 0.53891706 0.00000241
0.28722966 -0.45544744 0.08508046
0.24583299 -0.63260305 0.07281833
0.24113770 -0.23253755 0.07142753
0.34921947 0.02177280 0.10344952
-0.21738677 -0.26803669 0.00000000
0.30336043 -0.20771861 0.08985856
0.06549481 -0.55099106 0.01940025
-0.53773665 -0.19041704 -0.00000054
0.34803295 -0.54834521 0.10309103
-0.49526846 -0.27781671 -0.00000021
0.68088263 -0.31722572 0.20168389
0.65396136 -0.55693388 0.19370990
0.40990824 -0.32005182 0.12141914
0.15116166 -0.13036260 0.04477568
-0.18493171 0.40476468 0.00000305
0.49052081 -0.08577899 0.14529701
-0.38954195 -0.55954665 0.00000000
0.22854760 0.30369172 0.06770257
0.05164277 0.38719335 0.01530265
0.21287891 0.43292609 0.06305928
-0.31840402 -0.29723248 0.00000000
-0.13562874 -0.63030320 0.00000000
-0.39360780 -0.70130223 0.00000000
0.48262107 -0.10994215 0.14295708
-0.50278771 -0.21913052 -0.00000034
0.48196876 -0.57178539 0.14276423
-0.16288766 -0.09125500 0.00000000
-0.16130340 -0.63433772 0.00000000
0.43217105 0.27693671 0.12801419
-0.50451082 -0.40751430 -0.00000002
-0.41255376 -0.27088031 0.00000000
-0.57927126 -0.58866030 -0.00000002
0.10770670 -0.08910213 0.03190386
0.33372778 -0.72855371 0.09885369
0.42489636 -0.33642584 0.12585878
-0.65146536 0.04346495 0.00000013
-0.10835455 0.03121581 0.00000990
-0.64947772 -0.32848912 -0.00000078
0.07370198 0.41942099 0.02183608
0.60457641 -0.68582189 0.17908186
-0.13164268 0.50545341 0.00000239
-0.38118088 -0.44816956 0.00000000
-0.05833947 -0.54887128 0.00000000
0.43158567 -0.42901874 0.12784024
0.29042637 -0.00423833 0.08602735
-0.15306219 -0.44407675 0.00000000
-0.40900195 -0.38923913 0.00000000
0.68230993 -0.44593698 0.20210682
-0.08951329 0.67501730 0.00000037
0.05912821 0.42814872 0.01751922
-0.70431197 -0.12446622 -0.00000137
-0.03782628 0.06224559 0.00001050
0.27539086 0.40065932 0.08157525
0.24597543 0.11203436 0.07286781
-0.66210335 -0.45272517 -0.00000061
-0.78985995 -0.14623600 -0.00000163
0.06735746 0.66425538 0.01995308
-0.01629813 -0.10716053 0.00000000
-0.15550601 -0.45101246 0.00000000
0.43507242 -0.28163040 0.12887304
0.46424636 -0.02341184 0.13751425
-0.26541081 -0.65611970 0.00000000
-0.22536241 0.10325252 0.00000705
-0.59625185 -0.58250099 -0.00000010
0.16292083 -0.15963441 0.04825887
0.64791900 -0.03547032 0.19191948
0.14614967 0.61942697 0.04329133
0.17872454 -0.07944692 0.05294010
-0.01434787 0.19562764 0.00000885
0.19818924 -0.57898879 0.05870575
-0.25445160 -0.05766646 0.00000000
-0.58856887 -0.52032536 -0.00000018
-0.22498383 -0.27805963 0.00000000
0.73391765 -0.28325933 0.21739335
0.02172476 -0.17655046 0.00643510
-0.48159400 -0.16143782 -0.00000036
-0.25528184 0.30269495 0.00000340
-0.74771035 0.00505395 -0.00000108
-0.37010261 -0.21272063 0.00000000
0.17169771 0.61805856 0.05085837
0.28209379 -0.58669853 0.08355916
-0.38942882 -0.05352331 -0.00000015
-0.21984418 0.50983864 0.00000063
0.27651677 0.35774851 0.08190953
-0.43343416 -0.46071658 0.00000000
0.62460607 -0.47552881 0.18501455
0.71947640 -0.62159657 0.21311659
-0.55716044 -0.36964422 -0.00000031
0.11685480 0.49942988 0.03461670
0.04859062 -0.19047002 0.01439305
-0.31409344 0.13425574 0.00000509
-0.00292198 -0.66604030 0.00000000
0.76363033 -0.69308710 0.22619595
-0.30433017 -0.41486797 0.00000000
0.70700765 -0.42430818 0.20942254
0.40537822 -0.36204818 0.12007730
0.21333189 0.28149745 0.06319625
0.23537321 0.47615698 0.06972106
-0.79722875 -0.46590114 -0.00000084
0.01044493 0.69542921 0.00309533
0.09798541 -0.67375880 0.02902431
0.47753868 -0.78100169 0.14145200
0.46198612 0.17135663 0.13684705
0.29597533 -0.78277606 0.08767102
0.35327023 0.13722704 0.10464718
-0.19435282 -0.53383899 0.00000000
0.20644902 0.20989531 0.06115868
-0.15995558 0.28982282 0.00000524
-0.63882762 -0.79491770 0.00000000
-0.19271086 0.36599469 0.00000355
0.66723752 -0.23496693 0.19764201
0.15412191 0.57782406 0.04565339
0.30594271 0.15852012 0.09062887
0.63998777 -0.25507364 0.18957046
0.48269388 -0.71861988 0.14297903
-0.07895224 -0.67333061 0.00000000
-0.12332506 -0.70661926 0.00000000
-0.16739030 -0.14771599 0.00000000
0.13642909 -0.26620623 0.04041174
-0.13084863 -0.22961104 0.00000000
0.43670794 0.23864292 0.12935868
-0.30862302 -0.79376984 0.00000000
-0.35050848 0.03177822 0.00000610
0.38637802 0.10194969 0.11445401
0.64521378 -0.60891145 0.19111887
0.17426169 0.60120088 0.05161815
-0.12695099 -0.18547326 0.00000000
0.52079308 -0.73771971 0.15426441
0.51698917 -0.07506473 0.15313713
0.19142039 0.45576364 0.05670307
0.54532075 -0.12794748 0.16152921
0.59988087 0.11383765 0.17769110
-0.16381519 0.27262130 0.00000544
0.60828155 -0.19552021 0.18017878
-0.00589861 -0.57308775 0.00000000
0.58340728 -0.29272839 0.17281093
-0.15963306 -0.14443916 0.00000000
-0.00589758 0.71655434 0.00000116
-0.57807231 -0.28860554 -0.00000054
0.01492618 -0.60990131 0.00442129
0.05763028 0.02516112 0.01708152
0.37399918 -0.48709875 0.11078250
0.52075601 -0.44167504 0.15425333
-0.26526570 -0.46040887 0.00000000
-0.17768753 0.57381344 0.00000037
0.70633066 -0.42407593 0.20922200
0.61017549 -0.11568900 0.18073967
-0.47165471 0.02545795 0.00000388
0.51316196 0.24203947 0.15200350
-0.08345367 0.17032920 0.00000819
-0.52556115 0.03495510 0.00000269
0.08555117 -0.40803272 0.02534116
-0.11187367 0.55269420 0.00000198
-0.09625894 -0.69638669 0.00000000
0.29919204 -0.73898292 0.08862384
0.20001519 0.20639099 0.05925304
-0.32935843 -0.37992787 0.00000000
0.37205195 -0.25656071 0.11020571
-0.41773230 0.20937181 0.00000184
0.05541163 -0.57151085 0.01641351
-0.31909579 0.35178688 0.00000136
0.00434597 0.37481487 0.00129359
-0.28916955 0.41084477 0.00000095
-0.59096438 0.01979064 0.00000168
0.66079801 -0.63750625 0.19573507
0.32907164 -0.35790557 0.09747449
0.74896264 -0.51339757 0.22185060
-0.05029150 -0.16809633 0.00000000
0.32794005 0.07579939 0.09714578
0.72380346 -0.67401588 0.21439849
-0.55695117 -0.42706591 -0.00000021
-0.02718095 0.20717730 0.00000848
0.06695005 -0.39063260 0.01983131
0.31865865 -0.78599274 0.09439006
0.33709148 -0.62528783 0.09985006
-0.25843126 -0.38373381 0.00000000
-0.68545705 -0.25885588 -0.00000105
0.09588025 -0.70374179 0.02840074
0.24202356 0.03201771 0.07169845
-0.40194657 -0.69952619 0.00000000
0.40493932 0.14123064 0.11995094
-0.28472146 -0.09272600 0.00000000
-0.08417517 -0.52377397 0.00000000
-0.74480617 -0.25707796 -0.00000131
0.32552168 -0.33824918 0.09642296
0.59781945 -0.61562198 0.17708030
0.15347211 0.13738608 0.04546807
-0.04979397 0.23821853 0.00000768
-0.34492490 -0.45512339 0.00000000
-0.38743323 0.17254166 0.00000304
-0.03588377 0.22201268 0.00000813
0.29539832 -0.07133370 0.08750010
0.51175624 -0.76818287 0.15158761
0.50618833 -0.06831764 0.14993782
-0.64571762 0.05437527 0.00000005
0.07096125 -0.05370111 0.02101947
0.71963030 -0.62193358 0.21316218
0.15157802 -0.62745035 0.04489901
-0.50758773 -0.73585820 0.00000000
0.52804506 -0.55123097 0.15641251
-0.49181637 0.19640185 0.00000064
0.31789151 0.10058369 0.09416906
-0.32312572 -0.76133507 0.00000000
-0.07168046 -0.61439383 0.00000000
-0.75252587 -0.52763683 -0.00000068
0.03245119 0.45034954 0.00961719
0.17027605 0.06372876 0.05044647
0.53461856 0.07917589 0.15836172
0.13493332 0.38894418 0.03997317
-0.10759266 -0.64482301 0.00000000
-0.41347772 0.38122550 -0.00000095
-0.33154002 0.40014166 0.00000031
0.07990126 -0.46100554 0.02366760
0.11567651 -0.75005430 0.03426460
0.02554438 -0.65968460 0.00756651
-0.08495475 0.49073598 0.00000336
0.09985055 -0.47227973 0.02957679
-0.67333221 -0.08245026 -0.00000131
0.35347012 -0.31140363 0.10470158
-0.43322945 -0.38952589 0.00000000
-0.01173054 0.68123388 0.00000160
-0.74849969 -0.76666266 -0.00000008
0.39494419 -0.56185949 0.11698664
-0.08375415 -0.22412530 0.00000000
0.22651716 -0.63606292 0.06709677
0.14756298 -0.74575174 0.04370971
0.23846038 0.11499917 0.07064181
0.55847085 -0.13994113 0.16542439
0.12531658 0.17295405 0.03712791
0.71257538 -0.65032274 0.21107246
0.23499192 0.21894054 0.06961288
0.06769174 0.66281778 0.02005212
0.53886002 -0.44739580 0.15961590
-0.15115380 0.04192829 0.00000909
-0.38776398 0.14962558 0.00000342
0.02462971 -0.72159368 0.00729558
-0.55490226 -0.62857926 0.00000000
-0.26970720 -0.35540736 0.00000000
0.72045594 -0.73792064 0.21340707
-0.23835939 0.07072709 0.00000734
0.18884286 0.13177358 0.05594492
0.14212853 0.55256778 0.04210155
-0.69231600 -0.39432976 -0.00000084
-0.71394658 0.06772052 -0.00000148
-0.28510413 0.44148469 0.00000051
0.69861025 -0.45890653 0.20693520
0.75392109 -0.19903556 0.22331849
0.10471895 0.25823405 0.03102566
0.04390551 -0.12297532 0.01300528
-0.12775967 -0.01934927 0.00000000
-0.29036605 -0.56603265 0.00000000
0.41566288 -0.36391184 0.12312373
-0.46106333 -0.17085911 -0.00000025
0.06546401 0.68326032 0.01939191
-0.15619025 -0.19494054 0.00000000
-0.54233378 -0.76704216 0.00000000
0.41570562 0.32443359 0.12313642
0.29808268 -0.64316589 0.08829524
0.36330232 0.41920236 0.10761336
-0.14237215 -0.76227415 0.00000000
-0.75427908 -0.36824971 -0.00000108
0.69783801 -0.70409453 0.20670713
0.75301754 -0.45959073 0.22305159
-0.69942439 -0.67293322 -0.00000032
0.37497520 0.18668631 0.11107505
0.44872844 -0.11644987 0.13291784
0.04716855 0.52699631 0.01397532
0.56162483 -0.30071989 0.16635881
-0.24354772 -0.04052133 0.00000000
0.46672824 -0.35444579 0.13824981
0.39277184 -0.36796612 0.11634316
0.54713953 -0.60862780 0.16206850
-0.27216953 0.41260487 0.00000124
0.07856911 -0.00840845 0.02327300
0.42366505 -0.62542725 0.12549406
0.43963560 -0.39221385 0.13022470
0.33792794 -0.54097289 0.10009782
-0.10906844 -0.18970124 0.00000000
0.34349743 -0.30001193 0.10174756
-0.10114084 -0.70491910 0.00000000
-0.66991073 -0.72549284 -0.00000016
0.72831833 -0.21297637 0.21573459
0.13881779 -0.69140357 0.04111929
-0.29945859 -0.13698009 0.00000000
-0.77731830 -0.75111002 -0.00000012
0.75954950 -0.41414362 0.22498633
0.70689797 -0.23799394 0.20938973
0.38506773 -0.34787586 0.11406113
0.11082262 -0.42974168 0.03282683
-0.20932432 0.56660324 -0.00000012
0.60783881 0.13355264 0.18004777
-0.47597328 -0.00376484 -0.00000061
0.43541327 -0.25482029 0.12897396
-0.01325500 -0.25174665 0.00000000
0.57714933 0.13719574 0.17095780
0.37575507 0.05465437 0.11130848
0.28407460 -0.67161107 0.08414590
0.13023113 -0.67390329 0.03857583
-0.65361929 -0.54621011 -0.00000041
0.25803742 -0.12423855 0.07643341
0.09958630 0.29748446 0.02950479
0.62487090 -0.56252754 0.18509310
0.57031333 0.12281674 0.16893333
0.73762965 -0.10007059 0.21849252
-0.19632348 -0.14307629 0.00000000
-0.68916655 -0.38541648 -0.00000085
-0.01482238 0.06461322 0.00001081
0.58829790 -0.74589878 0.17426004
-0.07673904 0.47029698 0.00000379
0.07012613 0.27474749 0.02077907
-0.06487359 -0.68543565 0.00000000
-0.10495173 0.04963778 0.00000967
0.50787306 -0.34710473 0.15043719
0.52433842 -0.61395568 0.15531458
0.13693462 0.26455006 0.04056780
0.13056998 0.25768596 0.03868271
0.68879884 -0.64618897 0.20402943
-0.40747851 -0.59809637 0.00000000
-0.38919345 -0.53633243 0.00000000
0.01040043 0.41151649 0.00308637
0.06684320 0.15446392 0.01980846
0.02685839 0.61826462 0.00795812
-0.06487811 0.60223877 0.00000199
-0.07580836 0.49196774 0.00000348
0.02318523 -0.24238914 0.00686771
0.29851961 -0.32140172 0.08842466
0.20240286 0.37565771 0.05995744
0.07800077 -0.44583106 0.02310465
0.50020170 -0.01839942 0.14816450
0.35813972 0.03249255 0.10609141
-0.08675532 0.66221178 0.00000064
-0.56935012 -0.09856746 -0.00000084
0.60534406 -0.04609956 0.17930846
-0.68671757 -0.75049520 -0.00000012
-0.20343871 -0.05641368 0.00000000
-0.08639183 -0.49650335 0.00000000
-0.46793866 0.33052269 -0.00000114
-0.75260985 -0.28288004 -0.00000129
0.68614018 -0.34873450 0.20324126
-0.32470089 -0.42839560 0.00000000
-0.41467190 -0.78142303 0.00000000
0.64275527 -0.67781466 0.19039072
-0.58886927 -0.79565972 0.00000000
-0.61506730 -0.33805013 -0.00000061
-0.14656787 -0.45170560 0.00000000
-0.29761305 -0.70649856 0.00000000
-0.17672928 0.10956297 0.00000769
0.59813362 -0.27944958 0.17717297
0.32221538 -0.68145865 0.09544359
-0.72236431 -0.39058048 -0.00000098
-0.70512873 -0.15416448 -0.00000132
0.40794757 -0.70813000 0.12083837
-0.16216289 0.32078001 0.00000474
0.31306076 -0.05735316 0.09273190
-0.68222666 -0.56159192 -0.00000050
0.27587569 0.49008936 0.08171720
0.73430049 -0.13771544 0.21750645
-0.41856888 -0.03076027 -0.00000032
-0.39964655 0.39930215 -0.00000100
0.41909763 -0.29618919 0.12414114
-0.63949549 -0.63223916 -0.00000020
0.43235433 -0.78917247 0.12806791
-0.26623598 0.51617968 -0.00000037
-0.00368363 -0.17643721 0.00000000
0.48181012 -0.64679128 0.14271724
0.53628510 -0.49802184 0.15885323
-0.08036971 -0.65556562 0.00000000
-0.13051258 0.11011287 0.00000838
0.42310211 -0.72169352 0.12532730
0.42896363 -0.66534072 0.12706354
0.75947201 -0.79677677 0.22496448
0.40548125 -0.59108478 0.12010783
-0.46271381 0.26353052 0.00000008
0.00207260 0.53255570 0.00061788
0.28893825 -0.54522604 0.08558656
0.17950688 -0.55809468 0.05317184
0.01400436 0.52577102 0.00415215
-0.77904528 -0.25103244 -0.00000137
-0.70781422 -0.04932930 -0.00000152
0.50495434 -0.65084952 0.14957280
-0.20849951 0.04829803 0.00000813
0.29637882 -0.00099265 0.08779054
0.22557464 -0.09553621 0.06681759
0.01535857 0.77932161 0.00454935
-0.65798038 -0.25875527 -0.00000094
-0.60752231 -0.01395368 -0.00000115
0.12995921 -0.21846487 0.03849529
0.68277913 -0.12961674 0.20224543
0.68613636 -0.41618714 0.20324020
-0.18477182 0.39994633 0.00000313
-0.39823440 -0.31544301 0.00000000
0.69796586 -0.27979878 0.20674405
-0.30154818 0.02296772 0.00000711
0.10435611 0.25617903 0.03091822
-0.18874173 -0.11574656 0.00000000
-0.10843202 -0.16153517 0.00000000
-0.70730698 -0.22908372 -0.00000120
-0.25242046 0.23542492 0.00000458
0.35388210 -0.05501666 0.10482357
-0.62591457 -0.66948247 -0.00000007
-0.60198569 -0.66303372 0.00000000
0.26861784 -0.69232458 0.07956744
-0.21176137 0.36115444 0.00000326
0.07088890 -0.12170595 0.02099804
-0.22264254 -0.47913200 0.00000000
-0.52391899 -0.31686062 -0.00000026
