ply
format ascii 1.0
element vertex 1372
property float x
property float y
property float z
end_header
0.04090130 -0.16743155 -0.00000040
0.28299093 0.21681830 0.46579444
0.60130584 0.16278069 0.05572373
0.24485305 0.50112939 0.08381558
0.19700897 0.28405079 -0.00000068
0.76238942 -0.43128708 -0.00000046
0.67304754 -0.27919054 -0.00000057
-0.31906733 0.47381502 -0.00000060
0.23498663 -0.77951229 -0.00000001
-0.12580799 0.24969149 -0.00000066
-0.17037386 0.26168418 -0.00000066
-0.53794128 0.75898236 -0.00000033
-0.04874279 0.12699752 -0.00000058
-0.63356143 0.25686380 -0.00000021
0.07737977 0.26170987 -0.00000066
0.42807177 -0.04265526 -0.00000056
-0.24093537 0.09416728 -0.00000056
0.53100413 0.01386482 -0.00000073
0.56952733 0.11480886 -0.00000088
-0.32947496 -0.42010832 -0.00000024
-0.12497130 0.12308821 -0.00000058
0.23459391 0.23119295 -0.00000064
-0.07931840 -0.59319603 -0.00000013
-0.62167668 -0.37260076 -0.00000012
0.34941825 0.41519421 -0.00000096
-0.22574481 0.62451172 -0.00000072
0.09752364 -0.60433102 -0.00000012
0.47367316 -0.10036469 -0.00000054
0.09673045 -0.25667968 -0.00000034
-0.36967039 -0.54126298 -0.00000016
0.59657234 0.11765141 0.13309492
0.41110146 -0.58414459 -0.00000013
-0.12833302 0.67674619 -0.00000084
-0.79150659 0.52265733 -0.00000001
0.57352847 0.20815130 0.02842462
-0.58841807 -0.41157928 -0.00000015
0.63406700 -0.05941744 -0.00000076
-0.79767966 -0.08984442 0.00000000
0.09239332 -0.50895125 -0.00000018
-0.48780993 0.19416788 -0.00000037
-0.20850225 -0.12771659 -0.00000042
-0.38577908 -0.67679530 -0.00000008
0.48783156 0.19082044 0.18829100
0.15318616 0.50896055 0.21390051
-0.18783128 -0.34591997 -0.00000028
-0.28576866 -0.47183418 -0.00000021
-0.33277386 0.68131191 -0.00000058
-0.57163370 0.64096898 -0.00000029
-0.27321082 0.55728346 -0.00000066
0.72579855 -0.37572366 -0.00000052
-0.65413994 -0.02181158 -0.00000015
-0.28227419 0.51608992 -0.00000065
-0.64444578 -0.68701851 -0.00000004
-0.55278051 0.30051896 -0.00000031
-0.69655198 -0.53691661 -0.00000001
0.30305013 0.25187781 0.38026902
-0.56440490 -0.43220031 -0.00000017
-0.51425570 -0.78251594 -0.00000001
0.78669423 -0.41731787 -0.00000048
0.35718152 0.30551770 -0.00000085
-0.38536924 -0.65539801 -0.00000009
0.44663393 0.17770575 0.27256647
0.11332842 -0.01099755 -0.00000049
0.26142281 -0.33159527 -0.00000029
-0.40288764 0.03173974 -0.00000043
0.19476032 0.50954527 0.14848448
-0.40908855 -0.08698396 -0.00000040
-0.29148823 0.31172606 -0.00000060
0.32029954 0.35474980 -0.00000087
0.34437576 -0.78140217 -0.00000001
-0.50162166 -0.49796990 -0.00000019
0.59800631 -0.47918487 -0.00000027
0.34895894 -0.30490896 -0.00000031
0.09493696 0.25064951 -0.00000066
0.41770571 0.10263305 -0.00000070
-0.42987773 -0.54099661 -0.00000016
0.71702868 -0.52701735 -0.00000034
-0.14926282 -0.75354987 -0.00000003
-0.10814459 0.52846247 -0.00000083
-0.75877905 0.49246114 -0.00000005
0.78534865 -0.03325158 -0.00000095
0.02721988 -0.69451588 -0.00000007
-0.51829553 0.62172306 -0.00000035
-0.23045050 -0.62517953 -0.00000011
0.36411056 -0.38239527 -0.00000026
0.17755747 -0.65137553 -0.00000009
-0.07592186 -0.60869926 -0.00000012
0.05447004 -0.20919155 -0.00000037
-0.36721107 0.79391468 -0.00000054
0.31526139 -0.62222165 -0.00000011
0.22908998 0.25161579 -0.00000066
0.26788759 -0.79957885 -0.00000000
0.06251996 0.70210439 0.05488907
-0.13313088 -0.18438886 -0.00000038
0.08710288 0.04289545 -0.00000053
0.34905812 -0.17300114 -0.00000039
0.09673691 0.29712424 -0.00000069
0.66945362 -0.67860597 -0.00000014
0.51124954 -0.59353125 -0.00000013
-0.70380616 0.63822746 -0.00000012
-0.15654299 0.18869655 -0.00000062
-0.13778806 0.70557028 -0.00000083
0.45852956 -0.67759097 -0.00000008
-0.21806233 0.59341449 -0.00000073
0.23898654 0.01272086 -0.00000051
0.17866749 0.60312033 -0.00000098
0.11359713 0.58542502 0.15668191
-0.61295384 -0.16156752 -0.00000017
0.25050044 0.53316939 -0.00000098
0.19137442 0.46272096 0.22639371
0.72976726 -0.00018636 -0.00000092
0.12105466 0.32483196 -0.00000070
0.29167083 0.14455773 -0.00000061
-0.49229589 -0.57394403 -0.00000014
-0.32864723 0.49348131 -0.00000059
0.01211360 0.46120894 -0.00000079
0.07286931 -0.63085920 -0.00000011
0.70396525 -0.05704366 -0.00000084
-0.56799209 0.67701215 -0.00000029
0.39583868 0.27238151 -0.00000086
-0.58987093 0.35872132 -0.00000026
-0.35207778 0.04396882 -0.00000049
-0.01047437 0.65961939 -0.00000091
0.58879095 0.20542771 -0.00000099
-0.58494490 0.24180019 -0.00000027
-0.65904820 0.03503825 -0.00000016
0.76304334 -0.63999069 -0.00000020
-0.65755188 -0.47723800 -0.00000006
0.16328180 0.53873914 -0.00000090
-0.52837539 0.32840848 -0.00000034
-0.51081294 -0.65777004 -0.00000009
-0.63521349 0.46377435 -0.00000021
-0.22269541 -0.20847964 -0.00000037
-0.46680230 -0.73172468 -0.00000004
0.04479268 -0.27946648 -0.00000033
0.70401394 -0.18481158 -0.00000070
-0.63071615 -0.06541047 -0.00000017
-0.11133356 0.79621971 -0.00000086
-0.08382606 0.34053516 -0.00000071
0.00651566 0.67824942 -0.00000092
-0.35809472 0.76000983 -0.00000055
0.27199045 0.02336919 -0.00000051
0.23147787 0.40852734 -0.00000083
-0.32238138 -0.15457374 -0.00000040
-0.25998822 -0.01327091 -0.00000049
-0.44733477 -0.37317222 -0.00000027
-0.79458994 0.74175704 -0.00000001
0.11985557 0.44791800 -0.00000078
0.45638728 -0.59544718 -0.00000013
-0.50177723 -0.14249809 -0.00000029
-0.41456959 0.65936321 -0.00000048
-0.44878948 0.65060568 -0.00000044
0.12046857 -0.58883530 -0.00000013
0.32173824 0.43935418 0.06036963
-0.10601772 -0.16062321 -0.00000040
-0.28984386 0.68779141 -0.00000064
0.17056304 0.60182965 0.04283521
0.75874263 0.02736159 -0.00000099
-0.18405434 0.73621094 -0.00000077
-0.24700493 0.04948422 -0.00000053
-0.28648481 0.53119767 -0.00000064
0.31909850 0.34355545 0.21311478
-0.47701889 -0.78877640 -0.00000001
-0.57656509 -0.52923787 -0.00000014
-0.07638216 -0.09592096 -0.00000044
-0.61374736 -0.50026900 -0.00000011
-0.71220785 0.61467576 -0.00000011
-0.34527609 0.69102514 -0.00000057
0.06123372 0.60123152 -0.00000088
-0.20544109 -0.28238690 -0.00000032
-0.65212750 0.37311426 -0.00000018
0.44232178 -0.66866773 -0.00000008
-0.38352013 0.52688056 -0.00000052
-0.55053347 0.71725309 -0.00000031
0.39613959 0.13937573 -0.00000072
0.36900312 0.21398520 -0.00000077
-0.01483177 0.12421612 -0.00000058
-0.45328006 0.68853122 -0.00000043
-0.27454934 0.57417655 -0.00000066
0.02503292 -0.45734870 -0.00000021
0.74889892 -0.71049821 -0.00000011
-0.41704226 0.21607742 -0.00000045
0.36572897 -0.75659120 -0.00000003
0.50094646 -0.57234263 -0.00000014
-0.68717492 -0.20825009 -0.00000008
0.18475658 -0.30598512 -0.00000031
0.29741791 -0.21228325 -0.00000037
0.07829897 0.36750221 -0.00000073
-0.65042359 0.71806198 -0.00000019
-0.50092369 -0.49615890 -0.00000019
0.36448944 0.29912078 -0.00000085
-0.70227736 -0.62670523 0.00000000
0.00786502 0.37831646 -0.00000074
-0.58775371 0.48100394 -0.00000027
-0.34318036 0.09240153 -0.00000050
-0.50893700 -0.51000172 -0.00000018
-0.16880001 -0.16566686 -0.00000040
0.43602115 0.16778512 0.30442747
-0.72239220 0.72606295 -0.00000010
0.62886208 0.14648622 0.03824904
-0.58619982 0.73304462 -0.00000027
0.29428962 0.33037370 -0.00000081
0.20513967 -0.09339066 -0.00000044
-0.59478951 0.43532655 -0.00000026
-0.24775463 0.28328487 -0.00000064
0.30468997 0.16252685 -0.00000064
-0.44556734 -0.05012858 -0.00000037
0.51712924 -0.24820966 -0.00000043
0.06725702 0.34958702 -0.00000072
0.77053487 0.01929199 0.01578295
0.30777195 -0.21669368 -0.00000036
0.45034039 0.34780842 0.00286992
-0.24298868 0.42128474 -0.00000067
0.18161680 -0.75739270 -0.00000003
0.21345168 0.36745265 0.33996168
-0.53358120 -0.36690104 -0.00000022
-0.48420593 -0.24362648 -0.00000029
0.33306724 0.41658112 0.07812722
0.52220720 -0.00090376 -0.00000070
0.15007395 0.48952630 0.24888493
0.44596705 -0.49828041 -0.00000019
0.15124629 0.38897723 -0.00000074
-0.26266515 -0.41045433 -0.00000024
0.36043131 0.24582341 0.30062771
-0.42497584 0.77738559 -0.00000047
0.78886479 -0.40092847 -0.00000050
0.54000449 -0.58439767 -0.00000013
-0.09912483 0.75957191 -0.00000088
0.60125822 0.08064132 -0.00000087
-0.27169579 -0.36104059 -0.00000027
-0.02392647 0.21095192 -0.00000063
0.16637906 0.06336953 -0.00000054
0.62099874 0.11447199 -0.00000093
-0.20838916 -0.34706518 -0.00000028
0.10568278 0.27798295 -0.00000067
0.35065103 0.30815503 -0.00000085
0.15917635 -0.48324159 -0.00000020
-0.08546899 0.58543837 -0.00000087
-0.75861001 -0.20437118 -0.00000001
-0.44186664 -0.20045707 -0.00000035
0.08123523 -0.44071960 -0.00000022
-0.56170595 -0.41338250 -0.00000018
0.14813982 -0.44179586 -0.00000022
0.55267805 -0.49627984 -0.00000021
-0.33473167 -0.51373023 -0.00000018
-0.25656885 0.28550190 -0.00000063
-0.78723645 0.12310481 -0.00000002
-0.48351365 -0.42781195 -0.00000023
0.32397294 -0.77129948 -0.00000002
0.02456595 0.76132369 -0.00000098
-0.47540292 0.24420412 -0.00000039
-0.57625872 -0.11543815 -0.00000022
0.35137269 -0.21452275 -0.00000037
0.08937614 -0.73618662 -0.00000004
0.27651623 -0.76238632 -0.00000002
0.04101629 -0.10997563 -0.00000043
0.76683301 -0.50776362 -0.00000037
0.74151140 -0.63534039 -0.00000021
-0.53238231 -0.41930664 -0.00000021
-0.46238846 0.75857919 -0.00000042
0.53730142 -0.11252914 -0.00000060
0.55227774 0.16860937 0.12275552
0.11880569 -0.12536485 -0.00000042
0.15453026 -0.38600129 -0.00000026
-0.61566013 -0.79164511 -0.00000001
0.44804335 0.27369332 0.12143729
0.38428697 0.38473439 0.04806649
0.37927079 -0.60521233 -0.00000012
-0.00732790 0.57096773 -0.00000086
-0.39148256 -0.20889792 -0.00000037
0.36723119 0.25843862 0.27050206
-0.50884855 0.17507771 -0.00000034
0.28826508 -0.24432823 -0.00000035
-0.79956758 -0.67670584 0.00000000
0.46521586 0.31430611 -0.00000098
-0.16450705 0.33255947 -0.00000071
0.50070202 -0.68209898 -0.00000007
-0.11952897 -0.51526719 -0.00000018
-0.00729698 -0.69970882 -0.00000006
-0.52543449 0.30807880 -0.00000034
-0.59627289 0.15292311 -0.00000025
-0.39561671 0.69811773 -0.00000051
-0.15785654 -0.25268504 -0.00000034
-0.64279306 0.08668831 -0.00000018
-0.23505913 -0.47291189 -0.00000020
0.45100299 0.11565695 -0.00000075
0.57434839 -0.17474855 -0.00000057
-0.38315055 -0.50706476 -0.00000018
-0.69101799 -0.36137658 -0.00000005
-0.70729852 0.43325537 -0.00000012
-0.49633315 -0.79961187 -0.00000000
0.67145258 -0.28712788 -0.00000056
0.30497891 0.33916578 0.24183477
-0.14249952 0.21975090 -0.00000064
0.11175816 -0.39289460 -0.00000025
0.20041120 0.19156401 -0.00000062
-0.33616999 -0.60157913 -0.00000012
0.20049223 -0.05233742 -0.00000047
0.48411456 -0.76631612 -0.00000002
0.42042249 0.36800978 0.01794690
-0.05557577 -0.14031222 -0.00000041
-0.64815193 -0.36912036 -0.00000009
-0.15233892 -0.73098338 -0.00000004
-0.51409876 -0.69710702 -0.00000006
0.20606872 -0.19177212 -0.00000038
-0.30431435 0.35799000 -0.00000059
-0.18982857 -0.65855438 -0.00000009
-0.65764022 -0.49631724 -0.00000006
0.69588059 -0.65267462 -0.00000018
-0.11202814 -0.17915747 -0.00000039
-0.26211056 -0.11722218 -0.00000043
-0.62701535 -0.72395521 -0.00000005
0.45011336 -0.72043669 -0.00000005
-0.72018552 0.18907697 -0.00000010
-0.01869733 -0.79889816 -0.00000000
-0.57206708 0.13413216 -0.00000027
-0.79708236 0.37333041 -0.00000000
-0.00611303 0.70138550 -0.00000094
-0.11071286 0.77550095 -0.00000086
-0.66852278 0.64742863 -0.00000016
-0.06600409 0.58074856 -0.00000086
-0.10975284 -0.42406344 -0.00000023
-0.12958348 0.68205196 -0.00000084
0.42769775 0.21842121 -0.00000084
-0.47908700 0.30601874 -0.00000040
-0.72877139 0.27316931 -0.00000009
-0.67045081 0.54769331 -0.00000016
0.16531675 0.60354036 0.04832138
0.35972056 -0.07166522 -0.00000046
0.71222430 -0.06990713 -0.00000083
0.20117907 0.50729519 0.14201619
-0.78788340 0.23499340 -0.00000002
0.13137919 0.60202527 0.10333235
-0.00315199 -0.39873919 -0.00000025
0.42683136 0.22376302 0.23182753
0.12517285 -0.44050598 -0.00000022
-0.54794580 -0.65793204 -0.00000009
-0.51306581 0.23440722 -0.00000035
-0.55123299 -0.70805550 -0.00000006
0.33797365 -0.15181470 -0.00000041
-0.28335792 0.10715115 -0.00000057
-0.16515484 -0.08142490 -0.00000045
-0.02202550 -0.76037467 -0.00000002
-0.32212660 0.52956158 -0.00000060
-0.09849906 -0.77569932 -0.00000002
-0.41666007 0.72196227 -0.00000048
-0.33776394 0.57304293 -0.00000058
0.74416000 -0.70660317 -0.00000012
-0.04314574 0.10253448 -0.00000056
0.38816473 -0.57560176 -0.00000014
0.70042646 0.02218526 -0.00000092
-0.78830338 -0.01930767 -0.00000001
-0.57424814 -0.10515876 -0.00000022
-0.53237689 -0.48883525 -0.00000019
-0.06968252 0.34056616 -0.00000071
-0.46271545 -0.59150529 -0.00000013
0.14647523 -0.60483521 -0.00000012
-0.60607892 0.20618968 -0.00000024
-0.31834146 0.03920370 -0.00000052
-0.15804379 -0.68950266 -0.00000007
-0.18013000 -0.29184684 -0.00000032
-0.73947805 0.27101958 -0.00000008
-0.30997217 0.54403472 -0.00000061
0.19465306 -0.58742785 -0.00000013
0.46299240 0.24090585 0.14911684
0.30289781 -0.42673644 -0.00000023
0.53739375 0.12786196 -0.00000086
-0.44284564 0.74667877 -0.00000045
0.47162980 0.31601846 0.01916343
0.52775043 -0.46059063 -0.00000022
-0.78248811 -0.23127493 0.00000000
0.52623016 -0.50818342 -0.00000018
-0.48656538 0.65597284 -0.00000039
0.22351816 0.57356250 0.00452731
-0.22360641 0.70548999 -0.00000072
0.41974133 -0.43910933 -0.00000023
0.01308364 0.44587934 -0.00000078
0.26439840 -0.69456524 -0.00000007
0.18787746 -0.11744496 -0.00000043
0.68187517 -0.36622378 -0.00000048
0.02602486 0.31709418 -0.00000070
-0.54501528 0.04639819 -0.00000028
-0.65153956 0.71351570 -0.00000019
0.22874960 -0.67277771 -0.00000008
-0.71993852 -0.47860494 0.00000000
0.00961849 0.53565848 -0.00000083
0.61988950 -0.20853060 -0.00000059
-0.37922329 0.36757377 -0.00000052
0.23839284 0.26591444 -0.00000068
-0.34017631 0.21270387 -0.00000053
-0.79099452 0.72104084 -0.00000001
0.53078538 0.25003532 0.02975767
0.16403861 -0.31224990 -0.00000030
-0.48997512 -0.52009606 -0.00000017
-0.33865079 -0.00866072 -0.00000049
-0.28087482 0.30854833 -0.00000061
-0.08365212 -0.79881752 -0.00000000
-0.71202326 0.33422521 -0.00000011
0.29792777 -0.60633069 -0.00000012
-0.50047386 -0.69857293 -0.00000006
0.53431290 0.21363761 0.08076171
0.65847731 0.08770647 0.08350316
0.17433202 -0.01872816 -0.00000049
-0.26800969 -0.46016604 -0.00000021
0.02352627 -0.75742304 -0.00000003
-0.34974581 -0.59281248 -0.00000013
0.13825524 0.55594486 0.16416430
0.26508170 -0.63283855 -0.00000010
-0.68988448 -0.22055666 -0.00000008
-0.35548869 -0.59634370 -0.00000013
-0.76439679 0.70547712 -0.00000004
-0.68345582 0.32334155 -0.00000015
-0.31431749 0.25332022 -0.00000056
-0.13102750 0.26034364 -0.00000066
0.28973550 0.30355150 -0.00000078
0.46446520 0.23802257 0.15130547
-0.48151681 0.70339465 -0.00000040
-0.16572744 0.47122952 -0.00000076
-0.44510752 -0.51920837 -0.00000018
-0.36209133 -0.31441331 -0.00000030
0.27599972 0.38633552 0.21360895
0.22835125 0.41872019 0.23729284
-0.31139135 0.77003038 -0.00000061
0.01037949 0.19949305 -0.00000062
0.17676610 -0.69423437 -0.00000007
-0.52471000 -0.37103727 -0.00000023
0.13355325 -0.20498547 -0.00000037
0.52786714 0.18917681 -0.00000091
-0.33749178 0.02465875 -0.00000050
0.11137170 -0.32932037 -0.00000029
-0.79025662 -0.59931540 0.00000000
0.07148564 0.49379873 -0.00000081
-0.79427952 0.78840631 -0.00000001
-0.33637688 0.15201040 -0.00000052
0.35958248 0.33645725 0.16131078
0.29747644 0.31341645 0.29343030
-0.24022032 0.33436370 -0.00000066
-0.06341983 0.34057888 -0.00000071
-0.11756940 0.72682500 -0.00000085
0.11028463 0.43217418 -0.00000077
0.16277368 0.05985900 -0.00000054
0.44407475 0.20489764 0.23434433
-0.01017953 0.62323761 -0.00000089
0.68006170 -0.44917855 -0.00000039
-0.57917982 -0.35466939 -0.00000017
-0.27518249 -0.44161260 -0.00000022
0.47200534 -0.47669247 -0.00000020
-0.55571294 -0.00532752 -0.00000026
-0.41634253 -0.41482589 -0.00000024
0.30556586 -0.22301777 -0.00000036
0.69548023 -0.04209593 -0.00000084
0.25445408 0.07647216 -0.00000055
0.42642447 -0.12407737 -0.00000047
0.13273828 0.15813436 -0.00000060
0.22585498 0.42633912 0.22934417
-0.74945009 -0.60283405 0.00000000
0.20519298 -0.08216997 -0.00000045
-0.10509936 0.79746592 -0.00000087
-0.76244080 0.09997176 -0.00000005
-0.47522983 -0.54887944 -0.00000016
-0.61516398 -0.01477779 -0.00000019
0.06728967 0.69534409 0.05797778
-0.62788975 -0.26334441 -0.00000014
-0.16666149 0.23859875 -0.00000065
0.56859368 -0.67400235 -0.00000008
0.24321739 0.00121451 -0.00000050
0.20990393 0.10890610 -0.00000057
-0.70917422 0.37415394 -0.00000011
-0.09745598 0.57277364 -0.00000085
-0.05867400 -0.37217888 -0.00000027
-0.19512419 -0.06583869 -0.00000046
-0.68286031 0.03613866 -0.00000013
0.24436510 -0.23366611 -0.00000035
-0.40687391 0.22384442 -0.00000046
0.42090169 0.33782709 0.06403729
-0.02989733 -0.33395231 -0.00000029
0.74362457 -0.30562833 -0.00000061
-0.78809595 0.20997308 -0.00000001
-0.72168314 -0.59837091 0.00000000
0.38482460 -0.76351660 -0.00000002
-0.39902669 -0.58384824 -0.00000014
0.32140353 0.40601993 -0.00000092
-0.33833781 0.71176380 -0.00000058
-0.18527639 -0.65276504 -0.00000009
0.50138634 0.16414480 0.20865041
0.14717698 0.62368011 -0.00000097
-0.77478999 0.29795223 -0.00000003
-0.40780514 0.16723569 -0.00000045
0.62274927 -0.72775912 -0.00000005
-0.21281853 0.60570496 -0.00000073
0.32728860 0.10117640 -0.00000060
-0.53768623 0.74780518 -0.00000033
-0.26945940 -0.68672746 -0.00000007
0.20757812 -0.72344673 -0.00000005
0.15452556 0.55966514 -0.00000091
-0.45551902 -0.08951979 -0.00000035
-0.27873880 -0.62726629 -0.00000011
-0.64594793 0.29237148 -0.00000019
-0.45428169 0.19473192 -0.00000040
0.26449648 0.52074581 0.02289672
-0.14128266 -0.32452771 -0.00000030
-0.51352817 0.46706599 -0.00000036
-0.36224100 -0.04322719 -0.00000046
-0.21276523 0.44170344 -0.00000071
0.44157088 0.26684225 0.14211120
-0.07918080 -0.69702923 -0.00000006
0.27937511 0.06889819 -0.00000054
-0.19753362 0.52355039 -0.00000074
-0.25692502 -0.69818342 -0.00000006
0.55687851 0.13064784 0.17452087
0.35968468 0.29401386 0.22701088
0.44272658 -0.67363411 -0.00000008
-0.16213998 0.35282758 -0.00000072
-0.20719783 -0.02724305 -0.00000048
0.69545382 0.10325087 -0.00000100
0.26904935 0.40998971 0.18769023
0.45863307 0.20111015 0.21763144
0.38306981 -0.68510145 -0.00000007
-0.32682949 0.56843817 -0.00000059
0.18431947 0.48318091 0.20559365
0.77287966 -0.26370162 -0.00000067
0.15071347 0.57112437 -0.00000092
0.05065794 0.16906495 -0.00000061
0.26488900 0.23309246 0.46863040
-0.50246656 -0.14659414 -0.00000029
0.67915237 0.08786883 0.05117012
0.62426871 0.04311004 -0.00000086
-0.43483469 0.06638477 -0.00000040
-0.25005731 0.65050513 -0.00000069
-0.15449636 -0.57699865 -0.00000014
-0.32337686 -0.40009817 -0.00000025
-0.04895800 0.14191212 -0.00000059
-0.79082710 0.79729223 -0.00000001
0.09332966 -0.72090709 -0.00000005
-0.51089531 -0.61295730 -0.00000012
0.35789847 0.42028710 -0.00000098
-0.48651913 0.32071999 -0.00000039
-0.52710134 -0.46514836 -0.00000021
0.72741598 -0.13817827 -0.00000078
0.51443845 -0.73165947 -0.00000004
-0.60047781 -0.72425520 -0.00000005
-0.26874951 0.55490834 -0.00000066
0.65601563 0.12920646 0.02292807
0.01504088 -0.21682823 -0.00000036
0.38237247 -0.28706357 -0.00000032
-0.77982950 -0.74599004 0.00000000
0.04354737 -0.11144392 -0.00000043
-0.78199649 -0.61358041 0.00000000
0.64050698 -0.45025316 -0.00000035
-0.50093275 0.72203523 -0.00000037
-0.01423738 0.30303422 -0.00000069
0.47737312 -0.26014239 -0.00000038
-0.25454086 -0.39609036 -0.00000025
-0.61915362 0.53456575 -0.00000023
0.56281328 -0.46507421 -0.00000025
-0.28799775 0.62872547 -0.00000064
-0.08247957 0.16106093 -0.00000060
-0.31376430 -0.78658748 -0.00000001
0.49471110 -0.16701254 -0.00000050
0.49919426 -0.37039885 -0.00000028
-0.02325231 -0.39634138 -0.00000025
-0.05707283 -0.74019796 -0.00000004
0.09741585 -0.46692398 -0.00000021
-0.72793204 -0.21710694 -0.00000004
0.22488402 0.33041245 0.37969652
0.45416844 -0.66327047 -0.00000009
-0.24039428 -0.77521908 -0.00000002
-0.05507989 0.44530660 -0.00000078
0.31972399 0.39555389 0.13145927
0.04193678 -0.46093655 -0.00000021
-0.26897731 0.49025068 -0.00000066
0.44548187 0.22949927 0.19398704
-0.20571308 -0.42212167 -0.00000024
0.20689000 0.50348550 0.13906614
-0.11851865 0.36320233 -0.00000073
0.36779526 -0.16589275 -0.00000040
0.34513277 0.45200104 0.00444488
-0.13881113 -0.23215733 -0.00000035
-0.16593783 0.56631619 -0.00000078
-0.69970489 -0.34155554 -0.00000004
0.41821134 -0.59706944 -0.00000013
0.68660432 0.05770708 0.08640849
0.66050452 -0.33984116 -0.00000049
0.06121277 -0.60267574 -0.00000012
0.09288355 -0.42195821 -0.00000024
0.39619124 0.18633153 -0.00000077
-0.46383804 -0.03681226 -0.00000035
-0.18506426 0.05849329 -0.00000054
-0.10587903 -0.46429732 -0.00000021
0.76523626 -0.01454404 -0.00000095
0.29402691 -0.21231242 -0.00000037
0.11228379 -0.36450794 -0.00000027
0.31320077 0.48235545 0.00689279
-0.46242753 -0.42409104 -0.00000023
0.62555355 -0.48676997 -0.00000029
-0.32651225 -0.41597146 -0.00000024
0.22896741 -0.36917326 -0.00000027
0.01453439 0.50560021 -0.00000082
0.49499843 -0.62352186 -0.00000011
-0.64193296 -0.23765297 -0.00000013
0.18267930 0.36239472 0.39555794
0.22464740 0.40484989 -0.00000082
0.15170364 -0.73669702 -0.00000004
0.60098070 0.16906570 -0.00000097
0.61127675 -0.18455306 -0.00000060
-0.34663123 0.59160244 -0.00000057
-0.49010238 -0.79326075 -0.00000000
0.24819018 -0.71510923 -0.00000005
0.30995974 -0.64794874 -0.00000010
-0.43149677 -0.19085506 -0.00000036
0.73124343 -0.34889799 -0.00000055
-0.26544812 -0.35401258 -0.00000028
-0.04393371 0.19332699 -0.00000062
0.24056700 0.42545170 0.20789318
-0.66939604 -0.45801008 -0.00000006
0.43748006 0.22679389 0.21060118
0.59579140 -0.24873906 -0.00000052
0.41719946 0.18745767 -0.00000079
-0.35920918 -0.10120273 -0.00000044
-0.30265796 -0.53223717 -0.00000017
-0.33560491 0.39617175 -0.00000057
-0.22190933 -0.69481355 -0.00000007
-0.72895402 -0.45609176 0.00000000
0.07789867 -0.00795371 -0.00000050
0.40348402 -0.29498830 -0.00000032
-0.74862015 -0.31827608 0.00000000
0.61181670 -0.12980874 -0.00000066
0.47468057 -0.31539270 -0.00000032
-0.40314865 0.16526701 -0.00000045
0.04276056 0.50611275 -0.00000082
-0.18568727 -0.04865988 -0.00000047
-0.07295600 0.13672395 -0.00000059
-0.76952064 -0.18747427 0.00000000
-0.40183550 0.43391520 -0.00000050
-0.30310085 -0.09015998 -0.00000044
-0.45903474 -0.16844822 -0.00000033
0.21499920 0.12161549 -0.00000058
0.35473368 -0.42170548 -0.00000024
-0.41314635 0.14656408 -0.00000044
-0.30932179 -0.09396299 -0.00000044
-0.55391926 0.59378326 -0.00000031
-0.63270706 0.70182419 -0.00000021
0.17194609 -0.59222281 -0.00000013
0.00031712 0.51081049 -0.00000082
0.58735824 -0.72291344 -0.00000005
0.66805208 -0.18861502 -0.00000066
0.72533071 -0.76133651 -0.00000005
-0.11782357 -0.21192107 -0.00000037
0.30586427 -0.12750354 -0.00000042
0.34446558 -0.49044448 -0.00000019
-0.33241984 -0.03474700 -0.00000048
-0.15680180 -0.51735216 -0.00000018
-0.40235096 0.38912523 -0.00000050
-0.70442635 -0.64483780 0.00000000
-0.23815830 0.19621772 -0.00000062
-0.77981013 0.41844693 -0.00000003
-0.44349870 -0.21288124 -0.00000034
-0.63859642 -0.78435123 -0.00000001
-0.40149987 -0.42339012 -0.00000024
-0.73475748 0.62136084 -0.00000008
0.04762394 0.59999973 -0.00000087
0.23220047 0.49638018 -0.00000092
-0.70787174 -0.32340121 -0.00000004
0.22875015 0.50202841 -0.00000093
0.43144363 0.23332195 0.20983835
-0.01315441 -0.47913697 -0.00000020
0.15568826 0.59447753 0.07732436
0.40504754 0.24322388 0.23543203
-0.58485633 0.50284499 -0.00000027
0.12819622 -0.12612657 -0.00000042
0.18544409 -0.58273280 -0.00000014
0.20206296 -0.37436339 -0.00000027
-0.52765179 0.46101308 -0.00000034
-0.26116472 -0.50730336 -0.00000018
0.78882128 -0.11174888 -0.00000086
0.46301377 -0.33752647 -0.00000029
0.44999707 -0.61455733 -0.00000012
-0.37509492 -0.53548300 -0.00000017
0.62126303 0.14999942 0.04458904
-0.16861579 -0.35060075 -0.00000028
0.36296684 0.30175453 -0.00000086
0.28868204 0.11437945 -0.00000058
-0.24662951 0.10770292 -0.00000057
0.15096015 0.23790532 -0.00000065
-0.21306515 0.28019440 -0.00000068
-0.38692990 -0.00503176 -0.00000044
-0.41914156 -0.56606716 -0.00000015
-0.66087776 -0.71303982 -0.00000002
-0.09703805 0.71709174 -0.00000088
-0.45263097 -0.38985077 -0.00000026
0.61638689 -0.31072012 -0.00000047
-0.43795145 0.26625305 -0.00000044
-0.03947074 0.51834315 -0.00000082
0.20527579 0.54892111 0.07106932
-0.31260553 0.23969106 -0.00000056
0.01594916 -0.23602414 -0.00000035
0.24511029 -0.37208819 -0.00000027
0.21059148 0.46218961 -0.00000086
-0.34748393 -0.54343194 -0.00000016
0.52561295 0.14888518 -0.00000087
0.15592758 -0.23050086 -0.00000036
0.70956481 -0.70116436 -0.00000012
-0.05235471 0.53845006 -0.00000084
0.26238048 0.26572937 0.42188129
0.58927315 0.16958642 -0.00000096
-0.70732456 -0.13344012 -0.00000007
0.21128982 -0.46435383 -0.00000021
-0.64687705 -0.12302234 -0.00000014
0.13006397 0.25029278 -0.00000066
0.36421028 -0.52539390 -0.00000017
0.01222230 -0.65208250 -0.00000009
0.46000296 -0.75422651 -0.00000003
-0.02274261 -0.14236838 -0.00000041
0.46607864 -0.60295898 -0.00000012
0.03319653 0.34539062 -0.00000072
0.01282708 -0.69898546 -0.00000006
0.76104695 -0.13806690 -0.00000081
-0.05936865 -0.33266887 -0.00000029
-0.04552580 0.31338647 -0.00000070
-0.55326861 0.22366534 -0.00000030
-0.13620473 -0.16571952 -0.00000040
-0.46918958 0.21657982 -0.00000039
-0.21880797 0.13799614 -0.00000059
-0.29391381 0.56580418 -0.00000063
0.45631054 0.32642582 0.02678515
0.64332551 0.08258212 -0.00000092
-0.17190430 -0.32662156 -0.00000030
-0.18434244 -0.16060729 -0.00000040
0.12490852 -0.11608342 -0.00000043
0.45276818 0.19272941 0.23973611
0.03598412 -0.71883583 -0.00000005
-0.49891979 0.53713405 -0.00000038
-0.35528219 0.18092209 -0.00000051
-0.38515803 -0.59035242 -0.00000013
-0.79846692 -0.48903626 0.00000000
0.04963808 0.62890911 -0.00000089
-0.73716342 -0.79281026 0.00000000
-0.15349302 0.16554900 -0.00000060
0.31269261 0.35388619 0.20702468
-0.09239221 0.37936595 -0.00000074
-0.57247490 -0.41124249 -0.00000017
0.23897117 0.25925094 0.46825677
-0.62597072 0.41830704 -0.00000022
-0.39022663 -0.55389923 -0.00000015
0.22202919 0.47445700 0.16061777
-0.16971180 -0.54113007 -0.00000016
-0.39538726 -0.03879150 -0.00000042
0.45418233 -0.49372122 -0.00000019
-0.00875356 -0.24043120 -0.00000035
0.64584970 -0.06961474 -0.00000076
-0.33310285 0.33445081 -0.00000056
-0.42962259 -0.76224774 -0.00000002
0.53470457 -0.19922279 -0.00000050
0.27922001 0.22466099 0.45947638
-0.18631412 -0.69152147 -0.00000007
-0.06389355 0.60603100 -0.00000088
0.04992037 0.41797721 -0.00000076
0.05549450 0.02451364 -0.00000052
-0.13744633 0.69623387 -0.00000083
-0.57715511 0.72570956 -0.00000028
-0.36258295 -0.22621492 -0.00000036
0.46240142 0.12262037 -0.00000077
-0.16873528 0.53063041 -0.00000077
0.08977960 -0.70668685 -0.00000006
-0.44043460 0.49002948 -0.00000045
0.13751823 -0.30355877 -0.00000031
0.45152110 -0.34712714 -0.00000028
-0.39234567 -0.20223583 -0.00000037
0.00402127 -0.76322395 -0.00000002
-0.48137721 0.37300643 -0.00000040
0.78292269 -0.43063435 -0.00000046
-0.73069960 0.22451551 -0.00000009
0.42342943 0.27006346 0.16526265
-0.68665075 0.53135270 -0.00000014
0.54836774 -0.54950219 -0.00000016
-0.28168529 0.08659069 -0.00000055
-0.27353188 0.33952734 -0.00000062
0.16458364 0.26451537 -0.00000067
0.56068665 0.20213445 0.05768730
-0.26377386 0.14754917 -0.00000059
0.40001249 -0.18006553 -0.00000039
-0.25429031 -0.39126006 -0.00000026
-0.30847377 0.36320201 -0.00000059
0.13721509 -0.40478694 -0.00000025
0.11909597 0.67758489 0.00514769
0.33915788 0.29150575 0.26275316
0.19715396 -0.62199908 -0.00000011
-0.12597971 -0.16466779 -0.00000040
-0.19246097 0.26163891 -0.00000066
0.71284884 0.02388209 -0.00000093
-0.21575442 -0.74009120 -0.00000004
0.32870409 -0.25753456 -0.00000034
0.69946092 -0.33173338 -0.00000054
-0.74025571 -0.33029690 -0.00000000
-0.07046710 0.30897990 -0.00000069
-0.54514772 0.42345706 -0.00000032
-0.26802850 -0.39494708 -0.00000025
-0.72130883 0.00749785 -0.00000009
0.12386063 -0.09831174 -0.00000044
0.67478824 0.07173447 -0.00000094
0.11052640 -0.15962435 -0.00000040
0.64422685 -0.73242271 -0.00000005
-0.35176292 -0.11012717 -0.00000043
0.45825103 -0.62531191 -0.00000011
-0.14098528 -0.67326540 -0.00000008
0.24008153 -0.68720859 -0.00000007
-0.54523081 -0.70765418 -0.00000006
-0.20871495 -0.37243485 -0.00000027
-0.09682261 -0.37430856 -0.00000027
0.21151325 0.57198465 0.02560352
0.46360376 0.13893463 -0.00000079
-0.13487945 -0.36731479 -0.00000027
0.32627305 0.42819974 0.07064123
-0.69608396 -0.02666120 -0.00000011
-0.51209998 -0.30057177 -0.00000025
-0.17098372 0.03325889 -0.00000052
0.40991631 -0.13947169 -0.00000043
0.56320697 -0.13856675 -0.00000060
-0.65357679 -0.42487958 -0.00000008
0.12867574 -0.04082173 -0.00000047
0.23197739 0.52528179 -0.00000095
0.20996232 0.45122647 0.21538731
-0.61550760 0.03279248 -0.00000020
-0.74411911 -0.32690662 0.00000000
-0.13453458 0.57351035 -0.00000081
0.20247106 0.40505332 0.29865628
0.07534288 0.70647383 -0.00000098
-0.68551880 -0.01548359 -0.00000012
-0.63611948 -0.54451692 -0.00000008
-0.79786360 -0.00033264 -0.00000000
-0.00504105 -0.24086563 -0.00000035
-0.56305867 -0.53282541 -0.00000016
-0.74383581 -0.49872679 0.00000000
-0.02734250 0.21698052 -0.00000064
0.19441512 0.57004768 0.05513994
-0.51054883 0.41141707 -0.00000036
0.70713466 -0.75436032 -0.00000006
-0.37750453 -0.51015121 -0.00000018
-0.71862507 0.37380379 -0.00000010
0.21482155 -0.65764666 -0.00000009
0.53821498 -0.03542789 -0.00000068
0.09968092 -0.13874020 -0.00000041
0.36917838 -0.23754270 -0.00000035
0.10771874 -0.25111073 -0.00000034
-0.56824553 -0.35996038 -0.00000018
-0.12894019 0.57796931 -0.00000082
0.27999678 -0.53606457 -0.00000016
0.65348703 -0.05675770 -0.00000078
0.31464845 -0.13004771 -0.00000042
0.55118883 -0.52218717 -0.00000018
0.65165842 -0.19039232 -0.00000064
-0.69040537 -0.25748059 -0.00000007
-0.77001089 -0.18531859 0.00000000
-0.77817070 -0.38359565 0.00000000
-0.69547629 0.44683346 -0.00000013
-0.60550684 -0.76488280 -0.00000002
0.68976480 -0.71075666 -0.00000011
-0.33769560 0.15323019 -0.00000052
-0.21751437 -0.78171861 -0.00000001
-0.25858861 -0.67228055 -0.00000008
0.09005926 -0.74500793 -0.00000003
0.10660527 0.04155867 -0.00000053
-0.14686503 -0.03113220 -0.00000048
0.03501473 0.07790423 -0.00000055
-0.58414203 0.25928006 -0.00000027
0.19097103 -0.16808373 -0.00000039
0.51859605 -0.22531480 -0.00000046
0.29245195 0.37462360 0.20625372
0.19551037 0.38070819 0.34723225
0.33627212 0.22579722 0.36918828
-0.30976808 0.18362810 -0.00000056
-0.12393892 -0.52464336 -0.00000017
0.16420504 0.16816384 -0.00000061
-0.18111137 -0.25411806 -0.00000034
0.56543022 0.23052315 0.00627651
0.23365065 0.32512119 0.37430400
0.34818035 -0.43644017 -0.00000023
0.31090394 0.37782475 0.17265519
-0.78632134 0.50493860 -0.00000002
-0.20497401 -0.19430295 -0.00000038
0.19324479 -0.36808312 -0.00000027
0.00768604 0.49102131 -0.00000081
0.34839773 0.01101262 -0.00000053
-0.77186382 0.58503050 -0.00000004
0.13983908 -0.70155102 -0.00000006
-0.18164136 0.57911277 -0.00000077
0.65814936 0.05432807 -0.00000091
0.08649400 0.11426470 -0.00000057
0.11959861 0.47297344 -0.00000080
0.59844625 -0.60829097 -0.00000014
0.32823360 0.21003510 0.40611875
-0.73479944 -0.48943013 0.00000000
0.06510423 -0.17189583 -0.00000039
0.01947277 0.77571929 0.00745788
0.21766078 0.56710911 -0.00000098
-0.14393894 0.24557780 -0.00000065
0.36196619 -0.40921271 -0.00000024
0.60322702 0.17754358 0.02983537
0.61340111 0.11555035 0.11024226
0.70831442 -0.75542021 -0.00000006
-0.11174722 -0.74526501 -0.00000003
0.29039887 -0.05015603 -0.00000047
0.02434945 -0.27091250 -0.00000033
0.77415013 -0.30700931 -0.00000062
0.18716082 0.55092710 -0.00000093
-0.40005538 0.14019208 -0.00000045
-0.34372875 -0.33096105 -0.00000029
0.63870305 0.07675852 0.13117427
-0.12758838 -0.71750557 -0.00000005
-0.52307773 -0.19469598 -0.00000026
0.05117990 -0.25496033 -0.00000034
-0.44716397 0.74667752 -0.00000044
-0.26809937 0.64049399 -0.00000066
-0.48696929 0.26337558 -0.00000038
0.08164492 -0.69975322 -0.00000006
0.17192534 0.46511528 -0.00000083
0.33891386 -0.20897138 -0.00000037
-0.73824060 -0.79320556 0.00000000
-0.36371511 -0.45487720 -0.00000022
0.40620020 -0.53812939 -0.00000016
-0.52504665 -0.23281147 -0.00000025
-0.75941235 -0.64476979 0.00000000
-0.59408700 -0.37546501 -0.00000015
-0.26169509 -0.18990783 -0.00000038
-0.49797487 -0.35067752 -0.00000026
-0.59444839 0.00237918 -0.00000022
-0.51347780 0.31685930 -0.00000036
-0.09748767 0.27647781 -0.00000067
-0.00242242 0.01705318 -0.00000051
-0.37421849 -0.20805982 -0.00000037
0.58786350 0.20871264 0.00531023
-0.16683733 -0.40578058 -0.00000025
0.09080200 -0.04532163 -0.00000047
-0.38141397 -0.71547180 -0.00000005
-0.55390579 -0.15313871 -0.00000023
-0.67258561 -0.48411515 -0.00000005
-0.32139787 0.06928878 -0.00000052
0.18062603 0.48035735 -0.00000085
-0.09419554 -0.25759256 -0.00000034
-0.44984022 0.55412012 -0.00000044
-0.25448015 -0.42979005 -0.00000023
0.32894152 -0.75325102 -0.00000003
0.36291361 -0.19010404 -0.00000038
0.24973282 -0.04795850 -0.00000047
-0.72974944 -0.63933021 0.00000000
-0.18277980 -0.56167173 -0.00000015
0.66907918 -0.75402945 -0.00000006
0.29908034 -0.20103168 -0.00000037
-0.49039707 -0.32750574 -0.00000027
-0.18546782 0.06937599 -0.00000054
-0.25433889 0.60173750 -0.00000068
-0.43272093 0.47496545 -0.00000046
-0.78364289 -0.78756607 0.00000000
0.69125175 -0.78804642 -0.00000001
0.29674950 -0.57143217 -0.00000014
-0.67005312 -0.61949748 -0.00000003
0.29704019 0.43379068 0.10732596
-0.48203573 0.03945776 -0.00000035
-0.53812617 -0.59007466 -0.00000013
0.35314316 0.44640347 -0.00000100
-0.48666665 0.36534390 -0.00000039
-0.41622552 0.18408094 -0.00000044
0.29882461 -0.79231185 -0.00000000
-0.05653127 0.55673420 -0.00000085
-0.02757142 -0.32859960 -0.00000029
-0.23027061 0.15360820 -0.00000060
-0.49947283 0.20779204 -0.00000036
0.21389157 0.04936934 -0.00000053
0.66064143 -0.73339486 -0.00000007
-0.44364798 0.73813021 -0.00000045
0.25338387 0.39830065 -0.00000084
-0.18506418 -0.46916839 -0.00000021
0.30503941 0.35239381 -0.00000085
0.37100711 -0.30773079 -0.00000031
-0.45782405 0.02089608 -0.00000037
-0.63350695 -0.38140067 -0.00000011
-0.46696857 0.27129486 -0.00000040
0.02256498 0.58795464 -0.00000087
-0.04140304 0.72667891 -0.00000094
-0.18295993 -0.01588914 -0.00000049
0.78673863 -0.28845334 -0.00000064
-0.27896979 -0.14287166 -0.00000041
0.22776113 0.45488369 0.18209496
-0.26233327 -0.79574794 -0.00000000
0.21000603 -0.16525444 -0.00000040
0.17420599 0.54812342 0.12051744
-0.23558001 -0.18080138 -0.00000039
0.69607919 0.06238628 0.06444587
0.26514629 0.10070758 -0.00000056
-0.09226923 0.30157623 -0.00000069
-0.73444742 0.72141987 -0.00000008
0.39830410 -0.70169151 -0.00000006
-0.69353467 -0.45410004 -0.00000003
-0.14599012 0.70605534 -0.00000082
0.00597890 -0.16504109 -0.00000040
-0.50126404 -0.02453996 -0.00000031
0.22377311 0.15953258 -0.00000060
-0.49434146 0.47655919 -0.00000038
-0.05583073 -0.20606142 -0.00000037
-0.64798325 0.28195697 -0.00000019
-0.68872482 -0.69181037 0.00000000
-0.67746884 -0.68448681 -0.00000001
0.02018311 -0.75229371 -0.00000003
0.15999953 0.48053166 0.24744050
0.10026712 0.57540792 0.19290859
-0.62853485 -0.33195612 -0.00000012
-0.38188860 0.03357976 -0.00000045
0.61415088 0.16932358 0.02563983
0.21361019 0.56180555 0.03814443
-0.32228982 0.34678108 -0.00000057
-0.00056512 0.19647889 -0.00000062
-0.65888703 0.42034489 -0.00000018
-0.29864162 0.52264971 -0.00000063
0.47445744 -0.31356207 -0.00000032
0.01544018 0.74453217 -0.00000097
-0.43965933 0.10937109 -0.00000040
0.28795245 -0.43528482 -0.00000023
0.69511861 0.09859687 -0.00000099
0.73305374 -0.64759707 -0.00000019
-0.46649823 0.79863524 -0.00000042
-0.63155258 0.24441315 -0.00000021
0.64410508 -0.43860224 -0.00000037
-0.50554281 -0.38687915 -0.00000024
0.32038531 -0.75759321 -0.00000003
-0.71054989 -0.11214850 -0.00000007
0.25042146 -0.25639549 -0.00000034
-0.72158778 -0.10383075 -0.00000006
0.46232912 -0.39132136 -0.00000026
-0.52621669 -0.18302789 -0.00000026
-0.00470983 -0.69309670 -0.00000007
0.20014755 -0.58218884 -0.00000014
0.35959899 -0.78984660 -0.00000001
-0.58221078 -0.16868509 -0.00000020
0.46217188 0.08005631 -0.00000072
-0.05624156 -0.64844906 -0.00000009
-0.49317089 0.79730988 -0.00000038
0.20615615 0.56071275 0.05140639
-0.51255327 0.75856018 -0.00000036
-0.40169331 -0.38363743 -0.00000026
-0.30701584 -0.53420150 -0.00000017
-0.78379667 -0.76987231 0.00000000
-0.46123558 0.73877257 -0.00000042
-0.09720029 -0.06051762 -0.00000046
0.63796026 -0.46173149 -0.00000033
0.19760421 -0.04060851 -0.00000047
-0.73421919 -0.53663415 0.00000000
-0.22625069 -0.08292203 -0.00000045
0.29652369 0.13441733 -0.00000061
-0.02663581 -0.19130524 -0.00000038
-0.76751304 -0.42854092 0.00000000
0.28664052 -0.19146281 -0.00000038
-0.39899394 0.72256655 -0.00000050
-0.40494329 -0.60435706 -0.00000012
-0.71472633 0.59543544 -0.00000011
-0.64429784 0.59658039 -0.00000019
0.35819408 0.36622676 0.11727230
-0.26122585 -0.34543946 -0.00000028
0.51855963 -0.09215233 -0.00000060
0.04285271 -0.74831504 -0.00000003
-0.15565217 -0.25741109 -0.00000034
0.07825446 0.70032442 -0.00000098
0.43304661 -0.26474273 -0.00000033
-0.24113356 0.47692898 -0.00000068
-0.37532777 0.69083172 -0.00000053
-0.22400133 -0.74512833 -0.00000003
-0.39190990 0.36908099 -0.00000050
-0.04997259 -0.49911287 -0.00000019
-0.20330149 -0.72927648 -0.00000004
0.77555561 -0.21976823 -0.00000073
0.18305220 -0.61838740 -0.00000011
0.31779796 -0.38277760 -0.00000026
-0.54196620 0.11746757 -0.00000030
-0.44366899 -0.01858212 -0.00000038
-0.49442688 0.65811807 -0.00000038
0.45674393 0.30331883 -0.00000096
0.27487379 0.47952926 0.07074946
0.17379799 -0.70692199 -0.00000006
-0.77087653 -0.20067497 0.00000000
0.76040328 -0.48218095 -0.00000040
0.54265326 -0.74607688 -0.00000003
0.68740219 0.04797505 0.10027146
0.39705577 0.32728726 -0.00000092
0.06888681 0.53131402 -0.00000083
0.52837092 -0.35613364 -0.00000033
-0.44061831 0.52611703 -0.00000045
-0.01723844 -0.54796880 -0.00000016
0.21646288 0.56218630 0.03312719
-0.54124683 0.17704137 -0.00000031
0.71036327 -0.55806154 -0.00000030
0.08194615 0.62968189 0.13712154
0.20603161 -0.31650633 -0.00000030
-0.47800359 0.36248001 -0.00000040
0.46641588 -0.56759942 -0.00000015
0.05292491 -0.18927321 -0.00000038
0.42330992 0.33224753 0.06895818
0.37093315 0.20783389 0.34327936
0.43803212 -0.74145126 -0.00000004
-0.06057439 0.42230892 -0.00000076
0.26002166 -0.73688793 -0.00000004
0.55668145 -0.79245067 -0.00000000
-0.65444601 -0.34192410 -0.00000009
0.67950088 -0.47588855 -0.00000036
-0.46974114 0.23512653 -0.00000040
0.08658158 0.11833798 -0.00000057
-0.67622668 0.44805413 -0.00000015
0.27801299 0.42507133 0.15037978
0.13104945 0.65793973 0.01708275
-0.06783673 0.78556442 -0.00000092
0.52875805 -0.45496321 -0.00000023
0.16430217 0.23052828 -0.00000064
0.20504899 -0.25739151 -0.00000034
-0.70699930 -0.68369544 0.00000000
0.63649833 -0.64100659 -0.00000014
-0.50021273 -0.04325149 -0.00000031
0.68114293 0.01884325 -0.00000089
0.28059936 -0.61807722 -0.00000011
0.55994570 -0.54137671 -0.00000017
-0.55695379 0.53907323 -0.00000030
-0.65850931 -0.59943938 -0.00000004
0.49068984 0.20636086 0.15974209
0.49269462 0.25194544 0.08589848
-0.12836820 0.41285956 -0.00000076
0.55990821 -0.75859982 -0.00000003
-0.06615167 -0.59730798 -0.00000013
-0.74859726 0.75584453 -0.00000006
0.32229939 0.44731605 -0.00000097
0.37820074 0.21815404 0.31598917
0.14366743 0.63573027 0.03196570
-0.66229254 0.47476575 -0.00000017
0.60868579 -0.60737681 -0.00000015
-0.26644829 0.68844318 -0.00000067
0.72863013 -0.27137068 -0.00000063
0.50446576 -0.51649809 -0.00000018
-0.14231889 0.68862170 -0.00000082
-0.00210336 -0.23385435 -0.00000035
0.43572891 0.33127213 -0.00000096
0.45708060 -0.07854931 -0.00000055
0.40693620 0.34142119 0.08013037
-0.66339755 -0.75146806 -0.00000001
0.55663115 -0.10150017 -0.00000063
-0.68079764 -0.36403009 -0.00000006
-0.02722203 -0.51288664 -0.00000018
-0.12326666 -0.79239255 -0.00000000
-0.44899625 0.59177893 -0.00000044
0.38253820 0.39376727 0.03676383
-0.10129548 -0.04302556 -0.00000047
-0.22756669 -0.23878127 -0.00000035
-0.10298915 0.46401754 -0.00000079
-0.01255163 -0.52519733 -0.00000017
0.30011943 0.42563155 -0.00000092
-0.57696462 0.16215514 -0.00000027
-0.77243483 0.42659572 -0.00000003
-0.66508669 0.70533812 -0.00000017
-0.71438515 -0.22394481 -0.00000005
-0.25130558 -0.52045757 -0.00000017
-0.28337440 0.22526301 -0.00000059
0.34058756 0.33910429 0.18667752
-0.57582021 0.11705198 -0.00000026
0.50127417 0.06697629 -0.00000075
0.35814142 0.27477241 0.25926176
0.44349679 -0.14994197 -0.00000046
0.27776206 0.24439090 0.43112448
0.10080252 -0.73675805 -0.00000004
-0.29915422 0.24597168 -0.00000058
-0.01120666 0.70999759 -0.00000094
0.17819656 0.46110761 0.24934454
-0.41623428 0.47667742 -0.00000048
-0.69665533 0.18971330 -0.00000013
-0.23754247 -0.76534468 -0.00000002
0.21641736 0.43961865 0.22338274
-0.70310462 -0.47510087 -0.00000002
-0.36355531 -0.02386024 -0.00000046
-0.14393957 -0.63107765 -0.00000011
-0.57647294 -0.16291986 -0.00000021
0.37069276 0.19869763 0.35782877
0.61706561 0.17749473 0.00843805
0.02010281 0.08332595 -0.00000055
0.02936575 0.20131375 -0.00000063
-0.00730841 0.13068555 -0.00000058
-0.72564530 0.39590269 -0.00000009
0.59518534 0.11204164 0.14395171
-0.59192622 0.30100676 -0.00000026
0.26971570 -0.15794447 -0.00000040
0.28948337 0.47767293 -0.00000096
-0.32372782 0.24950589 -0.00000055
-0.67960507 -0.35161710 -0.00000006
0.78124416 -0.51295388 -0.00000036
0.11280935 0.02903682 -0.00000052
-0.17387177 -0.62191427 -0.00000011
0.35241151 -0.65456820 -0.00000009
-0.34363282 -0.34731358 -0.00000028
-0.10519616 0.52158654 -0.00000083
0.39388648 -0.65278512 -0.00000009
0.47770694 -0.55558580 -0.00000015
-0.46588713 0.63332397 -0.00000042
-0.58897531 -0.31416813 -0.00000017
-0.37523589 -0.02343429 -0.00000045
-0.60978872 -0.37855336 -0.00000013
0.35038060 0.26330921 -0.00000080
0.72149509 0.00064484 -0.00000092
0.59641385 -0.11425047 -0.00000066
-0.43920287 -0.61323220 -0.00000012
0.35138413 0.36157951 0.13505025
-0.47430596 0.49819103 -0.00000041
0.47970343 -0.22376125 -0.00000042
0.09899628 0.16540717 -0.00000060
0.46631408 0.21881720 0.17823724
-0.65700752 -0.06235743 -0.00000014
0.21444774 0.52986896 0.08640023
-0.07973862 -0.37164682 -0.00000027
-0.14350532 0.53827780 -0.00000080
-0.34212738 -0.23068590 -0.00000036
-0.22697264 0.43785429 -0.00000069
0.21744874 -0.68907106 -0.00000007
0.11686838 -0.22601005 -0.00000036
-0.35666904 -0.39972612 -0.00000025
0.31761000 -0.02676039 -0.00000048
-0.59560806 0.15048887 -0.00000025
-0.21395674 0.12828685 -0.00000058
0.05065829 0.06235589 -0.00000054
-0.27494958 0.70225060 -0.00000066
-0.40939790 -0.75233316 -0.00000003
-0.55327982 -0.11731219 -0.00000024
-0.58879840 0.08977122 -0.00000024
0.44765800 0.02950323 -0.00000066
0.18162349 0.38384387 -0.00000075
-0.14451890 -0.10901952 -0.00000043
0.59294099 -0.20236148 -0.00000056
-0.05504438 0.37482214 -0.00000073
0.45248356 -0.65968788 -0.00000009
-0.59941620 -0.40483090 -0.00000014
0.01504525 -0.55971885 -0.00000015
-0.68287563 0.72156841 -0.00000015
0.49828324 -0.20396782 -0.00000046
-0.31500182 -0.38385278 -0.00000026
0.75328636 -0.74313819 -0.00000007
0.18277602 0.11205455 -0.00000057
0.78349352 -0.67832124 -0.00000015
0.26682702 0.15430342 -0.00000060
0.29925752 0.14310329 -0.00000062
0.07791587 -0.32967302 -0.00000029
-0.40234116 -0.67696667 -0.00000008
0.15696751 0.59958154 0.06741952
-0.06054729 -0.62186277 -0.00000011
0.46204558 -0.50716335 -0.00000018
0.25462061 0.34489548 -0.00000079
-0.44589213 -0.53014135 -0.00000017
-0.55145991 -0.78615493 -0.00000001
0.64203840 -0.03918717 -0.00000079
0.29812923 -0.61573195 -0.00000012
-0.14950001 0.35157999 -0.00000072
0.48620030 -0.10599565 -0.00000055
-0.25447011 0.50136018 -0.00000067
0.65844136 -0.02294571 -0.00000082
-0.06525958 0.34961095 -0.00000072
-0.18998021 -0.15802631 -0.00000040
-0.72343981 0.65450305 -0.00000010
0.27539322 -0.48039401 -0.00000020
0.54217499 0.23887987 0.02939426
-0.63575941 0.72541040 -0.00000021
0.08383109 -0.12818427 -0.00000042
-0.78958589 0.02133032 -0.00000001
-0.47107914 0.77446496 -0.00000041
0.50723678 0.00824264 -0.00000070
0.32827878 -0.52000368 -0.00000017
0.07100671 -0.23052944 -0.00000036
0.61558235 -0.64823121 -0.00000011
-0.06203859 0.30549198 -0.00000069
0.09485490 0.67269015 -0.00000097
-0.40746790 -0.21613464 -0.00000036
-0.16651660 0.07192003 -0.00000054
0.52763665 0.18803594 0.13084684
0.63891077 0.15123072 0.01529474
-0.41668990 -0.13130711 -0.00000038
0.05563748 -0.60723388 -0.00000012
-0.34868586 -0.39547753 -0.00000025
-0.06166631 -0.13361005 -0.00000042
-0.58033532 -0.15275636 -0.00000021
0.19780441 -0.34190682 -0.00000029
-0.33010632 -0.71723390 -0.00000005
-0.02629694 0.24095054 -0.00000065
0.19520895 0.42950726 0.27198029
-0.31071407 -0.17726871 -0.00000039
0.33414367 0.31417939 -0.00000084
-0.57759994 0.29591495 -0.00000028
-0.61536890 -0.22575700 -0.00000016
-0.10304107 0.54350597 -0.00000084
0.30795479 0.48508969 0.01079024
-0.41471124 -0.64397669 -0.00000010
-0.70785576 -0.45461687 -0.00000002
0.37135220 0.24633500 -0.00000081
0.70988774 -0.37933791 -0.00000050
0.32093370 0.23196159 0.38342312
0.55609804 0.04241951 -0.00000079
0.14407288 -0.56712568 -0.00000015
-0.37402844 -0.34825742 -0.00000028
0.62850416 0.15617216 -0.00000098
0.21258251 -0.75318193 -0.00000003
-0.54256099 -0.58944029 -0.00000013
-0.59519929 0.03945282 -0.00000023
-0.41713032 0.31816310 -0.00000047
0.14930630 -0.72268635 -0.00000005
-0.65358174 -0.38729051 -0.00000009
-0.01922340 -0.65956223 -0.00000009
0.26898700 0.30105451 -0.00000075
0.68321669 -0.56827760 -0.00000027
-0.16721191 -0.16465691 -0.00000040
0.78649408 -0.72572225 -0.00000009
0.15093017 0.51802325 -0.00000086
0.27815124 0.42287213 0.15357773
0.05162703 -0.71228850 -0.00000005
-0.75684619 -0.64115334 0.00000000
0.11095449 -0.03613658 -0.00000048
-0.59023970 -0.53044760 -0.00000013
0.54516214 -0.31530228 -0.00000039
0.38030085 0.22071625 -0.00000079
-0.40153250 0.62571239 -0.00000050
-0.17760104 0.14418273 -0.00000059
0.32194957 -0.12841065 -0.00000042
0.77693641 -0.30437469 -0.00000062
-0.45998833 0.19200283 -0.00000040
-0.67216700 -0.27489391 -0.00000009
0.39107215 -0.16998076 -0.00000039
0.04957863 -0.41078317 -0.00000024
-0.69732684 -0.77516627 0.00000000
0.47667369 -0.21807143 -0.00000042
0.39078364 0.08957552 -0.00000066
-0.14252190 0.30867434 -0.00000069
-0.05142797 -0.57117611 -0.00000014
0.23425955 0.04234602 -0.00000053
0.38293207 0.20007493 0.33670047
-0.62478030 0.04084698 -0.00000019
-0.78096688 -0.66556990 0.00000000
-0.67538571 0.66021651 -0.00000016
0.17064102 0.19022420 -0.00000062
0.58251530 -0.59660524 -0.00000013
0.54111236 -0.29526180 -0.00000041
0.79565942 -0.74885094 -0.00000006
-0.54706472 0.26675272 -0.00000032
-0.04017155 0.52122873 -0.00000083
-0.49886456 -0.06037438 -0.00000031
0.06349190 0.37454250 -0.00000073
0.10474456 0.65920019 -0.00000096
0.26654068 -0.04926803 -0.00000047
0.23613250 -0.15089992 -0.00000041
-0.33967718 -0.68881440 -0.00000007
-0.52927619 0.67666459 -0.00000034
0.23132177 0.51315308 0.08615488
0.52468836 0.12945610 0.22631893
-0.15411906 0.20827043 -0.00000063
0.28343689 -0.18868746 -0.00000038
-0.05759833 -0.24883077 -0.00000034
-0.67730236 -0.77283674 0.00000000
0.19935168 0.28886893 -0.00000068
-0.55954969 0.69628608 -0.00000030
0.24877840 -0.33148241 -0.00000029
0.24819019 0.10362538 -0.00000056
-0.05299709 0.27218461 -0.00000067
-0.17690410 -0.49903318 -0.00000019
0.63812160 0.13535792 0.04114886
0.34303638 0.04599341 -0.00000056
-0.52948624 0.51855993 -0.00000034
0.47634524 -0.36641204 -0.00000027
0.05917416 -0.12430199 -0.00000042
-0.47615150 0.03625803 -0.00000035
0.11339714 0.20000616 -0.00000063
-0.53375262 0.48630676 -0.00000033
0.73215932 -0.40957212 -0.00000049
-0.73820609 -0.00814481 -0.00000006
-0.39599806 0.10712879 -0.00000045
-0.18041150 -0.43884939 -0.00000023
0.30250862 0.46976018 0.04302748
