ply
format ascii 1.0
element vertex 1408
property float x
property float y
property float z
end_header
0.43266892 -0.22344317 0.00000000
-0.60356802 0.78700739 0.00000000
0.63086885 -0.34515887 0.00000000
0.31910962 0.54385811 0.02123711
-0.50883520 0.33181754 0.00000000
-0.34501448 -0.74143952 0.00000000
-0.69507301 -0.25756869 0.00000000
-0.17983894 0.41280732 0.00000000
-0.26261932 -0.01298185 0.00000000
-0.05753659 -0.05944132 0.00000000
-0.77230769 0.18206204 0.00000000
-0.64476103 -0.06054533 0.00000000
0.37078583 0.59690654 0.05655756
0.39315936 -0.70622784 0.00000000
0.14904775 0.09223799 0.00000000
-0.35902309 -0.63582814 0.00000000
0.19724201 0.59305620 0.00000000
-0.25753510 0.65118349 0.00000000
0.05166477 -0.58134431 0.00000000
-0.15830624 0.07774997 0.00000000
-0.27776033 0.57137883 0.00000000
0.47498086 0.52120054 0.06616604
-0.54689085 0.19746783 0.00000000
-0.38381153 0.31921646 0.00000000
-0.70868385 0.03180710 0.00000000
-0.01136294 0.71129298 0.00000000
0.02107300 -0.06643542 0.00000000
0.09839015 0.13062398 0.00000000
-0.60911703 0.46760941 0.00000000
-0.39916822 -0.01738061 0.00000000
-0.04081562 0.73569369 0.00000000
-0.19284397 0.24857883 0.00000000
-0.49014398 -0.29974532 0.00000000
-0.68852782 0.53139859 0.00000000
-0.78383261 0.20685034 0.00000000
0.63044143 -0.46604866 0.00000000
-0.76646143 -0.00074899 0.00000000
-0.72073525 0.60311717 0.00000000
-0.13351296 -0.45893213 0.00000000
0.31084180 -0.48909312 0.00000000
-0.40165865 0.38186386 0.00000000
-0.45915711 0.15284732 0.00000000
-0.24351035 -0.31734610 0.00000000
0.52961624 0.14843340 0.00000000
0.20442572 0.13950795 0.00000000
0.29807761 0.15806262 0.00000000
-0.05336180 0.62926781 0.00000000
-0.05872490 -0.45117909 0.00000000
0.37675360 0.74879873 0.10979918
-0.53514946 0.30395553 0.00000000
0.47561017 -0.11317578 0.00000000
-0.48054338 -0.08341955 0.00000000
-0.28177348 -0.40839836 0.00000000
-0.00829996 -0.03216885 0.00000000
-0.38928026 0.32508761 0.00000000
-0.26324445 0.58478290 0.00000000
0.65946400 0.21646233 0.02560765
-0.68566549 0.51547527 0.00000000
0.11259187 -0.35727671 0.00000000
-0.14497444 0.02408897 0.00000000
-0.51404893 -0.16721660 0.00000000
-0.41524744 -0.36351728 0.00000000
0.53233308 -0.38377976 0.00000000
-0.46169662 -0.31003323 0.00000000
-0.41931459 -0.25832951 0.00000000
0.05791502 0.50467658 0.00000000
-0.48819885 0.28436035 0.00000000
0.14363244 -0.79611290 0.00000000
0.66626847 0.73365140 0.20233528
-0.14503887 0.35295212 0.00000000
-0.77630287 0.63908076 0.00000000
-0.45181948 -0.61198229 0.00000000
0.26356176 0.74577892 0.07060440
0.67387176 -0.05476444 0.00000000
-0.04706173 -0.25372672 0.00000000
-0.01589034 0.17629789 0.00000000
0.34999377 -0.54465568 0.00000000
0.26970965 0.32855701 0.00000000
-0.07666426 -0.02989060 0.00000000
0.32420206 -0.31140605 0.00000000
-0.00958093 0.11224805 0.00000000
-0.05704365 -0.65210098 0.00000000
-0.61277509 0.64143896 0.00000000
0.68962115 0.68421835 0.19353908
-0.76021212 0.53754717 0.00000000
-0.16734914 -0.24898142 0.00000000
0.22190396 -0.19735014 0.00000000
-0.78262931 -0.41147867 0.00000000
0.64354080 0.74994159 0.20016414
0.30452004 -0.31035182 0.00000000
-0.24311818 0.27645171 0.00000000
-0.62668383 -0.31882188 0.00000000
-0.40196937 -0.71742886 0.00000000
0.24922466 0.46630153 0.00000000
0.58424038 0.07120301 0.00000000
0.32708728 0.38020200 0.00000000
0.06402864 -0.79375434 0.00000000
-0.16726235 -0.63228393 0.00000000
-0.20702820 -0.64334249 0.00000000
0.77209854 -0.71248209 0.00000000
-0.34769392 0.62096161 0.00000000
0.17734648 0.59411335 0.00000000
0.44879186 -0.72019809 0.00000000
0.69902855 -0.25834465 0.00000000
0.18618903 0.14930940 0.00000000
0.25893480 -0.49777442 0.00000000
0.17497942 -0.22818410 0.00000000
0.57535118 0.68529260 0.15536149
0.20907731 0.47801688 0.00000000
0.34692264 -0.20264040 0.00000000
-0.68261886 -0.38320264 0.00000000
-0.60635525 -0.17248532 0.00000000
-0.78278667 0.20405011 0.00000000
0.58519042 0.49680966 0.09511008
0.04368749 -0.39946049 0.00000000
-0.17078850 0.03693320 0.00000000
-0.57366711 0.52589691 0.00000000
0.79074401 -0.79145193 0.00000000
0.59086126 -0.02624710 0.00000000
-0.10777489 -0.57003605 0.00000000
-0.42988676 -0.76112032 0.00000000
-0.70301282 0.62319839 0.00000000
-0.12295175 0.40900412 0.00000000
-0.35476768 0.59858537 0.00000000
0.63862926 0.27139026 0.03710625
0.09864470 0.11036726 0.00000000
0.61394960 -0.25524318 0.00000000
-0.62038171 0.25030121 0.00000000
-0.54391545 -0.78333127 0.00000000
0.64825416 -0.10717117 0.00000000
0.37354630 -0.68158180 0.00000000
-0.76801920 -0.31110317 0.00000000
0.42376259 -0.26317620 0.00000000
-0.57976258 -0.60418051 0.00000000
0.65543699 -0.44159579 0.00000000
-0.33583200 -0.17201173 0.00000000
0.18631013 0.27486479 0.00000000
0.65921682 -0.39603123 0.00000000
0.59996694 -0.79432666 0.00000000
0.63152635 0.23689520 0.02307653
0.76855803 0.32818216 0.10008146
-0.05850359 -0.29668638 0.00000000
-0.32303903 0.59996086 0.00000000
0.25819337 0.12517259 0.00000000
-0.59908468 0.71009684 0.00000000
-0.40048170 -0.73600280 0.00000000
0.20440839 -0.50128287 0.00000000
-0.50077271 0.01270660 0.00000000
-0.12910704 0.35663489 0.00000000
0.70997632 -0.52649158 0.00000000
-0.74541914 -0.54020500 0.00000000
0.58151489 -0.14039630 0.00000000
-0.72480869 -0.68708843 0.00000000
0.49682912 0.03621086 0.00000000
-0.06325622 0.34399664 0.00000000
0.53096575 -0.66661733 0.00000000
0.59652317 0.02249379 0.00000000
0.76005775 0.22119123 0.06112978
-0.65119547 0.06584490 0.00000000
-0.38785389 -0.12392521 0.00000000
-0.10484793 -0.56448734 0.00000000
-0.78868258 0.74537933 0.00000000
-0.60657775 0.03449667 0.00000000
0.45484653 0.43072787 0.02886164
0.07292064 -0.65966004 0.00000000
0.31839862 0.78283924 0.10159867
0.31740177 -0.69775265 0.00000000
0.65661526 0.15879095 0.00519605
0.49075022 -0.11797790 0.00000000
-0.54043150 -0.22675623 0.00000000
-0.58948237 -0.11055358 0.00000000
0.33555508 -0.76246434 0.00000000
0.42111859 0.56613344 0.06315443
0.55483586 0.52622062 0.09479181
-0.67886376 0.43288633 0.00000000
-0.69260448 -0.21848267 0.00000000
-0.57145852 0.54061973 0.00000000
-0.47155148 -0.70070273 0.00000000
-0.61568826 -0.77281129 0.00000000
0.01591101 0.62772995 0.00000000
-0.38556433 -0.10243690 0.00000000
-0.64376897 0.12604086 0.00000000
0.59694332 -0.13753317 0.00000000
-0.45876193 0.59810466 0.00000000
-0.78091830 0.07242686 0.00000000
0.49124834 -0.12547883 0.00000000
-0.60183734 0.33521536 0.00000000
-0.02939077 -0.62739474 0.00000000
-0.35860956 0.67156678 0.00000000
0.23790988 0.50311697 0.00000000
0.57861179 0.23034389 0.00302048
0.23580068 -0.09378047 0.00000000
-0.58286124 0.40337747 0.00000000
-0.55092824 0.55270481 0.00000000
-0.59632838 0.68604314 0.00000000
0.71345592 -0.42854235 0.00000000
-0.35838377 -0.44590256 0.00000000
0.69077623 0.69949067 0.19907959
-0.17093518 0.05254071 0.00000000
0.42310300 0.46423578 0.02945672
-0.79266739 -0.37336406 0.00000000
-0.56295073 0.28384539 0.00000000
0.68281972 0.38489252 0.09029123
-0.75980127 -0.53541875 0.00000000
-0.58379620 -0.45577857 0.00000000
-0.34751365 -0.48800921 0.00000000
-0.77046067 -0.23120035 0.00000000
-0.02464707 0.26117957 0.00000000
0.26857755 -0.63962281 0.00000000
-0.15798885 -0.63742620 0.00000000
0.57468641 0.52142799 0.09987040
-0.13189787 -0.42127657 0.00000000
0.52092379 -0.56250060 0.00000000
0.20407370 -0.31415886 0.00000000
0.23328745 -0.20321879 0.00000000
0.71447837 0.72361374 0.21520966
-0.61281407 0.12141215 0.00000000
-0.06557578 -0.52915585 0.00000000
0.12979779 0.16030645 0.00000000
-0.06318932 -0.70768785 0.00000000
-0.71168929 -0.13765647 0.00000000
-0.24417707 0.19050679 0.00000000
-0.45430610 0.03944100 0.00000000
0.40300041 -0.61096275 0.00000000
-0.74410713 0.67755020 0.00000000
-0.65702927 -0.51228255 0.00000000
0.55578047 0.28662062 0.01430060
0.16737063 0.02419440 0.00000000
-0.43622500 0.06384616 0.00000000
0.21738097 -0.12749898 0.00000000
-0.67387205 0.77431858 0.00000000
-0.73339754 0.47299650 0.00000000
-0.32774270 -0.12714697 0.00000000
-0.17655282 -0.67308277 0.00000000
-0.31590253 0.24458525 0.00000000
-0.04830088 -0.24694270 0.00000000
-0.72056299 0.11542873 0.00000000
0.36054268 0.76604432 0.11014818
0.10226740 -0.31772962 0.00000000
-0.22456191 0.77409720 0.00000000
-0.26810917 0.57000303 0.00000000
0.25035065 -0.78926164 0.00000000
0.38544491 -0.13408613 0.00000000
-0.54188371 0.02397303 0.00000000
0.46205798 -0.73877966 0.00000000
-0.40305230 -0.05986604 0.00000000
0.67435402 0.64469028 0.17505822
0.12957527 0.70273387 0.01089689
0.73680472 0.16560537 0.03453981
-0.53539670 -0.37867579 0.00000000
0.08754531 -0.44076955 0.00000000
0.48865786 -0.28280228 0.00000000
0.70571971 0.59257907 0.16806130
0.25255206 0.65727890 0.03704264
-0.10256194 0.30004656 0.00000000
-0.21465087 -0.36464074 0.00000000
0.09447579 0.77041721 0.02188646
0.53021932 -0.37099957 0.00000000
-0.49898911 0.06724302 0.00000000
0.13447133 0.18832032 0.00000000
0.32286787 -0.63841528 0.00000000
0.19640970 0.70547235 0.03436173
-0.61577415 0.33367375 0.00000000
-0.28020912 0.31396306 0.00000000
-0.64533645 -0.59219575 0.00000000
-0.09356822 -0.65559602 0.00000000
0.20117632 -0.08441851 0.00000000
-0.45210069 -0.19811980 0.00000000
-0.47074944 -0.50567198 0.00000000
-0.72914016 -0.59759063 0.00000000
0.65330076 0.42700562 0.09453884
-0.02683755 0.33758309 0.00000000
-0.05064113 0.09095177 0.00000000
0.57681650 0.59343404 0.12487441
0.03496376 0.22650687 0.00000000
-0.45609373 0.09565216 0.00000000
-0.55394483 -0.12439682 0.00000000
-0.46446455 -0.40392655 0.00000000
-0.37496358 0.74767554 0.00000000
-0.09578430 -0.62849510 0.00000000
0.03116589 -0.43756521 0.00000000
-0.43380210 0.55367541 0.00000000
0.27809864 -0.08507102 0.00000000
-0.41105986 -0.38131949 0.00000000
0.62535566 0.20269559 0.00946084
0.31448039 0.75879282 0.09216698
-0.49690703 0.01945021 0.00000000
-0.35092545 -0.00608960 0.00000000
-0.15177163 -0.49997705 0.00000000
-0.78851575 -0.22032912 0.00000000
0.42391884 -0.47753784 0.00000000
-0.55584890 -0.26591620 0.00000000
-0.54198593 0.25341195 0.00000000
-0.46627533 0.25152102 0.00000000
-0.64205325 -0.17662202 0.00000000
0.22122721 -0.50153244 0.00000000
0.19198887 -0.38012978 0.00000000
0.51166379 -0.02061913 0.00000000
-0.31830901 -0.02281418 0.00000000
0.49858090 -0.11436005 0.00000000
-0.66204417 -0.75886148 0.00000000
0.40204340 -0.20465049 0.00000000
-0.18107738 -0.12795828 0.00000000
0.63669556 0.39066219 0.07668088
-0.44562498 -0.47826624 0.00000000
-0.18325308 -0.60055435 0.00000000
-0.16404304 -0.78200191 0.00000000
-0.19331194 0.68156147 0.00000000
-0.34627339 -0.64894122 0.00000000
-0.71302813 -0.29069096 0.00000000
0.61826527 0.41415811 0.07838935
0.00380209 -0.33767608 0.00000000
0.27478245 -0.47752708 0.00000000
-0.74627537 -0.63437486 0.00000000
-0.25318784 0.68877280 0.00000000
0.39143583 -0.10922606 0.00000000
-0.48494691 0.11699970 0.00000000
0.70885187 -0.19475058 0.00000000
0.08101033 -0.19735757 0.00000000
0.11297816 -0.47492787 0.00000000
-0.02508886 -0.16683578 0.00000000
-0.59026897 0.15287659 0.00000000
-0.39153662 -0.23286028 0.00000000
-0.00434070 -0.01591081 0.00000000
0.01471274 -0.23394737 0.00000000
-0.37711552 0.14410438 0.00000000
-0.54613405 -0.06450757 0.00000000
-0.65285254 0.58205223 0.00000000
-0.33339033 0.68206489 0.00000000
0.36586154 0.51771140 0.02818662
0.14015584 -0.26912451 0.00000000
-0.47250369 0.31920579 0.00000000
0.04245901 0.31060451 0.00000000
0.31490463 -0.01312259 0.00000000
-0.29326352 -0.30769977 0.00000000
0.74744523 0.25553936 0.06846055
-0.45490399 0.29020461 0.00000000
0.39575103 0.65070933 0.08312367
-0.30662733 -0.66840941 0.00000000
-0.31444913 0.10206082 0.00000000
0.51485938 -0.61726773 0.00000000
-0.17661364 -0.07373353 0.00000000
-0.33694112 -0.10744230 0.00000000
-0.78996295 -0.40070984 0.00000000
-0.35562447 -0.36904562 0.00000000
0.64509445 0.51503098 0.12145940
-0.35148585 -0.30331230 0.00000000
0.25596267 0.29105064 0.00000000
-0.36991712 0.22509007 0.00000000
-0.24723633 0.64427990 0.00000000
-0.72794408 0.35420710 0.00000000
0.32551670 0.33638194 0.00000000
-0.41706961 -0.57289439 0.00000000
-0.29414341 -0.21258920 0.00000000
-0.23339914 -0.62021261 0.00000000
0.47085586 0.18182319 0.00000000
-0.24838473 -0.01409600 0.00000000
-0.65419602 -0.61731446 0.00000000
0.78992522 -0.79483670 0.00000000
-0.24005678 -0.02791321 0.00000000
-0.53269947 0.00366365 0.00000000
0.59518480 -0.57796204 0.00000000
0.16433090 -0.01974632 0.00000000
0.18363757 -0.13432632 0.00000000
0.26497722 0.29673979 0.00000000
-0.12671927 0.59269112 0.00000000
0.25196579 0.11250607 0.00000000
-0.26007706 0.23335652 0.00000000
-0.09278411 -0.42035493 0.00000000
0.57316345 0.18046172 0.00000000
-0.11343899 -0.44224948 0.00000000
-0.40305856 0.74084133 0.00000000
-0.24213330 0.64413828 0.00000000
0.24817728 -0.47706965 0.00000000
0.41983902 0.40155524 0.00721563
-0.52404439 0.38838214 0.00000000
0.30943045 0.29819342 0.00000000
-0.36444759 0.28691366 0.00000000
-0.27108043 0.05796849 0.00000000
0.51163518 0.50568736 0.07329630
0.09481353 0.20655461 0.00000000
-0.02550837 0.06113425 0.00000000
0.77433378 -0.35095614 0.00000000
0.02927423 0.77349550 0.00093414
-0.58521193 0.41617766 0.00000000
-0.67273861 -0.59642017 0.00000000
-0.29480556 -0.40811297 0.00000000
0.23319539 0.60477459 0.01280612
-0.60042161 0.40296137 0.00000000
0.77314556 -0.20376243 0.00000000
-0.28033668 -0.59280294 0.00000000
-0.53705943 -0.35166696 0.00000000
0.18806793 0.39031395 0.00000000
-0.64003628 0.04880462 0.00000000
0.53634620 -0.34396768 0.00000000
0.24218933 -0.03798056 0.00000000
-0.24447998 -0.64217234 0.00000000
-0.16495419 -0.16660094 0.00000000
-0.34750199 -0.47471184 0.00000000
-0.77963537 -0.17444530 0.00000000
0.50162464 0.03654628 0.00000000
-0.78496134 -0.00077009 0.00000000
0.52020293 0.57467240 0.09945255
0.14885262 0.17447475 0.00000000
-0.70822388 0.70737654 0.00000000
-0.06001017 0.35091341 0.00000000
0.53687394 0.07420847 0.00000000
0.46119124 -0.03026726 0.00000000
-0.36766419 0.26112899 0.00000000
-0.64333993 0.67823482 0.00000000
0.54307765 0.13666672 0.00000000
0.69822592 0.04056278 0.00000000
0.25150836 0.65806919 0.03695718
0.33026937 0.48934969 0.00661691
-0.36538514 -0.32233608 0.00000000
0.46700510 -0.29358563 0.00000000
0.40067592 0.50619084 0.03604291
-0.49180111 -0.44842201 0.00000000
-0.73901761 0.43441573 0.00000000
-0.05128389 -0.19621918 0.00000000
0.57291377 -0.01276766 0.00000000
0.14951117 -0.23014574 0.00000000
-0.64701295 0.56029576 0.00000000
0.67226213 -0.66857612 0.00000000
-0.18966700 0.73836893 0.00000000
-0.57180256 0.68526721 0.00000000
0.72521961 -0.35219935 0.00000000
-0.27763766 0.23252258 0.00000000
0.67223287 0.22039020 0.03123894
-0.55510807 -0.14291865 0.00000000
-0.24176547 -0.43540114 0.00000000
0.76269186 0.08746412 0.01691608
0.11610011 -0.66506392 0.00000000
-0.02233433 -0.00774752 0.00000000
-0.13358213 -0.59437549 0.00000000
-0.30449784 0.76197016 0.00000000
-0.66449261 -0.41342804 0.00000000
0.42298576 -0.20833063 0.00000000
-0.12965097 0.68449551 0.00000000
0.63498104 0.40306234 0.08028482
-0.74113911 -0.59950179 0.00000000
-0.21703374 0.28326622 0.00000000
-0.44144833 0.55515373 0.00000000
-0.69299936 -0.42235231 0.00000000
0.39757559 -0.27830410 0.00000000
-0.71050453 -0.55497986 0.00000000
-0.10386372 0.59641409 0.00000000
0.00571528 -0.55175966 0.00000000
-0.63763809 0.15436865 0.00000000
0.22935215 0.06115397 0.00000000
0.66373467 0.32868388 0.06489695
-0.40493473 0.49948430 0.00000000
-0.60908777 -0.15598914 0.00000000
0.62428212 0.70342535 0.17798012
-0.50318056 0.03706100 0.00000000
-0.36252859 -0.62050623 0.00000000
-0.26021299 0.68870217 0.00000000
0.47115237 0.44904438 0.04053872
-0.26581961 0.38944694 0.00000000
-0.02131704 0.76675135 0.00000000
0.61610353 -0.25434718 0.00000000
-0.15417542 0.74650055 0.00000000
0.68378597 -0.08256618 0.00000000
-0.67521560 -0.18433553 0.00000000
0.53855973 -0.53448445 0.00000000
-0.10497182 0.74577266 0.00000000
-0.72649896 -0.71472824 0.00000000
-0.60659862 0.60685498 0.00000000
-0.47064391 0.43545026 0.00000000
-0.63341677 -0.33526924 0.00000000
0.77713931 -0.48937970 0.00000000
-0.30457819 -0.59555882 0.00000000
-0.07012581 -0.61809111 0.00000000
-0.48045784 -0.21618707 0.00000000
0.68666065 -0.43901190 0.00000000
0.44211638 -0.40733212 0.00000000
0.17868066 -0.55704200 0.00000000
0.50002259 0.36505049 0.02194717
0.66464615 0.34068990 0.06925363
0.32094318 -0.16847475 0.00000000
-0.43759516 0.32934454 0.00000000
-0.49755538 -0.72599661 0.00000000
-0.05918731 0.26589698 0.00000000
-0.26470304 -0.18774576 0.00000000
0.12333412 -0.33215326 0.00000000
0.56026137 0.35377517 0.03846107
-0.28420573 -0.58813024 0.00000000
0.00371979 0.77138323 0.00000000
0.68937099 -0.61673975 0.00000000
-0.76007998 -0.68223643 0.00000000
0.31682160 -0.52519983 0.00000000
0.79215485 -0.33462393 0.00000000
0.13098674 0.10329885 0.00000000
-0.07958014 0.63418657 0.00000000
-0.78920746 0.07101182 0.00000000
0.41766679 0.68788558 0.10305372
0.72357345 0.58226186 0.17060317
-0.03894528 -0.49389425 0.00000000
-0.30004734 0.52058285 0.00000000
-0.35253513 0.78166711 0.00000000
0.76330549 0.54000008 0.16974989
0.66608357 -0.71289283 0.00000000
0.55302960 -0.23442216 0.00000000
-0.01627884 0.15310337 0.00000000
-0.51815605 -0.30249226 0.00000000
0.29158291 0.43986893 0.00000000
0.27698216 0.18515234 0.00000000
0.26028362 -0.11656062 0.00000000
0.18398187 0.26146811 0.00000000
-0.12375214 0.12510671 0.00000000
-0.41207093 -0.66149950 0.00000000
0.42994207 -0.55204064 0.00000000
-0.05693199 0.72965288 0.00000000
0.17490621 0.53473920 0.00000000
-0.22466630 0.56504554 0.00000000
-0.16581228 0.51733208 0.00000000
-0.29615250 -0.39174366 0.00000000
-0.20809224 -0.37691763 0.00000000
-0.46491379 0.55900747 0.00000000
-0.27032402 -0.76003397 0.00000000
-0.08498322 0.50280994 0.00000000
0.54040015 0.66289794 0.13602044
-0.14761111 -0.00971984 0.00000000
0.21438451 -0.67922091 0.00000000
-0.50510639 -0.18968764 0.00000000
-0.64816195 -0.59163862 0.00000000
0.25438458 -0.72684258 0.00000000
0.61291981 0.46465927 0.09361900
-0.01817153 -0.06414423 0.00000000
-0.34709710 -0.15964642 0.00000000
0.40628818 0.03562343 0.00000000
0.54766959 0.72879875 0.16069871
0.47569188 0.07865160 0.00000000
-0.57238275 0.75953770 0.00000000
0.21704401 0.78104419 0.06680932
0.12744918 0.48151049 0.00000000
-0.50930405 -0.63884902 0.00000000
0.51524729 -0.41041633 0.00000000
-0.20636413 -0.24369889 0.00000000
0.79988843 -0.05724525 0.00000000
-0.19073041 0.46678799 0.00000000
0.64591044 -0.77779520 0.00000000
0.20691241 0.30056527 0.00000000
0.03599513 0.04193273 0.00000000
-0.03347913 -0.34915936 0.00000000
0.45822102 0.19545513 0.00000000
-0.43156180 -0.66183257 0.00000000
-0.63718635 0.15913863 0.00000000
0.09439276 -0.59553140 0.00000000
0.08383088 -0.57380003 0.00000000
-0.60140032 -0.61258292 0.00000000
-0.39931026 0.01266173 0.00000000
0.21366686 0.50988394 0.00000000
0.44053742 -0.38346308 0.00000000
0.62302715 -0.45088476 0.00000000
0.30196863 -0.34249279 0.00000000
0.12276233 -0.33670390 0.00000000
-0.53693491 0.25809294 0.00000000
0.25319830 -0.25632095 0.00000000
-0.24684320 0.11965237 0.00000000
0.03120504 -0.67480773 0.00000000
-0.31577933 -0.50845242 0.00000000
0.50733256 -0.17271219 0.00000000
0.30825606 -0.31259987 0.00000000
0.77534020 -0.78632295 0.00000000
-0.69266254 0.79700434 0.00000000
-0.13080034 0.33404979 0.00000000
0.07735027 -0.68772602 0.00000000
0.75908357 0.65062147 0.20563546
0.69238544 -0.70090973 0.00000000
0.41134638 -0.27735540 0.00000000
0.16308595 -0.23473246 0.00000000
-0.09415166 0.40934703 0.00000000
0.57913828 0.22504967 0.00141247
0.55569440 -0.53466284 0.00000000
0.20580654 0.56867558 0.00000000
0.19444466 0.26931831 0.00000000
0.38106835 -0.52694082 0.00000000
0.73006505 -0.52806830 0.00000000
-0.55822545 0.79708630 0.00000000
0.68333447 -0.54664576 0.00000000
0.45850617 0.70151281 0.12142372
0.29561758 -0.72662753 0.00000000
-0.41346440 0.09128802 0.00000000
-0.18417513 0.45167181 0.00000000
0.33515257 -0.57046372 0.00000000
-0.17786430 0.57244986 0.00000000
-0.63070023 -0.29069629 0.00000000
-0.00921633 0.12926716 0.00000000
0.65768051 -0.02020054 0.00000000
0.13589595 -0.52705640 0.00000000
-0.34210950 0.79298961 0.00000000
-0.77063942 -0.14006002 0.00000000
0.46313763 0.73096913 0.13292056
0.43950617 0.61491501 0.08580859
-0.05906734 0.60951805 0.00000000
-0.14309856 0.53756243 0.00000000
0.53608811 -0.07272836 0.00000000
-0.49059832 -0.00432054 0.00000000
-0.22352712 0.74750715 0.00000000
0.66214800 0.38879451 0.08463529
-0.72914594 -0.21446265 0.00000000
0.07158097 -0.58080250 0.00000000
0.03609763 -0.09344732 0.00000000
0.12237436 0.01154849 0.00000000
-0.23453757 0.39340907 0.00000000
0.65893179 0.41282126 0.09165406
0.35230240 0.31197950 0.00000000
-0.70018440 -0.40345547 0.00000000
-0.63469470 -0.44284853 0.00000000
0.32789332 -0.36600876 0.00000000
0.47001588 -0.03851832 0.00000000
-0.59061676 0.74470121 0.00000000
-0.38026130 -0.06910361 0.00000000
-0.37600034 0.00095957 0.00000000
-0.77813113 -0.08267137 0.00000000
-0.05065505 -0.58692360 0.00000000
-0.35141575 -0.21082674 0.00000000
-0.23930587 -0.18435004 0.00000000
-0.44908789 -0.46678510 0.00000000
0.42865169 0.41222736 0.01378725
-0.04342691 -0.45973015 0.00000000
-0.73402387 -0.43350083 0.00000000
-0.11194254 -0.65728450 0.00000000
-0.35106125 -0.10159976 0.00000000
0.40168405 -0.38040343 0.00000000
0.18933839 -0.32572815 0.00000000
0.11646142 -0.79128861 0.00000000
-0.78772867 0.72677743 0.00000000
-0.18372984 0.72775114 0.00000000
-0.54197705 -0.63441396 0.00000000
-0.08634081 0.13673715 0.00000000
0.71516138 -0.37337503 0.00000000
-0.47618559 0.47430152 0.00000000
-0.46785879 0.06219614 0.00000000
-0.06111702 -0.36083555 0.00000000
0.44487914 0.43105265 0.02560950
-0.38369736 -0.28947154 0.00000000
0.48645121 -0.24523535 0.00000000
-0.23638362 0.10102252 0.00000000
-0.76647794 -0.32655811 0.00000000
-0.60460687 -0.72875547 0.00000000
-0.34084201 0.48032612 0.00000000
0.31277505 -0.26109084 0.00000000
0.13138258 0.00114840 0.00000000
0.33584976 -0.77669120 0.00000000
0.00990741 0.65085441 0.00000000
-0.72372276 0.49020362 0.00000000
-0.29809439 -0.56417686 0.00000000
-0.05169654 0.56220406 0.00000000
-0.34629440 -0.17473473 0.00000000
0.67030054 -0.18343025 0.00000000
0.24396618 0.64364493 0.02954856
-0.37038013 0.27217805 0.00000000
0.67109805 0.20122816 0.02439344
-0.22676939 -0.01696095 0.00000000
-0.12929167 0.69732344 0.00000000
0.31276375 0.39528969 0.00000000
0.08689908 -0.32759070 0.00000000
0.16136871 -0.53306019 0.00000000
-0.44564754 -0.00881132 0.00000000
0.37948328 0.41124934 0.00000000
-0.48265335 0.16717340 0.00000000
-0.06199509 -0.52218431 0.00000000
0.51176924 0.59293854 0.10276875
0.57695442 0.73143947 0.17146625
0.17155837 -0.70479774 0.00000000
0.17703892 0.63092798 0.00268700
0.75868601 0.03344496 0.00000000
-0.78227448 -0.04273252 0.00000000
-0.67794704 -0.45421028 0.00000000
-0.67851430 -0.79922360 0.00000000
0.00888319 0.74556804 0.00000000
-0.25884607 0.64570981 0.00000000
-0.29126605 -0.42622560 0.00000000
0.23630603 0.56306815 0.00000000
-0.43461111 0.68344861 0.00000000
-0.10185775 -0.69244713 0.00000000
0.01535850 -0.57975197 0.00000000
-0.36227858 -0.43267837 0.00000000
-0.17699245 0.59750837 0.00000000
-0.33526161 0.21077877 0.00000000
0.34039858 -0.39672697 0.00000000
0.30634719 -0.72785294 0.00000000
-0.28897911 -0.66090673 0.00000000
-0.74929410 0.66031665 0.00000000
-0.49371496 -0.39589626 0.00000000
0.11342610 0.71388376 0.00921078
-0.24788120 -0.71442032 0.00000000
0.30019918 -0.69152790 0.00000000
0.05871156 -0.79638755 0.00000000
-0.47124615 -0.00531853 0.00000000
0.26202968 0.45997259 0.00000000
0.72546375 -0.08455469 0.00000000
0.37618119 -0.53637213 0.00000000
-0.75147676 -0.75383031 0.00000000
0.75981617 0.53612876 0.16726735
-0.56234682 -0.59824377 0.00000000
0.17916000 0.47315082 0.00000000
-0.27616534 0.18160804 0.00000000
0.25458604 0.63982069 0.03184052
0.16980992 0.26718095 0.00000000
-0.46518183 -0.66194487 0.00000000
0.13416104 0.69049919 0.00831713
0.15463455 -0.51799178 0.00000000
0.02610088 0.51444781 0.00000000
0.62573308 -0.23342779 0.00000000
-0.02648296 0.10073689 0.00000000
0.69680327 -0.27050427 0.00000000
0.42117831 0.17052492 0.00000000
0.56560647 -0.20803891 0.00000000
0.75935972 0.61464298 0.19359405
0.14502932 -0.10256545 0.00000000
0.49094966 -0.20689087 0.00000000
-0.65664452 0.44222492 0.00000000
0.00549468 0.22791526 0.00000000
0.10449430 0.44289976 0.00000000
0.35763061 0.08044111 0.00000000
0.67155808 0.33467013 0.06955453
0.04685985 0.37759247 0.00000000
-0.75923795 0.23802809 0.00000000
0.19285525 0.32476756 0.00000000
0.01233576 0.65776223 0.00000000
0.34982863 0.23103671 0.00000000
0.33070400 0.35220870 0.00000000
0.51709223 0.42423132 0.04766416
-0.47228995 -0.20959952 0.00000000
-0.32919413 0.24102093 0.00000000
0.35457513 0.16397119 0.00000000
-0.43446606 -0.51940042 0.00000000
-0.53778565 -0.17730561 0.00000000
0.72180343 0.69905937 0.20939869
-0.29539084 -0.31779033 0.00000000
0.35906005 -0.50519174 0.00000000
-0.79744893 0.29626611 0.00000000
-0.60987985 -0.02055780 0.00000000
-0.75975543 0.39466378 0.00000000
0.70186943 -0.14187346 0.00000000
0.69388133 0.67724937 0.19262548
0.68049991 0.11339023 0.00000000
-0.35088876 0.78504980 0.00000000
-0.08793830 0.25861734 0.00000000
-0.16014734 0.44618833 0.00000000
-0.41723222 0.35252190 0.00000000
0.27808282 -0.21131402 0.00000000
-0.56340080 0.24790046 0.00000000
0.06308058 -0.27423519 0.00000000
-0.52183467 0.74940675 0.00000000
-0.45061770 0.25739875 0.00000000
0.72508878 0.56819159 0.16636872
0.72885197 -0.29677323 0.00000000
0.31253704 0.08740668 0.00000000
-0.10704771 -0.22935145 0.00000000
-0.53467566 0.75228167 0.00000000
0.65880597 -0.16589594 0.00000000
0.73732722 -0.46857139 0.00000000
0.21781360 -0.71890736 0.00000000
-0.39439639 0.30439824 0.00000000
-0.56849372 0.25968590 0.00000000
0.66389358 0.72092181 0.19724099
-0.46819344 0.39992511 0.00000000
0.69548708 0.72409695 0.20896745
-0.24202138 -0.45846283 0.00000000
0.14207040 0.68805271 0.01015961
-0.15001868 0.29801238 0.00000000
0.66231757 -0.22243591 0.00000000
0.45042828 0.71595085 0.12356883
0.21877879 0.54875314 0.00000000
0.49190649 0.71425784 0.13698719
-0.20459571 0.70510793 0.00000000
0.11427738 0.19983821 0.00000000
-0.01401610 -0.24800187 0.00000000
-0.66509867 -0.52482778 0.00000000
-0.39924273 -0.16472229 0.00000000
-0.23599322 -0.30822897 0.00000000
0.21604884 -0.59465641 0.00000000
0.61517292 0.29813036 0.03821376
-0.31454590 -0.44602609 0.00000000
-0.63251847 -0.00411198 0.00000000
-0.16287731 -0.11945349 0.00000000
-0.61784238 -0.35203800 0.00000000
0.60803008 0.47233483 0.09455859
-0.57886606 -0.66171676 0.00000000
-0.77684069 0.29776981 0.00000000
0.16244549 -0.44821638 0.00000000
0.26973614 0.78356934 0.08543248
-0.13899425 -0.73639542 0.00000000
0.35202721 0.28194416 0.00000000
-0.79178143 -0.20438960 0.00000000
-0.33872551 -0.29585290 0.00000000
0.59900087 -0.74368870 0.00000000
-0.38794911 0.65761775 0.00000000
-0.39763063 -0.44282475 0.00000000
0.33856761 -0.52121079 0.00000000
0.60160339 0.63523728 0.14733335
-0.68991458 0.21427321 0.00000000
0.35612282 -0.35325536 0.00000000
0.32258785 -0.33043587 0.00000000
-0.26435497 -0.63228375 0.00000000
0.36580604 -0.28403726 0.00000000
0.26108018 0.19025902 0.00000000
0.25735730 -0.72570652 0.00000000
-0.45487478 0.76348633 0.00000000
0.01973863 0.08146451 0.00000000
0.52097660 0.66577953 0.13044135
0.50029641 -0.13247126 0.00000000
-0.26621553 0.38914245 0.00000000
-0.42319354 -0.74061054 0.00000000
-0.18160696 0.42381927 0.00000000
0.56251872 0.39732221 0.05390949
-0.52253419 0.41718742 0.00000000
0.03484311 0.47192079 0.00000000
0.57349205 0.66632724 0.14833798
0.62433690 -0.05135511 0.00000000
-0.27637994 0.01533339 0.00000000
0.11203867 -0.11281040 0.00000000
0.38901982 0.27395600 0.00000000
0.28188449 -0.59934777 0.00000000
0.06530681 -0.63980013 0.00000000
-0.49020752 0.77893168 0.00000000
-0.78035992 -0.18889666 0.00000000
-0.18346725 0.26609135 0.00000000
-0.41162881 -0.44524336 0.00000000
-0.47397265 0.74288571 0.00000000
0.21805263 -0.10506903 0.00000000
0.40694278 -0.27666461 0.00000000
-0.78765380 0.78253657 0.00000000
0.53747648 0.35298741 0.03051072
0.43437135 0.11198456 0.00000000
0.14036581 -0.55301833 0.00000000
-0.24026799 -0.68524355 0.00000000
0.51918608 0.71024483 0.14483435
0.72810322 0.54371393 0.15912978
0.67251402 0.62742352 0.16861407
0.48968589 -0.45471296 0.00000000
0.51051724 0.27549529 0.00000000
0.04323685 -0.33663455 0.00000000
0.22705416 -0.38925305 0.00000000
0.51128292 0.10586419 0.00000000
0.21434365 0.13605705 0.00000000
0.43714845 -0.23938178 0.00000000
-0.58586603 0.21405618 0.00000000
-0.52897722 -0.25032249 0.00000000
-0.11115986 0.21222968 0.00000000
0.59205812 0.15389176 0.00000000
0.14258549 0.40497547 0.00000000
0.65768731 -0.47711146 0.00000000
0.42772925 0.22588126 0.00000000
-0.22561955 -0.69022059 0.00000000
-0.63929695 -0.39451519 0.00000000
0.51512152 0.61298603 0.11066082
-0.14481831 0.56798661 0.00000000
0.40853623 0.61655247 0.07591559
0.00323422 -0.44182503 0.00000000
0.27774650 0.33744988 0.00000000
0.47426468 0.02282937 0.00000000
0.33941442 0.35306132 0.00000000
0.52000225 0.41841361 0.04668346
0.02651434 -0.47042808 0.00000000
0.14852247 -0.15249234 0.00000000
0.40439945 0.47699186 0.02745082
-0.65608907 -0.48636079 0.00000000
-0.14764220 0.33169603 0.00000000
0.16569555 0.13708176 0.00000000
0.26249316 -0.13426466 0.00000000
0.19386673 0.68501389 0.02660403
-0.65557534 -0.76596087 0.00000000
0.49827459 0.19271383 0.00000000
0.18384890 0.55154073 0.00000000
0.76752251 0.60416639 0.19281366
-0.10607762 -0.58295709 0.00000000
0.04729221 -0.71018505 0.00000000
-0.53835052 0.61540216 0.00000000
0.66384238 -0.25669485 0.00000000
0.22319385 -0.40111116 0.00000000
0.26262152 -0.09857628 0.00000000
-0.16156754 0.03456498 0.00000000
-0.14712460 -0.08333640 0.00000000
0.62880528 -0.00804132 0.00000000
0.09512653 0.38807422 0.00000000
-0.53084701 -0.21625307 0.00000000
0.77972108 -0.03698927 0.00000000
-0.43764502 -0.77029443 0.00000000
0.40668228 0.11333579 0.00000000
-0.75914353 0.53204286 0.00000000
-0.72471571 0.67611659 0.00000000
-0.72052479 -0.38908607 0.00000000
-0.73947734 0.78980535 0.00000000
-0.54285759 -0.29345548 0.00000000
-0.05320490 0.10981486 0.00000000
-0.48156178 -0.74426913 0.00000000
0.02880869 -0.19216928 0.00000000
0.12714028 -0.35615310 0.00000000
-0.40041688 -0.02494500 0.00000000
0.71746767 -0.04350318 0.00000000
0.77560568 -0.18736368 0.00000000
-0.78686923 0.12919311 0.00000000
-0.08223200 0.56492597 0.00000000
0.07120296 0.34246522 0.00000000
0.00088512 0.01255641 0.00000000
0.30514431 -0.13177086 0.00000000
-0.02868833 0.06926104 0.00000000
0.13419372 0.27681831 0.00000000
-0.45882216 -0.47076812 0.00000000
0.77791816 0.24751475 0.07603169
-0.78090632 -0.24492779 0.00000000
0.29898283 -0.36603412 0.00000000
0.10942114 0.41108736 0.00000000
0.61224985 0.58497787 0.13397302
0.19251013 -0.76514316 0.00000000
-0.06220966 0.52147627 0.00000000
-0.37307292 -0.25140196 0.00000000
0.24381208 0.11657497 0.00000000
-0.79471606 -0.11863474 0.00000000
-0.01263149 -0.22369243 0.00000000
0.31786373 -0.07047066 0.00000000
0.62282050 -0.74025118 0.00000000
0.75662100 0.20933212 0.05597096
0.71436971 -0.23215298 0.00000000
-0.52587974 -0.45814770 0.00000000
-0.35243654 0.26147047 0.00000000
-0.63008821 0.56934690 0.00000000
0.43044645 0.71912563 0.11790030
0.01743165 -0.25038561 0.00000000
-0.11028272 -0.36611599 0.00000000
0.54858100 -0.22568114 0.00000000
0.19165678 -0.33517322 0.00000000
0.54403263 0.66894180 0.13928400
0.08061346 0.39951256 0.00000000
0.66233939 -0.56243694 0.00000000
0.12597501 0.01530210 0.00000000
-0.61699492 0.30462930 0.00000000
-0.11094050 0.25941241 0.00000000
-0.21416999 -0.03011095 0.00000000
-0.25038457 0.25020316 0.00000000
0.68946999 0.11453051 0.00134925
-0.47535691 -0.53002626 0.00000000
0.07006388 -0.18181971 0.00000000
0.27277049 0.59316719 0.02223877
0.63680702 0.41631570 0.08537062
-0.70093977 -0.41156521 0.00000000
-0.38254875 -0.39587063 0.00000000
0.68074930 0.40463072 0.09625002
-0.33997059 -0.01056390 0.00000000
0.58047223 0.70113903 0.16243325
-0.72297382 0.19052915 0.00000000
0.41409239 0.30100864 0.00000000
-0.05580500 -0.35024118 0.00000000
0.61707669 0.54134786 0.12088577
0.02205730 0.58149570 0.00000000
0.56606740 0.24575645 0.00398783
0.01465904 -0.63768470 0.00000000
-0.51277333 -0.67962611 0.00000000
-0.07325442 0.61260009 0.00000000
0.48087916 0.64076996 0.10848262
0.76236033 -0.38432825 0.00000000
-0.68238479 0.33837450 0.00000000
0.60150087 -0.72031462 0.00000000
-0.48812896 -0.73134691 0.00000000
0.31870145 -0.75243199 0.00000000
0.77146345 0.24255267 0.07218115
0.74065238 -0.75671631 0.00000000
-0.63506389 -0.43639994 0.00000000
0.24759059 -0.13318402 0.00000000
0.54529607 0.19096003 0.00000000
-0.71165675 0.64924222 0.00000000
-0.40250704 -0.21272507 0.00000000
-0.52759463 -0.51739973 0.00000000
0.02960340 0.29636735 0.00000000
0.20829776 -0.03198570 0.00000000
-0.13294341 0.32613659 0.00000000
0.50244927 0.44687203 0.05036155
-0.46963203 0.05128331 0.00000000
0.27728546 -0.61646736 0.00000000
-0.07779190 -0.07488473 0.00000000
-0.73698270 0.28624743 0.00000000
-0.03726461 0.46428025 0.00000000
-0.19077662 0.51735550 0.00000000
-0.70626527 0.53317147 0.00000000
-0.00903786 -0.28576699 0.00000000
-0.22782275 -0.43465039 0.00000000
0.67870903 -0.72393078 0.00000000
0.22295529 0.11794456 0.00000000
0.74190259 0.55253726 0.16675977
0.62431914 0.44254920 0.09000659
0.38916704 -0.77135342 0.00000000
0.67527235 0.55546260 0.14527398
0.70549554 0.59888834 0.17011365
-0.76494211 0.41471303 0.00000000
-0.33068615 0.08725344 0.00000000
-0.34503606 0.38869396 0.00000000
-0.04668877 0.60431445 0.00000000
0.74290907 0.22624958 0.05705208
-0.38051304 0.24184899 0.00000000
0.67128503 -0.17254160 0.00000000
0.58291781 0.08314370 0.00000000
0.32564062 0.42136267 0.00000000
0.35656196 -0.42452696 0.00000000
0.33319545 -0.55874211 0.00000000
0.76744848 -0.03051428 0.00000000
-0.23410629 0.55193102 0.00000000
0.32558113 0.76545733 0.09815869
0.62440813 -0.05489049 0.00000000
0.47385585 -0.06266728 0.00000000
0.71599162 -0.68857425 0.00000000
0.63401544 -0.62570196 0.00000000
0.49226460 -0.16349512 0.00000000
-0.38601378 -0.61780977 0.00000000
0.16113371 0.45393062 0.00000000
-0.78695357 -0.00525586 0.00000000
0.03935783 -0.14778316 0.00000000
0.14953183 0.30323854 0.00000000
-0.79229635 -0.17612860 0.00000000
0.25062597 -0.49761882 0.00000000
0.63001704 0.57452363 0.13643944
0.76639336 0.32056332 0.09678178
-0.24791136 -0.62643141 0.00000000
-0.43441379 -0.18081328 0.00000000
-0.03156255 0.78786409 0.00000000
0.74874246 -0.19104013 0.00000000
0.27240562 -0.33443180 0.00000000
-0.26425257 0.56836271 0.00000000
0.62953871 0.47480834 0.10264704
-0.46238914 0.50363219 0.00000000
0.67557770 -0.65390217 0.00000000
-0.43772802 0.23655701 0.00000000
0.50277972 -0.37578407 0.00000000
0.44262397 0.64966691 0.09858096
-0.35090101 -0.18270926 0.00000000
0.21785881 0.48468840 0.00000000
-0.27105948 -0.52165121 0.00000000
0.09503005 -0.13602380 0.00000000
0.58521271 0.10003310 0.00000000
0.31344154 -0.04804663 0.00000000
0.51045817 -0.73797584 0.00000000
-0.38459691 -0.32078928 0.00000000
-0.08925636 0.02457290 0.00000000
0.25121179 -0.17702845 0.00000000
0.36136529 0.71143657 0.09200796
0.40400916 0.24909826 0.00000000
-0.71350867 0.79069954 0.00000000
0.37626225 -0.32311520 0.00000000
-0.65057743 -0.55015022 0.00000000
-0.62149489 0.14860161 0.00000000
0.48436490 0.42823157 0.03797537
0.66929364 -0.00525085 0.00000000
-0.70848095 -0.62752980 0.00000000
-0.23730744 -0.57829565 0.00000000
-0.08153844 0.65569538 0.00000000
-0.63317394 -0.23973311 0.00000000
-0.33372751 -0.05002232 0.00000000
-0.46645588 0.45025408 0.00000000
0.41949874 0.55461943 0.05872479
0.30696595 -0.25555611 0.00000000
-0.31718826 -0.20178458 0.00000000
-0.56489134 0.73158520 0.00000000
-0.25735614 0.56526959 0.00000000
-0.30915251 -0.36574790 0.00000000
-0.22568907 -0.07530445 0.00000000
-0.42232364 0.56058472 0.00000000
-0.39858019 0.78545201 0.00000000
0.23975033 0.61787045 0.01943374
-0.63703299 -0.50901794 0.00000000
0.35905626 0.63851100 0.06663345
-0.43601915 0.29098943 0.00000000
0.07392294 0.58397430 0.00000000
0.06412325 0.41242015 0.00000000
-0.74689847 -0.30107352 0.00000000
0.23783162 -0.65645635 0.00000000
-0.45298851 0.24463262 0.00000000
0.23065831 -0.44049519 0.00000000
0.40524322 -0.09184141 0.00000000
0.36104950 -0.39797127 0.00000000
0.62782615 0.50514340 0.11230055
-0.50949270 0.15190791 0.00000000
0.12182968 -0.55833846 0.00000000
-0.22561215 -0.33948237 0.00000000
0.11200728 -0.66795355 0.00000000
-0.47661540 0.43642896 0.00000000
-0.32136211 0.61217690 0.00000000
0.66973096 0.21569595 0.02881189
0.31688023 -0.24042816 0.00000000
0.28124952 0.35569796 0.00000000
-0.00723021 0.70969242 0.00000000
0.60670424 -0.48745912 0.00000000
-0.57732016 0.45528060 0.00000000
-0.35541227 0.17595738 0.00000000
0.75081736 -0.72925341 0.00000000
-0.62050658 0.77875906 0.00000000
-0.03886212 0.01930163 0.00000000
-0.19787212 -0.19789398 0.00000000
0.17660366 -0.24121314 0.00000000
-0.31560108 0.03604368 0.00000000
0.11733906 0.39699441 0.00000000
0.04782849 -0.24913205 0.00000000
0.09907243 -0.59102780 0.00000000
0.75303775 -0.25227213 0.00000000
0.14048935 0.41955274 0.00000000
-0.31944677 -0.14423743 0.00000000
0.16488291 -0.33196071 0.00000000
-0.38441974 0.29812562 0.00000000
-0.79470301 -0.19688882 0.00000000
0.11957856 -0.13679482 0.00000000
-0.01217650 -0.44208696 0.00000000
0.29636300 0.15571430 0.00000000
-0.40229350 -0.27101523 0.00000000
-0.24847649 0.64166731 0.00000000
0.34948230 0.51084638 0.02034704
0.52918392 -0.43911615 0.00000000
-0.23520353 -0.75705749 0.00000000
0.01187455 -0.37711847 0.00000000
0.60714531 -0.53448975 0.00000000
0.50065446 0.69412941 0.13314888
-0.52673668 0.71484494 0.00000000
0.71447712 0.58276290 0.16770422
-0.56155884 0.35390949 0.00000000
-0.39920163 0.64784884 0.00000000
0.07869552 -0.39574811 0.00000000
-0.29892144 0.73631907 0.00000000
-0.47372156 0.69752890 0.00000000
-0.48546401 -0.39837992 0.00000000
0.25104624 0.74400997 0.06578667
-0.51379347 0.25561976 0.00000000
0.12717710 0.44021499 0.00000000
-0.65992492 -0.08943510 0.00000000
-0.39084783 -0.20884784 0.00000000
0.16365753 -0.46481779 0.00000000
-0.44496366 0.01726334 0.00000000
0.37529361 -0.36660466 0.00000000
-0.40375924 -0.79451966 0.00000000
0.28015539 -0.39432907 0.00000000
0.04342543 0.31886792 0.00000000
-0.28487435 0.17574437 0.00000000
0.72487122 0.51095408 0.14699075
-0.78434169 -0.28395477 0.00000000
0.01215550 -0.68519711 0.00000000
-0.27190030 -0.77782148 0.00000000
0.20924251 0.29892194 0.00000000
-0.73793131 -0.15177186 0.00000000
0.53653878 -0.19922911 0.00000000
0.55887002 0.28095597 0.01343209
0.02254751 0.68797761 0.00000000
-0.23483266 -0.04425021 0.00000000
0.03824487 0.71234763 0.00000000
-0.62941962 0.36368200 0.00000000
0.06438632 0.54219049 0.00000000
0.40471849 0.20949017 0.00000000
-0.77682853 0.39249429 0.00000000
-0.48508853 0.30841100 0.00000000
0.19137450 -0.26007116 0.00000000
0.52350992 -0.28582859 0.00000000
0.49444443 0.19680990 0.00000000
-0.15287752 -0.22753426 0.00000000
0.24479961 0.39500892 0.00000000
-0.79513025 0.22399606 0.00000000
-0.68689233 -0.57174647 0.00000000
-0.08187898 -0.72007728 0.00000000
0.30893058 -0.08796762 0.00000000
-0.13314505 -0.71458441 0.00000000
0.55464363 -0.11790068 0.00000000
0.59806114 -0.40607303 0.00000000
0.32295471 -0.39665678 0.00000000
0.41074333 -0.03944083 0.00000000
-0.29521650 -0.10645216 0.00000000
0.32887718 0.74137694 0.09114872
0.63786936 -0.14412449 0.00000000
-0.56775457 -0.18008511 0.00000000
0.62907773 0.34400356 0.05837507
-0.51350045 -0.69176275 0.00000000
-0.62147319 -0.44358879 0.00000000
-0.73567933 0.64116979 0.00000000
-0.71750933 -0.33965501 0.00000000
0.62879527 0.39459616 0.07534317
0.68981212 0.17746283 0.02268980
-0.38504800 -0.62719351 0.00000000
0.13448949 0.18463083 0.00000000
0.50849426 0.67200571 0.12833132
0.40745106 0.65716404 0.08924673
-0.08723861 0.67299676 0.00000000
-0.63406676 -0.69082582 0.00000000
0.24752338 0.37248230 0.00000000
0.55044913 -0.79676700 0.00000000
-0.65247810 0.74163264 0.00000000
-0.57857692 -0.37189791 0.00000000
0.51370227 -0.39623356 0.00000000
-0.52406383 -0.49269184 0.00000000
0.14678065 -0.02894777 0.00000000
0.13144957 -0.28669846 0.00000000
-0.34813565 0.26921514 0.00000000
-0.48267308 -0.42459086 0.00000000
-0.61687005 0.72859305 0.00000000
0.28875813 0.70835608 0.06648073
-0.47646591 0.57947850 0.00000000
-0.79253495 0.07401518 0.00000000
-0.19429360 0.53652078 0.00000000
-0.04136860 -0.07070032 0.00000000
-0.53718805 -0.11764447 0.00000000
-0.72172517 0.25382319 0.00000000
-0.71486855 -0.19733687 0.00000000
0.69844198 -0.47812766 0.00000000
-0.43208966 0.41592243 0.00000000
-0.72729433 0.06132503 0.00000000
0.40943149 0.46488836 0.02506583
-0.58241510 -0.25635424 0.00000000
-0.69828898 0.31937572 0.00000000
0.64257479 -0.22719617 0.00000000
0.21062452 0.46310708 0.00000000
0.68335319 0.61816341 0.16914663
-0.73703200 -0.43163931 0.00000000
0.38316423 0.16797872 0.00000000
-0.33070433 0.77437240 0.00000000
0.26822618 -0.37107399 0.00000000
0.10913926 0.62550497 0.00000000
0.07306480 0.44559059 0.00000000
0.08461981 -0.59155673 0.00000000
-0.42566538 -0.46168250 0.00000000
-0.59399313 -0.06569450 0.00000000
-0.03089988 -0.48837197 0.00000000
0.19759521 -0.10183120 0.00000000
0.26881096 0.77092677 0.08085647
0.75892353 0.67906541 0.21517481
-0.36450890 -0.62888664 0.00000000
0.58918810 0.74798667 0.18117324
-0.09412190 -0.25623733 0.00000000
-0.38610956 0.07292332 0.00000000
0.12612692 0.72442871 0.01705087
-0.29679215 -0.50309354 0.00000000
0.53268516 -0.52529007 0.00000000
-0.38873464 -0.29126722 0.00000000
0.72095662 0.17013140 0.03072122
0.73280406 0.35660651 0.09760941
-0.62684011 -0.65790015 0.00000000
-0.48226154 -0.26696083 0.00000000
0.18601029 0.15258762 0.00000000
-0.57876623 -0.64890522 0.00000000
-0.73829532 0.43401700 0.00000000
-0.72338450 -0.41882896 0.00000000
0.76729751 0.14776528 0.03880718
0.43432468 -0.22844765 0.00000000
-0.73869389 0.01045737 0.00000000
-0.58891040 -0.06652009 0.00000000
0.23874290 -0.10553326 0.00000000
-0.17276694 -0.48931172 0.00000000
0.65382391 -0.41964722 0.00000000
-0.50085813 0.61663777 0.00000000
-0.68486285 0.63131005 0.00000000
0.65884668 0.47152808 0.11142539
-0.54713655 -0.27598965 0.00000000
-0.17302094 0.27656814 0.00000000
-0.58370316 0.23273663 0.00000000
-0.41713801 -0.56068218 0.00000000
-0.52584457 -0.71223873 0.00000000
-0.33676001 0.06446503 0.00000000
-0.78334677 0.03239405 0.00000000
-0.73834598 0.07713262 0.00000000
-0.54685485 -0.77959138 0.00000000
0.35869145 -0.68876064 0.00000000
0.30939853 0.78310949 0.09865436
0.51940942 0.66015786 0.12801674
-0.38380271 0.20213579 0.00000000
0.19560924 -0.65596592 0.00000000
-0.20766860 -0.17986771 0.00000000
0.10912085 -0.53849494 0.00000000
-0.07347876 -0.23831654 0.00000000
0.40734905 0.65789652 0.08945939
0.42309481 -0.04058769 0.00000000
-0.66486007 0.65201098 0.00000000
0.62074673 -0.62200129 0.00000000
-0.30249679 -0.71120375 0.00000000
0.37279233 -0.74607641 0.00000000
-0.73135918 0.43466929 0.00000000
0.51324606 0.04078524 0.00000000
-0.65565544 0.14991818 0.00000000
0.68196696 -0.16117388 0.00000000
-0.45299903 0.01711025 0.00000000
-0.69391721 0.51193291 0.00000000
-0.69261473 0.54016918 0.00000000
-0.29632562 -0.07322740 0.00000000
0.33260083 0.37464020 0.00000000
-0.17835797 0.26493996 0.00000000
-0.07276281 -0.57021379 0.00000000
-0.64164394 0.54400635 0.00000000
0.42446765 0.08105271 0.00000000
-0.58230770 -0.21672137 0.00000000
-0.33865628 0.69867045 0.00000000
0.06222476 -0.01887823 0.00000000
0.67260754 -0.33623838 0.00000000
-0.19312239 0.34233308 0.00000000
-0.42910427 0.05380564 0.00000000
-0.62971973 -0.65742385 0.00000000
-0.41035488 -0.59581000 0.00000000
-0.63867146 -0.23148796 0.00000000
0.33681312 0.26639381 0.00000000
0.12077027 0.02554871 0.00000000
0.69308895 0.19774304 0.03063487
0.58208621 -0.48272997 0.00000000
-0.45895225 -0.54679424 0.00000000
-0.33127734 -0.14334188 0.00000000
-0.05226429 0.13136497 0.00000000
0.69274873 0.53831291 0.14538413
0.77192098 -0.79211748 0.00000000
-0.43256050 0.22879373 0.00000000
0.77676988 -0.37476623 0.00000000
0.71247369 -0.07587149 0.00000000
0.17779912 0.60703605 0.00000000
0.05014896 -0.52247250 0.00000000
0.68313843 0.14667048 0.01005364
-0.59556669 0.44057539 0.00000000
-0.73589790 -0.00519945 0.00000000
-0.27658689 0.02607951 0.00000000
-0.13415647 0.48820356 0.00000000
-0.19961403 -0.50788695 0.00000000
0.62177664 -0.17341274 0.00000000
0.12293157 -0.58599740 0.00000000
0.07026522 0.51437193 0.00000000
-0.21254395 0.20729397 0.00000000
0.61495870 -0.04186026 0.00000000
-0.29342428 -0.26989937 0.00000000
-0.19549674 0.28409326 0.00000000
-0.15798667 -0.39821982 0.00000000
-0.05071642 -0.55143517 0.00000000
0.02997672 -0.65978062 0.00000000
0.02688015 0.33429423 0.00000000
0.53838027 -0.17191264 0.00000000
0.44308612 0.09932670 0.00000000
0.07756052 0.57508177 0.00000000
0.68310857 -0.40634239 0.00000000
-0.74923664 -0.29526049 0.00000000
-0.35625744 0.31837693 0.00000000
-0.19829856 0.75191557 0.00000000
-0.46228117 -0.44876814 0.00000000
0.23697136 -0.33606216 0.00000000
0.47847199 0.33549216 0.00470968
-0.59769553 -0.13266903 0.00000000
-0.26664561 0.40056124 0.00000000
0.18357179 0.14951655 0.00000000
0.72896838 -0.08411512 0.00000000
0.66977346 0.57349652 0.14950170
-0.23493016 -0.38326201 0.00000000
0.19220683 0.18547027 0.00000000
-0.77107596 -0.02133900 0.00000000
0.44931293 -0.76425534 0.00000000
-0.72759515 0.00649619 0.00000000
0.67959279 0.56190908 0.14890534
0.05081795 -0.79237652 0.00000000
0.25974455 -0.59526646 0.00000000
-0.57955748 0.03278411 0.00000000
0.72349203 -0.51910526 0.00000000
0.23977707 -0.66609442 0.00000000
-0.25321600 0.08506730 0.00000000
-0.24538922 0.68033141 0.00000000
-0.16876438 -0.31658167 0.00000000
0.69233793 0.59156722 0.16320677
0.30862692 -0.72155136 0.00000000
-0.34039298 0.34491059 0.00000000
-0.60135502 -0.32033595 0.00000000
0.39351755 0.68929869 0.09538548
-0.43529332 -0.00034443 0.00000000
0.38179293 -0.32527128 0.00000000
0.25448221 -0.75576568 0.00000000
0.59240741 0.46254921 0.08598913
0.01545898 0.58865625 0.00000000
0.58061033 -0.65346754 0.00000000
-0.79863465 0.66119671 0.00000000
0.53732395 0.16902857 0.00000000
0.10712538 -0.03025823 0.00000000
-0.78601670 0.20646694 0.00000000
0.61362875 -0.70261228 0.00000000
-0.39432985 -0.27476954 0.00000000
-0.03539180 0.22763713 0.00000000
0.36510274 -0.31334171 0.00000000
0.49423653 -0.07986350 0.00000000
-0.34754488 0.43849534 0.00000000
-0.73001057 -0.00705017 0.00000000
-0.27793902 0.67261249 0.00000000
-0.38113615 -0.41843402 0.00000000
-0.16308787 -0.64298534 0.00000000
-0.10093977 0.68080872 0.00000000
-0.02814780 -0.66072500 0.00000000
-0.27235317 -0.76861632 0.00000000
0.39454481 -0.04487286 0.00000000
0.61327618 -0.13617335 0.00000000
0.62341779 0.70717752 0.17895412
0.65677243 0.47553438 0.11207701
-0.13538414 0.09498370 0.00000000
0.64631146 0.62522084 0.15903381
0.77150178 0.31120822 0.09534951
-0.55263340 -0.68098801 0.00000000
0.68557966 0.00012057 0.00000000
-0.24433275 -0.72228771 0.00000000
-0.44243357 -0.45341867 0.00000000
0.26336637 -0.02902213 0.00000000
-0.56756353 0.37130335 0.00000000
-0.21928504 -0.29523569 0.00000000
-0.44296476 0.69196916 0.00000000
0.08693359 -0.57865989 0.00000000
-0.37711835 -0.04879036 0.00000000
-0.33503050 0.75989169 0.00000000
0.09346264 0.68576396 0.00000000
0.08353972 0.11924464 0.00000000
0.41441578 -0.69386929 0.00000000
0.17838398 -0.17739476 0.00000000
0.33268651 0.65871280 0.06455320
0.39756265 -0.56969303 0.00000000
0.54959202 0.45161882 0.06786232
-0.59659100 0.32502255 0.00000000
-0.55928004 -0.09027636 0.00000000
-0.27892095 -0.53490549 0.00000000
