ply
format ascii 1.0
element vertex 1401
property float x
property float y
property float z
end_header
0.39709711 -0.67626858 0.00000000
-0.56223375 0.02390531 0.00000000
-0.15777877 0.25088650 0.00000000
0.45816237 0.15505904 -0.00000041
0.24806671 -0.70125586 0.00000000
-0.40545022 -0.39872202 0.00000000
0.12968177 -0.54070014 0.00000000
0.58122951 0.20901275 -0.00000072
-0.37220338 0.08714282 0.00000000
0.62495333 0.09878481 -0.00000071
0.43724075 -0.23842347 -0.00000002
0.05718181 -0.11511357 0.00000000
0.13962036 -0.73703808 0.00000000
-0.03200131 0.34058505 0.00000000
0.45466226 0.21532995 -0.00000045
0.43105602 0.31014362 0.18755610
-0.72475779 0.10203000 0.00000000
0.27490118 -0.36475521 0.00000000
-0.60846639 -0.42183033 0.00000000
-0.37324268 0.37501884 0.00000000
-0.15466410 0.42883432 0.00000000
-0.35269105 -0.19310144 0.00000000
0.63362610 -0.17827024 -0.00000049
-0.71352935 0.28882605 0.00000000
-0.71985674 0.39771914 0.00000000
0.25102997 0.44363889 0.33597785
-0.64826798 0.64656436 0.00000000
-0.07636476 -0.29008624 0.00000000
-0.20833196 -0.72807240 0.00000000
0.73283124 -0.09489121 -0.00000077
-0.33804157 -0.64072752 0.00000000
-0.29867736 0.15139192 0.00000000
0.77635998 -0.15179798 -0.00000081
0.72678000 -0.28902245 -0.00000059
0.40226153 0.30613077 0.29220396
-0.69996327 -0.67799157 0.00000000
-0.13747691 0.26454750 0.00000000
-0.33258805 0.25900552 0.00000000
0.26356062 0.26826507 -0.00000009
-0.22648682 0.68367839 0.00000000
0.33551285 0.36585927 0.31459633
0.33978307 0.06329263 -0.00000007
0.36084864 -0.05603121 -0.00000001
0.33717078 0.40381044 0.18825300
-0.75366235 -0.09975368 0.00000000
-0.31744125 0.04472713 0.00000000
-0.54787481 0.25242132 0.00000000
0.41656622 -0.10292240 -0.00000009
-0.43341860 0.39859983 0.00000000
0.57835567 0.14570518 -0.00000066
0.27224183 -0.63100684 0.00000000
-0.74940497 -0.44828814 0.00000000
-0.44267216 0.31745428 0.00000000
-0.41806778 -0.39447692 0.00000000
0.53429145 -0.13223338 -0.00000032
-0.77017748 0.30985060 0.00000000
0.29166397 -0.72960246 0.00000000
0.12956703 -0.79325056 0.00000000
0.16150793 0.07044730 0.00000000
-0.73088527 0.05115563 0.00000000
-0.19045217 -0.02627804 0.00000000
0.63966042 0.11004992 0.16040872
0.53682804 -0.11511251 -0.00000034
0.31627759 -0.68072206 0.00000000
0.00541626 0.74984401 0.00000000
0.61773956 -0.47797871 -0.00000019
-0.32231793 0.52874470 0.00000000
0.30232605 -0.19051479 0.00000000
0.36661354 -0.15728945 0.00000000
0.63304090 -0.48415181 -0.00000022
0.79924959 -0.24845707 -0.00000069
0.16800950 0.26990294 0.00000000
0.32724479 0.31301975 0.50951439
-0.35436112 -0.14508013 0.00000000
-0.74983621 0.79647791 0.00000000
-0.59959215 0.69869971 0.00000000
-0.09424540 0.79828739 0.00000000
-0.16564520 0.47562277 0.00000000
-0.54278088 -0.35278898 0.00000000
-0.57034421 -0.53887278 0.00000000
0.72260457 -0.06916673 -0.00000077
-0.01204856 -0.07298243 0.00000000
0.13010743 0.26437226 0.00000000
0.60804206 0.17193806 0.06385497
-0.25632733 0.16603467 0.00000000
0.30591395 -0.53727287 0.00000000
-0.24244997 -0.58020490 0.00000000
0.45182553 -0.32664213 0.00000000
-0.34497529 0.22523831 0.00000000
0.35382470 -0.60091257 0.00000000
-0.56317133 0.38420996 0.00000000
-0.77198249 0.60946488 0.00000000
0.79946154 -0.42100543 -0.00000047
-0.60748881 0.13444307 0.00000000
-0.23874345 -0.52646369 0.00000000
-0.67662209 0.52123523 0.00000000
-0.71673322 -0.52722675 0.00000000
0.46703267 0.25307634 -0.00000051
-0.18791138 -0.35167849 0.00000000
-0.20607865 0.21229403 0.00000000
-0.68702680 0.75548351 0.00000000
-0.20798522 0.74951923 0.00000000
-0.32503849 -0.73657399 0.00000000
0.11960482 0.44310969 0.00000000
0.28353420 0.49167544 0.07907209
-0.54216588 0.41369787 0.00000000
0.16823317 0.56831765 -0.00000015
0.24031493 -0.69719535 0.00000000
-0.37135360 0.72611666 0.00000000
-0.42232126 -0.49415877 0.00000000
0.07807457 0.71549499 0.02050830
0.62514704 0.16268481 0.03880958
-0.42568877 -0.17804997 0.00000000
0.61194706 -0.06315354 -0.00000054
0.32075214 -0.74722105 0.00000000
0.01962197 -0.23495699 0.00000000
-0.29786116 0.57774210 0.00000000
0.21994984 0.40171385 -0.00000012
-0.47461456 -0.74751222 0.00000000
0.78251785 -0.44092998 -0.00000045
0.12037605 0.66863906 0.03503598
0.42572755 -0.63844919 0.00000000
-0.41738060 -0.07026225 0.00000000
-0.57436633 0.48056671 0.00000000
-0.67109942 0.40798914 0.00000000
-0.24616081 0.27694160 0.00000000
0.07183272 0.06957415 0.00000000
-0.46235064 -0.50277805 0.00000000
0.23296376 -0.52840686 0.00000000
0.02153631 0.00353502 0.00000000
0.24559975 -0.74253172 0.00000000
0.51395875 -0.59045637 0.00000000
-0.24798845 0.79155225 0.00000000
-0.29256234 0.46755746 0.00000000
0.65013373 0.02766929 -0.00000070
0.04036423 0.20567031 0.00000000
-0.00260508 -0.08331348 0.00000000
-0.61834341 0.54408526 0.00000000
-0.14761350 -0.42648792 0.00000000
0.34413323 -0.48504582 0.00000000
0.46133780 -0.22112644 -0.00000008
0.02706715 0.33626941 0.00000000
-0.68602097 -0.66197985 0.00000000
-0.50062925 0.28417292 0.00000000
0.09834443 0.31613302 0.00000000
-0.44877082 -0.77159852 0.00000000
-0.64782774 0.24145339 0.00000000
0.09828945 -0.52124053 0.00000000
-0.71637416 -0.13933961 0.00000000
0.72571325 -0.71427494 -0.00000011
0.18258192 -0.24186070 0.00000000
-0.03882544 0.67657685 0.00000000
0.62733293 -0.25705633 -0.00000040
-0.21756275 0.04381025 0.00000000
0.14618132 0.62257427 -0.00000016
0.72881997 -0.65625238 -0.00000018
0.05797468 -0.20678496 0.00000000
0.21046206 0.56885260 0.06597811
0.05225490 0.04370801 0.00000000
-0.35235232 -0.65165061 0.00000000
0.51230109 -0.03749492 -0.00000035
0.52917576 0.17625976 0.30163550
0.24027367 0.01777317 0.00000000
-0.21571729 -0.60069841 0.00000000
0.25757059 -0.20569520 0.00000000
0.12419712 0.61084533 0.20719583
-0.39984927 -0.71527523 0.00000000
-0.52325851 0.41396064 0.00000000
-0.06595813 -0.18814898 0.00000000
-0.36011803 0.69552642 0.00000000
-0.16447434 0.14205956 0.00000000
-0.74348140 0.03496822 0.00000000
0.54462409 0.01553356 -0.00000047
0.47116092 0.30975410 0.06087311
-0.28050533 -0.12135486 0.00000000
-0.78903949 -0.50037724 0.00000000
-0.02832736 -0.19780149 0.00000000
-0.75370270 -0.66721058 0.00000000
-0.38132036 0.19795017 0.00000000
0.76612020 -0.16465342 -0.00000078
0.55149478 0.22865725 0.06330680
0.38398826 0.32008004 -0.00000040
0.67571414 -0.59405768 -0.00000021
-0.06503651 0.62365669 0.00000000
-0.41196993 0.11699377 0.00000000
-0.62722188 -0.75454533 0.00000000
0.28729603 -0.02297795 0.00000000
0.51248300 -0.46835086 0.00000000
-0.52883619 -0.34070823 0.00000000
0.16399530 -0.04175208 0.00000000
0.22324434 0.50291425 0.23553336
0.31352803 -0.40792882 0.00000000
-0.18360201 0.66285211 0.00000000
-0.31664196 0.58049351 0.00000000
0.34440443 -0.60678440 0.00000000
-0.75180799 -0.79118323 0.00000000
0.75023758 -0.47405967 -0.00000041
0.17326394 0.53437674 -0.00000013
-0.11663466 0.05449159 0.00000000
-0.17560463 0.21125036 0.00000000
0.28316897 -0.30277175 0.00000000
0.08121219 0.29453275 0.00000000
-0.67756492 0.47969672 0.00000000
-0.55120134 -0.70757025 0.00000000
-0.32657397 -0.31386620 0.00000000
-0.02374276 0.76129287 0.00000000
0.65789253 -0.41321287 -0.00000033
-0.53272402 0.20031926 0.00000000
0.11557716 -0.57943857 0.00000000
0.48858416 -0.52568108 0.00000000
-0.44308043 0.21155114 0.00000000
-0.55657631 0.54557961 0.00000000
0.17398600 -0.56405258 0.00000000
-0.02184426 -0.52865839 0.00000000
0.64561784 -0.24439497 -0.00000045
0.23119254 0.44833130 0.38428664
-0.63607681 -0.11278806 0.00000000
-0.23837504 0.49256888 0.00000000
0.25096348 -0.71442646 0.00000000
0.45434058 0.25801122 -0.00000049
0.31212938 0.11299046 -0.00000006
-0.46760759 -0.79776090 0.00000000
-0.47938833 -0.78850126 0.00000000
0.14496960 -0.25733715 0.00000000
0.17962544 0.60505581 0.04886003
0.51228082 -0.32649571 -0.00000010
0.42470843 -0.21966533 -0.00000001
0.20781283 0.14280763 0.00000000
-0.35756296 -0.73512197 0.00000000
0.60637903 -0.50389373 -0.00000014
-0.15248384 -0.60819310 0.00000000
0.45651656 0.19385903 -0.00000044
0.47725382 0.14810817 -0.00000044
-0.31516594 -0.66395783 0.00000000
-0.00503963 -0.33442456 0.00000000
-0.38978982 0.03773307 0.00000000
-0.68298042 -0.54238760 0.00000000
-0.16197272 -0.73301059 0.00000000
-0.37392613 -0.13771915 0.00000000
0.03645544 -0.19728129 0.00000000
0.19452557 -0.42221701 0.00000000
0.70635152 0.03212147 -0.00000083
0.68195415 -0.06327767 -0.00000069
-0.64162356 0.64818007 0.00000000
0.05112992 0.51870430 0.00000000
-0.41363055 -0.10731502 0.00000000
-0.49576533 0.63884884 0.00000000
0.35049757 -0.40622482 0.00000000
0.70026803 -0.49803466 -0.00000035
-0.00838241 0.31057045 0.00000000
-0.37040269 -0.49656323 0.00000000
-0.72751099 0.40700331 0.00000000
0.61150670 0.13840622 0.15976249
-0.50682718 -0.32184076 0.00000000
0.29836419 0.42722628 0.23734577
0.28551272 -0.36245486 0.00000000
0.21781293 0.45009020 -0.00000016
0.49543640 0.25096992 0.17094785
-0.65672153 0.18279891 0.00000000
0.38490337 0.37897715 0.11520938
0.64036888 -0.51362163 -0.00000021
-0.22340924 0.63978148 0.00000000
-0.73611820 -0.53308898 0.00000000
0.01111336 0.60521603 0.00000000
-0.02020078 0.25731674 0.00000000
0.06863324 -0.18227655 0.00000000
-0.64596856 -0.15967163 0.00000000
-0.45113781 -0.52562010 0.00000000
-0.67176473 0.39935878 0.00000000
-0.37857455 0.10418228 0.00000000
0.35052186 0.37589261 0.23471753
0.49613079 -0.21122526 -0.00000016
0.60817742 0.19047940 -0.00000076
0.24945155 -0.06720932 0.00000000
0.20280226 0.05806313 0.00000000
-0.55964750 0.35115230 0.00000000
-0.32720697 0.33887613 0.00000000
0.02081158 0.03162294 0.00000000
0.60076773 -0.63170058 -0.00000002
0.76448989 -0.14986335 -0.00000079
-0.28510377 0.58531773 0.00000000
-0.29220232 0.13547073 0.00000000
-0.06535221 -0.49541977 0.00000000
0.38959852 -0.63999325 0.00000000
-0.56836438 0.11100358 0.00000000
-0.73306257 -0.52746266 0.00000000
0.30835238 0.33334970 0.50492907
0.17953320 -0.51847446 0.00000000
0.51547742 0.21887869 -0.00000059
0.59800547 0.18767753 0.04566404
-0.68488050 -0.73683065 0.00000000
-0.22651209 -0.64698005 0.00000000
0.11249905 0.66438395 0.07373478
0.73547524 -0.52012545 -0.00000035
-0.50560963 0.55200881 0.00000000
-0.43315765 -0.39588830 0.00000000
-0.33311060 -0.19683430 0.00000000
0.35382524 0.33250397 0.36257961
-0.17129695 0.74095047 0.00000000
-0.48978981 -0.03876942 0.00000000
0.35144520 -0.19599310 0.00000000
-0.05968826 0.04063536 0.00000000
0.20066559 0.05286004 0.00000000
0.25785133 -0.73693013 0.00000000
0.29520494 -0.50331044 0.00000000
-0.64619923 0.76916939 0.00000000
0.67341667 -0.38431522 -0.00000039
0.37687865 -0.27377403 0.00000000
-0.60322708 0.17131549 0.00000000
-0.31404981 0.46550745 0.00000000
-0.07551628 -0.18225919 0.00000000
-0.05348981 -0.00737411 0.00000000
0.03392904 0.41690147 0.00000000
-0.28763434 0.04684427 0.00000000
-0.27385908 -0.48574656 0.00000000
0.66590363 -0.13233368 -0.00000060
-0.72774720 0.61728889 0.00000000
-0.45461878 0.25159422 0.00000000
-0.18099345 -0.06693315 0.00000000
0.27442774 0.39259040 0.42417690
-0.39631420 -0.29192153 0.00000000
-0.27152550 -0.39959401 0.00000000
0.45205170 -0.01600405 -0.00000024
-0.40328968 0.39339346 0.00000000
-0.58568490 0.39586663 0.00000000
0.17429601 -0.56542999 0.00000000
-0.06092455 0.58435398 0.00000000
0.65647602 -0.47803232 -0.00000027
-0.30314302 0.39036405 0.00000000
0.50943941 0.28156194 0.02869990
-0.34637186 0.10650260 0.00000000
0.79492432 -0.61581236 -0.00000023
-0.08339716 0.44540018 0.00000000
-0.45645201 -0.34634572 0.00000000
-0.71339238 -0.04124935 0.00000000
0.02337693 -0.04821465 0.00000000
-0.56463826 0.77984422 0.00000000
0.02717388 -0.23488620 0.00000000
0.44834316 -0.30669701 0.00000000
0.02977167 0.10709709 0.00000000
-0.43693992 -0.66998190 0.00000000
0.40497753 -0.73867387 0.00000000
-0.56287330 -0.17766833 0.00000000
-0.21718457 0.16134587 0.00000000
-0.43434164 0.26045677 0.00000000
0.31288239 0.35461241 0.42265660
0.29763398 0.50138646 0.00312099
0.40255442 0.32593757 0.22809073
0.00654695 -0.34917882 0.00000000
-0.42258582 -0.60033381 0.00000000
-0.46469852 -0.62859958 0.00000000
-0.01107073 0.17689751 0.00000000
0.35109478 0.30364618 0.46333835
-0.74960423 -0.62543917 0.00000000
0.55256182 -0.30948645 -0.00000020
-0.54420668 -0.50388265 0.00000000
0.47453788 0.31843293 0.02241779
-0.57771927 -0.09397988 0.00000000
0.15675279 0.52631247 -0.00000009
-0.12207196 0.54562527 0.00000000
-0.08380896 0.22664994 0.00000000
-0.13434701 0.33526793 0.00000000
-0.70676190 0.43968022 0.00000000
0.17356797 0.22253025 0.00000000
0.53102779 -0.67715555 0.00000000
0.59364647 -0.64321309 0.00000000
-0.68736464 0.25904399 0.00000000
0.45369533 -0.64097500 0.00000000
0.33414781 -0.37457213 0.00000000
-0.20231980 -0.77444148 0.00000000
-0.30554169 0.36730814 0.00000000
-0.10007621 -0.41067037 0.00000000
-0.52463549 -0.40059802 0.00000000
0.46069726 0.33204606 0.02314351
-0.30205736 0.58372706 0.00000000
0.45043841 -0.20583227 -0.00000007
-0.37652755 -0.37112838 0.00000000
0.59377486 0.06205911 -0.00000061
0.00976106 0.44114289 0.00000000
-0.76336026 -0.21277237 0.00000000
0.00651562 -0.58203161 0.00000000
0.46373278 0.22432891 0.35705370
0.53020841 0.21610898 0.17123158
0.14395510 0.62130439 0.11081084
0.22053830 0.56534427 0.04502793
-0.67612213 -0.39093328 0.00000000
-0.76604068 0.25612310 0.00000000
0.12311112 0.61086327 0.21060258
0.12413019 0.34669846 0.00000000
-0.78538018 -0.34704077 0.00000000
0.12781335 -0.57465178 0.00000000
-0.22279270 -0.69932336 0.00000000
0.19848655 0.58732700 0.04524817
0.51731098 0.20521377 -0.00000058
-0.75635904 0.07721599 0.00000000
-0.79661173 -0.68604249 0.00000000
0.15613647 0.56086749 0.26473412
-0.47121871 -0.49362880 0.00000000
-0.73787361 0.16769598 0.00000000
-0.59188110 0.53477651 0.00000000
0.26283202 0.38578346 -0.00000019
-0.08035065 -0.16574542 0.00000000
0.58716863 0.20287675 0.03174910
-0.43259481 0.07852419 0.00000000
0.55401725 0.19583897 0.15994336
-0.56989747 -0.60759389 0.00000000
0.12183456 0.09232020 0.00000000
0.54363769 -0.34008089 -0.00000015
0.29940733 0.43306890 0.21538188
-0.23609918 -0.55508828 0.00000000
0.30328026 0.36755511 0.41200098
-0.32994175 0.57867908 0.00000000
0.71231890 -0.68187958 -0.00000015
-0.37727669 -0.07205638 0.00000000
-0.53768170 0.20726807 0.00000000
-0.57107359 0.79937327 0.00000000
0.65856016 -0.70630229 -0.00000007
0.61214453 0.12703551 -0.00000071
-0.27478221 0.26988769 0.00000000
-0.00693616 -0.71688437 0.00000000
-0.42770907 0.21073441 0.00000000
0.32784319 0.31023285 -0.00000027
-0.02021928 -0.05642013 0.00000000
0.68198919 -0.32744369 -0.00000046
0.57583779 0.19650157 0.08822734
-0.76608789 -0.73563820 0.00000000
-0.16909011 -0.51299274 0.00000000
0.62529004 -0.52109635 -0.00000017
0.28172779 0.01326997 0.00000000
-0.33581799 -0.05797810 0.00000000
0.18950427 0.24280617 0.00000000
-0.00407222 -0.25324234 0.00000000
0.26970208 0.50851780 -0.00000032
0.77548343 0.01839428 0.01952454
0.56533945 0.05026163 -0.00000054
0.40302113 -0.34437397 0.00000000
-0.73153991 0.63141000 0.00000000
-0.35104075 0.64002281 0.00000000
0.32275864 0.00574698 0.00000000
0.01602440 -0.42651793 0.00000000
0.27258605 -0.63700223 0.00000000
0.47869012 -0.75502223 0.00000000
0.11324378 0.57484460 -0.00000004
-0.03469158 -0.20692946 0.00000000
-0.08683936 0.23337770 0.00000000
-0.43516260 0.70713073 0.00000000
-0.44812182 -0.22508359 0.00000000
-0.38213080 0.77878815 0.00000000
-0.68655074 0.57031608 0.00000000
-0.77167010 -0.69451022 0.00000000
-0.52380848 0.59794521 0.00000000
-0.10654484 0.69990236 0.00000000
0.19406244 -0.60949123 0.00000000
-0.14208497 -0.76216227 0.00000000
-0.04363860 -0.47632101 0.00000000
-0.26134780 -0.35513678 0.00000000
-0.20356742 -0.15496472 0.00000000
0.36677027 -0.12482430 0.00000000
0.17466283 0.23245861 0.00000000
0.07413513 -0.76521397 0.00000000
0.09137526 -0.37648690 0.00000000
0.73085201 -0.52307534 -0.00000035
0.38123354 0.14585692 -0.00000024
0.50669777 -0.45501724 0.00000000
-0.34743455 -0.50047827 0.00000000
0.27951652 -0.30217189 0.00000000
0.60516137 0.16553333 0.09347346
-0.10155367 0.38409695 0.00000000
-0.51466089 0.37919024 0.00000000
-0.59225255 0.65923142 0.00000000
-0.36630735 -0.52984267 0.00000000
-0.08713709 -0.66216707 0.00000000
0.43937600 0.28511810 0.24084309
-0.41056189 0.65991753 0.00000000
0.32904693 -0.03209814 0.00000000
0.34833774 -0.47772300 0.00000000
-0.56286997 -0.52508068 0.00000000
0.35871249 0.42560920 0.05000666
0.10655659 -0.50441211 0.00000000
0.67397112 -0.74654627 -0.00000007
-0.21536866 -0.53467363 0.00000000
0.17823657 -0.34347999 0.00000000
-0.01520954 0.71106035 0.00000000
0.45906833 0.00532650 -0.00000028
-0.70498669 -0.02852863 0.00000000
0.36628607 0.24919647 -0.00000029
-0.71582043 -0.06741926 0.00000000
-0.13437127 -0.64090836 0.00000000
-0.06572409 -0.77667308 0.00000000
0.06737527 0.71957028 0.04163762
0.35509062 -0.36164820 0.00000000
-0.77391362 -0.55804473 0.00000000
-0.73201197 -0.11972019 0.00000000
0.45041186 -0.35989547 0.00000000
0.16995539 0.57536173 -0.00000016
0.61224473 0.13114336 0.18057534
-0.29938704 -0.09713712 0.00000000
-0.69299215 -0.65113586 0.00000000
0.04229170 -0.59696579 0.00000000
0.65903771 -0.14826968 -0.00000057
0.20849028 -0.25385463 0.00000000
-0.78034294 0.69461650 0.00000000
0.10842844 -0.70614696 0.00000000
-0.50477117 0.33307165 0.00000000
0.60579467 0.19139877 0.00894837
0.29315537 -0.57360816 0.00000000
-0.04574666 0.44782180 0.00000000
-0.17324039 0.30862030 0.00000000
0.01456164 -0.31692520 0.00000000
0.38633069 0.21885672 -0.00000031
0.39364928 -0.54304820 0.00000000
0.50072032 0.27066433 0.09127271
-0.27523193 -0.11581377 0.00000000
0.34791848 -0.65924692 0.00000000
0.14063863 -0.22754499 0.00000000
-0.12423949 0.00026576 0.00000000
-0.74910420 0.72576767 0.00000000
0.62701809 0.16605534 0.02209024
-0.16041075 -0.48433757 0.00000000
0.02244199 -0.02328148 0.00000000
-0.76861024 -0.48795360 0.00000000
0.21200173 -0.01901624 0.00000000
-0.15957706 0.69669336 0.00000000
-0.60236591 0.01586795 0.00000000
-0.27044430 -0.73813027 0.00000000
-0.58707494 -0.69106811 0.00000000
-0.44296250 -0.36561409 0.00000000
-0.55001432 0.64748669 0.00000000
-0.75253928 -0.76915741 0.00000000
0.54447627 -0.52509058 0.00000000
-0.50045013 0.14455362 0.00000000
0.47219765 -0.73759961 0.00000000
-0.35200849 -0.45099485 0.00000000
-0.44863573 0.37150905 0.00000000
-0.21974234 -0.18343048 0.00000000
0.59109569 -0.21010999 -0.00000037
-0.25229129 -0.32070220 0.00000000
-0.68061280 0.17863528 0.00000000
-0.65543526 0.58265167 0.00000000
-0.05619342 0.68151456 0.00000000
0.77514315 -0.03732979 -0.00000091
0.20784840 -0.31892678 0.00000000
-0.02488509 0.22846118 0.00000000
-0.52972674 -0.67774576 0.00000000
-0.40255320 -0.76931882 0.00000000
-0.37618423 0.50222975 0.00000000
0.66487569 0.10122087 0.10814041
-0.34046692 -0.04866220 0.00000000
-0.48018456 0.48631135 0.00000000
0.72789210 0.06707017 -0.00000091
-0.76309240 0.65774566 0.00000000
0.71233803 -0.31278011 -0.00000054
0.54380852 -0.59202272 0.00000000
-0.70484728 0.22855097 0.00000000
0.64603090 -0.46872547 -0.00000026
0.56367415 -0.18966141 -0.00000033
-0.23835309 0.00490014 0.00000000
-0.43061110 0.63366985 0.00000000
0.10641904 0.12506863 0.00000000
0.27728015 -0.46138629 0.00000000
0.59061497 0.06017740 -0.00000061
-0.43058905 -0.68169534 0.00000000
-0.57272243 -0.67079455 0.00000000
0.43291891 -0.19595946 -0.00000004
0.10450837 0.34057593 0.00000000
-0.48468816 -0.78588837 0.00000000
0.39925647 0.31495932 0.27362841
-0.28893709 0.28418040 0.00000000
0.40698150 0.31438395 0.25082284
-0.31316239 -0.69091034 0.00000000
0.49811047 0.25075004 0.16311961
-0.37775141 -0.13391589 0.00000000
0.22498798 0.52265197 0.16701312
-0.19355612 -0.53977740 0.00000000
0.30327693 0.39428732 0.32674247
0.24446887 0.04568215 0.00000000
0.78832054 -0.23818395 -0.00000070
-0.61589521 0.00343316 0.00000000
-0.37508696 0.78640199 0.00000000
0.27362579 0.38877156 0.43891615
0.47295985 0.30170673 0.08080409
0.69567037 0.09933865 0.01591603
0.70518041 -0.16605324 -0.00000065
-0.54730064 0.65780920 0.00000000
-0.03560054 0.39082590 0.00000000
-0.25636017 -0.57186723 0.00000000
0.17342836 -0.31641746 0.00000000
0.16900335 -0.11485798 0.00000000
-0.30686751 0.57756752 0.00000000
0.45889461 -0.69664377 0.00000000
-0.39357358 -0.08659672 0.00000000
0.15572363 0.62773561 -0.00000018
0.30137327 -0.49140608 0.00000000
0.36543131 0.29341805 0.45023361
0.70906794 -0.02394855 -0.00000078
-0.12383697 -0.36571527 0.00000000
-0.50089967 0.31291580 0.00000000
-0.16245234 -0.52665043 0.00000000
0.24041510 -0.65624392 0.00000000
0.14977635 0.63926685 0.03494646
0.24365458 0.28552306 -0.00000007
0.17163377 -0.54291230 0.00000000
-0.55576760 0.21992543 0.00000000
0.72371662 -0.34961906 -0.00000053
0.35770804 0.44149920 0.00252508
-0.19483514 -0.04332406 0.00000000
-0.50551695 -0.44188970 0.00000000
0.03340091 0.26547423 0.00000000
-0.49489257 -0.27151182 0.00000000
-0.29225543 -0.49822465 0.00000000
0.10566886 -0.38621703 0.00000000
-0.06804853 -0.28428549 0.00000000
0.36723021 0.29996386 0.42361602
-0.23995657 -0.09243715 0.00000000
0.55436510 0.16694675 0.25099355
0.50116163 -0.48291254 0.00000000
-0.45359898 0.08519629 0.00000000
-0.41569033 0.60744339 0.00000000
0.76105946 -0.36138847 -0.00000055
0.57206106 0.03182827 -0.00000054
-0.02201411 -0.48271838 0.00000000
0.56895834 -0.43318045 -0.00000012
0.32686764 0.41442305 0.18726584
0.23015589 0.54374653 0.08324196
-0.33494219 -0.76870871 0.00000000
-0.69633126 -0.26585263 0.00000000
-0.25383472 0.71438241 0.00000000
-0.10438990 0.29811290 0.00000000
-0.66392845 -0.32539073 0.00000000
-0.76071513 0.61292070 0.00000000
0.50332731 -0.08190205 -0.00000029
-0.71981305 -0.79340494 0.00000000
0.75168526 -0.38475293 -0.00000052
0.02698644 0.53754216 0.00000000
-0.45118397 -0.51496083 0.00000000
0.25579071 -0.23228884 0.00000000
0.18816184 0.50827068 0.33035207
-0.57157713 0.53098369 0.00000000
-0.08454066 0.77937865 0.00000000
-0.42299622 -0.18567330 0.00000000
-0.79147398 -0.79279697 0.00000000
0.49381793 -0.11569977 -0.00000024
0.50235510 -0.40828216 -0.00000000
-0.66065979 -0.57276583 0.00000000
-0.24565694 0.67068213 0.00000000
-0.03543601 -0.05331452 0.00000000
-0.33324841 0.57251215 0.00000000
-0.42072999 -0.00673242 0.00000000
0.42632085 -0.77402365 0.00000000
0.22680926 0.24163961 0.00000000
0.18613267 -0.16116565 0.00000000
0.24585059 -0.30088100 0.00000000
0.79074019 -0.44146255 -0.00000045
0.76369184 -0.25439435 -0.00000068
0.74543029 -0.54106790 -0.00000032
-0.43370649 -0.37650934 0.00000000
-0.14047663 0.51235646 0.00000000
-0.73160493 0.23773980 0.00000000
-0.23263048 0.69865984 0.00000000
-0.78471386 -0.27907699 0.00000000
-0.52777892 0.55223733 0.00000000
0.10435136 0.36862046 0.00000000
0.15755753 0.59767371 0.14279847
0.24619345 0.52474862 0.09268479
-0.02941499 -0.68655485 0.00000000
-0.29568711 0.53177923 0.00000000
-0.67527646 -0.60585517 0.00000000
-0.59826076 0.68795741 0.00000000
0.70148939 0.07039794 -0.00000085
0.29225954 -0.75359786 0.00000000
0.47766411 -0.60964990 0.00000000
0.30458039 0.14720829 -0.00000007
-0.52423650 -0.35974714 0.00000000
-0.04506208 0.56282061 0.00000000
-0.31437209 0.71582413 0.00000000
-0.60390556 0.77120799 0.00000000
0.42266616 0.35871837 0.05937544
-0.39837548 0.58439898 0.00000000
0.36844030 0.33370650 0.31212541
-0.23061235 -0.44197956 0.00000000
-0.42552063 -0.26234692 0.00000000
-0.61094868 -0.07339065 0.00000000
-0.69444072 -0.66572887 0.00000000
-0.61916882 -0.53003919 0.00000000
0.60440451 0.15064874 0.14336614
0.58341438 0.20632546 0.03272375
0.44965631 0.31481358 0.11332928
-0.42705628 0.70215642 0.00000000
-0.03530385 0.26395032 0.00000000
-0.71315628 0.48869076 0.00000000
0.03570063 0.50817204 0.00000000
0.02195329 0.55638880 0.00000000
-0.58329403 0.55362695 0.00000000
0.61298597 0.16802096 0.06057961
0.38039121 -0.76030159 0.00000000
-0.04520323 -0.20101149 0.00000000
0.22940458 0.53720129 0.10651627
0.45156619 0.29028201 0.18548740
-0.38163215 -0.01200694 0.00000000
0.78343898 -0.03230764 -0.00000094
-0.23701210 0.01987629 0.00000000
0.40828183 -0.35702121 0.00000000
0.57200783 0.06988628 -0.00000058
0.05674744 -0.05680087 0.00000000
-0.38812745 0.73396963 0.00000000
-0.31231672 -0.02882181 0.00000000
-0.62022382 0.70197535 0.00000000
-0.58052641 0.00578444 0.00000000
0.36842641 -0.15330936 0.00000000
-0.70123523 0.69995278 0.00000000
0.30282333 -0.41898295 0.00000000
-0.23678428 0.61212665 0.00000000
0.45439026 0.06437156 -0.00000032
-0.48540735 0.31163335 0.00000000
0.32000726 -0.76722479 0.00000000
-0.31713992 -0.17088772 0.00000000
-0.01017725 0.12912443 0.00000000
-0.37043086 -0.13056725 0.00000000
0.42167693 -0.63364410 0.00000000
-0.47968158 0.14468253 0.00000000
-0.18165760 -0.05279212 0.00000000
0.46479383 -0.06788306 -0.00000022
-0.18013474 0.55825859 0.00000000
0.33354020 0.04048629 -0.00000004
-0.34379736 0.53452861 0.00000000
-0.27925512 -0.18537536 0.00000000
-0.04738541 0.27327693 0.00000000
0.24296871 0.09023623 0.00000000
-0.23089398 0.00818927 0.00000000
0.65684831 -0.46282110 -0.00000029
-0.26992863 0.75925851 0.00000000
-0.24698223 0.51248121 0.00000000
-0.57424122 -0.67249840 0.00000000
-0.57248592 -0.59634495 0.00000000
0.47604319 0.16307300 -0.00000045
-0.58010769 -0.73732167 0.00000000
0.41302198 -0.37773469 0.00000000
0.55663842 0.17489164 0.21839972
0.49977362 0.26277611 0.11945415
0.37151927 -0.37008744 0.00000000
0.07874714 -0.28800750 0.00000000
-0.75764728 -0.33398968 0.00000000
0.38696945 0.33003521 0.26473254
-0.46064326 -0.70543295 0.00000000
0.23387492 -0.77421898 0.00000000
-0.05365588 -0.32806137 0.00000000
0.60265774 -0.13063073 -0.00000046
-0.69656765 -0.78933460 0.00000000
0.73855960 -0.39359307 -0.00000051
-0.22379373 0.06966665 0.00000000
0.46952897 0.29620582 0.10929452
-0.13030685 0.29079971 0.00000000
0.77509111 -0.18362471 -0.00000077
0.23728269 0.52598500 0.11716433
-0.18653581 0.52558559 0.00000000
0.59336263 0.17975290 0.08575156
-0.44356743 -0.05608459 0.00000000
-0.60018885 -0.37169963 0.00000000
0.26494250 0.42770264 0.34243312
-0.41901529 -0.31448716 0.00000000
-0.14060476 0.00766164 0.00000000
-0.18045472 0.32470539 0.00000000
-0.05505224 0.16575280 0.00000000
0.38689536 -0.64483458 0.00000000
0.33042806 0.23638584 -0.00000021
-0.03156023 0.08207623 0.00000000
-0.59745735 0.03726396 0.00000000
0.74873060 -0.53346622 -0.00000033
-0.53827941 -0.55524379 0.00000000
0.17881018 0.47841835 -0.00000010
-0.54344618 0.71589977 0.00000000
0.30835578 0.09598874 -0.00000004
-0.43175885 0.18582930 0.00000000
0.59864551 0.15740709 -0.00000071
0.47395012 0.24009807 0.27416304
-0.45836130 -0.09813934 0.00000000
0.01821603 0.29649749 0.00000000
-0.28556758 -0.43935350 0.00000000
0.41743371 -0.57616109 0.00000000
0.12294308 0.46787265 0.00000000
-0.73868501 0.53553867 0.00000000
-0.32775757 0.54774380 0.00000000
-0.59018832 -0.56251228 0.00000000
0.36828595 -0.55000114 0.00000000
0.78504920 -0.45745492 -0.00000043
0.77731127 -0.17347673 -0.00000078
0.35665336 -0.70010644 0.00000000
-0.35375538 0.42235830 0.00000000
0.09512612 0.20959340 0.00000000
-0.21133459 -0.20152225 0.00000000
-0.77699172 -0.55427647 0.00000000
-0.54661250 0.48871627 0.00000000
0.27643013 0.20790012 -0.00000007
0.51123410 0.25841928 -0.00000061
0.30762786 -0.44002041 0.00000000
0.52062064 0.26174393 -0.00000064
0.54036421 -0.20652857 -0.00000026
-0.35095415 0.15344256 0.00000000
0.77113444 -0.08352164 -0.00000086
0.69104183 -0.10793602 -0.00000067
-0.69761366 -0.57909423 0.00000000
0.20844053 -0.20326544 0.00000000
0.64114404 -0.47328928 -0.00000024
-0.32897496 -0.29919314 0.00000000
-0.62040055 -0.79129249 0.00000000
-0.54986250 0.76038504 0.00000000
-0.21320307 0.01835674 0.00000000
0.33037555 -0.00790017 0.00000000
-0.45650899 0.15453833 0.00000000
0.52634436 -0.19136265 -0.00000025
-0.33323380 -0.52534598 0.00000000
0.46867868 -0.05393520 -0.00000025
-0.09774804 -0.09750892 0.00000000
0.55838239 0.16536628 0.24322069
-0.25462842 -0.32349646 0.00000000
-0.11337166 -0.38660449 0.00000000
-0.56271625 -0.20367266 0.00000000
-0.70950389 0.34324178 0.00000000
-0.34226850 0.67767751 0.00000000
0.19608060 -0.52083474 0.00000000
-0.21852945 -0.69259614 0.00000000
-0.10887025 -0.18012767 0.00000000
0.72773004 -0.52907926 -0.00000034
0.11006067 -0.40180394 0.00000000
0.72874397 -0.66488844 -0.00000017
-0.39284250 0.18886200 0.00000000
-0.36504886 -0.63494956 0.00000000
0.57083577 0.10519317 -0.00000060
-0.79699606 -0.55663270 0.00000000
0.44832250 0.29701623 0.17435338
0.11781842 -0.37756923 0.00000000
0.75021899 0.04480000 0.01588420
-0.73851895 -0.45046738 0.00000000
0.11244360 -0.35524178 0.00000000
0.08494503 0.47202048 0.00000000
0.35255897 0.36839148 0.25214639
-0.35194954 0.59484386 0.00000000
-0.51838326 -0.59649479 0.00000000
-0.22616224 0.75982505 0.00000000
0.74513072 -0.60194486 -0.00000025
0.72947037 -0.41114789 -0.00000049
-0.62208700 0.21125832 0.00000000
-0.15139081 0.25987145 0.00000000
-0.47415453 0.26086366 0.00000000
0.35067111 0.23292530 -0.00000025
-0.06109189 0.15968610 0.00000000
0.44094530 -0.38270035 0.00000000
-0.68497002 0.54693121 0.00000000
0.22246781 0.57703829 0.00157193
-0.15096422 0.55336857 0.00000000
-0.63933194 -0.21580656 0.00000000
-0.05171506 -0.67878968 0.00000000
-0.36730474 0.22614452 0.00000000
-0.25638682 0.77537119 0.00000000
-0.49780697 0.09181031 0.00000000
0.21563824 -0.42200437 0.00000000
-0.69115883 0.25913140 0.00000000
-0.76411325 0.72400779 0.00000000
-0.34453627 -0.03833628 0.00000000
-0.57934451 -0.71616197 0.00000000
0.64245129 0.04554090 -0.00000070
0.19776025 -0.54105264 0.00000000
-0.21988420 0.68519455 0.00000000
0.49530286 0.25482309 0.15908314
0.42427772 -0.47928241 0.00000000
-0.72150618 -0.24526781 0.00000000
-0.25089958 -0.79668891 0.00000000
-0.39909989 0.16098830 0.00000000
-0.67435718 -0.72769219 0.00000000
-0.79724616 -0.67811424 0.00000000
0.12797192 -0.30602297 0.00000000
0.33489698 -0.68586773 0.00000000
-0.69131392 0.63466436 0.00000000
-0.61718911 0.17986766 0.00000000
-0.44490147 0.13833515 0.00000000
0.75293648 -0.67673719 -0.00000015
-0.73606777 0.64497256 0.00000000
0.26894978 0.48966604 0.13200271
0.14832412 0.64757937 0.01306361
-0.07264758 -0.27567172 0.00000000
-0.75628012 0.77371037 0.00000000
-0.75966334 -0.54870701 0.00000000
-0.52563316 -0.11827175 0.00000000
0.54734325 -0.20743370 -0.00000028
-0.48452356 -0.49452630 0.00000000
0.35930416 0.38641006 0.17315570
0.11991457 -0.00713919 0.00000000
-0.29962647 -0.06830488 0.00000000
-0.28934640 -0.48993084 0.00000000
0.55193323 -0.19061615 -0.00000030
-0.52179235 -0.11770988 0.00000000
0.31340006 -0.01922260 0.00000000
-0.53550267 0.28863147 0.00000000
-0.08906378 -0.07674440 0.00000000
-0.02317039 -0.79339850 0.00000000
0.20493013 -0.37804049 0.00000000
-0.70758826 0.42482996 0.00000000
0.45881906 0.19656064 -0.00000045
0.54713523 -0.32326269 -0.00000017
0.56942159 -0.06787274 -0.00000045
0.24350065 0.54218370 -0.00000029
0.76876229 -0.34641981 -0.00000057
-0.10923521 -0.12811673 0.00000000
-0.49661338 0.35169396 0.00000000
-0.11856291 0.43533245 0.00000000
-0.43296242 -0.46863216 0.00000000
-0.52605456 -0.01109713 0.00000000
0.61731756 -0.37828138 -0.00000028
-0.70758235 -0.48178640 0.00000000
-0.67688555 -0.73988706 0.00000000
-0.12434894 0.55362219 0.00000000
0.63302416 -0.48526198 -0.00000021
-0.25940716 0.21067762 0.00000000
-0.31181183 0.56140786 0.00000000
0.08865637 0.40836293 0.00000000
-0.40364483 -0.51012158 0.00000000
-0.77089638 0.53893304 0.00000000
-0.23394892 -0.29644820 0.00000000
0.34950894 -0.73537433 0.00000000
-0.34493816 -0.22362389 0.00000000
0.20860605 0.08228852 0.00000000
0.39081508 0.28754458 0.38800061
-0.16336463 -0.23079863 0.00000000
0.59227061 -0.13397838 -0.00000044
-0.04916772 -0.17811330 0.00000000
0.45192456 0.14714548 -0.00000039
0.05449132 0.46617424 0.00000000
-0.15713952 0.31412458 0.00000000
-0.15389782 -0.26494679 0.00000000
-0.51163787 -0.73840219 0.00000000
-0.12788410 -0.45332965 0.00000000
0.14459687 0.60580987 -0.00000014
-0.20187359 0.22778891 0.00000000
0.42185542 -0.68810463 0.00000000
-0.69523549 -0.25623813 0.00000000
0.08889950 0.09956635 0.00000000
0.28078011 0.38840890 0.41725239
-0.04717442 0.36732769 0.00000000
0.08552274 0.67828983 -0.00000007
-0.44978365 -0.76353073 0.00000000
0.10838255 0.42783993 0.00000000
0.09130138 -0.13198568 0.00000000
0.45117742 0.22608754 0.39149261
-0.03705065 -0.61747825 0.00000000
0.28174454 -0.12349534 0.00000000
-0.12590994 -0.11351829 0.00000000
-0.27582902 0.41549578 0.00000000
0.15328923 0.36343113 0.00000000
-0.25124377 -0.37153360 0.00000000
0.33171341 0.39508677 -0.00000035
-0.60907364 0.05475548 0.00000000
0.26230001 -0.22268896 0.00000000
-0.51966470 -0.10594956 0.00000000
0.32737595 0.29935664 -0.00000026
-0.34404454 0.43529829 0.00000000
-0.21786752 -0.11021005 0.00000000
-0.54384613 0.23185267 0.00000000
-0.73866016 -0.10149832 0.00000000
0.46091577 0.22825599 -0.00000048
-0.79613805 0.70541054 0.00000000
-0.52089167 -0.77808332 0.00000000
0.31569168 -0.74120468 0.00000000
0.37887198 0.38093454 -0.00000044
-0.10467581 0.74101973 0.00000000
0.47848150 0.31512892 -0.00000059
0.37917057 0.25576904 -0.00000033
0.66859287 0.10687398 -0.00000081
0.24703269 0.51372766 0.12516221
-0.14814115 -0.28428766 0.00000000
-0.61101925 0.79490530 0.00000000
0.39411128 0.34637091 0.18984468
0.28861776 0.37803555 0.42534074
-0.69180834 0.09743787 0.00000000
0.41682401 -0.04427134 -0.00000014
-0.38653502 0.12907864 0.00000000
0.32154903 -0.09018988 0.00000000
0.05893333 0.38334933 0.00000000
0.22303905 0.09279222 0.00000000
0.35746995 -0.79939151 0.00000000
0.18605067 0.52184415 -0.00000015
0.27689731 0.45734829 -0.00000029
-0.17694265 -0.78678006 0.00000000
0.40299252 0.25827539 -0.00000038
0.25838673 -0.75198323 0.00000000
0.61795241 -0.55795735 -0.00000012
0.47988409 0.27414024 0.14664818
0.60544693 -0.49337831 -0.00000015
-0.60963696 -0.33512250 0.00000000
0.32836860 -0.44020948 0.00000000
0.31969377 0.44374773 0.11660979
-0.62795508 -0.01000724 0.00000000
0.43732470 0.27020460 0.29495677
-0.42273325 0.32521117 0.00000000
-0.01935044 0.51399362 0.00000000
-0.34274656 -0.28005505 0.00000000
0.05432737 0.66993171 -0.00000000
-0.14130938 0.32347417 0.00000000
-0.79535729 0.75092208 0.00000000
-0.32934928 -0.31220949 0.00000000
-0.38394436 -0.31295213 0.00000000
-0.27847373 0.62006330 0.00000000
-0.26055664 -0.03132955 0.00000000
0.24836597 0.42409819 0.40680540
0.41688815 0.30913895 -0.00000046
-0.15977715 0.30580726 0.00000000
-0.48173818 -0.72462457 0.00000000
0.45012161 0.24673247 0.32900807
-0.14405163 -0.15291415 0.00000000
0.74862814 0.02000117 -0.00000091
0.40068528 0.01923624 -0.00000016
0.75357634 -0.79454172 -0.00000001
-0.50473362 -0.38976920 0.00000000
-0.40422732 -0.44362107 0.00000000
0.65745509 -0.62446642 -0.00000014
0.30329219 -0.29585567 0.00000000
0.02493202 0.76149046 0.04330583
0.44215912 0.35572109 0.00675791
-0.16673817 0.53054899 0.00000000
-0.63740778 -0.09487190 0.00000000
-0.60341507 0.16384882 0.00000000
0.24886905 -0.36093599 0.00000000
0.27496737 0.14514343 -0.00000001
0.11282425 0.35376030 0.00000000
-0.34181750 -0.73898703 0.00000000
0.66803437 -0.03966126 -0.00000068
0.29916656 -0.02841798 0.00000000
-0.32986021 -0.56693435 0.00000000
0.28254282 0.00894578 0.00000000
0.07208533 -0.13003507 0.00000000
-0.38833517 0.75326651 0.00000000
0.18094040 -0.34866297 0.00000000
-0.74002600 -0.53945184 0.00000000
0.38815990 -0.74265140 0.00000000
-0.16839381 -0.45701960 0.00000000
0.29688901 0.34743536 -0.00000023
-0.33071041 -0.44362712 0.00000000
-0.78621352 0.00616551 0.00000000
0.33695522 -0.29299283 0.00000000
0.28031915 0.31325728 -0.00000017
0.44240668 0.27004099 0.27926841
-0.22030522 -0.04302560 0.00000000
0.68188924 0.11238543 0.01825851
0.17769390 0.11016976 0.00000000
-0.26161289 -0.66348428 0.00000000
-0.15676761 0.07185562 0.00000000
-0.62557060 0.24860518 0.00000000
-0.25021785 -0.78269249 0.00000000
0.27643463 0.40705678 0.37163126
0.73718315 0.05473801 0.02576551
-0.57304174 -0.60821730 0.00000000
0.11191551 0.44838876 0.00000000
0.70123184 -0.16605128 -0.00000064
0.44387424 0.30399284 -0.00000051
-0.15184014 -0.40436593 0.00000000
-0.32131001 -0.66540563 0.00000000
-0.56343895 0.31256926 0.00000000
0.64176702 0.05511347 -0.00000071
-0.78481662 -0.30367589 0.00000000
0.16851301 0.56675738 0.20646872
0.02163270 -0.75887299 0.00000000
-0.44118989 -0.11838898 0.00000000
-0.76632243 -0.07029177 0.00000000
0.59303290 0.17670593 0.09652244
-0.07920260 0.18346253 0.00000000
0.68295902 -0.63808018 -0.00000019
0.45296103 0.05637785 -0.00000031
-0.62125957 0.04278730 0.00000000
0.18945394 0.16904920 0.00000000
-0.12461678 0.45707238 0.00000000
-0.11278263 0.60240525 0.00000000
-0.06440884 -0.57305443 0.00000000
-0.09160131 0.14725904 0.00000000
-0.62816119 -0.02585319 0.00000000
0.65811712 -0.13719355 -0.00000058
-0.31364572 0.66731417 0.00000000
-0.00258112 -0.25876981 0.00000000
-0.43665594 0.18867856 0.00000000
0.52322084 0.13558292 -0.00000053
0.74460995 0.02211037 -0.00000090
0.39787275 0.35629833 0.14618015
-0.28486097 -0.04723745 0.00000000
-0.41603398 -0.53125894 0.00000000
0.58932823 0.01806935 -0.00000057
-0.70882362 0.60610026 0.00000000
0.12741543 0.26630679 0.00000000
0.19081073 0.58628571 0.07305378
0.22498374 -0.01031357 0.00000000
-0.45409760 0.72877759 0.00000000
-0.64828795 0.45158312 0.00000000
0.08078722 0.61441022 -0.00000001
-0.09916029 0.26380199 0.00000000
0.34734014 0.30064029 0.48490274
-0.04337958 -0.38697931 0.00000000
-0.55019820 0.68794608 0.00000000
0.43799216 0.32288051 0.12480368
-0.48262361 -0.71483988 0.00000000
0.01187103 0.55766869 0.00000000
-0.15072158 0.00269241 0.00000000
-0.75214350 -0.24792133 0.00000000
0.12573436 0.63216722 0.13428077
0.25013450 0.51959980 0.09653727
-0.13292833 -0.37421688 0.00000000
0.24517956 -0.45806971 0.00000000
-0.69465393 0.72639859 0.00000000
0.03688924 -0.61574876 0.00000000
-0.55020916 0.21645817 0.00000000
-0.33595282 -0.06451115 0.00000000
-0.55266368 0.35735160 0.00000000
-0.78955734 -0.01885011 0.00000000
-0.37461329 0.19549447 0.00000000
-0.72447848 -0.79121190 0.00000000
0.46119711 0.22679846 0.35726464
0.33913314 -0.29167563 0.00000000
0.35527274 -0.32491621 0.00000000
-0.68518472 0.35421678 0.00000000
0.11194085 0.57605797 -0.00000004
0.05092779 0.45978442 0.00000000
-0.64756835 -0.59018308 0.00000000
0.11244114 0.68557870 0.00631292
-0.03498241 0.32382450 0.00000000
-0.21624705 0.18039553 0.00000000
0.01574895 0.00488987 0.00000000
0.23547544 0.50796032 0.18042354
-0.75510103 -0.29617056 0.00000000
0.28039178 0.04956278 0.00000000
-0.36944836 0.00329021 0.00000000
-0.71269500 0.19249012 0.00000000
-0.36959741 0.13949113 0.00000000
-0.14565150 -0.10879487 0.00000000
0.43871394 -0.35751370 0.00000000
0.12311672 -0.42267305 0.00000000
-0.47888443 -0.21612699 0.00000000
0.23027913 0.26395744 -0.00000002
0.40126324 0.33472675 0.20417383
0.11416339 0.50117677 0.00000000
-0.43591160 -0.48548567 0.00000000
-0.42431581 0.43798247 0.00000000
0.19287172 0.34932300 -0.00000001
-0.28205094 -0.56975555 0.00000000
-0.36863914 -0.10969797 0.00000000
0.09646683 -0.47089222 0.00000000
0.13436390 -0.73073930 0.00000000
-0.56001049 0.33240405 0.00000000
0.40158328 0.28093541 0.37473437
-0.53877896 0.05497838 0.00000000
0.69911295 0.07441064 0.08444969
-0.63624197 0.55499095 0.00000000
0.20291415 -0.79887640 0.00000000
0.03240144 0.17069273 0.00000000
-0.69390327 -0.68177956 0.00000000
-0.08539832 0.40141097 0.00000000
-0.10055121 0.49717721 0.00000000
-0.39216837 -0.01739361 0.00000000
-0.70823693 0.11068000 0.00000000
0.76039797 -0.49458441 -0.00000038
-0.29163402 0.68439305 0.00000000
0.56343514 -0.03600377 -0.00000046
0.03598916 -0.21999282 0.00000000
-0.54624844 -0.31133223 0.00000000
0.45736980 -0.00752794 -0.00000026
-0.17061038 0.09238626 0.00000000
0.24014544 -0.52244788 0.00000000
-0.74049175 -0.70369577 0.00000000
-0.18017080 -0.09035992 0.00000000
0.47958234 0.27334487 0.15014783
-0.16046640 0.36901951 0.00000000
-0.30747187 -0.46471110 0.00000000
-0.45293212 -0.69489527 0.00000000
0.21596028 0.49888560 0.27161810
-0.37558153 -0.41090611 0.00000000
-0.47096816 -0.07416455 0.00000000
-0.31497464 -0.33085039 0.00000000
-0.54074728 0.47333932 0.00000000
0.41968665 0.37092018 0.02995835
0.59976709 0.09213421 -0.00000065
-0.60286629 0.63891238 0.00000000
-0.09162253 -0.69683433 0.00000000
0.26633114 0.43102989 0.32739058
-0.06321343 -0.02871681 0.00000000
0.70693952 -0.78314096 -0.00000002
0.45725599 0.14271116 -0.00000039
0.71105015 -0.55101359 -0.00000031
0.41544107 -0.05701211 -0.00000013
-0.03275268 -0.49373689 0.00000000
-0.65190536 -0.12601718 0.00000000
-0.23778962 0.34317073 0.00000000
-0.10294106 -0.02395451 0.00000000
-0.70437741 -0.18613720 0.00000000
-0.65758240 0.05648854 0.00000000
0.19005841 0.58523428 0.07880737
0.31425861 -0.52343839 0.00000000
-0.27740422 0.42143288 0.00000000
0.43419480 0.22815853 -0.00000042
-0.61000514 0.00410719 0.00000000
0.49102011 0.25912052 0.15903635
0.74316746 -0.43384677 -0.00000046
0.24581012 -0.47262034 0.00000000
-0.58156264 0.79602855 0.00000000
0.22845571 0.50865036 -0.00000023
0.47813797 0.31665680 -0.00000059
0.37166560 0.39571583 0.10404224
0.26626602 0.52833909 0.01720502
-0.50086343 0.52706867 0.00000000
0.53147691 0.18991642 -0.00000059
-0.26412392 0.76552165 0.00000000
0.22080377 -0.45628607 0.00000000
0.75995660 -0.13558844 -0.00000079
-0.08357886 -0.65234727 0.00000000
-0.40431160 -0.28755286 0.00000000
-0.31649700 0.24266823 0.00000000
0.37844378 -0.16186930 0.00000000
0.28103220 0.44991150 0.22027019
0.20616029 0.58525425 0.02738221
0.27710712 -0.00901151 0.00000000
0.44536725 -0.62553680 0.00000000
-0.32126981 -0.78829539 0.00000000
0.10399796 -0.71771944 0.00000000
0.36542180 0.32485133 0.34999943
0.57567358 0.11546218 -0.00000062
-0.57172787 -0.18429840 0.00000000
0.54667765 -0.10147195 -0.00000037
-0.59593827 0.63202035 0.00000000
0.00282270 0.14395066 0.00000000
0.51636302 -0.20746715 -0.00000021
0.34293285 0.44938204 0.02451013
0.44368869 -0.78501415 0.00000000
0.18425933 -0.12833762 0.00000000
0.43167439 0.31806535 0.16031513
0.18068381 -0.26148459 0.00000000
0.06049177 0.42591864 0.00000000
0.55897075 -0.50213969 -0.00000004
0.16836005 0.30087048 0.00000000
-0.46160504 0.33929434 0.00000000
0.15510575 -0.28767127 0.00000000
-0.08098124 -0.71751690 0.00000000
0.44920662 0.25921312 0.29211652
-0.66436929 0.28409025 0.00000000
0.20259927 0.05872088 0.00000000
0.06797503 0.62848711 0.00000000
-0.42475295 -0.31768635 0.00000000
-0.02651375 0.52346128 0.00000000
-0.63459110 0.12151361 0.00000000
-0.14126743 0.23941948 0.00000000
-0.35901433 -0.01828551 0.00000000
-0.36588907 0.02786366 0.00000000
-0.36575791 -0.61094493 0.00000000
-0.49224830 -0.52617568 0.00000000
-0.31849152 -0.64290261 0.00000000
-0.07154845 -0.69612014 0.00000000
0.15984000 0.55873829 0.25971240
-0.55585945 -0.00365213 0.00000000
0.57033485 -0.65170932 0.00000000
0.00812839 0.46026063 0.00000000
-0.25284335 -0.32824427 0.00000000
0.25290459 -0.49020511 0.00000000
0.25405806 0.48078242 0.20784035
0.68720788 -0.22354491 -0.00000056
0.72371274 -0.25075388 -0.00000062
0.06520905 0.50727874 0.00000000
0.58167005 -0.49918264 -0.00000009
0.77493286 -0.13575625 -0.00000083
-0.66234374 -0.62963605 0.00000000
-0.52368426 -0.54571438 0.00000000
-0.50879306 -0.65634477 0.00000000
-0.16113871 0.29597554 0.00000000
-0.39128709 -0.75250423 0.00000000
0.19793570 -0.28981310 0.00000000
-0.47799817 0.62243640 0.00000000
-0.32457203 0.58468324 0.00000000
-0.34495035 0.48431975 0.00000000
0.06443902 0.73520070 0.00114600
0.27794617 0.50357455 0.05894126
0.62242305 0.13911197 0.12269065
-0.33554298 -0.31727567 0.00000000
0.03423716 0.20245820 0.00000000
0.32670638 0.30603081 0.53352493
-0.56217390 0.79560894 0.00000000
-0.49313444 0.50815922 0.00000000
-0.03482004 0.01297113 0.00000000
0.18149668 0.52493256 0.29846498
-0.26137954 -0.52411425 0.00000000
0.65300035 -0.49644443 -0.00000025
0.14431702 -0.26216072 0.00000000
-0.79966992 -0.20194025 0.00000000
-0.53166741 -0.18615390 0.00000000
-0.27090237 -0.66230565 0.00000000
-0.34261602 -0.25110757 0.00000000
-0.21893956 0.06155403 0.00000000
0.64584965 0.12418661 0.09557360
0.63723308 0.11128319 0.16421759
0.58626908 -0.30058756 -0.00000028
0.06316400 -0.32701668 0.00000000
-0.07979965 0.58274943 0.00000000
-0.39202696 0.34012523 0.00000000
-0.73221791 0.55328524 0.00000000
0.60458302 -0.56678641 -0.00000008
0.42124128 0.01612093 -0.00000021
-0.74294823 -0.45013961 0.00000000
-0.70654923 0.13229583 0.00000000
-0.63010621 -0.78683054 0.00000000
0.51007819 0.26457661 0.08084167
0.30827752 -0.18284863 0.00000000
0.27885932 -0.22799784 0.00000000
-0.21320295 0.27843904 0.00000000
0.24944164 -0.07524570 0.00000000
-0.67026943 0.74262398 0.00000000
-0.65626830 0.69962025 0.00000000
-0.53249568 0.56427872 0.00000000
0.43370241 0.32830873 0.12117219
-0.72775573 -0.22058241 0.00000000
0.11426412 0.26440486 0.00000000
-0.27835545 -0.53927058 0.00000000
-0.67347729 -0.15626146 0.00000000
-0.41864643 -0.72074968 0.00000000
-0.05619339 -0.77490562 0.00000000
0.36053893 0.34844539 0.29031539
-0.32736158 0.51394188 0.00000000
-0.70769083 -0.04102218 0.00000000
0.23909520 0.47952488 0.25957945
-0.22937703 0.31151572 0.00000000
0.48843807 0.26335812 0.15375544
0.70099455 -0.19429123 -0.00000062
-0.24218728 -0.37820357 0.00000000
-0.36354899 -0.62479174 0.00000000
-0.39528513 -0.24268775 0.00000000
-0.45937154 -0.61785483 0.00000000
0.54833746 0.23778760 -0.00000067
0.02479433 0.18757565 0.00000000
0.41567603 0.31489867 0.22144730
0.25181285 -0.45470637 0.00000000
0.09632071 -0.72174680 0.00000000
-0.49412361 -0.20087291 0.00000000
0.13666312 0.04924875 0.00000000
-0.07349051 0.71151233 0.00000000
0.79624206 -0.49762827 -0.00000038
0.01649239 0.77217019 -0.00000001
-0.53970045 0.26136667 0.00000000
-0.22443846 -0.36151212 0.00000000
-0.48822775 0.24879315 0.00000000
-0.50666845 -0.33343425 0.00000000
0.68352616 0.06263162 -0.00000081
-0.51853478 0.12180450 0.00000000
-0.71445614 0.17127194 0.00000000
-0.50727820 -0.35762095 0.00000000
0.26558402 0.42207220 0.35834649
-0.52949131 0.65050596 0.00000000
-0.19896182 -0.27159470 0.00000000
0.09321132 0.46825486 0.00000000
0.34694707 -0.23232740 0.00000000
-0.32496974 0.62380260 0.00000000
0.70738554 -0.08083717 -0.00000073
0.49617201 -0.26441595 -0.00000012
-0.20222299 0.71420413 0.00000000
-0.31178299 -0.42216671 0.00000000
-0.65670872 0.29796126 0.00000000
-0.22607976 -0.67861903 0.00000000
0.54487765 -0.55246145 0.00000000
0.43994778 0.31442639 0.14553231
-0.62692344 -0.73632145 0.00000000
0.30013922 0.41334188 0.27597165
0.08521642 0.26880160 0.00000000
0.04728495 -0.45475027 0.00000000
0.63480109 0.13141443 0.10776098
-0.17108934 0.10689348 0.00000000
-0.49919984 0.28361982 0.00000000
-0.01545876 -0.01645981 0.00000000
0.19540913 0.19071943 0.00000000
-0.66193372 0.38494954 0.00000000
-0.26422164 -0.54533666 0.00000000
0.53585643 -0.56566656 0.00000000
0.25433162 -0.72748184 0.00000000
-0.02553636 0.08908617 0.00000000
-0.70744872 0.16749525 0.00000000
-0.50723082 0.14689489 0.00000000
-0.74360907 0.43309885 0.00000000
-0.11173781 0.39641511 0.00000000
-0.27007437 -0.32880217 0.00000000
0.10707408 -0.25516170 0.00000000
-0.48230383 0.57463968 0.00000000
-0.39983317 -0.62084883 0.00000000
-0.59651369 0.62211823 0.00000000
-0.72088671 -0.30387935 0.00000000
-0.69225520 -0.34232441 0.00000000
-0.21404298 0.17355849 0.00000000
0.30278364 0.25122464 -0.00000016
-0.17940670 0.68487179 0.00000000
-0.43825516 0.13446294 0.00000000
0.12856849 0.62355477 -0.00000012
0.21088053 0.43545225 -0.00000013
0.00680272 -0.16129896 0.00000000
0.29030889 0.23258483 -0.00000012
0.57643402 -0.55821812 -0.00000003
-0.01082205 0.25476611 0.00000000
-0.58439529 -0.33557922 0.00000000
-0.00173138 -0.76514357 0.00000000
-0.00018310 -0.70994109 0.00000000
0.53347325 0.20243613 0.20443068
-0.03341132 0.70597070 0.00000000
0.70794767 -0.21245819 -0.00000062
-0.09842623 0.18005905 0.00000000
-0.34826472 -0.76985526 0.00000000
