ply
format ascii 1.0
element vertex 1157
property float x
property float y
property float z
end_header
-0.52625805 -0.31226176 0.03680915
-0.24459717 0.50898802 0.01710876
-0.40596429 -0.60910696 0.02839498
-0.42245671 -0.56141382 0.02954853
-0.16148421 -0.33725062 0.01129493
-0.49821970 0.19157070 0.03484879
-0.25094444 -0.30177799 0.01755219
-0.61898643 -0.02460578 0.04329589
-0.65239823 -0.43806744 0.04563228
-0.03615946 -0.05565912 0.00252916
-0.09301742 0.66370606 0.00650621
-0.68087107 -0.09960116 0.04762451
-0.51745236 -0.03163943 0.03619369
-0.01224088 -0.39547038 0.00085618
-0.13870651 -0.48267597 0.00970176
-0.02430017 0.06307734 0.00169966
-0.23170853 -0.52534020 0.01620674
-0.19214019 0.12217966 0.01343915
-0.75698233 -0.54132390 0.05294737
-0.21555269 0.23321164 0.01507673
-0.12156743 0.55425507 0.00850306
-0.29541209 -0.23765427 0.02066246
-0.45286265 -0.75569588 0.03167526
-0.59485000 -0.49598023 0.04160675
-0.06144551 -0.26048124 0.00429778
-0.61829686 -0.01420409 0.04324767
-0.31864339 -0.27626985 0.02228736
-0.44851503 -0.24018201 0.03137125
-0.09063939 0.44255590 0.00633973
-0.13367140 -0.27397203 0.00934958
-0.50783449 -0.38773251 0.03552031
-0.12899469 -0.00038994 0.00902247
-0.42788437 0.29517397 0.02992910
-0.74591231 -0.72492290 0.05217262
-0.11375519 -0.71662527 0.00795655
-0.13673244 -0.39778486 0.00956369
-0.03086353 -0.57025987 0.00215873
-0.64859635 -0.17082340 0.04536681
-0.37534335 -0.31122151 0.02625321
-0.16906758 -0.38324258 0.01182535
-0.30565807 -0.20347230 0.02137911
-0.47765294 -0.69343591 0.03340920
-0.21855779 -0.43166289 0.01528692
-0.11105135 0.33564296 0.00776743
-0.52061552 -0.47558159 0.03641420
-0.53945708 -0.09144864 0.03773280
-0.02794079 0.37967059 0.00195430
-0.28082791 -0.39204463 0.01964237
-0.00640062 0.68724364 0.00044769
-0.59555393 0.06160828 0.04165697
-0.20841835 -0.56744230 0.01457772
-0.41463068 -0.75595528 0.02900114
-0.33326334 -0.77527040 0.02330994
-0.65462726 -0.11875036 0.04578876
-0.76565576 -0.25586948 0.05355477
-0.12476074 -0.13962112 0.00872633
-0.24327283 -0.31719410 0.01701560
-0.21427450 -0.08066975 0.01498733
-0.48268116 -0.29506224 0.03376103
-0.44335741 -0.54743606 0.03101042
-0.03181152 0.29106700 0.00222504
-0.47583696 -0.06534077 0.03328269
-0.18365268 -0.12456896 0.01284550
-0.40179712 -0.75942093 0.02810351
-0.33103046 -0.01655598 0.02315377
-0.06075177 -0.08120692 0.00424925
-0.19531979 0.35827652 0.01366160
-0.35623121 -0.49795541 0.02491642
-0.36625662 -0.76642787 0.02561764
-0.01348884 0.48536399 0.00094347
-0.18279350 -0.14279824 0.01278540
-0.41055983 -0.10678360 0.02871656
-0.31519032 -0.43028006 0.02204584
-0.20344181 -0.34028581 0.01422964
-0.07046345 0.25269699 0.00492853
-0.29098138 -0.59336454 0.02035255
-0.16577166 0.43509841 0.01159488
-0.46722269 -0.38031980 0.03267966
-0.36338121 -0.24568382 0.02541652
-0.42431840 0.12375515 0.02967936
-0.45984286 -0.55594039 0.03216349
-0.09337796 0.28380007 0.00653128
-0.32777709 -0.14530863 0.02292621
-0.06363959 -0.01569110 0.00445124
-0.68224382 -0.17012556 0.04772041
-0.74847543 -0.57674277 0.05235228
-0.59787834 -0.47755888 0.04181861
-0.50606269 -0.23168857 0.03539665
-0.09749132 0.58335239 0.00681902
-0.18239392 -0.36800566 0.01275745
-0.41631168 0.07997509 0.02911923
-0.10491568 -0.03664098 0.00733828
-0.05438978 -0.21196400 0.00380427
-0.14785948 -0.05655857 0.01034196
-0.17233467 -0.62853116 0.01205387
-0.06070946 0.17181008 0.00424629
-0.33730289 -0.42027250 0.02359249
-0.02398409 0.06955937 0.00167756
-0.11368497 -0.62370616 0.00795164
-0.07898288 -0.55730718 0.00552442
-0.31681064 -0.11608163 0.02215917
-0.03807571 -0.67690450 0.00266319
-0.24683535 0.50341880 0.01726531
-0.05159960 0.24764875 0.00360911
-0.16122228 -0.51078880 0.01127661
-0.38670334 -0.57508034 0.02704778
-0.18779936 0.34989753 0.01313554
-0.13227755 0.55380839 0.00925222
-0.13532758 0.23860903 0.00946542
-0.32737994 -0.02149282 0.02289843
-0.22167706 0.14621142 0.01550510
-0.77404177 -0.40464237 0.05414093
-0.74921906 -0.10315900 0.05240537
-0.77750534 -0.11704042 0.05438393
-0.09859659 -0.17117785 0.00689629
-0.33424318 -0.03017158 0.02337848
-0.02626520 -0.51547605 0.00183711
-0.58901435 -0.34930488 0.04119881
-0.23035981 -0.10687171 0.01611241
-0.59415174 -0.30684826 0.04155824
-0.05887626 0.01804518 0.00411807
-0.62466145 -0.55403566 0.04369192
-0.22781768 0.25806326 0.01593462
-0.79862469 -0.22536981 -0.00000144
-0.77828759 -0.56728703 0.05443748
-0.16120639 0.48753145 0.01127564
-0.35775664 0.14137800 0.02502348
-0.03843460 -0.02861291 0.00268829
-0.49588087 -0.34615692 0.03468424
-0.17226060 0.30655444 0.01204868
-0.79811954 -0.65719020 -0.00000036
-0.48144111 -0.11016603 0.03367461
-0.11583772 -0.60568237 0.00810221
-0.48191151 -0.34528318 0.03370710
-0.27535623 -0.69183725 0.01925966
-0.19000259 0.28936630 0.01328964
-0.05859703 -0.27319813 0.00409854
-0.62498802 -0.31517646 0.04371519
-0.39264295 -0.16798203 0.02746322
-0.12078481 -0.27037084 0.00844824
-0.14408773 0.06014150 0.01007815
-0.50655073 -0.71402925 0.03543045
-0.44392470 0.26793557 0.03105105
-0.21941639 0.53355104 0.01534744
-0.53776181 -0.66535002 0.03761349
-0.71687818 -0.43180847 0.05014258
-0.09027473 0.06125316 0.00631422
-0.03879755 0.49125931 0.00271368
-0.25194407 0.16309014 0.01762211
-0.57238930 -0.77242684 0.04003550
-0.76198959 -0.46348155 0.05329781
-0.47068888 -0.56954712 0.03292211
-0.34891906 0.43809879 0.02440582
-0.48786524 0.24517851 0.03412460
-0.52873552 -0.17057388 0.03698269
-0.03994459 0.31710547 0.00279390
-0.07330774 -0.63671964 0.00512747
-0.22270621 0.34585056 0.01557723
-0.36138853 -0.56355304 0.02527715
-0.76701856 -0.46738252 0.05364954
-0.19351357 0.06555958 0.01353521
-0.15042202 0.62017065 0.01052152
-0.11046424 0.04226791 0.00772637
-0.28623876 -0.76372749 0.02002083
-0.24599279 0.15699258 0.01720585
-0.09952035 0.36109170 0.00696090
-0.24586082 0.24376702 0.01719668
-0.02801540 0.67578918 0.00195952
-0.33598849 -0.40330684 0.02350055
-0.01945457 0.25836319 0.00136074
-0.29565069 0.48274884 0.02067984
-0.40181980 -0.62792408 0.02810509
-0.77453417 -0.75466967 0.05417447
-0.53137869 -0.11602988 0.03716767
-0.29668939 0.05449276 0.02075180
-0.76387095 -0.16395207 0.05343014
-0.44447586 -0.26681513 0.03108867
-0.12204406 0.38192508 0.00853631
-0.37684503 -0.31318197 0.02635824
-0.01245202 0.42008695 0.00087095
-0.54502165 -0.57739401 0.03812128
-0.33782673 0.26881316 0.02362963
-0.38286272 -0.24841584 0.02677915
-0.06525382 0.25873032 0.00456415
-0.36027986 0.12067681 0.02519994
-0.11414643 -0.07380084 0.00798392
-0.20169748 -0.69043392 0.01410763
-0.37242454 -0.33642954 0.02604905
-0.61255968 -0.76775736 0.04284519
-0.13536504 -0.63640630 0.00946804
-0.03279594 -0.34823394 0.00229390
-0.76692206 -0.45300615 0.05364283
-0.15425909 -0.65348935 0.01078958
-0.02423454 0.15529083 0.00169507
-0.37078911 -0.29890138 0.02593467
-0.43215019 0.09273393 0.03022713
-0.23023476 -0.27651417 0.01610366
-0.48348370 -0.53221232 0.03381703
-0.26163256 0.50171721 0.01830035
-0.48516709 -0.21512301 0.03393506
-0.62137842 0.04197399 0.04346333
-0.44309086 -0.65378320 0.03099178
-0.09178101 0.18745127 0.00641958
-0.41901708 -0.15645298 0.02930805
-0.62890375 -0.36901578 0.04398899
-0.06174788 -0.38022318 0.00431893
-0.35556874 -0.75984877 0.02487008
-0.16433550 -0.66114700 0.01149437
-0.51491225 -0.54706568 0.03601529
-0.29420784 -0.68747073 0.02057823
-0.02622552 -0.54091930 0.00183433
-0.42288244 0.22895019 0.02957910
-0.14680934 -0.74400824 0.01026851
-0.51236904 -0.62957102 0.03583740
-0.63706887 0.01564787 0.04456081
-0.29431194 0.44133446 0.02058613
-0.28472966 -0.31111142 0.01991528
-0.63629454 0.13340543 0.04450685
-0.46212819 -0.59826851 0.03232333
-0.27668080 0.06455832 0.01935231
-0.02306186 -0.46122572 0.00161305
-0.75546616 -0.12136196 0.05284231
-0.14844482 -0.05973312 0.01038290
-0.10404939 -0.64098960 0.00727768
-0.04190555 -0.48026133 0.00293106
-0.44543749 -0.00997419 0.03115638
-0.01686540 -0.57447922 0.00117964
-0.61089754 -0.01487846 0.04273010
-0.39033753 0.03838437 0.02730229
-0.76279986 -0.25163475 0.05335503
-0.15268753 -0.20370989 0.01067966
-0.38792005 -0.28414619 0.02713288
-0.05310536 -0.69950593 0.00371443
-0.21060197 -0.41493538 0.01473045
-0.76074862 -0.44228426 0.05321106
-0.10774113 0.31135806 0.00753590
-0.64279151 -0.33402872 0.04496048
-0.51779765 -0.52263808 0.03621711
-0.08377518 0.40389916 0.00585961
-0.28571197 -0.63730907 0.01998399
-0.77746928 -0.06624852 0.05438150
-0.48007900 0.08202604 0.03357968
-0.53886068 -0.74981594 0.03769035
-0.13629559 -0.68224221 0.00953313
-0.61988020 -0.61790204 0.04335737
-0.04955293 -0.43860382 0.00346596
-0.53647685 0.14873976 0.03752475
-0.49861956 -0.71004772 0.03487571
-0.50293410 -0.75292605 0.03517748
-0.66871005 -0.63663751 0.04677292
-0.08732723 -0.52326238 0.00610806
-0.06355617 0.26575184 0.00444541
-0.24523054 -0.21436013 0.01715253
-0.42667237 -0.57177144 0.02984339
-0.23244692 -0.35283992 0.01625839
-0.55427295 -0.75570858 0.03876835
-0.73599303 -0.34585971 0.05147980
-0.37011522 0.37578353 0.02588836
-0.11800581 -0.58139932 0.00825386
-0.11695169 0.60641026 0.00818029
-0.26361194 0.09845739 0.01843821
-0.44270697 -0.61705524 0.03096493
-0.37683082 -0.27556479 0.02635725
-0.32527116 0.20711385 0.02275128
-0.47338367 -0.21393555 0.03311082
-0.08592682 -0.08730919 0.00601011
-0.75255972 -0.14433719 0.05263897
-0.48426798 -0.41175872 0.03387189
-0.40098119 -0.52408385 0.02804644
-0.55132592 -0.19735506 0.03856282
-0.31403384 -0.34927961 0.02196495
-0.66228396 -0.19358355 0.04632420
-0.01572870 -0.44173050 0.00110014
-0.79643166 -0.28012544 0.05570729
-0.21714498 -0.23816454 0.01518810
-0.20103414 -0.74517339 0.01406124
-0.32087594 -0.71083844 0.02244351
-0.11472891 -0.52299529 0.00802466
-0.54631132 -0.24279398 0.03821197
-0.01383860 0.64177775 0.00096793
-0.31416517 -0.16633146 0.02197413
-0.49974668 0.23615943 0.03495567
-0.61062670 -0.45574167 0.04271038
-0.49305111 0.25224009 0.03448736
-0.00929317 0.49300775 0.00065001
-0.08931531 0.09601438 0.00624712
-0.33829677 -0.67149836 0.02366201
-0.10415918 0.38517338 0.00728536
-0.34035048 0.40542689 0.02380640
-0.70934612 -0.79552853 0.04961485
-0.22651698 0.16931120 0.01584362
-0.50090772 -0.17681825 0.03503616
-0.45761618 0.10154549 0.03200846
-0.69362539 -0.04713969 0.04851676
-0.20571575 -0.09145600 0.01438869
-0.47937688 -0.02617379 0.03353037
-0.24011524 -0.76535654 0.01679474
-0.08905076 -0.57137746 0.00622861
-0.43043062 0.15958799 0.03010697
-0.43784711 -0.74150902 0.03062501
-0.68173647 -0.55752587 0.04768424
-0.12729385 -0.65252161 0.00890351
-0.04759465 -0.41477135 0.00332898
-0.10900126 -0.48767784 0.00762404
-0.45677292 0.03712890 0.03194936
-0.42495513 -0.37602773 0.02972328
-0.41720408 0.35335407 0.02918213
-0.59035963 0.11913440 0.04129373
-0.23268414 0.00471786 0.01627498
-0.27235052 -0.49581915 0.01904943
-0.47402009 0.20565654 0.03315608
-0.58042467 -0.65586191 0.04059752
-0.12602600 -0.05697983 0.00881483
-0.21220483 -0.42982191 0.01484256
-0.00023801 0.39329258 0.00001665
-0.60084724 -0.46254203 0.04202631
-0.38817766 -0.76695544 0.02715090
-0.44479010 -0.11371832 0.03111091
-0.43983912 -0.18844271 0.03076447
-0.07804925 0.60563517 0.00545912
-0.74288392 -0.71455765 0.05196083
-0.42736945 0.05214142 0.02989265
-0.23680654 0.47376600 0.01656375
-0.05966684 0.44678432 0.00417337
-0.60215247 -0.00974345 0.04211840
-0.31051391 -0.01754883 0.02171875
-0.31594482 0.28557983 0.02209905
-0.67175865 -0.05856904 0.04698718
-0.31891850 0.24164212 0.02230698
-0.42814732 0.15910681 0.02994725
-0.16100319 -0.27009705 0.01126129
-0.24813180 0.40066084 0.01735581
-0.72103631 -0.31041929 0.05043365
-0.62986434 -0.16298571 0.04405654
-0.34167522 -0.79241574 0.02389831
-0.17539459 -0.66680056 0.01226789
-0.44507393 -0.10292884 0.03113079
-0.48591685 0.03952293 0.03398795
-0.07497293 0.12443229 0.00524395
-0.17519324 -0.16415632 0.01225381
-0.60382015 0.12824489 0.04223530
-0.27747765 -0.40269423 0.01940804
-0.61783409 -0.06161117 0.04321522
-0.20299979 0.22604568 0.01419872
-0.15947843 -0.48946163 0.01115464
-0.11077966 0.14247897 0.00774843
-0.12900504 0.62246150 0.00902343
-0.65469450 -0.43305221 0.04579291
-0.36377192 -0.65623808 0.02544385
-0.64612824 -0.00037278 0.04519447
-0.24551368 0.21347448 0.01717235
-0.19887710 -0.47630042 0.01391036
-0.48196578 -0.44297457 0.03371086
-0.36755323 -0.25684607 0.02570833
-0.24851146 0.54045200 0.01738262
-0.70278937 -0.26835090 0.04915737
-0.20246992 -0.62173784 0.01416166
-0.12251958 0.65037787 0.00856983
-0.00327891 -0.07197917 0.00022934
-0.43718067 -0.42540109 0.03057839
-0.55687428 0.01357222 0.03895129
-0.15716182 -0.06411256 0.01099261
-0.06924255 -0.08168293 0.00484314
-0.13375598 0.53447264 0.00935560
-0.10798080 -0.32243717 0.00755266
-0.48966327 -0.55946153 0.03424926
-0.71881914 -0.55536509 0.05027806
-0.25089294 -0.25570637 0.01754859
-0.56071627 -0.60499823 0.03921903
-0.55171180 -0.13816935 0.03858991
-0.39714813 -0.78249663 0.02777833
-0.68257904 -0.56780046 0.04774316
-0.10490510 0.25616506 0.00733754
-0.62260145 -0.63607985 0.04354768
-0.38606104 0.10588071 0.02700328
-0.64207631 -0.73881292 0.04490974
-0.42506424 -0.27987263 0.02973091
-0.20178860 -0.22252117 0.01411401
-0.07243220 -0.72978735 0.00506624
-0.56643671 -0.24120370 0.03961972
-0.69547468 -0.22580771 0.04864580
-0.17117620 0.50866979 0.01197305
-0.10992666 -0.59017950 0.00768877
-0.78545600 -0.50661671 0.05493903
-0.25575408 0.04463293 0.01788860
-0.36675996 -0.37616256 0.02565285
-0.15047605 -0.17805038 0.01052498
-0.62585211 0.03789398 0.04377624
-0.70402372 -0.32775867 0.04924361
-0.64325321 -0.07577231 0.04499323
-0.10177602 -0.08936237 0.00711867
-0.01178156 0.59043896 0.00082406
-0.16486214 0.49238408 0.01153136
-0.65338284 -0.27986965 0.04570143
-0.53684533 -0.35202834 0.03754965
-0.26126701 -0.57187235 0.01827419
-0.23611237 -0.30687103 0.01651477
-0.39633992 -0.45289534 0.02772180
-0.29180312 -0.28996760 0.02041003
-0.06690171 -0.13274705 0.00467941
-0.02314374 -0.19349433 0.00161878
-0.43247765 0.17098880 0.03025017
-0.60321921 -0.20027961 0.04219269
-0.43591708 -0.19849974 0.03049011
-0.77251893 -0.33987036 0.05403459
-0.41005632 -0.39559114 0.02868119
-0.49934030 -0.32125765 0.03492627
-0.79689372 -0.73850930 0.05573843
-0.69126546 -0.35805884 0.04835114
-0.03919431 0.52053761 0.00274143
-0.70655990 -0.79687053 -0.00000001
-0.28695393 0.38967183 0.02007135
-0.52757567 0.12336235 0.03690208
-0.21461020 0.33168751 0.01501090
-0.68191868 -0.54712021 0.04769701
-0.42003891 -0.46391886 0.02937942
-0.47236225 -0.08573933 0.03303960
-0.43224594 -0.59444392 0.03023323
-0.18896221 -0.22473264 0.01321687
-0.70726180 -0.50927895 0.04946979
-0.31520692 -0.03300019 0.02204700
-0.25815576 0.32766548 0.01805685
-0.13639103 0.03202812 0.00953980
-0.68056548 -0.37027296 0.04760266
-0.55790299 0.18272027 0.03902354
-0.46594280 -0.44663233 0.03259015
-0.67660123 -0.76302308 0.04732463
-0.27803507 -0.37288797 0.01944703
-0.64149374 -0.79534292 0.04486897
-0.31945273 -0.55643201 0.02234397
-0.40896583 -0.79408973 0.02860492
-0.59740293 0.17915700 0.04178651
-0.46095642 0.03465363 0.03224199
-0.40962702 0.05804930 0.02865160
-0.12629388 0.51637024 0.00883360
-0.09639217 0.64952809 0.00674225
-0.43699607 0.04701792 0.03056602
-0.48115417 -0.74299431 0.03365410
-0.33849108 0.06378386 0.02367574
-0.38650504 -0.61003393 0.02703391
-0.26394725 0.19679452 0.01846173
-0.09879178 0.32509774 0.00690994
-0.36637348 -0.08494076 0.02562582
-0.13661867 0.09448172 0.00955573
-0.07590247 0.26209256 0.00530896
-0.48704824 -0.41049927 0.03406635
-0.14303026 0.26634479 0.01000418
-0.46034920 -0.60325897 0.03219890
-0.30483279 0.37371188 0.02132193
-0.41572011 -0.63652033 0.02907734
-0.31451830 -0.79240704 0.02199883
-0.56920779 -0.23306292 0.03981357
-0.09317263 0.35340053 0.00651691
-0.07338466 -0.20550916 0.00513285
-0.21845198 -0.56329191 0.01527952
-0.42098725 -0.53116131 0.02944575
-0.36263046 -0.74737245 0.02536401
-0.12138845 0.49351287 0.00849046
-0.75181866 -0.21428902 0.05258701
-0.35303465 -0.46806586 0.02469284
-0.37918442 -0.69227320 0.02652187
-0.25577462 -0.34170687 0.01789003
-0.03507294 0.66159970 0.00245316
-0.22635724 -0.56913167 0.01583245
-0.02035158 0.29234046 0.00142348
-0.34166256 -0.22199056 0.02389742
-0.05261549 -0.52624249 0.00368017
-0.32910761 -0.25156277 0.02301927
-0.21236846 0.58460063 0.01485450
-0.48112762 0.02886720 0.03365293
-0.45127970 -0.25585639 0.03156461
-0.26388580 0.30296972 0.01845761
-0.40068755 -0.74414921 0.02802590
-0.11468230 -0.20359881 0.00802140
-0.37867388 -0.12465852 0.02648616
-0.59740597 -0.10293431 0.04178623
-0.21669509 0.26418853 0.01515663
-0.05351720 -0.23318955 0.00374323
-0.56406420 0.11506725 0.03945439
-0.09556507 0.13161974 0.00668425
-0.63390326 -0.48452714 0.04433850
-0.50615442 -0.25952005 0.03540302
-0.05968260 -0.01340978 0.00417447
-0.26356453 0.34541261 0.01843522
-0.22545747 0.55842614 0.01577005
-0.05856809 0.16469201 0.00409652
-0.71891236 -0.02050528 0.05028559
-0.23816916 -0.68119502 0.01665863
-0.11084777 -0.10365416 0.00775319
-0.03618207 0.41090474 0.00253074
-0.63494736 -0.22091073 0.04441199
-0.21185333 -0.71595913 0.01481798
-0.43190020 -0.59109330 0.03020905
-0.03366164 -0.19481593 0.00235445
-0.73055053 -0.58995658 0.05109850
-0.36047286 -0.42066765 0.02521310
-0.69556439 -0.21012273 0.04865210
-0.16652828 -0.73417825 0.01164774
-0.43458652 0.18085057 0.03039771
-0.65177345 -0.11979313 0.04558914
-0.43895414 0.27323711 0.03070338
-0.57430887 -0.65240413 0.04016976
-0.04423679 -0.04878055 0.00309412
-0.32062763 0.16523767 0.02242639
-0.77798587 -0.57074207 0.05441637
-0.46823958 -0.04170974 0.03275130
-0.01214444 0.13139638 0.00084944
-0.56638378 0.12314229 0.03961666
-0.66090947 -0.42142934 0.04622766
-0.56938940 -0.09914255 0.03982651
-0.19032431 -0.40083197 0.01331214
-0.20993064 -0.61882633 0.01468350
-0.09620293 -0.64631456 0.00672887
-0.00814667 -0.14981566 0.00056981
-0.32532382 0.27359739 0.02275508
-0.33569956 0.37748954 0.02348103
-0.61789769 -0.19217412 0.04321944
-0.60927087 -0.60648227 0.04261528
-0.24717408 -0.14230675 0.01728847
-0.00855470 0.24853948 0.00059835
-0.62062734 -0.47497612 0.04340988
-0.61540610 -0.58267367 0.04304447
-0.40451312 -0.42289826 0.02829347
-0.34667036 -0.64753997 0.02424769
-0.72644955 -0.58967745 0.05081167
-0.62251133 -0.31885830 0.04354193
-0.49600625 -0.47956058 0.03469292
-0.08948308 0.06218363 0.00625885
-0.02927422 -0.49370882 0.00204757
-0.66954923 -0.75696349 0.04683141
-0.73623306 -0.01963105 0.05149716
-0.01063453 0.31593871 0.00074383
-0.47416428 -0.11504575 0.03316560
-0.48678112 -0.39301798 0.03404767
-0.63135642 -0.38121578 0.04416053
-0.33417305 -0.77563381 0.02337357
-0.64722657 -0.16505884 0.04527101
-0.69387227 -0.05884996 0.04853400
-0.76802444 -0.44070935 0.05371996
-0.15648128 -0.29461637 0.01094501
-0.04746387 -0.25043654 0.00331984
-0.02598179 -0.40925816 0.00181728
-0.49539891 -0.70666760 0.03465044
-0.40805098 0.17510062 0.02854157
-0.17887241 0.36947903 0.01251115
-0.38353184 -0.39775118 0.02682595
-0.11936655 0.58043271 0.00834916
-0.40778399 -0.50378340 0.02852225
-0.29233208 0.39818704 0.02044756
-0.78088248 -0.40889710 0.05461939
-0.16613159 0.00641199 0.01161999
-0.39594263 -0.46492642 0.02769402
-0.10971611 0.16183546 0.00767404
-0.28627896 -0.43374562 0.02002364
-0.74447882 -0.02691230 0.05207392
-0.13824470 0.59775680 0.00966969
-0.59379506 -0.62627655 0.04153273
-0.31983042 -0.33089867 0.02237038
-0.47167021 -0.51377785 0.03299075
-0.32360467 0.31944406 0.02263490
-0.78966647 -0.77774215 0.05523282
-0.21168764 -0.53062499 0.01480639
-0.01791742 0.32943082 0.00125323
-0.12512442 0.40370086 0.00875177
-0.02481105 -0.49320361 0.00173540
-0.00362620 -0.68492931 0.00025363
-0.13129295 -0.26269659 0.00918322
-0.05791634 -0.62041956 0.00405093
-0.07498533 -0.38916892 0.00524481
-0.03354212 0.27146223 0.00234609
-0.30895233 0.48502514 0.02161020
-0.79522336 -0.75157171 -0.00000012
-0.31527355 0.21163045 0.02205196
-0.14023609 -0.50702977 0.00980875
-0.18153752 0.22338820 0.01269755
-0.73659194 0.02068979 0.05152233
-0.32865599 -0.22786430 0.02298768
-0.47715965 -0.42690200 0.03337470
-0.70847642 -0.21377523 0.04955527
-0.17148793 0.38563919 0.01199464
-0.23125662 -0.70061076 0.01617513
-0.14615770 -0.23818032 0.01022293
-0.18431929 -0.50724596 0.01289212
-0.27245733 0.44729498 0.01905744
-0.38150346 0.33196771 0.02668488
-0.43621635 -0.29475725 0.03051094
-0.04087704 -0.55570412 0.00285912
-0.00770019 0.32815292 0.00053859
-0.26957682 -0.40684471 0.01885542
-0.57544392 -0.38918158 0.04024951
-0.66531622 -0.11479649 0.04653645
-0.04164852 -0.25861695 0.00291309
-0.25548965 -0.56853622 0.01787010
-0.55531746 -0.35056356 0.03884175
-0.56909007 -0.34082842 0.03980515
-0.52410591 -0.12980630 0.03665893
-0.45602101 -0.54446244 0.03189617
-0.39686254 -0.59942549 0.02775836
-0.05127740 0.18101348 0.00358657
-0.04722922 -0.43226451 0.00330343
-0.43618849 0.30548361 0.03050998
-0.13817278 -0.37550330 0.00966443
-0.09215407 -0.23883271 0.00644567
-0.74379724 -0.42015257 0.05202547
-0.57478094 -0.60138696 0.04020277
-0.51849616 -0.21903251 0.03626638
-0.41698104 -0.34847167 0.02916554
-0.74323183 -0.66300225 0.05198530
-0.51442331 -0.01116175 0.03598185
-0.06537663 -0.12769094 0.00457274
-0.63829648 -0.66909039 0.04464547
-0.20289071 0.12344252 0.01419109
-0.18559206 -0.65374333 0.01298115
-0.39614505 -0.62315524 0.02770817
-0.22614814 -0.45614523 0.01581782
-0.66187018 0.09634315 0.04629577
-0.06164261 -0.21356329 0.00431156
-0.44350001 -0.68382055 0.03102039
-0.28897649 -0.66595531 0.02021232
-0.33334947 -0.05776165 0.02331597
-0.66314012 -0.39183310 0.04638374
-0.71163630 -0.30484197 0.04977614
-0.01525203 0.41223782 0.00106680
-0.09086536 -0.78840649 0.00635553
-0.62814951 -0.30619952 0.04393634
-0.52240896 -0.31465989 0.03653991
-0.41448149 -0.58011490 0.02899071
-0.06446223 0.47125497 0.00450878
-0.28899497 -0.68109041 0.02021361
-0.37568018 -0.04145109 0.02627689
-0.53152198 0.25685331 0.03717836
-0.21551426 -0.66588080 0.01507404
-0.76061994 -0.58906889 0.05320168
-0.10103143 0.15941748 0.00706659
-0.27650335 -0.54651827 0.01933989
-0.00469232 -0.75106859 0.00032820
-0.16868186 -0.60851061 0.01179837
-0.17913210 0.00858689 0.01252931
-0.51298898 0.11229466 0.03588174
-0.45838889 0.19128446 0.03206267
-0.29995465 0.24039505 0.02098048
-0.70341194 -0.26190138 0.04920094
-0.74120772 -0.36090541 0.05184450
-0.49798775 0.14533038 0.03483248
-0.71201915 -0.48457763 0.04980261
-0.15929604 -0.16700470 0.01114188
-0.71374130 -0.24700375 0.04992349
-0.70224667 -0.34921420 0.04911927
-0.76686239 -0.28867644 0.05363908
-0.34100011 -0.05667836 0.02385109
-0.14311528 0.22587800 0.01001013
-0.10839945 -0.76171690 0.00758195
-0.30224192 -0.50176495 0.02114017
-0.66172200 -0.66505718 0.04628406
-0.47280574 -0.48855942 0.03307017
-0.74947983 -0.44064733 0.05242288
-0.00824485 -0.23399112 0.00057668
-0.54002684 -0.07605455 0.03777268
-0.25910693 -0.11493008 0.01812311
-0.48751032 0.20986003 0.03409971
-0.62050217 -0.72487551 0.04340072
-0.21352404 -0.63465363 0.01493484
-0.43857586 -0.25795314 0.03067598
-0.21080261 -0.61740577 0.01474449
-0.12617493 -0.78977120 0.00882524
-0.32229465 -0.23606156 0.02254274
-0.62546408 -0.45270240 0.04374824
-0.66200346 -0.60189098 0.04630386
-0.37653232 0.30233055 0.02633710
-0.12264018 -0.52702641 0.00857801
-0.68351960 -0.78094745 0.04780848
-0.57295048 -0.00776143 0.04007576
-0.74964225 -0.79858369 -0.00000000
-0.29818395 -0.00306308 0.02085633
-0.56915003 -0.16173568 0.03980965
-0.18868621 0.06890625 0.01319757
-0.25243583 -0.30607054 0.01765650
-0.51741397 -0.16736823 0.03619077
-0.19961926 0.14091538 0.01396227
-0.24377222 -0.53354007 0.01705053
-0.08400175 0.30821621 0.00587546
-0.09442834 0.10872780 0.00660474
-0.70355088 -0.47893390 0.04921027
-0.54213399 -0.70461994 0.03791930
-0.05422858 -0.16982949 0.00379299
-0.72237152 -0.06275477 0.05052748
-0.45580742 0.04310290 0.03188184
-0.31810015 -0.02935138 0.02224936
-0.40546253 0.32229832 0.02836077
-0.19124249 -0.79922640 0.01337636
-0.24596252 0.01489590 0.01720373
-0.17247489 -0.06043611 0.01206367
-0.57102269 0.00704067 0.03994094
-0.50126255 -0.42724687 0.03506057
-0.38767257 -0.04848961 0.02711573
-0.34828973 0.36517268 0.02436167
-0.45832157 -0.78983611 0.03205708
-0.09499007 -0.06733623 0.00664403
-0.20044987 -0.21996592 0.01402037
-0.63180715 -0.55322534 0.04419175
-0.19605353 -0.69175893 0.01371287
-0.70985991 -0.45303971 0.04965162
-0.16642351 -0.60126561 0.01164041
-0.13368379 -0.50080198 0.00935045
-0.13309237 -0.53758317 0.00930908
-0.47327611 -0.61293548 0.03310307
-0.41456187 -0.53298742 0.02899633
-0.02112450 -0.29952800 0.00147754
-0.63500184 -0.68613553 0.04441499
-0.37214917 -0.01928475 0.02602994
-0.21245749 -0.71296155 0.01486024
-0.03757715 0.30715451 0.00262832
-0.31627753 0.01236658 0.02212188
-0.39251858 -0.47484717 0.02745452
-0.55815512 -0.32347760 0.03904029
-0.35318518 -0.30586395 0.02470337
-0.40763676 -0.55620182 0.02851196
-0.27035990 -0.24804489 0.01891019
-0.43909505 -0.64229512 0.03071229
-0.30148807 -0.50424898 0.02108744
-0.25100684 -0.67635351 0.01755655
-0.14034204 0.26223484 0.00981616
-0.26139939 -0.53529471 0.01828346
-0.54003316 -0.39725551 0.03777255
-0.27895746 0.39160413 0.01951201
-0.35029158 0.08886498 0.02450122
-0.40800074 -0.55018282 0.02853741
-0.56137043 0.01593381 0.03926579
-0.21322089 0.47461513 0.01491397
-0.08757076 0.10389643 0.00612509
-0.30209360 -0.76748836 0.02112979
-0.32326561 0.17366661 0.02261093
-0.16491255 0.20625867 0.01153473
-0.51488274 -0.42487016 0.03601326
-0.51929849 -0.51925194 0.03632208
-0.34573689 0.05724446 0.02418257
-0.07753082 -0.15954465 0.00542286
-0.03032266 0.48216078 0.00212090
-0.64857352 -0.62785691 0.04536441
-0.47111839 -0.67174530 0.03295215
-0.17864698 -0.32382137 0.01249538
-0.13838328 -0.71677059 0.00967915
-0.78287137 -0.44528219 0.05475840
-0.02860461 -0.22818410 0.00200074
-0.13430157 -0.64384937 0.00939366
-0.48670089 -0.78042030 0.03404206
-0.53357029 -0.37766567 0.03732052
-0.76295608 -0.02587498 0.05336639
-0.72232479 -0.32858714 0.05052375
-0.34894252 -0.60061955 0.02440662
-0.14014423 -0.43205512 0.00980232
-0.08759980 0.31396636 0.00612713
-0.79694360 -0.48359078 0.05574257
-0.69689834 0.03906767 0.04874584
-0.37693101 0.01698238 0.02636448
-0.47560894 -0.32626823 0.03326628
-0.02352583 -0.64012027 0.00164550
-0.07206656 -0.16709912 0.00504066
-0.03555971 0.11355540 0.00248721
-0.03316709 0.08394515 0.00231986
-0.44634774 0.05688308 0.03122017
-0.37307817 -0.77701396 0.02609477
-0.30006021 -0.63144881 0.02098757
-0.22158735 -0.76922709 0.01549882
-0.14754371 -0.56576800 0.01031987
-0.14377052 0.14352936 0.01005596
-0.27367526 0.51288277 0.01914274
-0.14477675 -0.49273807 0.01012634
-0.73687136 -0.03818645 0.05154177
-0.47646365 -0.06877980 0.03332652
-0.03868889 0.09592362 0.00270608
-0.18157117 -0.48759317 0.01269991
-0.11927666 0.41777480 0.00834275
-0.13776876 -0.61051512 0.00963617
-0.13421464 -0.12653814 0.00938758
-0.51165539 -0.13777623 0.03578802
-0.00018450 0.47258589 0.00001290
-0.60293335 -0.02964602 0.04217299
-0.26167527 -0.72884834 0.01830275
-0.40842277 -0.64719564 0.02856693
-0.33075711 -0.34958720 0.02313465
-0.32811707 0.35825154 0.02295061
-0.39604470 -0.11343362 0.02770123
-0.29052031 0.43160331 0.02032089
-0.12136221 -0.10327423 0.00848862
-0.21579155 -0.57367271 0.01509344
-0.11937375 0.44259921 0.00834954
-0.05172983 0.27202353 0.00361822
-0.26944321 0.14034994 0.01884607
-0.16481888 0.27011415 0.01152818
-0.63988727 0.08634243 0.04475808
-0.00931862 -0.72591203 0.00065179
-0.15708201 0.23435389 0.01098703
-0.70834178 -0.73944014 0.04954475
-0.70784199 -0.58528751 0.04951019
-0.03362032 -0.33977234 0.00235156
-0.37806714 -0.69918537 0.02644372
-0.48422217 0.02464865 0.03386938
-0.20612794 0.13944677 0.01441752
-0.14835806 0.31097999 0.01037683
-0.55470026 0.01799326 0.03879923
-0.12370645 0.37636480 0.00865259
-0.23004377 0.50381923 0.01609076
-0.23160627 -0.29211423 0.01619959
-0.49607587 -0.08331196 0.03469835
-0.56813693 0.12074459 0.03973929
-0.25612476 -0.34798819 0.01791452
-0.30643225 -0.03515303 0.02143326
-0.13388550 0.31793585 0.00936456
-0.04757107 -0.44956347 0.00332734
-0.74175173 -0.72095937 0.05188162
-0.17366014 -0.30291942 0.01214657
-0.62759060 -0.14974615 0.04389752
-0.78726602 -0.18835691 0.05506645
-0.10480044 0.66573298 0.00733043
-0.36861902 -0.15890919 0.02578288
-0.75767148 0.00738385 0.05299680
-0.05041832 -0.44762635 0.00352649
-0.10946286 -0.61951876 0.00765633
-0.75777191 -0.24648336 0.05300336
-0.19179149 -0.30404839 0.01341476
-0.45910871 -0.28419536 0.03211219
-0.54744649 -0.13452537 0.03829157
-0.36196068 0.29469064 0.02531782
-0.43330872 0.12772904 0.03030823
-0.23123592 -0.00831398 0.01617368
-0.06672511 0.53057033 0.00466706
-0.07266226 -0.50635672 0.00508233
-0.35440743 0.07285987 0.02478909
-0.42402351 -0.54271424 0.02965812
-0.41248682 0.30769432 0.02885208
-0.03045142 0.13049635 0.00212991
-0.31901175 -0.68426746 0.02231312
-0.40872952 -0.77755457 0.02858839
-0.30968931 -0.41537520 0.02166107
-0.45355231 -0.11063946 0.03172383
-0.68802899 -0.05637342 0.04812528
-0.29671898 -0.74532616 0.02075387
-0.43475842 -0.25180849 0.03040897
-0.17491138 -0.30186161 0.01223409
-0.26358280 0.07736839 0.01843617
-0.39626506 -0.41723499 0.02771657
-0.08123637 -0.32714966 0.00568204
-0.58036774 0.03519241 0.04059466
-0.03259106 0.06633416 0.00227957
-0.39475793 -0.34397262 0.02761115
-0.55869621 -0.16333671 0.03907842
-0.28835681 0.31079572 0.02016934
-0.35771394 0.38687938 0.02502092
-0.63943213 -0.53261179 0.04472515
-0.20504193 -0.22095156 0.01434156
-0.39305258 -0.51010823 0.02749187
-0.03772819 -0.61411846 0.00263888
-0.14058304 0.56208628 0.00983319
-0.55867529 -0.42051652 0.03907651
-0.68503505 -0.32167318 0.04791539
-0.51387846 -0.19738489 0.03594342
-0.24682543 0.24324584 0.01726416
-0.55169719 -0.11262771 0.03858894
-0.25613898 0.47128886 0.01791603
-0.48687038 0.21381781 0.03405496
-0.63091940 -0.29274327 0.04413012
-0.28554186 -0.24985781 0.01997209
-0.24101274 0.24203905 0.01685756
-0.75994545 -0.10618505 0.05315566
-0.15501329 0.55016780 0.01084255
-0.40609953 -0.01941807 0.02840472
-0.24258517 -0.59324622 0.01696750
-0.22712146 0.45998335 0.01588627
-0.08249708 -0.39467293 0.00577022
-0.62552953 -0.49399659 0.04375275
-0.45252183 0.26529771 0.03165241
-0.12164230 -0.42684472 0.00850821
-0.04358761 0.70633841 0.00304873
-0.61677057 -0.79287684 0.04313972
-0.57273281 -0.60934854 0.04005952
-0.27340081 0.29451025 0.01912316
-0.01652504 -0.42178175 0.00115584
-0.21799342 -0.76151681 0.01524744
-0.12402398 -0.39506868 0.00867480
-0.21870811 -0.33275867 0.01529743
-0.26819360 0.26116332 0.01875887
-0.53123647 0.03319337 0.03715799
-0.02817003 0.57178730 0.00197034
-0.26490897 0.30840510 0.01852919
-0.05316860 -0.06302493 0.00371885
-0.46877736 0.20179586 0.03278935
-0.00370632 -0.57803875 0.00025924
-0.70655912 -0.11425159 0.04942133
-0.62035692 0.07985047 0.04339194
-0.39214012 -0.13227887 0.02742808
-0.08180623 -0.32613596 0.00572190
-0.68092299 -0.79530704 0.04762683
-0.28346768 -0.40625963 0.01982701
-0.13317628 -0.24645893 0.00931495
-0.30066106 -0.65740710 0.02102959
-0.21116170 -0.18155669 0.01476960
-0.24580066 -0.68078905 0.01719241
-0.05735862 0.16832753 0.00401192
-0.38003343 0.10790920 0.02658165
-0.36734724 -0.17626192 0.02569393
-0.38292354 -0.61857057 0.02678340
-0.05144197 -0.56967002 0.00359808
-0.46461999 0.15639086 0.03249847
-0.72150344 -0.13254254 0.05046664
-0.53330737 -0.19195256 0.03730245
-0.22272173 -0.72814333 0.01557816
-0.24663071 0.49941289 0.01725099
-0.30894238 -0.69353831 0.02160883
-0.24752295 -0.75734699 0.01731287
-0.77461982 -0.27722868 0.05418169
-0.25385159 -0.08252916 0.01775553
-0.68218511 -0.09201209 0.04771644
-0.35542288 0.40852559 0.02486071
-0.58526903 0.04244817 0.04093752
-0.75590062 -0.50824952 0.05287180
-0.04411887 0.29392156 0.00308587
-0.16757062 -0.67522168 0.01172065
-0.61175603 -0.46934038 0.04278935
-0.69008452 0.05361970 0.04826925
-0.18768306 0.61042392 0.01312787
-0.34546790 -0.48888627 0.02416359
-0.51016414 -0.36648706 0.03568330
-0.11611836 0.49834198 0.00812184
-0.44007394 0.31077775 0.03078177
-0.30075902 0.39022356 0.02103700
-0.17908935 -0.34565336 0.01252632
-0.64095151 -0.09454919 0.04483220
-0.52943993 0.00572858 0.03703228
-0.72542197 -0.05420365 0.05074087
-0.14280067 0.38448524 0.00998812
-0.48135340 -0.43044981 0.03366803
-0.06669744 0.56470227 0.00466512
-0.20239785 -0.40093657 0.01415662
-0.41362032 -0.25611955 0.02893047
-0.20992304 -0.46335912 0.01468297
-0.00769950 -0.67644787 0.00053854
-0.08208289 0.14998311 0.00574125
-0.36684969 -0.02204602 0.02565924
-0.42175955 0.35365945 0.02950078
-0.14811261 -0.13422924 0.01035967
-0.01627414 -0.61124545 0.00113829
-0.79645294 -0.18543252 -0.00000154
-0.15757979 -0.26108009 0.01102184
-0.27719569 -0.56620836 0.01938832
-0.30893797 0.09658824 0.02160859
-0.14249595 -0.66951543 0.00996681
-0.03901828 -0.67803597 0.00272911
-0.78398967 -0.23843430 0.05483716
-0.58890224 0.10219200 0.04119176
-0.09852751 -0.20397952 0.00689146
-0.47353297 -0.57763535 0.03312104
-0.08882721 -0.26758632 0.00621298
-0.13461363 -0.49116635 0.00941549
-0.51520759 0.08662827 0.03603688
-0.21374808 -0.12175154 0.01495051
-0.06799155 -0.74965137 0.00475564
-0.39758527 -0.24808335 0.02780891
-0.16877621 -0.19343160 0.01180497
-0.19675319 -0.61357856 0.01376181
-0.57947254 -0.37321803 0.04053133
-0.12339783 -0.28593856 0.00863100
-0.20021293 0.15398856 0.01400380
-0.23954955 -0.71292633 0.01675518
-0.24573483 0.23737928 0.01718786
-0.13148779 -0.42009345 0.00919685
-0.35451064 0.13835089 0.02479642
-0.49645251 -0.72207779 0.03472413
-0.00999314 -0.70430493 0.00069897
-0.22815326 -0.14139935 0.01595807
-0.49668264 -0.52375561 0.03474023
-0.23480099 0.43260568 0.01642340
-0.79616624 -0.16541781 -0.00000159
-0.33203819 0.30729562 0.02322480
-0.22698084 0.10906291 0.01587607
-0.69744569 -0.74479139 0.04878262
-0.60378993 -0.33673397 0.04223237
-0.56685466 -0.41786695 0.03964864
-0.18843807 0.05295923 0.01318021
-0.59037226 -0.38240087 0.04129374
-0.49796683 0.08554605 0.03483091
-0.34385782 -0.62939602 0.02405097
-0.05172666 -0.16764805 0.00361800
-0.59652793 -0.25508422 0.04172454
-0.37798408 -0.60181904 0.02643791
-0.77774155 -0.08813766 0.05440050
-0.11325257 0.02417564 0.00792140
-0.13080397 0.06514886 0.00914902
-0.31065467 -0.22172102 0.02172859
-0.00419297 -0.64738917 0.00029328
-0.36857703 -0.47103193 0.02577994
-0.09319783 0.36461818 0.00651868
-0.57922840 0.11779384 0.04051512
-0.50865763 -0.64941442 0.03557781
-0.14331120 -0.06973139 0.01002383
-0.23933746 0.40992603 0.01674068
-0.63443679 -0.45705709 0.04437586
-0.51297367 -0.12484291 0.03588025
-0.40746719 -0.10894712 0.02850023
-0.24191833 -0.67311692 0.01692086
-0.46411198 -0.54750037 0.03246209
-0.36290637 -0.23730543 0.02538331
-0.51644289 -0.44256651 0.03612236
-0.05625668 0.01494895 0.00393485
-0.00409919 0.06758509 0.00028672
-0.14014000 0.30444837 0.00980202
-0.06318057 0.53229976 0.00441913
-0.17069449 0.39627612 0.01193916
-0.14434808 -0.01591257 0.01009636
-0.72678256 -0.63269222 0.05083485
-0.22862719 0.31557015 0.01599134
-0.18450987 -0.54343480 0.01290545
-0.31214112 -0.40233734 0.02183256
-0.00440098 0.54892308 0.00030782
-0.51419014 0.02475974 0.03596560
-0.20167515 -0.60919303 0.01410607
-0.01368807 0.44760591 0.00095741
-0.46343181 0.23641776 0.03241550
-0.55209094 -0.17370120 0.03861637
-0.66790199 -0.14629318 0.04671726
-0.68568480 -0.24838366 0.04796097
-0.31440064 -0.46974739 0.02199060
-0.41775629 -0.62825996 0.02921976
-0.23398656 0.45153236 0.01636646
-0.51556802 -0.47171703 0.03606115
-0.52715635 -0.53590637 0.03687170
-0.74755025 -0.77604645 0.05228705
-0.08171618 0.06298809 0.00571560
-0.48198941 -0.79243499 0.03371252
-0.06902481 -0.06414350 0.00482791
-0.75938463 -0.54077131 0.05311540
-0.37700397 0.06501904 0.02636967
-0.03351685 -0.32120401 0.00234432
-0.68001020 -0.67239243 0.04756329
-0.08758393 -0.63610703 0.00612602
-0.14131375 0.11296087 0.00988412
-0.49490061 -0.17619164 0.03461597
-0.19090933 0.17557178 0.01335306
-0.49499443 0.04485133 0.03462293
-0.43936011 0.17135637 0.03073159
-0.01899445 -0.34604302 0.00132856
-0.36175469 -0.61043233 0.02530276
-0.23487502 -0.27099794 0.01642822
-0.79087698 -0.07728539 0.05531930
-0.67618966 0.00790996 0.04729724
-0.15089214 0.17988946 0.01055408
-0.00180600 -0.09240353 0.00012632
-0.02949765 -0.71781504 0.00206320
-0.78528470 -0.59805614 0.05492681
-0.24055792 0.44029763 0.01682610
-0.04336730 0.17580424 0.00303331
-0.30959895 -0.41614234 0.02165475
-0.00802030 0.47826928 0.00056098
-0.73292208 -0.78203279 0.05126388
-0.09150551 -0.62597078 0.00640031
-0.45082536 0.29151368 0.03153379
-0.02175110 0.00491534 0.00152137
-0.07922344 0.31773114 0.00554124
-0.57116234 0.08384106 0.03995084
-0.79925102 -0.15358287 -0.00000162
-0.73230189 -0.26259121 0.05122175
-0.00176989 0.17737240 0.00012379
-0.76747388 0.00919173 0.05368247
-0.35870764 -0.70815516 0.02508963
-0.15683763 0.39140701 0.01096993
-0.27504915 0.15922271 0.01923822
-0.68346691 -0.16573283 0.04780598
-0.00846948 -0.27741566 0.00059239
-0.00569427 -0.68463486 0.00039828
-0.26269883 -0.68976486 0.01837434
-0.68227708 -0.19200079 0.04772270
-0.05147394 0.72365820 0.00360040
-0.45340136 -0.52404320 0.03171294
-0.48671773 0.06914363 0.03404402
-0.19301976 -0.29770839 0.01350067
-0.41882065 0.32690281 0.02929516
-0.17111701 -0.51683515 0.01196870
-0.05238017 -0.62390184 0.00366371
-0.15605846 0.08684723 0.01091543
-0.34713379 0.45024160 0.02428097
-0.03005513 -0.66735232 0.00210219
-0.14912051 0.49092031 0.01043025
-0.52738041 0.19254117 0.03688855
-0.61646318 0.05651548 0.04311954
-0.23523706 -0.01746321 0.01645354
-0.74874032 -0.75080061 0.05237036
-0.35408968 0.30195272 0.02476726
-0.14569926 -0.66681290 0.01019086
-0.19371907 0.08762655 0.01354959
-0.07605119 -0.34349954 0.00531936
-0.08752744 -0.46226564 0.00612206
-0.25470248 -0.36245009 0.01781504
-0.54851812 -0.20609637 0.03836640
-0.02953456 0.44680735 0.00206578
-0.24790177 -0.13435595 0.01733937
-0.64746082 -0.10005783 0.04528751
-0.03817645 0.73380113 0.00267028
-0.34041336 -0.36937523 0.02381005
-0.17658874 -0.75222200 0.01235141
-0.38446409 -0.73952585 0.02689116
-0.29822072 -0.35323191 0.02085891
-0.10588731 -0.59238821 0.00740624
-0.43523636 -0.25319305 0.03044240
-0.34598306 -0.36111704 0.02419962
-0.71865076 -0.59837908 0.05026617
-0.61900449 -0.16570057 0.04329690
-0.30246764 -0.44784576 0.02115595
-0.25659046 0.17063603 0.01794710
-0.64002299 0.14892761 0.04476768
-0.37694570 -0.54342854 0.02636529
-0.55174440 0.16212375 0.03859272
-0.43685022 -0.61232549 0.03055528
-0.54130787 -0.25801569 0.03786196
-0.37255582 0.35605556 0.02605904
-0.05000523 -0.03571612 0.00349759
-0.33591431 -0.12767418 0.02349536
-0.72444594 -0.02685717 0.05067265
-0.33171135 0.14794660 0.02320165
-0.29103273 0.42889598 0.02035673
-0.59878731 -0.15604585 0.04188275
-0.33326882 -0.16762252 0.02331033
-0.31869075 0.14879254 0.02229088
-0.58017987 -0.10494394 0.04058128
-0.63157988 -0.25009838 0.04417639
-0.59964377 -0.65999609 0.04194179
-0.75740105 -0.31231475 0.05297725
-0.69131464 -0.73956394 0.04835381
-0.70650202 -0.16935572 0.04941725
-0.30630612 -0.28562543 0.02142443
-0.62828743 0.08362112 0.04394668
-0.37381649 -0.73981482 0.02614641
-0.51139915 0.01280963 0.03577036
-0.53106993 -0.58618265 0.03714543
-0.60733885 -0.70020539 0.04248002
-0.25371540 -0.18423086 0.01774600
-0.11207759 0.23002236 0.00783921
-0.52413046 -0.77786607 0.03666005
-0.69975972 -0.00345725 0.04894592
-0.46964559 -0.05113076 0.03284964
-0.79188603 -0.70430636 0.05538825
-0.11352056 -0.34605524 0.00794014
-0.72001946 -0.44176400 0.05036229
-0.28183600 0.48963529 0.01971354
-0.21670139 -0.28682536 0.01515707
-0.14147082 -0.35377204 0.00989511
-0.41319576 -0.50930595 0.02890078
-0.02085733 0.53259337 0.00145886
-0.09484714 -0.39470527 0.00663404
-0.33566824 -0.46196300 0.02347815
-0.72958922 -0.33500555 0.05103188
-0.73706931 -0.65351158 0.05155429
-0.35628706 -0.53390193 0.02492033
-0.24721777 -0.61850470 0.01729153
-0.12772200 -0.70455182 0.00893345
-0.74663991 -0.05059470 0.05222505
-0.37690639 -0.00853264 0.02636272
-0.12060612 -0.36447653 0.00843574
