ply
format ascii 1.0
element vertex 1329
property float x
property float y
property float z
end_header
-0.34474578 -0.03230376 0.27812967
-0.38731000 -0.23914450 0.00000397
-0.34532103 -0.47188574 0.00000322
-0.59711730 -0.64158028 0.08613609
-0.06913360 0.40265745 0.00000580
-0.14345707 -0.75825191 0.00000116
-0.00106472 -0.68979335 0.00000020
-0.10927070 0.42022336 0.00000463
-0.47189143 -0.05969760 -0.23473370
-0.38848048 -0.42093819 0.00000364
-0.26684713 -0.13698515 0.00000326
-0.44715232 0.07026803 -0.29371774
-0.50572336 -0.11500943 -0.25687307
-0.42046320 -0.21510062 0.14974988
-0.35848504 -0.26156759 0.00000371
-0.02526616 -0.07438627 0.00000155
-0.05808741 -0.07520564 0.00000180
-0.56337351 -0.56011736 0.13590235
-0.28432775 -0.36584246 0.00000296
-0.15760660 -0.24577609 0.00000223
-0.05748769 -0.25251693 0.00000146
-0.40427983 -0.17602643 0.05724795
-0.35077724 0.23163636 -0.23384583
-0.23629192 0.41172472 -0.15297902
-0.42999473 -0.23129140 -0.00570220
-0.01968865 0.61962700 0.00000455
-0.04287409 -0.69697678 0.00000052
-0.27561006 0.18967248 -0.04621764
-0.27531844 0.13532425 0.05611156
-0.31056073 0.30468234 -0.21365543
-0.26908398 -0.24954955 0.00000306
-0.53967786 -0.09530178 -0.34225804
-0.14535592 -0.29180634 0.00000205
-0.25170591 0.19232871 0.06240209
-0.68042845 -0.75117880 -0.07683172
-0.37757730 -0.11155871 0.01359036
-0.60521990 -0.51541209 -0.12234579
-0.65691406 -0.69988263 -0.07223678
-0.46310717 -0.31805646 0.23991853
-0.35447475 -0.78030485 0.00000271
-0.43405208 -0.24791110 0.24150948
-0.53028995 -0.59902924 0.00000438
-0.32835296 -0.53024751 0.00000298
-0.37931117 -0.35684565 0.00000369
-0.46819893 -0.16809760 -0.13621975
-0.24483906 -0.30800754 0.00000277
-0.22776203 -0.68668830 0.00000193
-0.16450319 0.42039955 -0.01472474
-0.36894441 0.13294527 -0.18779911
-0.30108225 -0.34874421 0.00000312
-0.12095771 0.21273176 0.00000669
-0.27756277 0.14448693 -0.01223113
-0.18590398 0.35118142 0.12628704
-0.22800261 -0.18925484 0.00000287
-0.41283846 0.00775748 -0.17165814
-0.09136314 -0.00868627 0.00000217
-0.29023644 0.22039166 -0.10166699
-0.43473953 -0.09719491 -0.12792796
-0.22262712 0.26251948 0.19623366
-0.29308894 0.09242282 0.05873462
-0.34012106 0.05086035 -0.06043262
-0.63948214 -0.49535587 -0.20864739
-0.15901068 -0.73713809 0.00000132
-0.56573677 -0.24877195 -0.26621139
-0.51909959 -0.25536048 -0.16613171
-0.23780414 0.35349613 -0.10714637
-0.43709901 -0.25527257 0.38572013
-0.19944961 -0.35920301 0.00000233
-0.56433922 -0.69491005 0.00000445
-0.57137710 -0.57943803 0.09399545
-0.11387144 -0.19697884 0.00000199
-0.41479188 -0.20140594 0.08282941
-0.58777642 -0.42865139 -0.15983948
-0.44255638 -0.26844454 0.29235718
-0.03174134 0.64522755 0.00000397
-0.22155207 0.26511803 0.15620875
-0.15207154 0.47517750 -0.03552244
-0.03314960 0.73505574 -0.01266601
-0.10818611 -0.48218483 0.00000141
-0.43536523 -0.09790604 -0.12859926
-0.45606995 -0.02019612 -0.23582789
-0.00255265 -0.62984401 0.00000034
-0.44428042 -0.27260217 0.18500501
-0.45671475 -0.30262572 0.28577954
-0.46293074 -0.03767131 -0.23506185
-0.31810105 0.11058933 -0.06594930
-0.51282340 -0.24675384 -0.16063535
-0.28093770 0.12176057 0.02842615
-0.03394436 0.46124855 0.00000599
-0.27572620 -0.24815200 0.00000311
-0.12025390 0.39924276 0.00000461
-0.45248744 -0.25144520 -0.03437741
-0.51585323 -0.20428777 -0.20243828
-0.35993871 -0.45130029 0.00000337
-0.16041502 -0.52495521 0.00000173
-0.02283445 0.59022528 0.00000481
-0.62520230 -0.64137566 -0.05707874
-0.16749340 -0.32099181 0.00000216
-0.14693426 -0.04789056 0.00000252
-0.09540055 0.57582605 -0.00515318
-0.31116188 0.04877490 0.26583448
-0.34244326 0.20219761 -0.19222848
-0.14959072 0.53128529 -0.07761043
-0.28167233 -0.68103921 0.00000235
-0.42325240 -0.03537162 -0.15655217
-0.62314951 -0.52366108 -0.15176722
-0.24484505 -0.44320306 0.00000252
-0.46765316 -0.32902828 0.16352513
-0.25454184 0.18548109 0.07697091
-0.66966516 -0.78151256 -0.02953879
-0.20237263 -0.75087273 0.00000162
-0.68859464 -0.74701893 -0.09688017
-0.29105237 -0.10859608 0.00000349
-0.42103073 -0.21647239 0.18851897
-0.02851063 0.42762801 0.00000650
-0.39296326 -0.10568494 -0.03610594
-0.07015311 -0.27394286 0.00000152
-0.43356386 -0.04590608 -0.16861399
-0.05588159 -0.77537489 0.00000047
-0.04945188 -0.08484935 0.00000171
-0.54067963 -0.14683145 -0.30101725
-0.30296603 0.07097727 -0.00200085
-0.04715915 -0.34154651 0.00000122
-0.29644299 -0.02219654 0.00000369
-0.20174921 0.32539541 -0.01045325
-0.31997973 0.02749018 0.22603200
-0.23333712 0.23666261 0.20861578
-0.04073946 0.27518874 0.00000792
-0.06916512 -0.79644287 0.00000053
-0.18910129 0.44203708 -0.08276359
-0.18108931 0.36280170 0.16645075
-0.65252846 -0.56779033 -0.17426969
-0.23156695 -0.37673652 0.00000254
-0.20521541 -0.38729224 0.00000232
-0.48124394 -0.36184520 0.31186193
-0.46074998 -0.72152781 0.00000362
-0.43117541 -0.06481276 -0.14789516
-0.21754771 0.27478749 0.12873861
-0.06448203 0.31403938 0.00000691
-0.04997411 0.64749151 0.00000351
-0.21609171 0.38071057 -0.08598195
-0.07228655 -0.17695919 0.00000171
-0.60694778 -0.60527587 -0.05038608
-0.28302556 -0.57001346 0.00000257
-0.42066970 -0.21559843 0.13252442
-0.18158920 0.37858382 -0.01424819
-0.44312128 -0.44940203 0.00000400
-0.27180398 -0.62094355 0.00000239
-0.42375559 -0.22305560 0.30110401
-0.32630861 -0.25607350 0.00000348
-0.59672141 -0.40754434 -0.19569804
-0.15402803 -0.00897646 0.00000265
-0.13431817 -0.43187490 0.00000170
-0.42895582 -0.22427411 -0.00948878
-0.52177566 -0.32708922 -0.11132307
-0.18535598 -0.66302955 0.00000166
-0.55987340 -0.34116912 -0.17673475
-0.57709265 -0.21230938 -0.31985226
-0.33351454 -0.67701530 0.00000275
-0.37122035 -0.36216390 0.00000362
-0.05102388 -0.77279806 0.00000044
-0.55629015 -0.11250652 -0.36148840
-0.20338932 0.30897695 0.02264686
-0.38160515 0.19256660 -0.26353461
-0.06253868 -0.03629447 0.00000190
-0.56706268 -0.77939165 0.00000432
-0.58180898 -0.27938995 -0.27308312
-0.29368359 -0.03415198 0.00000365
-0.17956407 -0.38947684 0.00000212
-0.24383087 0.21132486 0.25759891
-0.06958261 -0.39171943 0.00000129
-0.43640065 0.00847840 -0.22003172
-0.45608059 -0.27601108 -0.02103275
-0.31799716 0.03228186 0.15865648
-0.49389201 -0.39237174 0.09349232
-0.36860135 -0.28124532 0.00000375
-0.52819866 -0.23347580 -0.20295566
-0.51318663 -0.43895334 0.09557146
-0.41528901 0.00106734 -0.17100801
-0.02901334 -0.28524512 0.00000118
-0.24908882 -0.08764676 0.00000321
-0.63331985 -0.72897971 0.05375142
-0.58969665 -0.62366664 0.13951655
-0.36845723 -0.04960535 -0.03351765
-0.12767360 -0.09254320 0.00000229
-0.23939833 -0.70198673 0.00000199
-0.18886176 0.49707752 -0.12849908
-0.06635641 0.68620777 -0.03896612
-0.67341524 -0.74036533 -0.07169444
-0.46696761 -0.00791424 -0.26823488
-0.47203439 -0.33960104 0.05680062
-0.00569777 -0.76485485 0.00000011
-0.27565315 0.23570523 -0.08496178
-0.53081560 -0.32758766 -0.12923113
-0.40602884 -0.36381024 0.00000388
-0.03776356 -0.68430263 0.00000050
-0.22516032 -0.20151721 0.00000282
-0.51313132 -0.43882623 0.30865490
-0.00193812 -0.14825080 0.00000124
-0.16684920 -0.57170635 0.00000169
-0.08275824 -0.71388561 0.00000079
-0.25031576 -0.44027552 0.00000256
-0.15096097 -0.07818938 0.00000249
-0.45348352 -0.62934291 0.00000374
-0.19605167 0.03370875 0.00000689
-0.50757784 -0.28883189 -0.11466638
-0.29554027 -0.16259453 0.00000342
-0.00975801 -0.14033581 0.00000131
-0.22206618 0.27646092 -0.01054882
-0.28342766 0.19010752 -0.06243180
-0.26871759 0.23591612 -0.07107824
-0.46659160 -0.66564161 0.00000377
-0.66432655 -0.70625395 -0.08191385
-0.11384655 0.52514702 0.05339620
-0.28337219 0.11586615 0.24186955
-0.41423261 -0.20006526 0.30747861
-0.53872466 -0.33321175 -0.14054222
-0.23727059 0.22716495 0.22779766
-0.14719948 -0.07587837 0.00000247
-0.60168213 -0.65260142 0.14907052
-0.32434684 0.01694786 0.21745212
-0.57965529 -0.36680937 -0.19530702
-0.25560701 0.25516817 -0.06066603
-0.44335273 0.02250011 -0.24590084
-0.13699467 0.46926239 0.06370660
-0.26799980 0.15297607 0.26516935
-0.67255223 -0.58930689 -0.19679528
-0.34544432 -0.03399677 0.36056900
-0.46322930 -0.31834459 0.08077183
-0.42619389 -0.22893369 0.10005597
-0.42760763 -0.02254618 -0.17615204
-0.09321835 -0.16367459 0.00000190
-0.63787353 -0.73997182 0.01385626
-0.07846032 0.31941333 0.00000651
-0.58413494 -0.38665158 -0.18772618
-0.32174405 0.25544697 -0.19498147
-0.23432527 0.41551518 -0.15217507
-0.44435734 0.08500690 -0.30042860
-0.58004254 -0.60036016 0.18785505
-0.41669032 -0.07152693 -0.11289152
-0.46804786 -0.18601166 -0.12087026
-0.46847078 -0.33100083 0.13120636
-0.42198420 -0.21878120 0.35159132
-0.09519888 0.61195415 -0.03508349
-0.47219375 -0.33999664 0.31530383
-0.39108130 -0.14417540 0.39346319
-0.14322500 -0.23320661 0.00000214
-0.37103531 -0.56445706 0.00000324
-0.43924034 -0.26043275 0.14832963
-0.25654104 0.32961783 -0.12507994
-0.10475990 0.54708034 0.09704384
-0.21176796 0.28873733 0.17309716
-0.26521131 0.23499896 -0.06319965
-0.09768988 -0.06808864 0.00000211
-0.30542246 0.06263284 0.24162900
-0.21742766 0.03897806 0.00000631
-0.32686639 0.20634913 -0.16413540
-0.28743982 0.10604976 0.19677497
-0.04398370 0.08874091 0.00000994
-0.58255124 -0.60641432 0.07990389
-0.12750798 0.24852470 0.00000613
-0.48412737 -0.11946344 -0.20935154
-0.15539490 0.51635736 -0.07684143
-0.02658776 0.38907617 0.00000698
-0.35941148 0.17850754 -0.20673443
-0.32135245 -0.43017140 0.00000312
-0.38454407 -0.12839165 0.37275150
-0.00625898 0.78813028 -0.00272020
-0.50968987 -0.79541969 0.00000385
-0.15942904 -0.29625392 0.00000215
-0.19583616 0.36371198 -0.03064252
-0.04250301 0.66375279 0.00000351
-0.58754122 -0.24757846 -0.31141755
-0.26585615 0.18684782 -0.02407127
-0.29123327 -0.45954913 0.00000284
-0.03764813 -0.54447329 0.00000076
-0.12485211 0.12972996 0.00000753
-0.23040549 0.24375156 0.06521999
-0.37860167 -0.11404292 0.33893362
-0.45014358 -0.72771209 0.00000353
-0.12898532 0.13210201 0.00000740
-0.27451864 0.23557237 -0.08255017
-0.60039806 -0.61252517 -0.03102047
-0.09389696 -0.58755797 0.00000111
-0.03905298 -0.23328003 0.00000136
-0.63813299 -0.56925547 -0.14385538
-0.17078130 -0.65729707 0.00000156
-0.47625571 -0.34979925 0.22181037
-0.57589674 -0.35645995 -0.19637829
-0.16935655 -0.05811279 0.00000267
-0.24266575 -0.54626715 0.00000231
-0.13736922 -0.60620856 0.00000140
-0.37605253 -0.10788665 0.22713988
-0.11707953 -0.53197813 0.00000139
-0.31641951 0.20672980 -0.14327583
-0.49044150 -0.34762630 -0.03055381
-0.35699558 -0.04026780 -0.01812272
-0.09137097 -0.38786820 0.00000146
-0.32885465 0.14266600 -0.11468728
-0.59633791 -0.63969535 0.00784970
-0.31707066 0.03452484 0.08040384
-0.38388592 -0.72882295 0.00000303
-0.49808738 -0.21955952 -0.15359747
-0.56328154 -0.47485435 -0.07138268
-0.47261804 -0.34101617 0.20063406
-0.02357363 -0.28648901 0.00000114
-0.05996185 -0.65152264 0.00000073
-0.03392885 0.73361409 -0.01303516
-0.32605210 -0.66310871 0.00000272
-0.20683219 0.30065823 0.11002080
-0.56085318 -0.45999655 -0.07893639
-0.43638402 -0.67855924 0.00000352
-0.24296838 0.21341105 0.20784099
-0.13313027 -0.63302165 0.00000132
-0.17968453 -0.38634425 0.00000213
-0.14075008 0.48223001 -0.01849262
-0.51288688 -0.05803039 -0.31924236
-0.13273771 0.47953588 0.10902246
-0.30709523 0.05859102 0.28472260
-0.37117407 -0.09611527 0.38855329
-0.20162281 -0.52851713 0.00000203
-0.12030939 0.03694780 0.00000868
-0.44105831 -0.11220601 -0.12813246
-0.00689774 -0.55837053 0.00000051
-0.30103564 -0.56261128 0.00000272
-0.06374721 0.14269656 0.00000886
-0.14371844 0.45302272 0.15475802
-0.42382962 -0.22322562 0.09604814
-0.07365790 0.07000175 0.00000943
-0.13115959 -0.57826233 0.00000141
-0.28896993 -0.76380980 0.00000225
-0.50049520 -0.67953897 0.00000400
-0.65757251 -0.59525865 -0.16142905
-0.14304638 0.35981798 0.00000450
-0.57221138 -0.17429674 -0.34187737
-0.51662308 -0.43101302 -0.01360798
-0.04970372 0.69152129 -0.00966784
-0.65360653 -0.59986305 -0.14952230
-0.70721751 -0.77399892 -0.11197790
-0.06943274 0.00772481 0.00001024
-0.03256658 0.50619048 0.00000552
-0.20818447 -0.15729126 0.00000278
-0.09176027 0.64123565 -0.05270194
-0.01706042 0.67388386 0.00000401
-0.05202203 -0.20955199 0.00000150
-0.36154720 -0.61839980 0.00000307
-0.28669578 -0.77034754 0.00000222
-0.06672531 -0.49530008 0.00000107
-0.17426783 -0.45354503 0.00000196
-0.25757223 0.26385120 -0.07194193
-0.45882249 -0.29428992 -0.01124183
-0.04827006 -0.46478835 0.00000099
-0.38028023 -0.69472826 0.00000307
-0.44597510 -0.24017349 -0.03064035
-0.39683214 -0.15806001 0.38685787
-0.16346882 0.40534568 0.10515029
-0.55331141 -0.07845272 -0.38404602
-0.43709093 -0.12144471 -0.11233131
-0.09306854 0.19434489 0.00000757
-0.31162429 -0.31427470 0.00000326
-0.56926119 -0.57056546 -0.00313241
-0.20785134 0.11687755 0.00000567
-0.23624980 0.22964117 0.07963570
-0.31604382 0.03698423 0.32519713
-0.22230260 0.09235254 0.00000559
-0.38068745 -0.30366966 0.00000380
-0.18528600 0.05153981 0.00000695
-0.62515801 -0.47686008 -0.19513994
-0.31081012 0.10565236 -0.04702235
-0.52509189 -0.38627324 -0.06834661
-0.28419966 -0.70595026 0.00000232
-0.03058771 0.25863627 0.00000835
-0.43485588 -0.33827847 0.00000415
-0.36157554 -0.07294009 0.35564268
-0.12128668 -0.37750164 0.00000171
-0.00701524 0.12274438 0.00001045
-0.35216197 -0.67154938 0.00000290
-0.15098290 0.24798651 0.00000557
-0.56106168 -0.27747318 -0.23263200
-0.54902422 -0.32924542 -0.16475315
-0.21572556 -0.59725100 0.00000201
-0.00793964 -0.61325908 0.00000041
-0.67019528 -0.71758139 -0.08429930
-0.10880257 -0.76739812 0.00000088
-0.13926739 0.05762071 0.00000799
-0.52781755 -0.68569142 0.00000420
-0.30130428 0.07257313 0.26314437
-0.24648936 -0.05616285 0.00000325
-0.66301495 -0.66372734 -0.11496630
-0.23057976 -0.53619844 0.00000223
-0.52133363 -0.53194696 0.00000444
-0.51748335 -0.73178369 0.00000403
-0.02391779 -0.72512352 0.00000032
-0.59469050 -0.25907838 -0.31625417
-0.07674021 0.61472964 0.03864959
-0.60610276 -0.27996853 -0.32184780
-0.14391190 -0.25584528 0.00000211
-0.07160444 0.41560104 0.00000560
-0.42968386 -0.48391187 0.00000383
-0.55514061 -0.72144079 0.00000434
-0.23002692 -0.15030591 0.00000295
-0.05936141 0.42811906 0.00000575
-0.47367591 -0.22000618 -0.10373330
-0.19309174 0.47618917 -0.11953328
-0.16861123 -0.72318012 0.00000142
-0.02584455 -0.73321766 0.00000032
-0.05654124 0.66349530 0.01812238
-0.21873511 0.13620336 0.00000519
-0.32374486 0.01839819 0.25435892
-0.22737028 0.25106889 0.19311111
-0.54384196 -0.60364211 0.00000447
-0.10448789 0.30519655 0.00000604
-0.56770420 -0.42165634 -0.12502134
-0.27995825 -0.46545872 0.00000274
-0.71915007 -0.77763337 -0.13311671
-0.02644304 -0.16602875 0.00000139
-0.22837894 0.24864642 0.03544489
-0.33373949 0.11875684 -0.10451233
-0.10050590 0.59072202 -0.02801256
-0.38890499 -0.53373814 0.00000343
-0.34966913 0.07006359 -0.09591592
-0.43734753 0.06129152 -0.26630205
-0.31044686 -0.57551146 0.00000276
-0.36525938 -0.18330981 0.00000391
-0.03360074 -0.48571387 0.00000084
-0.23584662 0.23061743 0.04331311
-0.19595622 -0.02726019 0.00000293
-0.03589509 0.08499215 0.00001018
-0.43128520 -0.62924421 0.00000357
-0.36793390 -0.70597827 0.00000295
-0.60405260 -0.45467988 -0.17097878
-0.47903928 -0.35651863 0.20408703
-0.65786546 -0.53673446 -0.21116833
-0.27250656 0.23808131 -0.08057793
-0.21904397 -0.63799399 0.00000196
-0.37512243 0.13138255 -0.19901162
-0.16646899 -0.09158829 0.00000258
-0.06445349 -0.79373646 0.00000050
-0.02608886 0.19055454 0.00000923
-0.69596910 -0.76063079 -0.10040000
-0.36273098 0.05370211 -0.10865674
-0.05391321 -0.54932767 0.00000088
-0.57653993 -0.17997003 -0.34588847
-0.21430328 0.37457946 -0.07720756
-0.00233352 -0.06132864 0.00000137
-0.40622863 -0.58338225 0.00000347
-0.16950327 0.51454324 -0.10392025
-0.64924783 -0.74909925 -0.01536579
-0.37293822 -0.62894094 0.00000313
-0.40818894 0.02625067 -0.17776199
-0.36688426 0.21612439 -0.25347358
-0.51634246 -0.71690047 0.00000405
-0.54628885 -0.39751711 -0.10187704
-0.44350958 -0.08621626 -0.15492666
-0.28608936 0.20216750 -0.07795548
-0.35641494 -0.40874377 0.00000342
-0.16720997 -0.04774720 0.00000267
-0.59817123 -0.26239344 -0.32052687
-0.20769753 -0.12492151 0.00000283
-0.07908130 -0.16124104 0.00000179
-0.53037417 -0.16152342 -0.26778755
-0.39888939 0.12344869 -0.24053238
-0.16078264 0.41906157 -0.00605839
-0.01405622 0.12529714 0.00001025
-0.43543950 -0.25125930 0.20989963
-0.29944879 -0.04640064 0.00000367
-0.36038145 -0.07004677 0.22381724
-0.57514983 -0.58854842 0.23754188
-0.00350179 0.23022658 0.00000933
-0.39595750 -0.15593588 0.09085039
-0.35840067 -0.05751008 -0.00649210
-0.16381513 0.43848240 -0.02851520
-0.34918374 0.18432403 -0.19088396
-0.56586188 -0.12974857 -0.36641416
-0.13352898 0.48995847 -0.01034321
-0.37530196 -0.10607084 0.13888153
-0.19569731 -0.25773478 0.00000249
-0.45856813 -0.30710223 0.33432573
-0.36031941 -0.06989430 0.01321864
-0.54780686 -0.12425898 -0.33442119
-0.56077373 -0.21910699 -0.28106087
-0.05051485 -0.59624904 0.00000076
-0.52767742 -0.08182020 -0.32925069
-0.16262133 -0.13558646 0.00000247
-0.38185450 -0.12188633 0.04852620
-0.18451621 -0.48725283 0.00000198
-0.07921558 0.42629194 0.00000529
-0.60989326 -0.49606314 -0.14806817
-0.43327603 -0.03063782 -0.18084860
-0.20965938 0.45362943 -0.13417634
-0.16287106 0.17442822 0.00000611
-0.59917593 -0.29764247 -0.29296356
-0.22610348 -0.31504613 0.00000262
-0.24690427 0.20391496 0.13465203
-0.63243598 -0.69591296 -0.02594611
-0.36190027 0.22475711 -0.25061885
-0.04240792 0.54040396 0.00000490
-0.41342041 0.12416668 -0.27059445
-0.46836621 -0.79462504 0.00000354
-0.05242853 0.34316036 0.00000687
-0.12363423 0.28085306 0.00000586
-0.57273519 -0.58138442 -0.00109001
-0.17657425 0.08482158 0.00000678
-0.05933873 0.65673959 0.04362428
-0.36890313 -0.09062251 0.13576008
-0.09953888 0.63300288 -0.06155811
-0.05065803 -0.77586412 0.00000043
-0.53326756 -0.31827390 -0.14202304
-0.12920335 0.25649792 0.00000600
-0.31238711 0.23031618 -0.15490793
-0.19079846 -0.19466819 0.00000257
-0.55903918 -0.39242697 -0.13200007
-0.21947210 0.27014801 0.04977672
-0.08500445 0.63770556 -0.03604127
-0.22201082 0.26402172 0.01641317
-0.43068993 -0.23978800 0.09773041
-0.38191989 -0.44982851 0.00000354
-0.47001442 -0.05346367 -0.23616087
-0.50836635 -0.42732018 0.19199181
-0.44820532 -0.18406275 -0.08228030
-0.39332482 -0.73151851 0.00000310
-0.15742998 -0.25415334 0.00000221
-0.20844148 0.38276020 -0.07219368
-0.36571613 -0.08293838 0.38313937
-0.19870296 0.23745909 0.00000453
-0.42428544 -0.61364436 0.00000355
-0.08336201 -0.01502765 0.00000210
-0.20166701 -0.03601928 0.00000295
-0.46432698 0.00290507 -0.27196720
-0.50730711 -0.24430551 -0.15150827
-0.60801256 -0.64484936 -0.01931313
-0.53164119 -0.19257793 -0.24427836
-0.12502779 0.09760644 0.00000788
-0.34671092 -0.03704311 0.07710806
-0.39031306 -0.14230862 0.08283671
-0.08874312 -0.55994946 0.00000112
-0.55409825 -0.15030256 -0.32530573
-0.26147968 -0.09722836 0.00000329
-0.61352551 -0.61285311 -0.05735813
-0.00761038 -0.78280032 0.00000009
-0.70176280 -0.75149345 -0.11981844
-0.26592737 0.17250413 -0.01217030
-0.15768848 -0.46282613 0.00000182
-0.47075358 -0.14187948 -0.16341525
-0.11531141 0.29170981 0.00000593
-0.00004469 -0.08457574 0.00000134
-0.18484470 0.50686890 -0.12857768
-0.22764619 -0.67142010 0.00000196
-0.16590907 0.21734416 0.00000555
-0.48469844 -0.50528061 0.00000421
-0.42021161 -0.21449159 0.11101014
-0.50166899 -0.41114834 0.12326254
-0.41283920 -0.19668902 0.01879716
-0.56775331 -0.25789389 -0.26263937
-0.37666553 -0.78440839 0.00000287
-0.26570445 0.15852506 0.16985869
-0.17984454 -0.33141962 0.00000224
-0.52125967 -0.79508382 0.00000394
-0.14019598 -0.56069136 0.00000151
-0.46689504 -0.12183572 -0.17242450
-0.17713279 0.39640459 -0.02017890
-0.22008900 0.15449066 0.00000495
-0.01810548 -0.72146285 0.00000028
-0.35600144 -0.29376239 0.00000363
-0.27937901 0.12550303 0.28414121
-0.53637868 -0.14442338 -0.29432005
-0.44512272 -0.27463093 0.07334862
-0.30649385 -0.34679550 0.00000316
-0.49799260 -0.53803462 0.00000425
-0.03332079 -0.36363974 0.00000107
-0.33869171 -0.14918382 0.00000378
-0.44372007 -0.27124512 0.08503503
-0.22889248 -0.37491655 0.00000252
-0.42827362 -0.69295180 0.00000343
-0.42174986 -0.72963083 0.00000331
-0.40308025 -0.74752742 0.00000314
-0.18255708 -0.50687110 0.00000193
-0.32943499 0.15054332 -0.12247890
-0.65002793 -0.62754267 -0.11902365
-0.45178697 -0.29072595 0.21534944
-0.33180329 -0.40578929 0.00000324
-0.02316045 0.50737196 0.00000573
-0.39065918 -0.36293900 0.00000377
-0.15703686 0.42087591 0.07672712
-0.35629246 0.08677740 -0.12337930
-0.31602255 -0.26854151 0.00000338
-0.23348749 -0.68838274 0.00000197
-0.62604290 -0.51197612 -0.16744530
-0.35880736 -0.37024513 0.00000351
-0.48094758 -0.14156911 -0.18434209
-0.18060641 -0.73678488 0.00000148
-0.33426529 -0.00699608 0.20508914
-0.04741779 -0.10334934 0.00000166
-0.62979513 -0.54044634 -0.15114453
-0.20303665 -0.15337667 0.00000274
-0.08894043 -0.68920052 0.00000088
-0.24598002 -0.43887964 0.00000253
-0.20974697 -0.23752026 0.00000264
-0.02843278 0.38066998 0.00000703
-0.03594771 0.50075734 0.00000550
-0.17441081 0.40501752 -0.02189339
-0.48751971 -0.37699589 0.31075084
-0.23468335 0.41970438 -0.15641896
-0.57280761 -0.56118786 -0.01819681
-0.68136042 -0.79180199 -0.04460804
-0.25526163 0.02579420 0.00000555
-0.19937198 -0.04446707 0.00000292
-0.09788003 0.31882262 0.00000605
-0.23824038 -0.06137444 0.00000318
-0.35025680 -0.14953917 0.00000386
-0.17851992 0.09049248 0.00000667
-0.39451885 -0.15246801 0.21694528
-0.21119501 -0.11987191 0.00000287
-0.26961660 -0.47986928 0.00000263
-0.04060910 -0.10504098 0.00000161
-0.31721470 0.22559220 -0.16072796
-0.32822025 -0.09861400 0.00000379
-0.00020462 -0.16443054 0.00000119
-0.28403640 -0.62119144 0.00000248
-0.08380513 0.52200156 0.00000410
-0.43838286 -0.25836635 0.23680082
-0.42131642 -0.46927056 0.00000380
-0.55829281 -0.54785037 0.11141046
-0.13982202 0.52639717 -0.05370123
-0.23516087 0.23226291 0.16903795
-0.46002400 -0.07338592 -0.19918036
-0.26025301 0.17169032 0.11383637
-0.22989132 -0.50207007 0.00000229
-0.60793853 -0.40596867 -0.21976160
-0.40217263 -0.17094415 0.17516057
-0.11714399 0.19612762 0.00000697
-0.01631186 0.25515014 0.00000874
-0.08995775 0.17639969 0.00000784
-0.44094267 -0.10706165 -0.13221797
-0.25849184 -0.74148607 0.00000206
-0.19294946 0.33416918 0.16610660
-0.48835295 -0.31547731 -0.05331661
-0.32467726 0.26079562 -0.20541963
-0.31611630 0.25887856 -0.18645389
-0.30045024 -0.41579235 0.00000299
-0.15740132 0.50695229 -0.07301101
-0.42199197 -0.17103945 -0.04007451
-0.41518453 -0.20235670 0.14895061
-0.17460851 -0.29531506 0.00000226
-0.42133814 -0.21722345 0.40910247
-0.44673416 -0.11779773 -0.13494349
-0.08487282 0.39629254 0.00000549
-0.14577945 0.44804919 0.12856677
-0.47893640 -0.15743138 -0.16694456
-0.43572259 -0.00360480 -0.20851000
-0.47919425 0.01475560 -0.31205967
-0.11982290 0.26660460 0.00000611
-0.16153477 0.41001692 0.07892183
-0.25209105 -0.06615596 0.00000328
-0.50550181 -0.00530158 -0.34855029
-0.27724397 -0.51182640 0.00000263
-0.55906790 -0.79632252 0.00000422
-0.14446934 0.08355338 0.00000757
-0.42813280 -0.23361576 0.12608443
-0.13818964 0.23815098 0.00000598
-0.45217559 -0.37725934 0.00000420
-0.02300454 -0.01661034 0.00000164
-0.41290492 -0.00576007 -0.16044123
-0.30194801 -0.68310618 0.00000250
-0.52919912 -0.19084920 -0.24077927
-0.16966039 -0.35116899 0.00000212
-0.39984620 -0.59418750 0.00000340
-0.12252614 -0.09231656 0.00000225
-0.13294405 0.13744861 0.00000724
-0.32035103 -0.11521148 0.00000370
-0.15470377 -0.50401700 0.00000172
-0.41042927 -0.19087973 0.22642358
-0.36824384 -0.77505910 0.00000282
-0.10159335 -0.12225874 0.00000204
-0.37612537 0.10101660 -0.17554463
-0.61277682 -0.33528179 -0.28892916
-0.18869750 -0.60242331 0.00000179
-0.43457133 -0.55554271 0.00000374
-0.41503054 -0.49588215 0.00000370
-0.54853022 -0.22130916 -0.25439039
-0.17040046 0.50919509 -0.10124790
-0.25889695 0.17495748 0.19676062
-0.09889062 -0.24176060 0.00000179
-0.43491980 -0.25000548 0.23029546
-0.30319509 0.06802730 0.02692457
-0.51470053 -0.21832570 -0.18831325
-0.37549499 -0.10654450 0.36025602
-0.54657626 -0.32937175 -0.15968435
-0.48743191 -0.27947369 -0.08168321
-0.22511818 0.29193497 -0.02973078
-0.26406112 -0.75410295 0.00000208
-0.37896574 -0.11492122 0.26120156
-0.65440685 -0.57545131 -0.17164449
-0.22448526 -0.32566729 0.00000258
-0.60804784 -0.65679246 -0.00935555
-0.48074001 -0.21482033 -0.12240904
-0.38679504 -0.13381502 0.07487954
-0.67242521 -0.74315608 -0.06734389
-0.25742787 0.17851061 0.11528611
-0.47291026 -0.79444706 0.00000358
-0.56363237 -0.29032475 -0.22705141
-0.16609064 -0.79128718 0.00000127
-0.42811835 -0.53013837 0.00000374
-0.41856924 -0.71926898 0.00000331
-0.22017789 -0.76090181 0.00000173
-0.34438795 -0.03143227 0.18313980
-0.13577466 0.18449482 0.00000665
-0.23084240 0.42378235 -0.15205665
-0.43228492 -0.08175183 -0.13592002
-0.54237819 -0.50943267 0.26869476
-0.40399769 -0.00917474 -0.13951591
-0.23935011 0.34945571 -0.10688754
-0.43136784 -0.24142753 0.16529897
-0.42935583 -0.16756099 -0.05792421
-0.09671583 -0.54047972 0.00000122
-0.23833951 0.38122305 -0.13151589
-0.51326871 -0.12909748 -0.26033929
-0.12961216 0.48707941 0.13523784
-0.23710045 0.22758502 0.11145421
-0.25526682 0.18373112 0.07391739
-0.23305793 -0.27450520 0.00000274
-0.22694094 0.25210461 0.20282505
-0.03355555 -0.10622914 0.00000155
-0.41077805 -0.18061402 -0.00930045
-0.23271526 0.23818004 0.00681558
-0.36944094 0.01241396 -0.08758760
-0.42253125 -0.09279845 -0.10687017
-0.01802469 0.57416981 0.00000511
-0.27126274 -0.63221622 0.00000236
-0.45072335 -0.11868193 -0.14228819
-0.20945624 -0.25119069 0.00000261
-0.46111548 -0.14948615 -0.13748838
-0.36189017 0.04022879 -0.09563767
-0.52069271 -0.08060593 -0.31611040
-0.19564155 0.47713995 -0.12550099
-0.63436061 -0.58033097 -0.12690720
-0.46290350 -0.64976853 0.00000377
-0.17717522 -0.15474021 0.00000255
-0.33661717 -0.71053755 0.00000271
-0.18797669 0.12631615 0.00000604
-0.36838728 0.00701375 -0.08091654
-0.19624476 -0.66714621 0.00000173
-0.13325737 -0.37977627 0.00000179
-0.39337647 -0.09000770 -0.05010851
-0.31022444 -0.41120937 0.00000307
-0.37261561 -0.40909925 0.00000354
-0.32914332 -0.72514486 0.00000262
-0.47158337 -0.33764148 -0.00070761
-0.05869272 -0.12815289 0.00000170
-0.15609680 0.13588350 0.00000670
-0.34938085 -0.04348901 0.07952242
-0.08131268 0.38458431 0.00000571
-0.00207868 -0.47684163 0.00000059
-0.11693896 0.29306990 0.00000588
-0.47140685 -0.33809128 0.18199350
-0.31217137 0.19491997 -0.12474594
-0.04515901 0.26880774 0.00000789
-0.10075956 0.57621896 -0.01634762
-0.14871725 -0.56045771 0.00000157
-0.65553135 -0.54163033 -0.20232514
-0.30117097 -0.69826633 0.00000246
-0.21067888 0.03828819 0.00000648
-0.15005311 0.10362106 0.00000721
-0.08738875 0.13570613 0.00000836
-0.31391481 -0.40876937 0.00000310
-0.39543799 -0.15191486 -0.00230166
-0.64703137 -0.75117093 -0.00913274
-0.47701603 -0.16358881 -0.15788080
-0.50971502 -0.43057525 0.17027479
-0.45826489 -0.30637026 0.34967598
-0.23909748 -0.27702847 0.00000278
-0.12956548 0.34507066 0.00000499
-0.40857884 0.05240318 -0.20051445
-0.60618764 -0.38913459 -0.23034833
-0.29156226 0.09610862 0.05730320
-0.14935248 0.43942428 0.11538575
-0.59144133 -0.62787861 0.21434668
-0.55999655 -0.17290749 -0.31828102
-0.66938263 -0.62153590 -0.16330545
-0.49459401 -0.25368941 -0.11785503
-0.11927639 -0.21138582 0.00000200
-0.39527252 -0.06430067 -0.07553966
-0.29765922 0.08137494 0.23880750
-0.36461079 -0.73688632 0.00000287
-0.25075305 -0.18889438 0.00000304
-0.03096071 0.03566246 0.00001085
-0.63720113 -0.57922351 -0.13359578
-0.36155948 0.16195783 -0.19719124
-0.11204364 0.52950031 0.04440401
-0.45136237 -0.00553693 -0.23859443
-0.34746662 -0.53891081 0.00000311
-0.00261417 -0.44665682 0.00000068
-0.00315181 -0.30355009 0.00000091
-0.35797694 -0.06424025 0.04128483
-0.66902012 -0.81516564 0.06455122
-0.02760827 -0.62494206 0.00000054
-0.19769382 0.22875884 0.00000465
-0.61312646 -0.68022978 0.11034640
-0.60803097 -0.74384511 0.00000469
-0.16363747 0.46917358 -0.05392847
-0.50026453 -0.21859959 -0.15881729
-0.15837681 -0.47382092 0.00000181
-0.01820644 0.36359060 0.00000747
-0.34348804 0.20906544 -0.20011389
-0.65370476 -0.77819204 0.10331340
-0.33438149 0.21270974 -0.18471235
-0.19171590 -0.37860724 0.00000224
-0.56459308 -0.12193717 -0.37040144
-0.47905457 -0.35655260 0.13493679
-0.55566525 -0.22865164 -0.26268935
-0.35991785 -0.59399664 0.00000310
-0.42240342 -0.40354991 0.00000393
-0.44256637 -0.26846215 0.13965000
-0.03578980 0.32843211 0.00000744
-0.05096662 0.71347332 -0.03066273
-0.24872777 0.24372298 -0.03710829
-0.28855729 -0.13244297 0.00000343
-0.26750904 -0.11838903 0.00000330
-0.51167178 -0.28451386 -0.12659203
-0.43740058 -0.25598752 0.06217742
-0.25630945 0.18120681 0.16367543
-0.17990388 -0.06942054 0.00000273
-0.37048161 -0.09089540 -0.00294860
-0.02416968 -0.18186782 0.00000134
-0.02064380 0.68638587 0.00000378
-0.66461521 -0.80453157 0.10479583
-0.49303576 -0.06251436 -0.27523220
-0.09092602 -0.70945746 0.00000086
-0.46661192 -0.54934663 0.00000399
-0.41393369 0.02702822 -0.19006141
-0.60533887 -0.49640962 -0.13854416
-0.27792025 0.12903529 0.15266220
-0.46425176 -0.25369179 -0.05634053
-0.59372574 -0.25940046 -0.31402785
-0.60093260 -0.57169133 -0.06639404
-0.09650356 0.13044120 0.00000820
-0.59478652 -0.27232230 -0.30532730
-0.21453044 0.29299340 -0.00915485
-0.16404556 0.40642411 -0.00206086
-0.56927198 -0.43374854 -0.11804539
-0.44240183 0.01612097 -0.23861606
-0.55093795 -0.10030977 -0.36087999
-0.56782711 -0.28759888 -0.23784439
-0.27594239 0.20919447 -0.06328528
-0.62854183 -0.44410411 -0.22950651
-0.54459608 -0.13599046 -0.31806055
-0.09563907 0.56910294 0.05655150
-0.19252700 0.33518741 0.18710949
-0.08121078 0.61781359 -0.01164562
-0.18523502 -0.54378998 0.00000188
-0.31686911 0.12215089 -0.07316078
-0.39649153 0.14990602 -0.25788915
-0.04152455 0.49208939 0.00000546
-0.08736541 0.34420922 0.00000602
-0.54070115 -0.50538403 0.23337373
-0.27811137 0.14561656 -0.01429191
-0.51392949 -0.23836812 -0.16991964
-0.33840221 -0.01698130 0.17908297
-0.45988896 -0.57016045 0.00000390
-0.61386824 -0.68202060 0.18136407
-0.24065004 0.21901150 0.16339770
-0.09898388 -0.42730570 0.00000145
-0.34565321 -0.03448877 0.20700729
-0.54853159 -0.11936874 -0.33999699
-0.19462575 0.34316775 -0.01093629
-0.13242269 -0.65891033 0.00000126
-0.48614016 -0.37365371 0.01477516
-0.34983990 -0.04459705 0.21769959
-0.35094348 0.12782799 -0.14700805
-0.25747311 -0.06255662 0.00000333
-0.06573794 0.44013527 0.00000546
-0.11448047 -0.71680707 0.00000102
-0.24829306 0.22052026 -0.01674213
-0.21197756 0.14795592 0.00000522
-0.45451555 -0.17400849 -0.10351596
-0.15695634 0.42106432 0.15104394
-0.48845223 -0.17258129 -0.17351390
-0.43846172 -0.18142025 -0.06474621
-0.13296168 -0.69390398 0.00000120
-0.18419337 -0.06487390 0.00000277
-0.25281605 -0.04693156 0.00000332
-0.29060465 0.09840226 0.28493449
-0.43838421 0.04868543 -0.25781754
-0.18954355 0.40894884 -0.05587377
-0.52683675 -0.54534626 0.00000445
-0.02816230 -0.70865315 0.00000038
-0.33685195 0.06657161 -0.06699888
-0.44660515 -0.17834486 -0.08383784
-0.33997896 -0.64196420 0.00000286
-0.15723717 0.45574623 -0.02967711
-0.39877078 -0.47931144 0.00000361
-0.23891999 0.22318856 0.15834793
-0.54902422 -0.60763997 0.00000450
-0.22403437 0.01028575 0.00000648
-0.05180728 -0.59146488 0.00000078
-0.47994784 -0.30799353 -0.04256150
-0.22825111 0.43631363 -0.15732665
-0.59365141 -0.60988086 -0.01956356
-0.20242837 0.31129706 0.01995725
-0.42266834 -0.58623201 0.00000359
-0.06978445 0.51459223 0.00000453
-0.63872755 -0.72942394 -0.01056038
-0.01712526 -0.37039000 0.00000093
-0.27735168 -0.66647148 0.00000234
-0.24096169 -0.61517632 0.00000216
-0.70627189 -0.73685330 -0.14125372
-0.03970117 -0.20773041 0.00000141
-0.47175258 -0.26498607 -0.06206253
-0.01282362 -0.22005717 0.00000118
-0.35129446 -0.40710664 0.00000339
-0.18946667 -0.79214597 0.00000144
-0.59341538 -0.49165764 -0.11836221
-0.52986819 -0.71617937 0.00000415
-0.41952300 0.08462192 -0.24975803
-0.15554720 0.34177974 0.00000440
-0.42899340 -0.23569086 0.06580430
-0.60965985 -0.37644696 -0.24804184
-0.36315757 -0.07676131 0.38006914
-0.31962344 0.06962285 -0.03463341
-0.05347175 -0.09988269 0.00000172
-0.42783096 0.05440185 -0.24122314
-0.04770330 -0.58087850 0.00000077
-0.28123581 -0.69759566 0.00000231
-0.23721083 0.22731104 0.20503655
-0.11354754 0.27163196 0.00000620
-0.15378833 0.52443922 -0.08037126
-0.45718384 -0.26077408 -0.03606450
-0.52639502 -0.38296661 -0.07376513
-0.38203138 -0.22980057 0.00000395
-0.26523101 -0.39575538 0.00000276
-0.02795766 0.27760845 0.00000820
-0.42345679 -0.32385126 0.00000409
-0.28159097 -0.65375310 0.00000240
-0.04639569 0.66913414 0.00000335
-0.14819323 -0.76834345 0.00000118
-0.31964716 0.02828656 0.30718756
-0.21843582 0.38782236 -0.09670649
-0.12333121 -0.65817559 0.00000120
-0.62511361 -0.38136652 -0.27523997
-0.25425899 -0.28817487 0.00000288
-0.50422323 -0.29275680 -0.10456964
-0.00396001 0.47946519 0.00000651
-0.45470265 -0.29460561 -0.00262463
-0.00097239 -0.49304599 0.00000058
-0.52761352 -0.66886824 0.00000423
-0.19566295 0.32761499 0.20776506
-0.14555107 -0.13204665 0.00000235
-0.31792939 0.03243219 0.32427785
-0.27352124 0.13965008 0.21762478
-0.12819463 -0.60870218 0.00000133
-0.07978859 -0.77592200 0.00000065
-0.69462758 -0.74018729 -0.11484764
-0.15284511 -0.35294446 0.00000199
-0.57638854 -0.36405161 -0.19100024
-0.11292640 0.52736604 0.08327590
-0.61113226 -0.33962893 -0.28194466
-0.54131317 -0.27685818 -0.19311246
-0.17832300 0.36949217 0.01529682
-0.15243351 0.43198568 0.12058104
-0.58420247 -0.18767731 -0.35495055
-0.36002859 -0.06919207 0.00949731
-0.10856913 0.10511973 0.00000820
-0.24063092 0.29735321 -0.06573024
-0.39536545 -0.15450773 0.11915970
-0.36090091 0.17223021 -0.20448251
-0.54727727 -0.48715633 -0.02860691
-0.40935782 -0.18829997 0.39152545
-0.49922720 -0.04395345 -0.30337107
-0.29265535 0.33568171 -0.20338763
-0.44120497 -0.75961751 0.00000340
-0.52478123 -0.46694627 0.11876451
-0.43954968 -0.26117864 0.12647645
-0.24940109 0.07684039 0.00000511
-0.22871317 0.24782898 0.16698173
-0.06140175 0.65175748 0.06376456
-0.09028281 0.16116247 0.00000801
-0.35938996 -0.06765411 0.10046740
-0.67109996 -0.77665186 -0.03652931
-0.27023536 0.14759973 0.00618420
-0.28803664 0.10460376 0.26152876
-0.16884848 -0.02738112 0.00000272
-0.20349726 -0.30856049 0.00000246
-0.42068371 0.04441291 -0.21834500
-0.18076275 0.18703941 0.00000553
-0.48992020 -0.38278520 0.14783439
-0.03590889 0.08493596 0.00001018
-0.25274923 0.09043750 0.00000488
-0.35302171 -0.05227912 0.08625027
-0.15791412 0.44178870 -0.01932845
-0.14425436 0.26781073 0.00000550
-0.56573319 -0.40711254 -0.13323858
-0.49909756 -0.23012859 -0.14677007
-0.28375763 0.32711929 -0.17815863
-0.40488875 -0.17750257 0.20057653
-0.47496963 -0.34669742 0.29509357
-0.42577881 -0.22792825 0.02171041
-0.44797832 0.02137836 -0.25433642
-0.23389509 -0.33693358 0.00000263
-0.31818298 -0.65234441 0.00000268
-0.32323873 0.01963964 0.01003463
-0.11340108 0.34470025 0.00000538
-0.25482550 -0.17729275 0.00000309
-0.25459528 0.18535277 0.06840506
-0.45537290 -0.11215362 -0.15719627
-0.54690492 -0.29476985 -0.18940736
-0.36233830 -0.07476991 0.04914332
-0.16121572 -0.65772885 0.00000148
-0.33610302 -0.01144280 0.33123085
-0.48254281 -0.36497039 0.04949652
-0.25854480 -0.76297432 0.00000202
-0.47503173 -0.10939482 -0.19936711
-0.05311669 -0.73558921 0.00000052
-0.58637249 -0.19765861 -0.35096803
-0.35024604 0.07822106 -0.10393587
-0.50144702 -0.17637259 -0.19667438
-0.66480905 -0.75138587 -0.04499276
-0.36319947 -0.07684906 0.05208932
-0.23110831 -0.31330433 0.00000266
-0.36031982 -0.32443365 0.00000361
-0.16064805 -0.63375449 0.00000152
-0.36068362 -0.06688463 -0.00324813
-0.41348237 -0.70450050 0.00000330
-0.37913668 -0.34853953 0.00000371
-0.50969166 -0.06148832 -0.30986077
-0.63528836 -0.45623714 -0.23299497
-0.03586236 0.36178339 0.00000706
-0.18991667 0.41476461 -0.06151412
-0.32920358 -0.14779601 0.00000371
-0.28773618 -0.78566200 0.00000220
-0.21047781 -0.51746666 0.00000212
-0.03613545 -0.03842958 0.00000170
-0.39808992 -0.16109371 0.31953457
-0.53135115 -0.15150435 -0.27818155
-0.36667401 -0.78090465 0.00000280
-0.66925222 -0.74672776 -0.05791192
-0.52089024 -0.45755243 0.11632831
-0.38342318 -0.12568612 0.37923583
-0.09085336 -0.55048048 0.00000115
-0.34768268 0.19125471 -0.19366096
-0.28751901 0.10585843 0.19902007
-0.10367353 -0.33311990 0.00000166
-0.65672910 -0.68660533 -0.08301132
-0.01718312 -0.66095936 0.00000039
-0.15727422 0.42029539 0.16992316
-0.54479891 -0.14920253 -0.30737710
-0.40955678 -0.12156938 -0.05640693
-0.31700814 0.03466398 0.22792602
-0.39742616 -0.64450634 0.00000329
-0.13645554 0.47056872 0.00449381
-0.14797838 0.11127795 0.00000718
-0.17068484 0.29808944 0.00000453
-0.17166023 -0.43940690 0.00000197
-0.52538919 -0.06965150 -0.33482960
-0.05019401 -0.78045452 0.00000042
-0.22827508 0.39474502 -0.12246729
-0.30473396 0.06430834 0.07494930
-0.42495728 0.00498709 -0.19390039
-0.53885055 -0.11563171 -0.32350889
-0.37051111 0.20825049 -0.25421420
-0.32206547 0.05470870 -0.02705980
-0.09974653 -0.16354017 0.00000195
-0.44847932 -0.70588768 0.00000356
-0.34297967 0.14788212 -0.14770360
-0.42971474 -0.10636747 -0.11003864
-0.01884988 0.49511650 0.00000597
-0.56773400 -0.57064545 0.22292262
-0.18319604 -0.61816931 0.00000172
-0.53409576 -0.72778279 0.00000416
-0.10484487 -0.75343895 0.00000088
-0.05160642 0.69717664 -0.01827443
-0.08931299 -0.17174248 0.00000185
-0.01847488 0.63611132 0.00000440
-0.37858605 -0.11400780 0.37144312
-0.58844280 -0.62063533 0.02105655
-0.28350970 -0.23461343 0.00000320
-0.47528559 -0.22867242 -0.09971912
-0.34474647 0.19186749 -0.18822289
-0.29276514 0.16285723 -0.05847804
-0.38665766 0.00321793 -0.11476899
-0.33479288 -0.17381208 0.00000370
-0.39653853 -0.15734571 0.25786990
-0.30997413 -0.68908870 0.00000255
-0.23125905 -0.50861841 0.00000229
-0.52058911 -0.66909039 0.00000417
-0.00435049 -0.59374404 0.00000036
-0.34751761 0.08550985 -0.10452533
-0.16280277 0.24118860 0.00000536
-0.26503688 -0.08810572 0.00000333
-0.19314998 0.05906715 0.00000667
-0.60668969 -0.66469043 0.12941679
-0.34253922 -0.02697931 0.31056875
-0.17376898 -0.02376017 0.00000277
-0.61352980 -0.61331898 -0.05697566
-0.39498770 0.08989100 -0.20444177
-0.50509679 -0.41942725 0.20359227
-0.54006428 -0.18754838 -0.26557785
-0.04968137 0.68005538 0.02918794
-0.11127128 0.36633474 0.00000519
-0.05690227 -0.71810246 0.00000058
-0.03379978 0.30589163 0.00000774
-0.48181385 -0.36321044 0.04787550
-0.08870457 -0.47599387 0.00000128
-0.11474126 -0.02792345 0.00000231
-0.36685532 -0.34563059 0.00000362
-0.04132898 0.05494507 0.00001038
-0.65175968 -0.75136918 -0.01855186
-0.58808446 -0.73697919 0.00000455
-0.08072266 -0.63650972 0.00000092
-0.25837481 -0.11124091 0.00000324
-0.61370289 -0.48309913 -0.16667780
-0.38982692 -0.14114179 0.24394606
-0.44603038 -0.26365474 -0.01103420
-0.42545438 -0.38014475 0.00000400
-0.36277202 0.03969957 -0.09698109
-0.15214378 -0.75232691 0.00000124
-0.12675036 0.04407281 0.00000844
-0.12365013 0.33035752 0.00000530
-0.03081548 -0.42147759 0.00000094
-0.35230103 -0.00005743 -0.04236635
-0.12556592 0.36554444 0.00000486
-0.24200536 -0.61289436 0.00000218
-0.49837211 -0.40319055 0.16070507
-0.12092907 -0.17187440 0.00000209
-0.04579661 -0.03849465 0.00000177
-0.29017803 0.24941036 -0.12591752
-0.14449766 -0.38615030 0.00000187
-0.02580791 -0.45376536 0.00000084
-0.55000722 -0.19858603 -0.27646634
-0.05372329 0.35500407 0.00000671
-0.56800711 -0.57130134 0.07553863
-0.40018028 -0.13669980 -0.02469242
-0.45428625 -0.05236892 -0.20519713
-0.40438044 -0.17628136 0.34069914
-0.13763627 0.46771723 0.01660826
-0.42685106 -0.12707630 -0.08684305
-0.44386005 0.09454117 -0.30742705
-0.26380506 0.18404844 -0.01756219
-0.05610605 0.40479732 0.00000609
-0.22813407 0.12770794 0.00000506
-0.67098260 -0.56191224 -0.21661775
-0.28691313 0.13091955 -0.01979391
-0.32366902 0.28618929 -0.22470038
-0.48865825 -0.37974328 0.25851384
-0.21822895 0.27314094 0.15264980
-0.31396818 0.04200523 0.19986904
-0.49126917 -0.56077892 0.00000415
-0.58120245 -0.48589677 -0.09844070
-0.20813584 -0.12366696 0.00000284
-0.23642999 -0.27600005 0.00000277
-0.32321700 0.20300575 -0.15392925
-0.64170069 -0.74921238 0.15202086
-0.33820084 -0.23751397 0.00000361
-0.14977472 -0.44647431 0.00000179
-0.08383421 -0.37924731 0.00000142
-0.61895537 -0.42212030 -0.22853278
-0.38435373 -0.12791999 0.04788459
-0.20361727 0.30841422 0.17722753
-0.26046422 0.24787249 -0.06438650
-0.20598328 0.30271226 0.05239906
-0.01276636 0.40074646 0.00000718
-0.30330202 -0.13879208 0.00000353
-0.71778554 -0.82084012 -0.09406777
-0.40484536 -0.15153672 -0.02169067
-0.38247201 -0.12338820 0.35874805
-0.69750524 -0.80611300 -0.06532065
-0.24056442 0.01458428 0.00000603
-0.07407658 -0.77384877 0.00000061
-0.45487827 -0.29819399 0.33216223
-0.49199635 -0.38779780 0.15529701
-0.41195101 0.01257757 -0.17390670
-0.37473688 -0.35284519 0.00000367
-0.03359366 0.23904020 0.00000850
-0.02282164 -0.67652136 0.00000040
-0.09183628 -0.30970064 0.00000161
-0.39899421 0.16128512 -0.27251866
-0.17689285 0.42354113 -0.04248079
-0.43102476 -0.22745731 -0.01101003
-0.41169477 -0.19393167 0.15038128
-0.35656086 -0.64235336 0.00000299
-0.52991956 -0.71979970 0.00000415
-0.04279160 0.22025849 0.00000849
-0.27195054 0.25225279 -0.09135148
-0.30022547 -0.11362707 0.00000355
-0.67486328 -0.66389513 -0.13884541
-0.33747125 -0.01474479 0.31684235
-0.34465533 -0.03208486 0.27138510
-0.21537314 -0.30072787 0.00000256
-0.17919716 0.11729199 0.00000635
-0.42388630 -0.22337133 0.30477083
-0.35243177 -0.05085485 0.22470406
-0.14389326 0.45260724 0.07283348
-0.58751673 -0.44303477 -0.14723469
-0.45632002 -0.05388047 -0.20805089
-0.17381412 0.42175820 -0.03474198
-0.31991726 0.02765303 0.07539927
-0.44195923 -0.34685522 0.00000418
-0.06275614 0.20082535 0.00000823
-0.12876529 -0.01524043 0.00000244
-0.17857474 0.04497896 0.00000718
-0.13499817 -0.75121093 0.00000111
-0.26455942 0.18878002 -0.02306493
-0.05818496 -0.32260472 0.00000133
-0.12751535 0.15602972 0.00000717
-0.49302691 -0.39028129 0.04824101
-0.60822898 -0.58752292 -0.06789142
-0.03293799 -0.78854376 0.00000027
-0.12547104 -0.04392776 0.00000236
-0.01504630 -0.10129121 0.00000142
-0.27760622 -0.10104779 0.00000340
-0.61776483 -0.35208577 -0.28493026
-0.32164085 -0.25433534 0.00000345
-0.27156684 0.33688724 -0.16164671
-0.28720489 -0.19856718 0.00000329
-0.13725545 0.00239550 0.00000866
-0.40692133 0.04293613 -0.18920404
-0.52892566 -0.72812390 0.00000413
-0.60734445 -0.41839802 -0.20811976
-0.00998834 0.56826293 0.00000537
-0.69363433 -0.66676259 -0.17449191
-0.35419208 -0.05510328 0.20891958
-0.55675370 -0.16177537 -0.32105494
-0.46961343 -0.73785621 0.00000366
-0.38630986 0.18712381 -0.26850182
-0.51164806 -0.19451667 -0.20211847
-0.65561527 -0.66189039 -0.10150757
-0.26202163 0.16740936 0.25365129
-0.28616431 -0.19393155 0.00000330
-0.27927274 -0.60509944 0.00000247
-0.65887326 -0.64740318 -0.12027796
-0.21229346 0.41399089 -0.10622938
-0.20340475 0.30892825 0.16525143
-0.21451727 0.28211352 0.00400394
-0.28887743 0.10258666 0.10263640
-0.02164936 -0.03986533 0.00000159
-0.28213716 0.11885076 0.20448865
-0.14727852 -0.62270588 0.00000144
-0.02458393 -0.18105116 0.00000135
-0.04028464 0.54967266 0.00000484
-0.27401084 0.13847606 0.11870634
-0.35084620 -0.25366959 0.00000367
-0.52531803 -0.43011764 -0.03198703
-0.43417633 -0.69318646 0.00000348
-0.16039722 -0.20526715 0.00000233
-0.09331334 -0.25796673 0.00000172
-0.12484015 0.08282673 0.00000805
-0.27450931 -0.30940208 0.00000299
-0.67980248 -0.62449270 -0.18194661
-0.65655875 -0.70984566 -0.06315010
-0.55552888 -0.37356490 -0.14072298
-0.49833521 -0.04759603 -0.29850382
-0.39850023 0.16655171 -0.27593991
-0.47587714 -0.59638566 0.00000397
-0.28993398 0.28172559 -0.15256000
-0.52022821 -0.07581925 -0.31918705
-0.12518854 0.26555672 0.00000599
-0.28163683 0.12237572 -0.00192230
-0.15113463 -0.09005496 0.00000247
-0.29435176 0.12953015 -0.03370763
-0.21430154 -0.74123365 0.00000173
-0.29092005 -0.74460715 0.00000230
-0.41535929 -0.74046385 0.00000325
-0.45525241 -0.56411439 0.00000388
-0.35512865 -0.05736458 0.21173027
-0.52015162 -0.32409844 -0.11054214
-0.62750578 -0.53283936 -0.15289119
-0.17358968 0.38091373 0.08485557
-0.41736865 -0.13212878 -0.06337671
-0.52042347 -0.33465859 -0.10222552
-0.31142920 0.26965141 -0.18599828
-0.25659728 -0.50159830 0.00000250
-0.16576198 -0.70196289 0.00000143
-0.37644967 -0.10884361 0.18402535
-0.10203932 0.09609302 0.00000846
-0.08372410 0.60965902 -0.00989302
-0.52799422 -0.05054737 -0.35615385
-0.30736575 -0.62163615 0.00000265
-0.00048666 0.68012893 0.00000434
-0.41000411 -0.18985149 0.18453045
-0.39624733 -0.08986276 -0.05605028
-0.53033495 -0.30598482 -0.14639747
-0.51414645 -0.68397242 0.00000410
-0.32285663 0.02054969 0.16476803
-0.19311123 0.33379111 0.01022071
-0.59488285 -0.40464395 -0.19440632
-0.52798051 -0.38576874 -0.07462632
-0.00024527 0.39570284 0.00000754
-0.19035625 0.38203037 -0.03491617
-0.14694144 0.34874105 0.00000453
-0.15737453 0.42565796 -0.00468846
-0.31065777 0.04998969 0.29330778
-0.35846969 -0.53062451 0.00000321
-0.41566694 0.07455580 -0.23348735
-0.20487398 0.30539438 0.00178381
-0.28263989 0.11763792 0.19402623
-0.57989848 -0.32344696 -0.23221341
-0.20524801 0.40580684 -0.08507331
-0.41023022 -0.36754167 0.00000391
-0.15753298 0.25463021 0.00000533
-0.05295186 0.59552175 0.00000402
-0.47372040 -0.34368104 0.28365907
-0.20522188 -0.03051273 0.00000299
-0.22644076 -0.68261546 0.00000193
-0.15340883 -0.57582694 0.00000158
-0.40004307 -0.62255740 0.00000335
-0.41807348 -0.14896962 -0.05066357
-0.38303825 0.00940909 -0.11263035
-0.42148632 -0.21757486 0.24891987
-0.37549090 -0.10653344 0.34514222
-0.00189360 0.10961515 0.00001072
-0.12715779 0.49301231 0.04045233
-0.14838745 -0.02136746 0.00000258
-0.40188816 -0.69876093 0.00000322
-0.30076495 -0.77919161 0.00000231
-0.37242565 -0.09912378 0.06762274
-0.24665029 -0.74084145 0.00000197
-0.44475108 -0.20432751 -0.05826036
-0.44516766 0.02014541 -0.24760287
-0.53007513 -0.47972211 0.00503873
-0.40410221 -0.07622153 -0.08342950
-0.45996922 -0.31047118 0.01400304
-0.14238970 0.38543624 0.00000423
-0.12674093 0.57743406 -0.07004066
-0.20568229 0.08592302 0.00000607
-0.54910541 -0.77278328 0.00000419
-0.40708032 -0.31914502 0.00000397
-0.35230064 -0.49013939 0.00000324
-0.18939528 -0.26899162 0.00000242
-0.52396631 -0.41369423 -0.04303817
-0.13267440 -0.70477730 0.00000118
