ply
format ascii 1.0
element vertex 1370
property float x
property float y
property float z
end_header
-0.04173717 0.01115226 -0.00000051
0.10244624 0.38484851 0.04700364
-0.11203958 -0.55938154 -0.00000015
0.49708319 -0.70482022 -0.00000006
-0.47572711 -0.56448090 -0.00000015
0.76764619 -0.19446892 -0.00000151
-0.29214904 -0.25428998 -0.00000034
-0.50836301 -0.43383944 -0.00000023
-0.11640023 -0.14575717 -0.00000041
-0.29579556 0.76199192 -0.00000063
-0.50302082 0.01100973 -0.00000032
0.72886336 -0.39939043 -0.00000099
0.01382048 -0.22384460 -0.00000036
-0.07432089 -0.47188029 -0.00000021
-0.52196980 0.50169218 -0.00000035
-0.71692806 -0.51683533 0.00000000
-0.71975124 -0.42970899 -0.00000001
-0.37950248 -0.57186526 -0.00000014
0.26979145 -0.53707188 -0.00000016
-0.64136469 -0.64727741 -0.00000005
-0.79029155 -0.49399331 0.00000000
-0.31123859 -0.64328855 -0.00000010
0.09632688 -0.29051676 -0.00000032
0.76928627 -0.42208886 -0.00000094
-0.64175731 -0.53209406 -0.00000007
0.29796657 -0.48359475 -0.00000020
0.05294604 -0.63461059 -0.00000010
0.43306652 -0.16270886 -0.00000051
-0.45034659 -0.07800615 -0.00000036
0.36432317 -0.66598606 -0.00000008
-0.32159880 0.38782406 -0.00000058
0.08377598 -0.55058640 -0.00000016
-0.39229506 -0.68282473 -0.00000007
0.32550764 -0.63999361 -0.00000010
-0.23916902 0.00688750 -0.00000050
0.39665577 -0.09975917 -0.00000051
-0.15007547 0.52730745 -0.00000079
0.34068081 0.08204558 0.05670969
0.01286588 0.17296147 0.09231867
0.20437118 -0.46809381 -0.00000021
0.37055081 -0.64642966 -0.00000010
0.14237221 -0.09747548 -0.00000044
0.29774296 0.48435655 0.00268926
-0.22071671 0.13647078 -0.00000059
-0.17163301 0.23656704 -0.00000065
-0.71356940 0.23582932 -0.00000011
-0.38302863 0.18863165 -0.00000048
-0.00073984 -0.09977821 -0.00000044
0.52219677 0.05164759 0.03399361
-0.35409611 0.14586924 -0.00000050
-0.50548726 -0.25710490 -0.00000027
0.48117539 -0.69946390 -0.00000006
-0.04611174 0.19494770 -0.00000062
0.46896735 -0.64814627 -0.00000009
-0.41593230 -0.73813617 -0.00000004
-0.13330427 -0.79977244 -0.00000000
-0.37857610 -0.53293681 -0.00000017
-0.23976932 0.10609233 -0.00000057
-0.76848924 0.49237466 -0.00000004
-0.31663394 0.36974832 -0.00000058
0.78863293 -0.18130992 -0.00000155
0.12292763 -0.66330653 -0.00000009
0.45229775 -0.53465813 -0.00000017
-0.17379904 -0.57315284 -0.00000014
-0.21010469 0.32826689 -0.00000069
0.23017757 0.27266350 0.04466709
0.33250386 -0.72997242 -0.00000004
-0.75942564 0.34523436 -0.00000005
0.07400263 0.15231542 0.08623245
-0.34895357 0.59984863 -0.00000056
0.33447009 -0.48590553 -0.00000020
0.64267445 -0.11750265 -0.00000127
-0.15003099 0.50762153 -0.00000079
-0.45066565 0.53396738 -0.00000044
0.38571441 -0.34235999 -0.00000029
0.18275048 0.58178753 0.00532922
0.01578245 0.32001135 0.06977637
-0.13676666 -0.78240085 -0.00000001
0.09021231 -0.77805114 -0.00000001
0.05036325 -0.03686938 -0.00000048
-0.48572728 0.79647821 -0.00000039
-0.24702477 -0.12117458 -0.00000042
0.50731361 -0.59265465 -0.00000013
0.75465006 -0.78049004 -0.00000005
-0.29671821 0.51816672 -0.00000063
-0.15870675 -0.35177839 -0.00000028
-0.66172963 0.77598232 -0.00000017
0.57105392 0.09897379 0.01953540
-0.51716435 -0.76833361 -0.00000002
-0.27157956 -0.03498907 -0.00000048
-0.69588071 -0.62064886 0.00000000
0.13539448 -0.06942508 -0.00000046
0.79752898 -0.34243056 -0.00000114
0.37214330 0.24460238 0.02754493
0.59540492 -0.75291049 -0.00000003
-0.01313781 -0.18879054 -0.00000038
0.11702029 -0.68771464 -0.00000007
0.31082737 -0.66039032 -0.00000009
-0.69578505 0.09759811 -0.00000013
0.33634713 0.08064673 0.05757140
0.43511114 0.01084780 -0.00000085
-0.33266351 -0.40122399 -0.00000025
-0.79196876 0.63571674 -0.00000001
-0.62708652 0.53508711 -0.00000022
-0.06531987 0.66594559 -0.00000091
-0.75987858 0.15506814 -0.00000005
-0.58750975 0.77704555 -0.00000027
0.27274984 0.15274841 0.05629310
-0.33331740 -0.09278576 -0.00000044
-0.51184469 -0.05170128 -0.00000030
0.54554683 -0.75316685 -0.00000003
0.71242189 -0.14864409 -0.00000143
-0.39796263 0.65679282 -0.00000050
-0.32878634 0.38167214 -0.00000057
0.34484613 0.09793971 0.05369437
0.17564876 -0.37554166 -0.00000027
-0.27862889 -0.50389832 -0.00000019
0.18340698 -0.06385133 -0.00000046
0.02408509 0.31642479 -0.00000070
0.18535724 0.59148514 0.00347964
-0.24133922 -0.48981354 -0.00000019
-0.08070925 0.33796248 -0.00000071
0.33494318 -0.17259598 -0.00000039
-0.22311158 -0.29230627 -0.00000032
0.12983415 0.26468977 0.06094863
0.12473014 0.06216052 0.09215915
-0.16354010 0.12858932 -0.00000058
0.33393699 -0.01273614 -0.00000049
0.00770590 -0.03940798 -0.00000048
-0.49743834 -0.73159683 -0.00000004
-0.42537922 0.51136047 -0.00000047
-0.49312922 0.15448260 -0.00000036
-0.23293349 -0.60914761 -0.00000012
-0.16594283 0.52535731 -0.00000077
-0.58499163 0.00121823 -0.00000023
-0.03547615 0.29341638 -0.00000068
0.04768066 0.44489163 0.04621019
-0.73719466 0.50736409 -0.00000008
-0.48990050 -0.19843228 -0.00000029
0.16686033 0.51198196 0.01821091
-0.79339713 0.35296744 -0.00000001
-0.50786418 -0.35563537 -0.00000025
-0.43874910 -0.45346716 -0.00000022
-0.45116377 0.06636038 -0.00000038
-0.05628839 0.79762405 -0.00000093
-0.51216215 -0.52956134 -0.00000017
-0.55954826 0.72795206 -0.00000030
-0.56933135 0.31388378 -0.00000029
0.07215876 -0.61767143 -0.00000011
-0.63213575 0.01933887 -0.00000018
-0.08172092 -0.29218432 -0.00000032
-0.53748649 -0.08219125 -0.00000027
-0.28101209 -0.18002436 -0.00000039
0.37008479 -0.25909680 -0.00000034
-0.57154804 -0.47666562 -0.00000016
0.23425762 -0.52620727 -0.00000017
-0.09512616 0.67478263 -0.00000088
0.55353707 0.01551524 -0.00000124
0.70057040 -0.60844272 -0.00000048
-0.78228444 -0.01204617 -0.00000002
-0.57431144 -0.33861232 -0.00000018
-0.74988776 0.15773666 -0.00000006
0.26346952 0.26575208 0.04070157
-0.31217742 -0.72522414 -0.00000005
-0.09649296 -0.49190769 -0.00000019
-0.08835880 0.50320756 -0.00000081
-0.09599583 0.52455497 -0.00000083
0.65860522 -0.15526429 -0.00000124
-0.34858996 -0.15651925 -0.00000040
0.35570344 -0.00363334 -0.00000057
-0.33459520 -0.63519889 -0.00000010
-0.76498532 -0.33030704 0.00000000
0.06963970 0.55555028 0.02627574
-0.71386105 -0.31993118 -0.00000003
0.36718357 0.09668213 0.05052565
-0.39318338 -0.20195770 -0.00000037
-0.57856095 0.17123732 -0.00000027
-0.77136528 0.27162668 -0.00000004
-0.59475815 -0.47166052 -0.00000013
0.62452304 -0.17498855 -0.00000110
0.73645228 -0.62233263 -0.00000044
0.05087329 0.68706083 0.00932844
0.39977682 0.06646777 0.05016802
-0.35429245 -0.31849995 -0.00000030
0.23811685 0.18808895 0.05618665
-0.07141454 0.15853171 -0.00000060
-0.23376580 -0.32850340 -0.00000029
0.72362548 0.06954592 0.00102442
-0.56514883 0.42676148 -0.00000029
-0.43187815 -0.43382946 -0.00000023
-0.25961697 -0.31773496 -0.00000030
-0.43582609 0.08382546 -0.00000040
0.77040851 -0.16453952 -0.00000158
-0.68024302 -0.49810806 -0.00000004
-0.11318894 -0.52821076 -0.00000017
-0.77935028 -0.13299313 0.00000000
-0.71778971 0.39450237 -0.00000010
0.19636653 -0.75542784 -0.00000003
-0.40443537 -0.08258407 -0.00000041
0.46115005 -0.41210479 -0.00000024
-0.27978325 0.45490810 -0.00000064
0.25772747 -0.28303447 -0.00000032
0.47088319 0.23943651 0.01347889
-0.35178620 -0.43237737 -0.00000023
-0.27969897 -0.31726277 -0.00000030
-0.35629514 -0.00983381 -0.00000047
0.30608118 -0.63365006 -0.00000010
-0.19133221 -0.31572482 -0.00000030
0.69153953 -0.22568402 -0.00000121
-0.51125664 0.33086523 -0.00000036
-0.51358056 -0.60749578 -0.00000012
-0.68393624 -0.21742666 -0.00000008
-0.32319823 0.36735120 -0.00000058
0.78968477 -0.26554021 -0.00000134
-0.07702155 0.67390752 -0.00000089
0.69435304 -0.31550935 -0.00000105
-0.42815825 0.26723963 -0.00000045
-0.76779240 -0.02942965 -0.00000003
0.12447016 0.63285959 0.00641283
0.52157801 -0.56961524 -0.00000014
-0.18425149 -0.48025256 -0.00000020
0.45785320 -0.16136903 -0.00000059
-0.45119420 0.47793153 -0.00000044
-0.64947337 0.46071708 -0.00000019
-0.35605964 0.55199051 -0.00000055
-0.49813825 -0.63871914 -0.00000010
-0.63298917 0.61479080 -0.00000021
0.13455819 0.22361410 0.06641286
-0.30629492 0.16429150 -0.00000056
-0.12466287 0.20310493 -0.00000063
-0.38959682 0.38774386 -0.00000051
0.40420219 -0.56561548 -0.00000015
-0.62895358 0.26535350 -0.00000021
0.44978794 -0.62189394 -0.00000011
0.06447955 -0.53333151 -0.00000017
-0.34117317 0.37579399 -0.00000056
-0.13464776 0.76238978 -0.00000083
0.51773423 -0.44428983 -0.00000023
0.67838460 -0.43485484 -0.00000076
-0.56189919 0.56163204 -0.00000030
-0.72114819 -0.27653071 -0.00000003
-0.49134243 -0.37416756 -0.00000026
0.08306667 0.34629488 0.05571186
-0.34994671 0.12764736 -0.00000050
0.72237086 -0.47396305 -0.00000082
0.20611802 -0.41586602 -0.00000024
-0.41172326 -0.72150409 -0.00000005
0.76198822 -0.52677429 -0.00000068
-0.54282862 0.41566885 -0.00000032
0.56987125 -0.15728217 -0.00000096
-0.76472574 0.11891387 -0.00000004
0.10895725 -0.00520345 -0.00000050
0.36893934 0.28330237 0.02220922
-0.40979728 0.00705573 -0.00000042
-0.72929490 -0.44097325 0.00000000
0.36298954 0.07855392 0.05388110
-0.37787095 -0.60247540 -0.00000012
-0.12468372 -0.45755526 -0.00000021
-0.28461173 -0.61624634 -0.00000011
0.76572448 -0.32950759 -0.00000118
-0.19290748 -0.22392106 -0.00000036
-0.02989247 0.64799452 -0.00000090
-0.13634795 0.15354900 -0.00000060
-0.29264617 -0.50984794 -0.00000018
0.17677747 0.19662675 0.06412338
0.14690329 0.29705623 0.05351773
0.02500385 -0.28607419 -0.00000032
0.13019443 0.38089085 0.04342763
-0.34912586 -0.46644291 -0.00000021
-0.38812804 -0.20226584 -0.00000037
0.48343983 -0.70301080 -0.00000006
-0.65506870 -0.44234893 -0.00000007
0.73046494 -0.39171451 -0.00000101
-0.68116516 0.66379374 -0.00000015
0.25856522 0.15452901 0.05815758
-0.49274084 0.21529356 -0.00000037
0.34839413 -0.43829405 -0.00000023
0.17598200 -0.78812647 -0.00000001
-0.22134180 -0.22150260 -0.00000036
-0.45465636 -0.10624116 -0.00000035
-0.39839447 -0.56832987 -0.00000014
-0.05870536 -0.57048810 -0.00000014
0.10510735 0.50376970 0.02872793
0.75868523 -0.49013203 -0.00000077
0.37840411 -0.53458053 -0.00000017
-0.15892448 0.10369628 -0.00000056
-0.24737193 0.49607810 -0.00000068
-0.53956872 -0.66036934 -0.00000009
-0.08303814 0.64767557 -0.00000088
-0.32974893 -0.35790727 -0.00000028
0.68700588 -0.14624728 -0.00000135
-0.67711192 -0.32668522 -0.00000007
-0.21456756 0.20010430 -0.00000063
-0.01397751 0.75430024 -0.00000097
-0.10821457 -0.04693338 -0.00000047
0.32522008 -0.79326117 -0.00000000
0.14702465 0.59479594 0.00874412
-0.17068936 -0.14947727 -0.00000041
-0.15846950 -0.44633332 -0.00000022
0.07860399 -0.61418271 -0.00000012
-0.03893920 0.23936348 -0.00000065
-0.09057486 0.60465807 -0.00000087
0.36749491 0.02953590 0.06057218
-0.66026372 0.48770836 -0.00000017
-0.64412576 -0.22554208 -0.00000013
-0.26584467 -0.52903551 -0.00000017
0.00014231 0.19278847 -0.00000062
0.13240230 -0.43809617 -0.00000023
0.60872567 -0.37346491 -0.00000066
-0.50454468 -0.17102650 -0.00000028
0.36636797 -0.77245998 -0.00000002
0.78662467 -0.35339049 -0.00000112
0.27084830 -0.78708482 -0.00000001
0.29391697 0.39834026 0.01619423
-0.59737217 -0.43668082 -0.00000014
0.00372919 -0.35223082 -0.00000028
0.51579767 -0.75944656 -0.00000003
0.56962931 -0.31967235 -0.00000064
0.04232645 0.06316296 0.10439480
0.49862733 -0.65779591 -0.00000009
-0.37883517 0.05333299 -0.00000046
0.69032723 -0.19669019 -0.00000127
-0.58028418 -0.26313302 -0.00000019
-0.51042128 0.73091155 -0.00000036
0.60138714 -0.18129607 -0.00000101
-0.45076558 0.13203575 -0.00000040
-0.52998710 -0.00739205 -0.00000029
0.16895953 0.61305636 0.00270198
-0.76626813 0.57398957 -0.00000004
-0.74562573 0.31156409 -0.00000007
-0.62515998 0.68802553 -0.00000022
-0.73444253 0.52561617 -0.00000008
-0.38896346 -0.46281016 -0.00000021
-0.13505694 -0.13260815 -0.00000042
-0.60302001 -0.05316473 -0.00000020
-0.74175066 0.47904995 -0.00000007
-0.50536120 0.38624731 -0.00000037
-0.56801069 -0.29730111 -0.00000019
-0.04649858 0.30040351 -0.00000069
-0.32000411 0.67082757 -0.00000060
-0.58564878 0.49051884 -0.00000027
-0.57617068 0.14361583 -0.00000027
-0.63096899 0.09975845 -0.00000020
-0.41531780 -0.47038969 -0.00000021
0.42470625 0.34856367 0.00401635
0.20419794 0.21863335 0.05669379
-0.52780867 -0.58321249 -0.00000014
-0.02513264 0.40825117 -0.00000076
0.66784674 -0.23012419 -0.00000113
0.43264994 0.01348913 -0.00000085
0.14907044 0.14172734 0.07654035
-0.37841552 0.67529601 -0.00000053
0.19817366 -0.36739036 -0.00000027
0.53262055 -0.77604425 -0.00000001
0.44933954 0.07193026 0.04189664
0.04505284 0.73821729 0.00251361
0.52982122 0.11665866 0.02307513
-0.74215841 -0.41819978 0.00000000
-0.71781564 -0.05130586 -0.00000008
-0.44521862 -0.50265253 -0.00000019
0.35577422 0.43037370 0.00208063
0.36575130 0.02006959 0.06225724
0.07671052 0.58833790 0.02028440
-0.26789978 -0.68400955 -0.00000007
-0.27066600 0.34606385 -0.00000063
-0.13325544 -0.41264543 -0.00000024
-0.20297457 -0.40670854 -0.00000025
0.01172921 0.05398255 0.11037392
0.79795140 -0.70215672 -0.00000024
-0.69871557 -0.25944117 -0.00000006
0.32789266 0.00050915 -0.00000050
0.03689552 0.16002776 -0.00000060
0.71673900 -0.77800155 -0.00000005
-0.34011886 0.24950649 -0.00000054
0.52582037 -0.64632547 -0.00000010
0.66720009 -0.13551667 -0.00000131
-0.27741772 0.65908462 -0.00000065
-0.09949438 -0.68569380 -0.00000007
-0.32381353 -0.66771370 -0.00000008
-0.04781689 -0.07872781 -0.00000045
0.54350305 0.14886793 0.01617682
0.12200612 0.33935699 0.05090163
-0.05094682 -0.76060313 -0.00000002
-0.58216274 -0.15238193 -0.00000020
0.34102464 0.27399978 0.02780370
0.17080694 -0.69241983 -0.00000007
-0.52576309 0.65826082 -0.00000034
-0.79036933 -0.42478889 0.00000000
-0.66142482 -0.49505055 -0.00000006
0.42102039 0.14956890 0.03448304
-0.57898605 0.53269100 -0.00000028
-0.17846166 -0.32916293 -0.00000029
0.05292248 0.04113744 -0.00000053
-0.71329403 -0.50633627 0.00000000
-0.75442743 -0.04792812 -0.00000004
-0.08939422 0.07156441 -0.00000054
0.78811067 -0.06612957 -0.00000183
-0.01201418 0.46718064 -0.00000079
0.47567627 0.04725548 0.04164678
0.23827448 -0.64254034 -0.00000010
-0.77688187 0.63479948 -0.00000003
-0.16883756 0.46080408 -0.00000076
-0.30945694 -0.77371836 -0.00000002
-0.69531024 -0.71610922 0.00000000
-0.21217315 0.25234562 -0.00000066
-0.63399160 -0.63124037 -0.00000006
-0.69937497 0.55456734 -0.00000013
0.70804793 -0.09571877 -0.00000152
-0.11558482 0.63460195 -0.00000085
0.55366492 -0.53268105 -0.00000017
-0.57451695 -0.43103155 -0.00000016
0.03387368 0.06824832 0.10490095
-0.02880260 0.44313544 -0.00000078
-0.04672559 -0.38080591 -0.00000026
-0.66328931 -0.45054638 -0.00000006
-0.09284635 0.76005775 -0.00000088
-0.47439232 0.46348462 -0.00000041
-0.16361903 0.32861713 -0.00000071
-0.37664193 -0.65350401 -0.00000009
-0.46358028 0.21002167 -0.00000040
-0.13484858 0.66322362 -0.00000083
-0.41383395 -0.37877578 -0.00000026
-0.26554838 -0.64933515 -0.00000009
0.47872254 -0.55925280 -0.00000015
-0.68784446 -0.40597352 -0.00000005
-0.44355789 0.48270664 -0.00000045
-0.24569549 -0.06901084 -0.00000046
-0.42615125 -0.67653418 -0.00000008
0.07890383 0.41327721 0.04626909
-0.39388084 -0.35611725 -0.00000028
0.24752086 -0.73475856 -0.00000004
0.71892053 -0.50843763 -0.00000073
0.51229078 0.24841149 0.00590540
-0.48512474 0.65886027 -0.00000039
0.34319398 0.33046359 0.01899005
0.30307528 -0.03231110 -0.00000048
0.02058754 -0.33479565 -0.00000029
-0.24486743 -0.06472829 -0.00000046
-0.57202011 0.03590779 -0.00000025
-0.54756314 -0.42211336 -0.00000019
0.01489424 0.40348476 -0.00000075
-0.00662789 -0.37310177 -0.00000027
-0.49035773 0.04853870 -0.00000034
0.37754786 0.12747613 0.04433878
0.41147417 -0.13435651 -0.00000049
-0.16290388 0.60643190 -0.00000079
0.25897396 0.08214637 0.06897638
-0.45413131 -0.76109964 -0.00000002
0.25144017 -0.57353610 -0.00000014
-0.12454686 -0.78883290 -0.00000001
-0.08222403 -0.24462666 -0.00000035
0.08334196 0.70849973 0.00122509
-0.32256490 0.79265279 -0.00000060
-0.02662741 0.36312896 -0.00000073
0.69489139 -0.79020536 -0.00000002
0.61399806 0.05058340 0.02035401
-0.32137477 -0.30741420 -0.00000031
0.24496058 0.41828915 0.02055466
-0.17146359 0.65479350 -0.00000079
-0.58020645 -0.37820885 -0.00000017
-0.68376946 0.22454122 -0.00000015
0.26113692 -0.16594465 -0.00000040
-0.55332339 -0.37880328 -0.00000019
0.03909034 0.11999594 0.09633834
0.03026258 -0.31264591 -0.00000030
-0.02820249 0.10684596 -0.00000057
0.10256373 0.04475009 -0.00000053
0.27066535 0.33181453 0.02968947
-0.69923371 0.75639331 -0.00000013
0.04255434 -0.64885163 -0.00000009
-0.15693052 0.09593733 -0.00000056
0.00149682 -0.42193863 -0.00000024
0.08026129 -0.06565016 -0.00000046
0.06961932 0.49296501 0.03568634
0.76140851 -0.79276836 -0.00000002
0.60639924 -0.00679476 -0.00000137
0.35605153 -0.39567876 -0.00000025
-0.75980967 -0.19497357 -0.00000001
-0.10591778 0.14414397 -0.00000059
0.65301943 -0.43286100 -0.00000069
-0.46152931 0.08713797 -0.00000038
0.67172277 -0.16590734 -0.00000127
0.14487964 -0.19376662 -0.00000038
-0.47737694 0.30354020 -0.00000040
0.58506942 -0.63738501 -0.00000010
0.06316526 -0.55714333 -0.00000015
0.17402034 -0.33646938 -0.00000029
-0.29629728 -0.58970231 -0.00000013
0.63185906 -0.49453294 -0.00000050
0.18870628 0.03718062 -0.00000052
0.07296005 0.63089448 0.01445122
0.17643401 -0.01854055 -0.00000049
-0.00871286 -0.76525766 -0.00000002
0.33650601 0.29386339 0.02549707
-0.32983884 -0.25784862 -0.00000034
-0.55898833 0.68520200 -0.00000030
-0.46497351 -0.50334150 -0.00000019
-0.47520429 0.65062702 -0.00000041
-0.51012039 -0.20800148 -0.00000027
0.35821393 0.31304455 0.01935066
0.10802237 0.09251699 0.09010749
0.65482491 -0.53469074 -0.00000049
0.73278666 -0.15200865 -0.00000149
-0.15071195 -0.39359900 -0.00000025
0.66091442 -0.32179055 -0.00000093
0.28572515 0.41190788 0.01538616
0.05882732 -0.24533498 -0.00000035
-0.72001767 0.06514437 -0.00000010
0.67275971 -0.26725644 -0.00000107
0.14529254 -0.16567989 -0.00000040
-0.56951630 -0.55702406 -0.00000014
-0.18977268 0.39249772 -0.00000072
-0.24582694 0.01798003 -0.00000051
-0.23272754 -0.28705537 -0.00000032
-0.38490352 -0.16531864 -0.00000040
-0.31900713 0.31939083 -0.00000057
0.43789732 -0.23039635 -0.00000039
-0.21783589 -0.52804548 -0.00000017
-0.29389432 -0.03245051 -0.00000048
-0.44335911 -0.03423368 -0.00000037
-0.22980633 0.57888246 -0.00000071
-0.34747198 0.30578288 -0.00000054
-0.42710552 -0.45358679 -0.00000022
-0.27113768 -0.73089290 -0.00000004
-0.17019176 -0.55456758 -0.00000015
0.05078652 -0.16490562 -0.00000040
-0.09096513 0.69477618 -0.00000088
-0.02868671 -0.44126305 -0.00000022
-0.23481998 0.19592769 -0.00000062
0.64084715 -0.61331761 -0.00000029
0.10718285 0.31344354 0.05702496
-0.61463886 -0.10852931 -0.00000018
-0.04687732 0.79159647 -0.00000094
0.78368390 -0.75929087 -0.00000010
-0.26891392 -0.54137146 -0.00000016
0.39100167 -0.67094064 -0.00000008
-0.10875949 0.12014758 -0.00000058
0.10274319 -0.66552991 -0.00000008
0.51287234 -0.42707658 -0.00000025
-0.36979643 0.47180670 -0.00000054
-0.28369787 0.79866827 -0.00000065
-0.74190158 -0.42533088 0.00000000
-0.08139919 -0.79768544 -0.00000000
-0.67763370 -0.37955952 -0.00000006
-0.16081150 0.39502254 -0.00000075
0.21717960 0.33697528 0.03695369
-0.26873663 -0.59386224 -0.00000013
0.16994105 0.60309643 0.00405161
-0.44182995 -0.54408747 -0.00000016
-0.03814778 -0.78974771 -0.00000001
-0.52577835 0.00735593 -0.00000029
-0.11287466 0.07606962 -0.00000055
-0.07949159 -0.15128662 -0.00000041
-0.66039830 0.79990977 -0.00000017
0.27918029 -0.15143308 -0.00000041
-0.50535262 0.02449909 -0.00000032
0.02609694 0.35110685 -0.00000072
-0.45067838 0.45701185 -0.00000044
0.67526066 -0.40236172 -0.00000082
-0.10827810 0.69432890 -0.00000086
-0.28257865 0.65804827 -0.00000065
-0.37180528 -0.57998580 -0.00000014
0.16566867 -0.16075604 -0.00000040
0.72398633 -0.62718743 -0.00000043
0.11371076 0.25892439 0.06423881
0.58513367 0.15742455 0.00863269
-0.26334545 -0.72921795 -0.00000004
-0.13140903 0.07695213 -0.00000055
0.46790609 0.31908217 0.00195417
-0.35186642 -0.41209421 -0.00000024
-0.45483387 -0.61362231 -0.00000012
0.38863239 -0.17041177 -0.00000039
-0.45426148 0.22851856 -0.00000041
0.39409882 -0.17162387 -0.00000039
-0.33947816 0.00674026 -0.00000049
-0.13567548 -0.67490679 -0.00000008
0.36862612 -0.13396361 -0.00000042
-0.43531501 -0.57300049 -0.00000014
0.23752584 -0.27034870 -0.00000033
-0.29115504 0.45668310 -0.00000063
-0.40669745 -0.74420059 -0.00000003
-0.71547306 0.08896802 -0.00000011
0.36181858 0.43797702 0.00002913
-0.60085922 -0.41291291 -0.00000014
0.44231531 -0.43148172 -0.00000023
-0.78858376 -0.68266177 0.00000000
-0.28294513 0.42297843 -0.00000063
-0.40571597 0.40010840 -0.00000049
0.01900932 0.34896481 -0.00000072
-0.74138051 -0.14241301 -0.00000004
-0.37972915 0.74210173 -0.00000053
0.15440977 0.16727465 0.07189762
-0.73648959 0.50765312 -0.00000008
0.36917406 -0.68189961 -0.00000007
0.47551048 -0.16710977 -0.00000064
-0.00717860 0.35750219 -0.00000072
-0.34965113 0.01410267 -0.00000048
-0.11973339 -0.25030759 -0.00000034
0.08801306 -0.36219436 -0.00000027
-0.76968080 -0.02766851 -0.00000003
-0.72494698 -0.19858097 -0.00000004
-0.54717082 0.70126331 -0.00000032
-0.09460109 0.50672257 -0.00000082
-0.43384895 0.68284196 -0.00000046
-0.69978499 -0.58880210 0.00000000
0.14265221 -0.19526172 -0.00000038
-0.53823525 -0.09538711 -0.00000026
-0.62325037 0.61246336 -0.00000022
-0.68195444 0.30244014 -0.00000015
0.11515232 0.24209152 0.06655237
0.15100715 -0.06076908 -0.00000046
0.31984457 -0.13258298 -0.00000042
0.23803474 0.35381445 0.03128750
0.04710150 -0.28903469 -0.00000032
0.59946483 -0.71228504 -0.00000005
0.21702953 0.04443905 0.08094918
0.41378233 -0.28316006 -0.00000032
-0.77366441 0.54367316 -0.00000003
-0.71803313 -0.40341073 -0.00000001
0.49691588 -0.68352151 -0.00000007
0.38636541 -0.55977273 -0.00000015
-0.36229563 -0.31308004 -0.00000030
-0.41987354 -0.26048619 -0.00000034
0.65733045 0.06592459 0.01153423
-0.54458541 0.61023760 -0.00000032
-0.00100621 -0.46744940 -0.00000021
0.75591528 -0.59994411 -0.00000050
-0.65753585 0.31188208 -0.00000018
-0.55773377 -0.48586020 -0.00000017
0.27358246 0.03175251 0.07435553
-0.41721562 0.57047516 -0.00000048
-0.68289900 0.69297111 -0.00000015
0.74345583 -0.04034422 -0.00000174
0.17193855 -0.51440567 -0.00000018
0.28089377 0.35030600 0.02537233
-0.02325665 0.19224276 -0.00000062
-0.08486192 0.55780143 -0.00000085
0.55191767 -0.73951310 -0.00000004
-0.43099353 0.45782927 -0.00000046
-0.24308234 -0.30396548 -0.00000031
-0.43913099 0.57912558 -0.00000045
0.41586533 -0.43843862 -0.00000023
-0.05454116 -0.57340765 -0.00000014
0.40566510 0.11183142 0.04246389
-0.59479356 -0.13068891 -0.00000020
0.24442063 0.42898157 0.01902856
-0.07828990 -0.38880518 -0.00000026
-0.26359037 0.63327861 -0.00000067
-0.50822407 -0.63027638 -0.00000011
0.55111170 -0.52289784 -0.00000018
0.18466476 -0.59647298 -0.00000013
-0.02008815 0.33349428 -0.00000071
-0.35415444 -0.43772459 -0.00000023
0.20734437 0.01575858 -0.00000051
0.34311944 -0.27657974 -0.00000033
-0.25620458 -0.53008330 -0.00000017
-0.09120327 0.38507324 -0.00000074
0.01756218 0.48314625 -0.00000080
0.56558812 0.07289134 0.02427770
-0.33986765 -0.61281335 -0.00000012
0.28411740 0.22690678 0.04343696
-0.18674716 -0.68115699 -0.00000007
0.08991958 -0.43420699 -0.00000023
-0.41978782 0.13862307 -0.00000043
0.00829399 -0.51269662 -0.00000018
0.77061367 -0.41413620 -0.00000096
0.35145077 -0.11373837 -0.00000043
-0.17693824 -0.26620296 -0.00000033
0.58247983 -0.62302470 -0.00000011
-0.31729022 0.01962617 -0.00000051
-0.27187920 0.13920470 -0.00000059
0.51824540 -0.44940284 -0.00000022
-0.59401476 0.60389990 -0.00000026
0.28429076 -0.12993550 -0.00000042
0.49926093 0.03657066 0.03970767
0.48862758 0.09490253 0.03253771
0.47283328 0.28719327 0.00600702
-0.39066538 0.51986569 -0.00000051
-0.79942816 0.28331569 -0.00000000
0.62784886 0.06469560 0.01615064
0.07556451 -0.39710739 -0.00000025
0.67545789 -0.49941573 -0.00000063
0.18710285 0.23731560 0.05645517
-0.72812426 -0.08425980 -0.00000006
-0.66291600 -0.21207631 -0.00000011
-0.57289422 0.15527727 -0.00000027
-0.17518212 -0.66764522 -0.00000008
-0.10432015 -0.25660360 -0.00000034
0.18842503 0.01676933 -0.00000051
0.14757955 0.29275894 0.05406203
0.66626436 -0.38179028 -0.00000083
0.33732247 -0.43957645 -0.00000023
0.55555338 0.06415430 0.02709946
0.14244197 0.01924528 -0.00000051
-0.70233703 0.22423907 -0.00000012
-0.07566581 -0.37158528 -0.00000027
0.56713414 -0.53084105 -0.00000022
0.55090952 0.14771770 0.01523638
-0.47183630 0.11266930 -0.00000037
-0.60325950 -0.07136981 -0.00000020
0.22661623 -0.43408006 -0.00000023
0.51807785 -0.51428115 -0.00000018
0.06101712 0.52623808 0.03197790
-0.20263121 0.54893190 -0.00000074
-0.00515881 0.60258496 -0.00000088
0.52531028 -0.69731653 -0.00000006
0.48964116 -0.10329142 -0.00000081
0.24317181 0.38788760 0.02539347
-0.70181388 0.51649028 -0.00000012
0.20010675 -0.23686436 -0.00000035
-0.36171779 -0.60774052 -0.00000012
0.12928782 0.10067819 0.08568426
0.16447632 0.28956807 0.05200186
-0.40007290 0.79830521 -0.00000050
-0.01482830 0.43177328 -0.00000077
-0.66748154 -0.09368191 -0.00000012
-0.30746901 0.18192708 -0.00000056
-0.41917333 -0.39376923 -0.00000025
-0.14654759 0.47655094 -0.00000078
-0.40454346 -0.00554423 -0.00000042
-0.37222558 0.33083364 -0.00000052
0.36459863 -0.47513008 -0.00000020
-0.64325672 -0.58205485 -0.00000006
0.01088004 0.53879970 -0.00000084
0.04621077 0.18394879 0.08565493
-0.27010456 -0.57239991 -0.00000014
-0.06875575 0.27446195 -0.00000067
-0.21434905 -0.39027509 -0.00000026
-0.49115220 0.65127152 -0.00000039
-0.40183139 -0.21463530 -0.00000037
0.36444455 -0.59793073 -0.00000013
0.06143358 -0.54192472 -0.00000016
0.03560604 -0.71070868 -0.00000006
-0.30723029 -0.35882178 -0.00000028
-0.44718581 0.37897092 -0.00000044
0.54967171 -0.70185655 -0.00000006
-0.58037472 -0.10818203 -0.00000021
-0.03910234 -0.59533727 -0.00000013
0.21361750 0.42193979 0.02471739
-0.52595204 -0.64899039 -0.00000009
-0.39529029 -0.15767331 -0.00000040
-0.25940579 0.49985817 -0.00000067
-0.69219291 -0.31589124 -0.00000006
0.51853222 -0.70357740 -0.00000006
0.13600169 0.53402650 0.01953587
-0.26344872 -0.73465425 -0.00000004
-0.78993100 0.70191067 -0.00000001
0.67694145 -0.41848081 -0.00000079
-0.01658777 0.55702955 -0.00000085
0.34118563 0.16633143 0.04396407
0.00663580 0.04249244 -0.00000053
-0.44680941 -0.58224195 -0.00000014
-0.24453253 -0.32266307 -0.00000030
0.34029463 -0.76946801 -0.00000002
0.35660240 -0.36365226 -0.00000027
-0.44877055 -0.07367278 -0.00000036
-0.10107913 -0.22745980 -0.00000036
-0.15197918 -0.54914695 -0.00000016
-0.17441288 -0.36384359 -0.00000027
-0.01138111 0.17160936 -0.00000061
-0.77951998 -0.59744287 0.00000000
0.19774377 0.55690849 0.00681521
-0.38238692 0.70285869 -0.00000052
-0.37038442 -0.35104287 -0.00000028
-0.63880599 -0.57840508 -0.00000007
-0.76054341 0.67799759 -0.00000005
0.53966635 -0.08621460 -0.00000100
0.77732641 -0.35743749 -0.00000111
-0.46750200 0.06352675 -0.00000037
-0.06311794 -0.64648914 -0.00000010
-0.08339443 -0.48578963 -0.00000020
0.31049201 0.21928622 0.04061784
0.11952612 0.00772806 -0.00000050
-0.73321491 0.70947003 -0.00000008
-0.73650265 -0.19294250 -0.00000003
-0.16723570 0.49075824 -0.00000076
-0.63843000 0.14314780 -0.00000020
0.17455585 0.35603324 0.04049603
-0.62631404 0.67230624 -0.00000022
0.42989221 -0.55655849 -0.00000015
-0.67509913 -0.04317772 -0.00000013
-0.12440617 0.06713409 -0.00000054
0.00819179 -0.46810234 -0.00000021
-0.77308846 -0.00995540 -0.00000003
-0.37003601 0.09532051 -0.00000048
-0.68801343 -0.47052658 -0.00000003
0.26414621 0.09944294 0.06559899
-0.39135736 -0.18088616 -0.00000039
-0.50229532 -0.48711905 -0.00000020
-0.06820930 -0.25153914 -0.00000034
-0.50946319 -0.47486532 -0.00000020
-0.62281865 0.71164280 -0.00000022
0.24708207 0.50088668 0.00781982
0.23479851 0.11604665 0.06751453
0.23839453 -0.45774230 -0.00000021
0.19422002 -0.59507090 -0.00000013
0.26843610 0.17058191 0.05426084
-0.39550173 0.73889315 -0.00000051
-0.27642816 -0.39577934 -0.00000025
0.06408310 0.38419354 0.05286857
-0.13289513 0.06347364 -0.00000054
-0.62231213 0.30639735 -0.00000022
0.69866407 -0.70439947 -0.00000024
-0.30885294 0.69503534 -0.00000061
0.73074561 -0.61828446 -0.00000045
0.25557527 -0.05967319 -0.00000046
-0.51535618 0.69758767 -0.00000036
-0.36558875 -0.34208414 -0.00000029
-0.71708083 -0.08756071 -0.00000007
0.11400288 0.65982842 0.00393235
0.09113450 -0.00979581 -0.00000049
0.45294318 -0.32117814 -0.00000030
0.48923907 -0.65453690 -0.00000009
0.65517157 0.01513685 0.01949309
0.65860224 -0.49522087 -0.00000058
-0.61590737 0.53215325 -0.00000023
-0.69440019 0.08255176 -0.00000013
0.20988569 0.05940799 0.07977292
-0.62709439 0.02281550 -0.00000019
0.05391651 0.56878453 0.02664981
-0.26475731 0.33391666 -0.00000063
0.13736907 0.21429457 0.06739122
-0.70491761 -0.04449162 -0.00000009
0.79957753 -0.39716321 -0.00000101
0.43415651 0.26342463 0.01539377
0.51638997 0.00498920 -0.00000110
0.04930639 0.04267932 -0.00000053
0.61508292 -0.27200350 -0.00000088
0.15254155 -0.16587792 -0.00000040
-0.52656955 -0.59462452 -0.00000013
0.50364912 0.06440679 0.03486374
-0.75671440 0.71467310 -0.00000005
-0.78818500 -0.13386841 0.00000000
-0.65486276 -0.20816039 -0.00000012
0.06343339 0.21588904 0.07826503
0.62042063 -0.03796439 -0.00000135
0.55627167 0.22440337 0.00290306
-0.24862331 0.31331810 -0.00000065
-0.09640823 -0.40701461 -0.00000025
0.38283649 0.28698286 0.01956695
-0.46867013 -0.34108382 -0.00000029
-0.44456351 0.39915076 -0.00000044
-0.26939410 -0.57883251 -0.00000014
-0.59035093 -0.20007034 -0.00000019
0.13108262 -0.06502962 -0.00000046
0.41016421 0.33763993 0.00784435
0.63075805 -0.46061632 -0.00000056
-0.18878552 0.38470775 -0.00000072
-0.26902363 -0.49705574 -0.00000019
0.64156854 0.06490957 0.01405613
-0.08346912 -0.24207075 -0.00000035
-0.24161981 -0.12997147 -0.00000042
-0.38070539 -0.15409119 -0.00000040
-0.42986977 0.28800347 -0.00000045
0.65854418 0.12724832 0.00213368
-0.35050577 -0.63904959 -0.00000010
0.61915934 -0.32320374 -0.00000079
-0.35210657 -0.69531864 -0.00000007
-0.26056638 -0.03487368 -0.00000048
0.55718744 -0.32629618 -0.00000059
-0.04635038 0.57909131 -0.00000086
-0.63286763 0.71242869 -0.00000021
-0.57415223 -0.78761417 -0.00000001
-0.75422245 0.48294833 -0.00000006
0.17797880 -0.55785835 -0.00000015
0.59902561 -0.15512654 -0.00000105
0.27214664 0.01494122 -0.00000051
0.08473600 0.24854805 0.07015382
-0.14326128 0.15896688 -0.00000060
-0.47359064 0.23949891 -0.00000039
-0.52255619 0.42597234 -0.00000035
-0.16794039 0.25533015 -0.00000066
0.34678638 -0.64039844 -0.00000010
0.57565498 0.17991713 0.00667647
-0.79494107 -0.03201809 0.00000000
-0.14547659 -0.63517505 -0.00000010
0.25614434 -0.54607624 -0.00000016
0.68999255 -0.06181735 -0.00000153
-0.60173470 0.23920678 -0.00000025
-0.75594974 0.65469545 -0.00000006
0.28369603 -0.53185374 -0.00000017
0.76160192 -0.41963273 -0.00000095
0.04551491 -0.16989724 -0.00000039
0.01849784 -0.48140985 -0.00000020
0.40462545 -0.17419133 -0.00000039
-0.15106960 -0.51929116 -0.00000018
-0.12362520 -0.58416188 -0.00000013
-0.05819980 0.65323460 -0.00000091
-0.13066848 0.43929082 -0.00000077
0.23181812 0.01785913 0.08272164
-0.01976384 0.76369667 -0.00000097
-0.33563995 -0.70245469 -0.00000006
-0.74277842 0.03940784 -0.00000007
-0.62103790 -0.66215813 -0.00000007
-0.37215990 0.72054219 -0.00000053
-0.00418557 -0.33272177 -0.00000029
0.42729056 -0.65049058 -0.00000009
-0.51016450 0.08852530 -0.00000033
-0.36318386 0.28399631 -0.00000052
-0.30942217 0.06560774 -0.00000054
0.39496738 0.26568106 0.02094549
0.16780511 0.29584438 0.05055808
-0.67701834 0.51723969 -0.00000015
0.18753558 0.02305034 -0.00000051
-0.35274845 0.32495272 -0.00000054
0.30142343 -0.03794803 -0.00000048
0.10530248 0.28108501 0.06217159
0.28866887 0.45957318 0.00777868
0.03384640 0.12255532 0.09674186
-0.79921353 0.71527863 -0.00000000
0.23302980 -0.09429095 -0.00000044
-0.39947176 -0.29082254 -0.00000032
-0.58487511 -0.23784022 -0.00000019
0.08782614 0.19033258 0.07844003
0.30199736 -0.47109252 -0.00000021
0.28836414 0.18511863 0.04908012
0.26911137 0.21994460 0.04673921
-0.37202677 -0.44362366 -0.00000022
0.77856344 -0.18447220 -0.00000154
0.57366991 -0.64220941 -0.00000010
0.44147375 -0.63493174 -0.00000010
-0.79270053 0.14572097 -0.00000001
-0.28454539 0.32930279 -0.00000061
-0.05489202 0.32829311 -0.00000071
-0.11175122 0.11616333 -0.00000057
0.36761987 0.41385880 0.00278249
0.22918099 0.23263203 0.05083430
0.71857399 -0.19655137 -0.00000136
-0.30695400 -0.02588299 -0.00000048
-0.13923001 0.06634459 -0.00000054
0.62950778 0.12966961 0.00613447
-0.56839174 -0.25472215 -0.00000020
-0.30026841 -0.07852453 -0.00000045
-0.62729323 0.37184674 -0.00000022
0.00950788 0.35027915 -0.00000072
-0.14955661 -0.76278371 -0.00000002
0.27798289 0.02483380 -0.00000052
0.70699269 0.06270225 0.00455339
-0.46816537 -0.05773035 -0.00000034
0.14287031 0.58593965 0.01069987
-0.74030221 -0.06027637 -0.00000005
-0.27850872 0.13383634 -0.00000058
0.24699825 -0.71738786 -0.00000005
0.52554548 -0.36133465 -0.00000042
0.25836429 0.16115461 0.05719185
-0.44288838 -0.46076840 -0.00000021
-0.06023787 0.72748488 -0.00000092
-0.31507468 0.08925140 -0.00000053
-0.25831863 -0.33625528 -0.00000029
-0.05036039 -0.05344500 -0.00000047
0.07443365 0.25711176 0.07041513
-0.46042231 -0.69414753 -0.00000007
0.71586472 -0.50768894 -0.00000073
-0.22225270 -0.50336891 -0.00000019
-0.70627612 0.02560049 -0.00000010
-0.72114474 -0.73484010 0.00000000
-0.78280920 0.65281230 -0.00000002
-0.27754033 -0.68621051 -0.00000007
-0.31368598 0.79379863 -0.00000061
-0.71350646 0.66196811 -0.00000011
0.18659106 0.18413506 0.06452597
-0.49445572 -0.34620640 -0.00000026
0.03697683 -0.64893526 -0.00000009
-0.34349933 -0.54481399 -0.00000016
0.28193450 0.18313070 0.05034545
0.24449699 0.38355231 0.02584594
-0.70170623 0.70830649 -0.00000012
-0.08174587 -0.36203822 -0.00000027
-0.60432333 0.29291520 -0.00000024
-0.46429932 -0.68351281 -0.00000007
0.36554658 -0.63510835 -0.00000010
0.18327180 0.07431730 0.08153223
-0.35356393 0.36622691 -0.00000054
-0.20650353 0.62646854 -0.00000074
0.45189765 -0.24721476 -0.00000040
-0.36296371 0.43291754 -0.00000055
0.64901787 -0.24999149 -0.00000103
-0.64631248 -0.53702712 -0.00000007
-0.35277647 0.10533294 -0.00000050
0.11071741 -0.03264264 -0.00000048
-0.19337437 0.06343029 -0.00000054
0.05352145 -0.19240034 -0.00000038
-0.04098408 0.63948053 -0.00000090
-0.08025288 -0.60047150 -0.00000012
-0.64538252 -0.01948148 -0.00000016
0.13977687 0.00863615 -0.00000051
-0.15820234 0.10006779 -0.00000056
-0.69362140 -0.73801839 0.00000000
0.39219201 0.36916867 0.00580657
0.09799251 -0.77338833 -0.00000002
-0.53876799 0.22783378 -0.00000032
-0.79707855 -0.74459147 0.00000000
-0.46881783 -0.72726506 -0.00000005
-0.62718672 -0.00679691 -0.00000018
0.75939000 -0.49710053 -0.00000076
-0.05971269 -0.17603183 -0.00000039
0.00373215 0.15125191 -0.00000059
-0.18143399 0.66281867 -0.00000077
0.46944064 -0.48428959 -0.00000020
-0.37807313 0.67958844 -0.00000053
-0.13379776 0.00307232 -0.00000050
0.00187610 0.73949349 -0.00000096
-0.17565279 0.70280939 -0.00000078
0.71271098 -0.64936066 -0.00000038
0.25658414 0.18652505 0.05364586
0.04929632 -0.76528454 -0.00000002
-0.37688532 0.70884156 -0.00000053
0.05968544 0.54181951 0.02983593
0.00153772 0.16439925 -0.00000060
-0.34931102 -0.37141511 -0.00000027
0.04850088 0.24020316 0.07685479
-0.73893112 -0.74760830 0.00000000
0.39674518 -0.60267216 -0.00000012
-0.06631534 0.00891052 -0.00000051
-0.14211956 0.50166744 -0.00000079
-0.37355947 -0.72985595 -0.00000004
-0.62048322 -0.01895929 -0.00000019
-0.75419831 0.06277959 -0.00000006
-0.08655376 -0.26562890 -0.00000033
-0.13912077 0.03819011 -0.00000052
0.11832722 0.39538866 0.04303218
0.56228369 -0.26119745 -0.00000073
0.69449741 -0.57211572 -0.00000055
-0.16493800 -0.50013012 -0.00000019
0.00213928 -0.59823048 -0.00000013
-0.54966742 0.78183818 -0.00000031
0.69033831 -0.54865086 -0.00000058
-0.64531368 -0.44629663 -0.00000008
0.02953303 0.05358685 -0.00000053
0.28558332 0.16594881 0.05237972
-0.22908804 -0.07844359 -0.00000045
-0.29183570 -0.20448276 -0.00000037
-0.24730322 -0.33771285 -0.00000029
-0.10339063 0.75451779 -0.00000087
0.33417296 0.16065976 0.04587077
-0.39851120 0.76024848 -0.00000050
-0.32459012 -0.62500167 -0.00000011
-0.30282527 -0.76923901 -0.00000002
-0.55775946 -0.45568961 -0.00000018
-0.55394965 0.44716308 -0.00000031
-0.59302300 -0.73174584 -0.00000004
-0.05400890 0.17888512 -0.00000061
-0.58907592 0.74244756 -0.00000026
-0.50342160 -0.15577984 -0.00000029
-0.62436575 0.48936969 -0.00000022
-0.49040097 -0.16403358 -0.00000030
-0.37306881 -0.51034164 -0.00000018
-0.06678281 0.44720271 -0.00000078
0.12636600 -0.46853670 -0.00000021
-0.68384606 -0.77831876 0.00000000
0.61845922 -0.22696520 -0.00000098
-0.13038306 -0.44296667 -0.00000022
-0.79635620 0.56340075 -0.00000000
0.34663114 0.14703417 0.04604624
-0.26823348 -0.60773820 -0.00000012
-0.49142593 0.27043551 -0.00000038
-0.11314206 -0.72132570 -0.00000005
0.04576665 -0.57657593 -0.00000014
-0.06507260 -0.23960543 -0.00000035
-0.17125534 -0.73894298 -0.00000004
-0.71660954 0.51346016 -0.00000010
0.48821494 -0.11995432 -0.00000077
-0.31148192 0.15724517 -0.00000055
0.27256531 -0.08039029 -0.00000045
0.43814030 0.05004499 0.04686987
0.12053033 -0.20641494 -0.00000037
-0.27804717 0.26166114 -0.00000060
-0.42162845 0.62731093 -0.00000047
-0.21633089 -0.78259331 -0.00000001
-0.11352669 0.51798481 -0.00000082
0.36084113 -0.32379162 -0.00000030
0.45219356 -0.08279829 -0.00000073
0.06076759 0.14018524 0.09004521
-0.29472488 0.17432231 -0.00000057
-0.60893810 -0.14588398 -0.00000018
-0.42710119 0.66210687 -0.00000047
-0.12458396 -0.47404963 -0.00000020
-0.70966107 -0.65694100 0.00000000
0.52197134 -0.54720116 -0.00000016
-0.35049179 0.30818647 -0.00000054
-0.16907950 -0.20713508 -0.00000037
-0.08235334 -0.10715212 -0.00000043
0.16942061 -0.61571372 -0.00000012
-0.33543542 0.61989897 -0.00000058
-0.32603514 -0.38356215 -0.00000026
-0.45894226 -0.25507420 -0.00000032
0.24402031 -0.07262672 -0.00000045
-0.19186695 0.35870761 -0.00000071
-0.71806055 0.12269531 -0.00000010
0.76415706 -0.34594560 -0.00000114
-0.06996750 0.77595270 -0.00000091
-0.36816755 -0.52646637 -0.00000017
0.67508262 0.03401310 0.01366262
-0.02431287 -0.32174751 -0.00000030
0.19479997 -0.78916675 -0.00000001
-0.01147220 0.31703484 -0.00000070
0.49461892 -0.17749156 -0.00000068
-0.59502065 0.12120601 -0.00000024
-0.22671062 0.48541349 -0.00000070
0.59784889 -0.78485048 -0.00000001
-0.42030144 0.75772411 -0.00000047
0.06300724 -0.08716918 -0.00000045
-0.68980992 -0.28122774 -0.00000007
-0.13094141 -0.00986459 -0.00000049
0.57023412 -0.49257869 -0.00000030
0.57348287 -0.59152311 -0.00000013
-0.01176174 -0.75931680 -0.00000003
0.05670145 0.05869987 0.10290493
0.16476098 -0.66812873 -0.00000008
0.75238240 -0.46655685 -0.00000083
0.02782377 -0.65787429 -0.00000009
-0.48217455 -0.36567700 -0.00000027
-0.68531126 0.10215840 -0.00000014
-0.22935978 -0.75461799 -0.00000003
-0.65421450 -0.06421744 -0.00000014
-0.72224051 0.55431163 -0.00000010
-0.16119692 0.14160535 -0.00000059
-0.18235418 0.33415052 -0.00000071
-0.05255155 0.06705797 -0.00000054
-0.10476737 -0.17357247 -0.00000039
-0.24539629 0.09782935 -0.00000056
-0.55872834 0.11332619 -0.00000028
-0.31502697 0.09051076 -0.00000053
0.45488280 0.12826686 0.03259493
0.42293710 -0.47649443 -0.00000020
0.59057593 0.10034397 0.01639489
0.20542860 -0.64623272 -0.00000010
-0.75368524 0.26827809 -0.00000006
-0.31989330 -0.79736549 -0.00000000
-0.21945946 -0.17302060 -0.00000039
0.34505469 -0.73726678 -0.00000004
0.19026349 -0.36576557 -0.00000027
-0.03255403 -0.08447979 -0.00000045
-0.62313253 0.45063126 -0.00000022
0.19205947 -0.78975385 -0.00000001
-0.68396604 0.14257102 -0.00000015
0.26932383 -0.40096164 -0.00000025
0.55521476 -0.59743911 -0.00000013
-0.00592421 0.68539989 -0.00000093
0.68037015 -0.18746392 -0.00000125
-0.01807538 -0.15303119 -0.00000040
-0.50804210 0.31745684 -0.00000036
-0.47491449 -0.49696305 -0.00000019
-0.22047092 -0.41972569 -0.00000024
0.21178538 0.16400515 0.06376478
0.28955114 0.43913120 0.01071886
0.42135379 -0.62861025 -0.00000011
0.22171275 0.41744947 0.02417549
0.38227177 0.01400097 0.06068611
0.60003781 -0.27700141 -0.00000082
0.28323182 -0.52108729 -0.00000017
-0.46177596 -0.25297225 -0.00000031
-0.68971825 -0.22538103 -0.00000008
0.07367607 0.42916560 0.04466661
0.57991987 0.11528798 0.01575034
0.72230649 -0.58357316 -0.00000054
-0.73643196 0.51881337 -0.00000008
0.79774749 -0.20748249 -0.00000148
-0.64310229 0.54314178 -0.00000020
0.10717016 -0.62411553 -0.00000011
-0.52853316 0.63792813 -0.00000034
0.29384461 -0.03023332 -0.00000048
-0.59186631 -0.72651905 -0.00000005
0.18949050 0.35148031 0.03893553
-0.26744047 -0.21462242 -0.00000037
0.40076402 0.24776365 0.02276747
-0.23169985 0.03410757 -0.00000052
0.14019026 0.31753638 0.05144830
-0.63603705 -0.71348065 -0.00000004
-0.73259914 0.27329794 -0.00000008
-0.61477852 0.57143694 -0.00000023
0.02360563 0.20330665 0.08614299
-0.28881001 -0.78154916 -0.00000001
0.35362771 -0.13895109 -0.00000041
-0.62771159 0.28827801 -0.00000022
0.20320633 -0.18545161 -0.00000038
-0.22606885 -0.42053995 -0.00000024
-0.29741657 0.45859131 -0.00000062
-0.60402656 0.16546202 -0.00000024
0.32414430 -0.78365886 -0.00000001
0.08005847 0.27983782 0.06615357
-0.35164160 -0.15494110 -0.00000040
0.18143399 -0.17714985 -0.00000039
0.72584593 -0.11774962 -0.00000153
-0.26590505 -0.15255573 -0.00000040
-0.23339826 -0.71300751 -0.00000005
-0.38837841 -0.49112576 -0.00000019
0.50726599 -0.60443044 -0.00000012
-0.58722305 -0.50466144 -0.00000013
-0.29497200 -0.73198813 -0.00000004
0.19016005 -0.37886533 -0.00000026
0.44975394 -0.08706517 -0.00000071
0.11713561 0.53726304 0.02188530
-0.15529758 0.19290239 -0.00000062
-0.05850513 -0.20850831 -0.00000037
0.70234764 -0.48051476 -0.00000075
-0.18960445 -0.11983611 -0.00000043
0.37144342 -0.68419152 -0.00000007
-0.07482700 -0.59185457 -0.00000013
-0.57259017 0.76070815 -0.00000028
0.38592026 0.00798717 -0.00000069
-0.74528587 -0.08536095 -0.00000004
0.21256422 -0.24900872 -0.00000034
-0.54599619 0.67084408 -0.00000032
0.52044064 0.22973867 0.00748718
0.20423934 0.18855278 0.06120915
-0.76308340 -0.75466752 0.00000000
0.38079286 0.38738722 0.00478150
-0.34267408 0.14834017 -0.00000052
-0.16272466 0.36020011 -0.00000073
-0.03838520 -0.62613553 -0.00000011
-0.38562906 -0.59905201 -0.00000013
-0.75530577 0.02480585 -0.00000005
0.56112403 -0.14276432 -0.00000096
0.10010366 -0.42894727 -0.00000023
-0.47659001 0.69436449 -0.00000040
0.11527420 -0.14642401 -0.00000041
0.23661637 0.53827167 0.00377336
0.54253465 -0.14228496 -0.00000090
-0.16353230 -0.07156557 -0.00000046
-0.70964044 0.21644245 -0.00000011
-0.57458180 0.56627142 -0.00000028
-0.58917654 -0.37428957 -0.00000016
-0.51826495 -0.47020566 -0.00000021
0.00447258 0.70773059 -0.00000094
0.28895748 0.24077766 0.04062434
0.23040698 -0.31453493 -0.00000030
-0.35978279 -0.19112159 -0.00000038
-0.00007015 0.31944236 -0.00000070
-0.38828191 0.74876225 -0.00000051
0.53674668 0.01620922 -0.00000119
0.18328458 0.21661325 0.06014099
0.36602971 -0.57269877 -0.00000014
0.06437405 0.05323861 0.10257255
-0.60608399 -0.23788896 -0.00000016
-0.06775952 0.41688108 -0.00000076
-0.67746663 -0.56255364 -0.00000003
-0.17734833 0.68723935 -0.00000078
0.36849067 -0.24678187 -0.00000035
0.03647468 0.03314124 -0.00000052
-0.14251809 0.61432624 -0.00000081
-0.30269024 0.27163181 -0.00000058
-0.43785822 0.32498518 -0.00000045
0.29812443 -0.19830444 -0.00000038
-0.44351438 0.16064405 -0.00000041
-0.28819746 0.26978618 -0.00000060
-0.14561071 -0.30624479 -0.00000031
0.38902804 -0.23171890 -0.00000036
-0.70529610 -0.03423360 -0.00000009
-0.05755929 -0.61949515 -0.00000011
-0.72531295 -0.50865912 0.00000000
-0.40423441 -0.19377626 -0.00000038
0.58708102 -0.34133038 -0.00000065
-0.68035001 0.73946500 -0.00000015
-0.24779496 -0.44757032 -0.00000022
-0.39354065 -0.68118703 -0.00000007
0.12172009 0.07704929 0.09037358
0.10961047 -0.15949848 -0.00000040
-0.08035372 0.59373522 -0.00000087
0.53873825 -0.50171721 -0.00000019
-0.24873884 -0.41209123 -0.00000024
0.00434298 0.45747700 0.05083263
-0.32976550 0.27876347 -0.00000055
-0.25230342 0.44345513 -0.00000067
0.23561919 0.37617627 0.02828921
0.21828288 -0.38442770 -0.00000026
-0.47840279 -0.06309634 -0.00000033
-0.70383000 0.35493952 -0.00000012
0.19727154 0.47061017 0.01985845
0.45080009 0.26047802 0.01333484
-0.46356928 0.07305634 -0.00000037
0.46764836 0.00383913 0.04937983
0.49740729 -0.02925914 -0.00000097
-0.13196038 -0.44010991 -0.00000022
0.21236733 0.39343402 0.02919027
-0.47841227 -0.09646362 -0.00000033
-0.67089409 0.69158483 -0.00000016
-0.54629499 0.39172515 -0.00000032
0.25654709 -0.16954651 -0.00000039
-0.57894063 0.00255557 -0.00000024
-0.67609906 -0.30629387 -0.00000008
-0.07902734 -0.31072941 -0.00000031
-0.23705752 -0.73379523 -0.00000004
0.22930327 0.02595167 0.08188322
-0.66825050 0.32852095 -0.00000016
-0.64168072 -0.55852371 -0.00000007
0.01745318 -0.52645445 -0.00000017
0.08835264 0.49619967 0.03238426
-0.18818955 -0.77127278 -0.00000002
-0.40662917 -0.59378338 -0.00000013
-0.29078215 -0.34431335 -0.00000028
-0.42019841 -0.67027706 -0.00000008
-0.39220166 -0.16166815 -0.00000040
0.00311968 0.65626961 0.02113485
-0.49270266 0.52963954 -0.00000038
-0.19855835 -0.09150840 -0.00000044
0.67264277 -0.78996789 -0.00000003
0.77023655 -0.02125341 -0.00000186
0.49181694 -0.09922511 -0.00000082
-0.16858092 0.66587365 -0.00000079
0.14915793 -0.23839821 -0.00000035
-0.74988228 0.13285835 -0.00000006
-0.05054652 0.72060943 -0.00000093
-0.26899278 0.46512833 -0.00000065
-0.60687244 -0.08609653 -0.00000019
0.53025925 -0.66317266 -0.00000009
0.44028610 -0.70561725 -0.00000006
0.26911703 -0.50329244 -0.00000019
-0.37582955 0.00245878 -0.00000045
0.56099135 -0.60014349 -0.00000012
0.21372551 0.53665471 0.00745737
-0.25986046 -0.06756938 -0.00000046
0.05238141 0.07933466 0.10045255
0.00820826 0.31170991 0.07216270
0.00711100 0.57168329 -0.00000086
0.39196569 -0.76373738 -0.00000002
0.09010845 0.07590637 0.09529702
0.07167444 -0.03536619 -0.00000048
-0.31368536 0.17325871 -0.00000055
-0.04404832 0.21001141 -0.00000063
-0.53588974 -0.55392057 -0.00000015
-0.63555193 0.00436416 -0.00000018
-0.25484002 -0.64420664 -0.00000010
-0.12911314 -0.27156386 -0.00000033
0.03395476 -0.07741003 -0.00000045
-0.78220385 -0.70088029 0.00000000
0.57504517 -0.18366361 -0.00000092
0.08169181 -0.47285855 -0.00000020
0.57809997 -0.65701789 -0.00000009
-0.60628581 -0.75966448 -0.00000003
-0.57019246 -0.54282427 -0.00000015
0.11643055 -0.57963902 -0.00000014
-0.42773095 0.55611092 -0.00000047
-0.33816403 0.25756145 -0.00000054
-0.23915492 0.58247584 -0.00000070
-0.06927457 -0.63520628 -0.00000010
0.36341459 -0.77046084 -0.00000002
0.72717226 -0.61166054 -0.00000047
-0.74391919 0.72408402 -0.00000007
0.24031033 0.10191993 0.06880950
0.03913163 0.24756990 0.07715577
0.25020319 -0.00043555 -0.00000050
0.13085978 -0.45464620 -0.00000022
0.60779917 0.08478732 0.01614435
-0.63417375 -0.28608128 -0.00000012
0.47075090 0.14115416 0.02827244
0.38044438 -0.21409734 -0.00000037
0.07238161 0.02517549 0.10558724
0.56534541 -0.08357520 -0.00000109
-0.00544404 -0.49439844 -0.00000019
0.75417292 -0.59047329 -0.00000052
0.48547095 -0.38064119 -0.00000026
-0.57745332 0.07305821 -0.00000025
0.52712357 -0.14979251 -0.00000083
-0.47971958 0.52555192 -0.00000040
-0.22948541 0.18541776 -0.00000062
-0.49929062 0.53765410 -0.00000038
-0.23321193 -0.01062433 -0.00000049
-0.28168038 -0.06991823 -0.00000046
0.71524006 -0.79572868 -0.00000001
-0.56807727 -0.53062445 -0.00000015
-0.12019617 0.73922181 -0.00000085
0.02153523 -0.05124715 -0.00000047
0.66024792 -0.52804774 -0.00000052
0.12600005 -0.60530603 -0.00000012
0.47586349 -0.63629305 -0.00000010
-0.33597806 -0.22657716 -0.00000036
-0.06167580 -0.75357497 -0.00000003
0.59469664 -0.11811983 -0.00000111
-0.48793840 -0.50209951 -0.00000019
