ply
format ascii 1.0
element vertex 1354
property float x
property float y
property float z
end_header
-0.30932665 0.16242112 -0.00401776
-0.51267219 -0.74839181 0.00000023
-0.37245458 0.20171234 -0.01108279
-0.00436999 0.57651734 0.00000833
-0.46820575 -0.13527921 -0.00718597
-0.33192050 -0.47384188 0.00000143
-0.02573587 0.01942388 0.00001149
-0.41583347 -0.74589288 0.00000024
-0.66410625 -0.17939197 -0.02298952
-0.38252187 -0.43158770 0.00000161
-0.63074160 -0.79421210 0.00000003
-0.53543931 0.25557432 -0.02756975
-0.12642437 -0.26251444 0.00000235
-0.14413431 0.12911263 0.00000902
-0.01398856 -0.72785419 0.00000032
-0.65060860 -0.23584887 -0.01970833
-0.30946279 -0.59935987 0.00000088
-0.48150134 0.06020827 -0.01557014
-0.40566143 -0.17937274 0.28271183
-0.59895492 -0.44224882 -0.00750735
-0.29335585 -0.78691322 0.00000006
-0.44774428 -0.24281801 -0.00140295
-0.40068409 -0.15918104 -0.00029792
-0.75341356 -0.17210853 -0.03120345
-0.26611304 -0.75577551 0.00000019
-0.10583568 -0.79458892 0.00000002
-0.02727524 -0.06191483 0.00000323
-0.00507755 0.56374919 0.00000840
-0.36395761 -0.65146816 0.00000065
-0.67711008 -0.22004259 -0.02264856
-0.27913448 0.37586364 -0.00919798
-0.43426621 0.19068438 -0.01617613
-0.67646891 -0.73915482 -0.00346325
-0.39951056 -0.16452529 0.34331250
-0.21920612 -0.74972701 0.00000022
-0.24935991 0.02182354 0.00000810
-0.70632279 -0.37962934 -0.01936713
-0.53073347 0.20660268 -0.02534615
-0.04890785 -0.74919909 0.00000022
-0.09546510 -0.51920331 0.00000123
-0.65121984 -0.21065080 -0.02069120
-0.64726382 0.07043907 -0.03069620
-0.36506915 0.15579101 -0.00873318
-0.01296564 -0.66544688 0.00000059
-0.62450337 -0.55044973 -0.00579338
-0.07275607 -0.27188706 0.00000231
-0.44980142 0.20324504 -0.01802134
-0.78571993 -0.32937497 -0.02828229
-0.24271140 0.21404549 0.00027217
-0.38244393 0.14529568 -0.00989232
-0.09294643 0.59357631 -0.00065558
-0.74815214 -0.21435818 -0.02917853
-0.11492812 0.52252930 0.05417325
-0.45278594 -0.53506768 0.00000116
-0.20030507 0.31641012 0.12671815
-0.05899110 -0.62049764 0.00000079
-0.16116317 -0.34272200 0.00000200
-0.00523615 -0.12076784 0.00000294
-0.35172689 -0.04915538 0.04090996
-0.02168071 -0.59961939 0.00000088
-0.38699928 -0.25567481 0.00000238
-0.58730739 -0.71984875 0.00000035
-0.29408109 -0.61182326 0.00000082
-0.37568456 0.19545808 -0.01113967
-0.25022814 0.19589269 0.07392103
-0.00043047 -0.42448100 0.00000164
-0.32826304 0.27275071 -0.00976895
-0.08831048 -0.45272952 0.00000152
-0.22279234 -0.16987936 0.00000276
-0.59093678 -0.79238266 0.00000003
-0.23974764 0.22119826 0.02605296
-0.29821041 0.49242717 -0.01519134
-0.29604825 -0.30218554 0.00000218
-0.30123916 -0.38082901 0.00000183
-0.59753531 0.04577441 -0.02536248
-0.54494452 -0.07467131 -0.01624659
-0.17132260 0.38638148 0.08868823
-0.55425453 -0.25721234 -0.01034863
-0.44164613 -0.64468598 0.00000068
-0.34721720 -0.22385770 0.00000252
-0.49724889 0.17903776 -0.02135087
-0.34077883 -0.02272280 0.21888742
-0.11252346 -0.09631757 0.00000308
-0.25409630 -0.32995439 0.00000206
-0.20462805 0.12896423 0.00000811
-0.54565281 -0.51733810 0.24151406
-0.09661257 0.69586074 -0.00475162
-0.26624289 -0.38323405 0.00000182
-0.17587277 -0.23854069 0.00000246
-0.61760616 -0.56157458 -0.00476982
-0.52968907 0.00931549 -0.01798203
-0.41855145 0.17898715 -0.01434677
-0.22761536 0.28584141 -0.00129613
-0.36111945 0.43219256 -0.01856877
-0.59647906 0.07287563 -0.02626734
-0.14615460 -0.01883281 0.00000342
-0.54256362 -0.77378565 0.00000011
-0.48049343 -0.00288584 -0.01315761
-0.25788850 -0.66901302 0.00000057
-0.13538042 0.34181201 0.00000782
-0.46285918 -0.58553237 0.00000094
-0.26498416 -0.65436089 0.00000064
-0.55377442 -0.32549429 -0.00778986
-0.74514800 -0.51771384 -0.01773284
-0.35081741 -0.04696200 0.10908544
-0.49273717 -0.10694570 -0.01041253
-0.39943823 0.01265237 -0.00651573
-0.49680459 -0.61952513 0.00000079
-0.20989250 0.57612479 -0.01041786
-0.54990047 -0.01865602 -0.01875157
-0.67100066 -0.28992906 -0.01952984
-0.31994677 0.23788217 -0.00774389
-0.55126184 -0.39108935 -0.00514928
-0.00535861 -0.66731322 0.00000055
-0.32487980 0.19374245 -0.00655600
-0.34581023 -0.03487230 0.06874402
-0.66126603 -0.79644608 0.04370417
-0.37661216 -0.53010780 0.00000118
-0.03620194 -0.51287782 0.00000126
-0.26982918 0.49262229 -0.01267326
-0.07617447 0.36491784 0.00000857
-0.62570328 -0.71059215 0.12901661
-0.69516826 -0.17306805 -0.02598609
-0.38121513 0.34496838 -0.01714210
-0.19904149 0.43065777 -0.00409106
-0.00907240 -0.74459106 0.00000019
-0.10332547 -0.57634807 0.00000098
-0.54098338 -0.60224622 0.00000087
-0.50781578 -0.42599127 0.18378273
-0.32819864 -0.64824015 0.00000066
-0.27705386 -0.40220129 0.00000174
-0.65369010 -0.21638624 -0.02069964
-0.00870276 0.67061907 0.00000768
-0.70777112 -0.60799038 -0.01108121
-0.18439563 0.01895783 0.00000910
-0.72429913 -0.62874448 -0.01178672
-0.47435698 -0.34520924 0.01873704
-0.70881242 -0.16486473 -0.02750227
-0.01052098 -0.79090661 -0.00000002
-0.78823882 -0.21637717 -0.03267031
-0.36919355 -0.07680664 -0.00053158
-0.54995567 -0.24751669 -0.01032343
-0.41851968 0.26962009 -0.01768430
-0.27045840 0.14703748 0.26591125
-0.51742619 -0.44706216 -0.00007648
-0.71182901 0.06523186 -0.03624907
-0.71285045 -0.25727227 -0.02445649
-0.17247139 0.12314554 0.00000863
-0.32086316 -0.47846228 0.00000141
-0.13544099 0.22472820 0.00000855
-0.17554922 -0.77395684 0.00000011
-0.41345313 0.23824176 -0.01607702
-0.06548098 0.64190280 0.04774696
-0.49922353 -0.28803614 -0.00431680
-0.05124032 0.71750563 -0.00151223
-0.58936566 -0.38533625 -0.00875132
-0.11575804 -0.49886975 0.00000132
-0.06265166 -0.02694033 0.00000338
-0.22554111 -0.34492680 0.00000199
-0.26402342 0.16259110 0.04643991
-0.56021702 -0.22008240 -0.01224727
-0.09114000 -0.79578519 0.00000002
-0.19232854 0.33566946 0.09405725
-0.33965579 -0.02001218 0.00891014
-0.54424685 -0.51393998 0.08005695
-0.03258118 -0.69431174 0.00000046
-0.74275571 -0.52300358 -0.01732511
-0.05719885 -0.13185184 0.00000292
-0.40948880 -0.02067335 -0.00618499
-0.03301872 0.72027314 0.03045235
-0.08995213 0.39064419 0.00000820
-0.62163830 -0.09774935 -0.02221956
-0.10004239 0.55846739 0.03451892
-0.48686528 -0.10451102 -0.00997983
-0.29463869 -0.30107576 0.00000218
-0.23398694 0.24847656 -0.00048594
-0.34241530 0.15209632 -0.00658135
-0.74272460 -0.23149952 -0.02806403
-0.11799855 -0.57528913 0.00000098
-0.23134004 -0.13423985 0.00000291
-0.20034628 0.39509898 -0.00289660
-0.11123013 0.04339443 0.00001005
-0.19892199 -0.06027703 0.00000324
-0.03825923 0.70762235 0.02300007
-0.59021485 -0.62491763 0.13860252
-0.61732864 0.17903905 -0.03203523
-0.75976759 0.00727083 -0.03837829
-0.68926132 -0.55782020 -0.01128322
-0.24233730 -0.77255827 0.00000012
-0.11803549 -0.79937023 0.00000000
-0.19865203 0.14906207 0.00000807
-0.70435500 -0.40600440 -0.01822019
-0.43182361 -0.66646427 0.00000058
-0.20094351 -0.23078740 0.00000249
-0.56331587 -0.30365896 -0.00944334
-0.45888850 -0.30787224 0.23189612
-0.46240363 -0.31287038 -0.00012589
-0.14236322 0.55618680 -0.00367450
-0.45441151 -0.29706541 0.27765185
-0.18792316 -0.21240789 0.00000257
-0.37892115 -0.11481190 0.30970010
-0.13418365 -0.61838257 0.00000079
-0.16224203 -0.35426232 0.00000195
-0.11235692 -0.08634946 0.00000312
-0.12854753 -0.55412650 0.00000108
-0.15797494 0.41860428 0.09435216
-0.36414993 -0.68195248 0.00000052
-0.78684294 -0.03924804 -0.03907326
-0.44681448 0.30495191 -0.02150407
-0.52993739 -0.39694512 -0.00303629
-0.22351980 0.26036590 0.13050441
-0.41575417 -0.71894687 0.00000035
-0.58664221 -0.29249749 -0.01192993
-0.07933989 0.08240843 0.00001029
-0.30419630 0.06559914 0.14641219
-0.11721458 -0.22718801 0.00000251
-0.28171471 -0.05276422 0.00000327
-0.68148625 -0.25634792 -0.02170012
-0.21850887 0.34414637 -0.00263474
-0.15002394 0.64304250 -0.00755726
-0.72980261 -0.41939750 -0.01999069
-0.36368766 -0.07802859 0.22300661
-0.75936931 -0.32255641 -0.02618946
-0.53430146 0.25196761 -0.02733558
-0.40762091 -0.18409882 0.14875051
-0.24914785 0.19849771 0.10870285
-0.35179591 0.09175999 -0.00519226
-0.49926120 0.27705860 -0.02514257
-0.26353878 0.16376439 0.00772507
-0.49663630 -0.07499746 -0.01193666
-0.19107299 0.33869791 0.12548652
-0.14031675 0.62255025 -0.00593829
-0.01433042 0.76731229 -0.00006378
-0.19482107 0.41040832 -0.00296923
-0.40702671 -0.13619313 -0.00170927
-0.15943219 -0.06443407 0.00000322
-0.35240042 0.35318542 -0.01488111
-0.32032925 0.02664392 0.23899935
-0.20535657 0.30422494 0.00969351
-0.33879593 0.38736820 -0.01493046
-0.06199483 0.12335207 0.00001029
-0.37975776 -0.78155905 0.00000008
-0.36832330 -0.08922230 0.03229467
-0.61025661 -0.37179151 -0.01110905
-0.15013435 0.36394453 0.00000746
-0.49485293 -0.17952566 -0.00792634
-0.13027485 -0.12235308 0.00000296
-0.35646948 -0.06060360 0.23236109
-0.00160732 0.09431525 0.00001139
-0.57925248 0.00346541 -0.02217641
-0.01732987 0.25802675 0.00001013
-0.29108542 -0.11526064 0.00000300
-0.50784516 -0.42491367 -0.00004020
-0.11446755 0.52364141 0.05150833
-0.51528537 -0.10585169 -0.01245892
-0.21807982 0.27349210 0.21030407
-0.27703232 -0.26189265 0.00000235
-0.70449609 0.09163725 -0.03656981
-0.76240486 -0.28031990 -0.02801590
-0.17159733 -0.52652115 0.00000120
-0.41598073 -0.20428883 0.37682718
-0.37057444 0.05854066 -0.00563878
-0.64364505 -0.75390637 0.11879556
-0.19881471 -0.21876991 0.00000254
-0.25870970 0.50875270 -0.01227839
-0.23261613 0.30933368 -0.00260691
-0.29754010 -0.47269082 0.00000143
-0.02358298 0.42284861 0.00000900
-0.48954499 -0.21600471 -0.00610992
-0.15443073 0.42715988 0.10239129
-0.72970140 -0.53708017 -0.01564511
-0.23511571 0.23236904 0.16095574
-0.24391279 -0.28619304 0.00000225
-0.18216507 -0.70046777 0.00000044
-0.25540993 0.18337455 0.17440753
-0.68699795 -0.21827342 -0.02359346
-0.34442019 -0.03150843 0.15765746
-0.31271064 0.04504036 0.19209205
-0.39326590 -0.14944381 0.17698118
-0.02710437 -0.68776143 0.00000049
-0.09921815 0.05174682 0.00001018
-0.19045609 0.55153739 -0.00778228
-0.25625345 0.18133387 0.22517474
-0.48093730 0.29658297 -0.02423175
-0.58204585 -0.60519648 0.20411707
-0.53107011 -0.79482698 0.00000002
-0.26672229 0.00513618 0.00000794
-0.21100968 0.29056036 0.21188045
-0.44651797 0.09393376 -0.01370042
-0.24155363 -0.25104424 0.00000240
-0.42049715 0.12240554 -0.01243453
-0.52842283 -0.45801708 -0.00065117
-0.04058162 0.06287386 0.00001099
-0.10234648 0.55290145 0.07612137
-0.19776662 0.32254732 0.02073769
-0.08771795 -0.17381810 0.00000274
-0.07404722 0.49159691 0.00000781
-0.00984836 -0.29291695 0.00000222
-0.09032165 0.49551329 0.00000754
-0.15275986 -0.39876235 0.00000176
-0.75160104 -0.02592023 -0.03642893
-0.28964147 0.21939942 -0.00436623
-0.25292069 0.32084346 -0.00483774
-0.15770315 0.41926408 0.05121150
-0.36256033 0.09709463 -0.00634665
-0.41608140 -0.20452386 0.13889602
-0.65408182 0.12155779 -0.03318687
-0.77645701 -0.29509103 -0.02872164
-0.11944106 -0.17209628 0.00000275
-0.74523431 -0.01985990 -0.03608581
-0.63736051 -0.64340389 -0.00351209
-0.44071433 0.21993105 -0.01782778
-0.15734287 -0.30741510 0.00000216
-0.70063114 -0.49745190 -0.01451923
-0.66081995 0.03810817 -0.03071079
-0.43333346 -0.24617632 0.20936452
-0.44251949 -0.70197201 0.00000043
-0.25291103 -0.72698843 0.00000032
-0.43031836 -0.46815109 0.00000145
-0.63880092 -0.74221104 0.01532239
-0.14670812 -0.25714251 0.00000238
-0.12810592 0.50355768 -0.00046624
-0.28197956 -0.23719490 0.00000246
-0.68634725 -0.46359900 -0.01449582
-0.38345090 -0.12574738 0.14899573
-0.35211882 0.24427108 -0.01084192
-0.12097119 -0.27977350 0.00000228
-0.19404490 0.42295238 -0.00336249
-0.37712258 -0.11046984 0.15845181
-0.76641941 -0.52325344 -0.01942097
-0.48378474 -0.33155528 -0.00133964
-0.31304175 0.35313877 -0.01137739
-0.63751084 0.06306791 -0.02955674
-0.22197278 0.56786305 -0.01118822
-0.12489298 -0.10840061 0.00000303
-0.55296916 0.07708115 -0.02255098
-0.32942808 -0.65787762 0.00000062
-0.76013666 -0.56561017 -0.01730124
-0.25012043 -0.61800885 0.00000080
-0.23284321 -0.32012975 0.00000210
-0.36852032 -0.72199273 0.00000034
-0.20101255 0.31469479 0.21379167
-0.29058746 0.09844320 0.26182595
-0.44780776 -0.28111699 0.11131836
-0.63685322 -0.61493993 -0.00451579
-0.09103297 -0.30899063 0.00000215
-0.43914807 -0.26021442 0.22183010
-0.04590807 -0.48933101 0.00000136
-0.61342967 -0.47046128 -0.00775558
-0.65231377 0.03378368 -0.02979456
-0.15779611 0.41903481 0.10851622
-0.11733938 0.57189029 -0.00202672
-0.24292976 -0.17194872 0.00000275
-0.08052971 -0.54112166 0.00000113
-0.68329847 -0.44144613 -0.01504086
-0.10982832 -0.60007620 0.00000087
-0.77716708 -0.56860465 -0.01870587
-0.51675117 -0.44756466 0.22850531
-0.20528162 0.02960970 0.00000872
-0.27574745 -0.28353244 0.00000226
-0.02360855 -0.07274831 0.00000318
-0.65585631 -0.39492461 -0.01431359
-0.05003751 0.33347231 0.00000916
-0.01168642 0.13514119 0.00001098
-0.40031251 -0.13806438 -0.00104297
-0.65331149 -0.67415416 -0.00379814
-0.15236789 0.43214366 0.05769633
-0.26758543 0.28709373 -0.00489869
-0.10042959 -0.00838290 0.00000346
-0.02533196 -0.69488531 0.00000046
-0.43414924 -0.35877216 0.00000193
-0.07962100 0.10779584 0.00001012
-0.17593823 0.05490901 0.00000900
-0.15922603 0.51453006 -0.00363960
-0.24420573 0.21042609 0.14029031
-0.72221327 -0.29332423 -0.02396105
-0.38737527 -0.33014128 0.00000206
-0.58643436 -0.54813117 -0.00249186
-0.64081758 0.10781006 -0.03149997
-0.25361547 0.18769994 0.25340578
-0.38742721 -0.13535224 0.30354717
-0.13210849 0.25659561 0.00000840
-0.28182301 -0.64857298 0.00000066
-0.70242506 -0.46268421 -0.01595995
-0.09792633 -0.11369002 0.00000300
-0.68300915 -0.27010572 -0.02132867
-0.08421172 0.55192173 0.00000728
-0.66205686 -0.33618283 -0.01702976
-0.19006662 -0.79477632 0.00000002
-0.64470351 0.13165876 -0.03272469
-0.30469409 0.35367683 -0.01065447
-0.61301345 -0.25068656 -0.01581679
-0.34910855 -0.45954570 0.00000149
-0.38393334 -0.55743068 0.00000106
-0.46198875 -0.21725386 -0.00361225
-0.28993618 0.10002884 0.10375810
-0.27698445 0.44500497 -0.01155494
-0.49397650 0.24895549 -0.02363659
-0.51801908 0.27401730 -0.02669949
-0.23527080 0.23200557 0.03170683
-0.27289554 -0.33232275 0.00000205
-0.38938785 0.15577829 -0.01089651
-0.43051156 -0.39253908 0.00000178
-0.42157441 -0.40404156 0.00000173
-0.70757496 -0.36556610 -0.01999674
-0.55704361 -0.01823771 -0.01940250
-0.79380715 -0.04529091 -0.03947015
-0.12144172 -0.63508838 0.00000072
-0.45211414 0.14304601 -0.01600843
-0.34255505 0.17004608 -0.00725534
-0.24594270 -0.68268985 0.00000051
-0.62452573 -0.25976345 -0.01650656
-0.51241213 -0.76021814 0.00000017
-0.66480947 -0.17611705 -0.02317275
-0.35777712 -0.56498003 0.00000103
-0.33335063 -0.24171156 0.00000244
-0.38822877 -0.02815915 -0.00401768
-0.22967190 0.53977907 -0.01083821
-0.13700511 0.60569072 -0.00502226
-0.56426978 -0.01264056 -0.02025164
-0.45143482 -0.28987911 0.28008160
-0.39776453 0.21603867 -0.01386279
-0.37267542 -0.09973323 0.15226813
-0.38818929 -0.51644951 0.00000124
-0.60091418 -0.05940483 -0.02178868
-0.13906777 0.28292590 0.00000813
-0.70524025 -0.20241041 -0.02580097
-0.55805510 -0.08517474 -0.01702600
-0.59156221 -0.11115224 -0.01904986
-0.36547902 -0.43945542 0.00000158
-0.14763016 -0.69424766 0.00000046
-0.47532561 -0.45770395 0.00000150
-0.38425496 0.24813972 -0.01384387
-0.16600743 -0.25149739 0.00000240
-0.38273585 -0.35296905 0.00000196
-0.27329403 0.14020225 0.14287193
-0.27075231 -0.53739589 0.00000115
-0.51072866 -0.30360720 -0.00476663
-0.07956761 -0.21953832 0.00000254
-0.62336093 -0.27144894 -0.01597235
-0.12976208 0.48671430 0.09582173
-0.39625594 -0.77355409 0.00000012
-0.25634909 0.22310296 -0.00154048
-0.37395629 -0.10282273 0.27135029
-0.32788938 -0.22857444 0.00000250
-0.31071654 0.28692219 -0.00873003
-0.02154679 0.55298591 0.00000822
-0.09230568 -0.44552642 0.00000155
-0.52734143 0.26662093 -0.02725639
-0.34471253 0.16136968 -0.00712753
-0.54518855 -0.01570048 -0.01844126
-0.09586082 0.49559450 0.00000746
-0.59592682 -0.22941023 -0.01508061
-0.17035078 -0.06323883 0.00000322
-0.43592644 -0.04996125 -0.00745791
-0.44035098 -0.64248562 0.00000069
-0.40912524 -0.47998953 0.00000140
-0.37468758 -0.66803241 0.00000058
-0.44763640 -0.53929114 0.00000114
-0.40093586 -0.38226935 0.00000183
-0.40092194 0.34722430 -0.01897869
-0.12434487 0.49979103 0.11066668
-0.00646518 -0.13100696 0.00000293
-0.28462440 -0.30915627 0.00000215
-0.11745512 0.44227812 0.00000746
-0.06709965 -0.29533374 0.00000221
-0.62609667 -0.16262351 -0.02022574
-0.00554653 -0.28922275 0.00000223
-0.67422527 -0.20149733 -0.02307525
-0.70328444 -0.43739539 -0.01696825
-0.58857417 0.02117745 -0.02365861
-0.61385196 -0.35517550 -0.01204119
-0.31769493 0.14478648 -0.00411240
-0.33455616 -0.50183553 0.00000130
-0.76086777 -0.32213694 -0.02633822
-0.29974681 -0.34125954 0.00000201
-0.12464213 0.36220869 0.00000786
-0.00844148 -0.78031135 0.00000009
-0.17898935 0.36787593 0.05139285
-0.11405211 0.67740816 -0.00562319
-0.33808678 -0.01622519 0.03647881
-0.25743252 0.41372493 -0.00866242
-0.38200799 -0.12226184 0.08806740
-0.16443890 0.25186932 0.00000794
-0.18756852 -0.59921545 0.00000088
-0.20086087 -0.29955199 0.00000219
-0.05599846 -0.44081375 0.00000157
-0.08627640 -0.20059034 0.00000262
-0.45164561 -0.42473274 0.00000164
-0.20664062 -0.47421181 0.00000143
-0.79767621 -0.73522943 -0.01439023
-0.23172621 0.24055743 0.09438375
-0.70799989 -0.54893410 -0.01327777
-0.70389098 -0.30480295 -0.02190797
-0.13337244 0.27761269 0.00000825
-0.37118748 -0.09614243 0.19376692
-0.38954183 0.02082169 -0.00593627
-0.71645439 -0.66505951 -0.00975067
-0.37840059 -0.11355509 0.15450573
-0.15730469 0.14746128 0.00000870
-0.04449914 -0.68885797 0.00000049
-0.53743470 -0.42754051 -0.00257594
-0.50551927 -0.42044637 0.16434702
-0.34639353 -0.03628096 0.25937697
-0.75740367 -0.00972009 -0.03754213
-0.32167879 -0.25406379 0.00000239
-0.04433417 0.37724662 0.00000897
-0.23743856 0.55695653 -0.01216235
-0.50277489 0.07797082 -0.01811765
-0.50271857 -0.55937403 0.00000105
-0.33792490 -0.01582343 0.10591666
-0.59638268 -0.36796290 -0.01001578
-0.41864377 -0.29339036 0.00000222
-0.36409354 -0.07900982 0.23935673
-0.45507073 -0.60443038 0.00000086
-0.60388845 -0.49084476 -0.00615561
-0.00911506 -0.14026435 0.00000283
-0.64753789 -0.49350938 -0.00994086
-0.56819361 -0.57175499 0.16438814
-0.49081811 -0.38495114 0.05791586
-0.28981316 0.24767913 -0.00542378
-0.58668858 -0.76068944 0.00000017
-0.63808542 -0.74048460 0.15717278
-0.32373121 -0.62852347 0.00000075
-0.43300998 -0.43993586 0.00000158
-0.34156457 -0.02461922 0.21345541
-0.15431330 -0.06119590 0.00000323
-0.35501403 -0.05709304 0.26968881
-0.44682607 -0.11990215 -0.00585046
-0.77383274 -0.44561848 -0.02294128
-0.36204782 -0.07406742 0.19542481
-0.61974764 0.05381641 -0.02763526
-0.25517192 0.18394186 0.26019570
-0.32895890 0.00581639 0.17074290
-0.31134182 0.48409489 -0.01605266
-0.41374600 -0.19888398 0.08647111
-0.61184901 -0.78457481 0.00000007
-0.07608401 -0.58205318 0.00000095
-0.40714410 -0.18295144 0.25986171
-0.29054084 -0.77456933 0.00000011
-0.43017554 0.01686525 -0.00940590
-0.01848227 -0.69457364 0.00000046
-0.74152929 -0.70011604 -0.01068944
-0.39966670 0.11840598 -0.01043370
-0.19987829 0.06158166 0.00000860
-0.62331319 -0.78224599 0.00000008
-0.01452559 -0.66070908 0.00000061
-0.24939644 0.21236853 -0.00052623
-0.73725396 -0.20762566 -0.02845702
-0.29115731 -0.68723607 0.00000049
-0.41177636 -0.49263799 0.00000134
-0.61196071 -0.30451354 -0.01373972
-0.39731207 -0.15921679 0.31710616
-0.01380315 0.65047473 0.00000773
-0.40897766 0.12792847 -0.01161312
-0.10715756 0.37690249 0.00000803
-0.31222510 -0.52392787 0.00000121
-0.41465217 0.27529982 -0.01754952
-0.50410163 -0.38423425 -0.00120609
-0.59584844 -0.63851762 0.09949921
-0.62742740 0.06287111 -0.02865229
-0.29180098 0.09552511 0.12577178
-0.51307893 -0.53165638 0.00000117
-0.26259461 0.16603132 0.15425645
-0.38455650 -0.12841620 0.13817944
-0.02575150 -0.40676457 0.00000172
-0.46658754 -0.32645881 0.21573068
-0.21596403 0.03186876 0.00000854
-0.39409974 -0.15146483 0.42194980
-0.77697825 -0.65273672 -0.01558883
-0.43333527 -0.73738492 0.00000027
-0.54479092 -0.21083546 -0.01121556
-0.42368466 -0.73564762 0.00000028
-0.55786318 -0.54681575 0.18816766
-0.78387713 -0.71980804 -0.01373097
-0.05341325 0.38467020 0.00000879
-0.00197000 -0.47000477 0.00000143
-0.47457105 0.09689289 -0.01630555
-0.67213541 -0.56470764 -0.00950577
-0.24397355 0.48023859 -0.00991630
-0.04471371 -0.13879330 0.00000289
-0.22957177 0.24575242 0.16720888
-0.31015581 0.18173391 -0.00480333
-0.20158857 0.04238344 0.00000869
-0.53549820 -0.34716070 -0.00536549
-0.03173058 0.75770944 -0.00125807
-0.04232969 0.69779742 0.00204135
-0.21144472 0.28951529 0.15065202
-0.04644962 -0.68811607 0.00000049
-0.29417244 -0.61719418 0.00000080
-0.15174630 0.43364707 0.02459953
-0.36238226 -0.07488997 0.37425277
-0.36165002 -0.59134465 0.00000091
-0.40668866 -0.70756948 0.00000040
-0.20376381 -0.14601552 0.00000286
-0.63881022 0.08768644 -0.03057969
-0.25173694 -0.41260439 0.00000169
-0.06639258 0.70856845 -0.00253104
-0.03462076 -0.01671974 0.00000343
-0.07482126 -0.58321995 0.00000095
-0.35212126 -0.03500149 -0.00055311
-0.77391469 -0.40542239 -0.02442978
-0.38216677 0.25340524 -0.01385213
-0.51628733 -0.71045911 0.00000039
-0.11752871 -0.44230604 0.00000156
-0.09837150 -0.53455704 0.00000116
-0.52414930 -0.40982112 -0.00204688
-0.22650746 0.13341275 0.00000775
-0.70064104 -0.29710716 -0.02190241
-0.05763184 0.41403952 0.00000854
-0.25107422 0.19383457 0.25723481
-0.23766391 -0.19697917 0.00000264
-0.78166449 -0.68559426 -0.01479491
-0.23716842 -0.50417209 0.00000129
-0.07123712 0.45957044 0.00000805
-0.16167630 -0.79544538 0.00000002
-0.45326072 -0.44909158 0.00000154
-0.36875278 -0.31338188 0.00000213
-0.18174301 0.21157344 0.00000794
-0.01223481 -0.46643013 0.00000146
-0.38421798 0.06377968 -0.00704583
-0.40316153 0.39549568 -0.02095704
-0.26508141 -0.02833669 0.00000338
-0.45511261 0.02540365 -0.01193941
-0.59692782 -0.35062975 -0.01070298
-0.15936318 0.01912621 0.00000948
-0.39737719 -0.43083313 0.00000162
-0.40923971 -0.79692900 0.00000001
-0.06064233 -0.33808082 0.00000202
-0.28500253 -0.05030698 0.00000328
-0.47556999 -0.34814742 0.31937423
-0.08284406 0.66580033 -0.00241858
-0.52431715 -0.12842888 -0.01243055
-0.13591672 0.47185972 0.05257807
-0.44600689 -0.27676728 0.05102500
-0.51592427 -0.16920070 -0.01018149
-0.51109862 0.20225006 -0.02343869
-0.33972612 -0.02018563 0.26865032
-0.38581714 -0.00061738 -0.00481797
-0.19391309 0.21856663 0.00000771
-0.08123077 0.60388112 0.03931027
-0.21674620 -0.03228321 0.00000336
-0.10995681 -0.48444748 0.00000138
-0.54129714 0.25419381 -0.02804010
-0.45199895 -0.29123300 0.03996635
-0.10958165 0.68966448 -0.00567714
-0.75471181 -0.32449189 -0.02570381
-0.32369518 0.01851036 0.32955101
-0.40462819 -0.73063439 0.00000030
-0.63864189 -0.47145516 -0.00996205
-0.07567673 0.09474842 0.00001027
-0.60040092 -0.02973812 -0.02283617
-0.30935463 0.39774594 -0.01269335
-0.15395676 -0.32402140 0.00000208
-0.06664578 -0.29428083 0.00000221
-0.43444064 0.35448366 -0.02222869
-0.28938547 0.49282968 -0.01442096
-0.44505268 -0.27447373 0.35192540
-0.03132228 0.06742445 0.00001111
-0.09105093 0.51727015 0.00000739
-0.36967739 -0.09249692 0.19720155
-0.41896158 -0.21147583 0.09721765
-0.64021569 -0.12772530 -0.02276782
-0.57721293 -0.59352905 0.17229471
-0.45473465 -0.22715093 -0.00260218
-0.18252270 0.35934508 0.06076965
-0.23285973 -0.04513299 0.00000330
-0.54730427 0.11677899 -0.02351003
-0.25717208 0.53326392 -0.01304503
-0.37920249 0.04300832 -0.00583402
-0.14347105 -0.51296359 0.00000126
-0.28582537 -0.14393999 0.00000287
-0.45512140 -0.39942881 0.00000175
-0.70956773 -0.38543084 -0.01944205
-0.59508139 -0.63666463 0.06454911
-0.63329375 0.00973739 -0.02721597
-0.40737334 -0.30383638 0.00000217
-0.52990305 -0.41184944 -0.00248405
-0.67923969 -0.27621722 -0.02076811
-0.12524509 -0.44800341 0.00000154
-0.55972481 -0.55131006 0.25050083
-0.33999521 -0.20909102 0.00000259
-0.01457702 -0.51105767 0.00000126
-0.37548581 -0.10652105 0.34047961
-0.25884426 0.17508835 0.11780622
-0.70031136 -0.45703855 -0.01597993
-0.30503905 -0.22785276 0.00000250
-0.17631204 0.37434191 0.02101352
-0.29759666 -0.19379379 0.00000265
-0.17165427 -0.30090308 0.00000218
-0.65294224 -0.77635121 0.14641576
-0.35189420 -0.67001331 0.00000057
-0.49515939 -0.39543334 0.10124353
-0.35509813 -0.78753519 0.00000005
-0.43263757 -0.60202616 0.00000087
-0.52538067 -0.67647314 0.00000054
-0.75703853 -0.33020201 -0.02570038
-0.78741670 -0.46410736 -0.02346836
-0.29295775 -0.21030656 0.00000258
-0.51255441 -0.35534534 -0.00302262
-0.36218160 -0.47639704 0.00000142
-0.33449042 -0.00754471 0.25550464
-0.30817798 -0.67792594 0.00000053
-0.51586276 0.04266062 -0.01798077
-0.08188538 -0.10213280 0.00000305
-0.64652729 -0.69543982 -0.00241023
-0.19400835 0.21942244 0.00000770
-0.44222894 -0.51758206 0.00000124
-0.16722435 -0.57206321 0.00000100
-0.19863550 0.32044211 0.11029610
-0.36918071 -0.22667082 0.00000251
-0.50305390 -0.37734106 -0.00136688
-0.14804503 -0.37318665 0.00000187
-0.45125529 0.21616170 -0.01862675
-0.73897159 -0.67991596 -0.01120629
-0.16126157 -0.51534665 0.00000125
-0.29184970 0.09540929 0.10419138
-0.59562004 -0.36546552 -0.01003995
-0.41408846 -0.19971362 0.17170928
-0.20636345 -0.12020489 0.00000297
-0.22072905 -0.72962242 0.00000031
-0.30579805 0.06173975 0.05825238
-0.02895599 0.54116994 0.00000818
-0.60940236 -0.75060046 0.00000022
-0.57706082 -0.24172328 -0.01294842
-0.20675711 0.01101442 0.00000881
-0.08948282 0.59711087 -0.00047767
-0.41418394 -0.55148685 0.00000109
-0.19560356 0.32775593 0.17818747
-0.47569314 -0.34843889 0.13454133
-0.42738193 0.26649314 -0.01835759
-0.78768778 -0.30202720 -0.02946510
-0.23871084 0.37651062 -0.00562506
-0.54400235 -0.76477104 0.00000015
-0.17199333 -0.39523575 0.00000177
-0.34503096 -0.03299429 0.29193985
-0.44891164 -0.28378677 0.25367019
-0.09152546 -0.36836120 0.00000189
-0.30976662 -0.17188816 0.00000275
-0.03615627 -0.33885643 0.00000202
-0.28838605 0.10377736 0.03025622
-0.37500381 0.42211917 -0.01943291
-0.39242887 -0.77370989 0.00000012
-0.00328319 -0.79494542 0.00000002
-0.33896726 -0.36696976 0.00000189
-0.08631648 0.59160507 0.01986453
-0.49083257 -0.38499194 0.23324960
-0.46325475 -0.31840828 0.08272113
-0.59745038 -0.64238530 0.12398145
-0.38668504 -0.13356099 0.31882429
-0.23744440 0.22673967 0.25002035
-0.39394790 -0.15108623 0.05694260
-0.36417487 0.32459942 -0.01487520
-0.47704837 -0.74908721 0.00000022
-0.59524947 0.01444169 -0.02400430
-0.23230709 0.23916131 0.02093545
-0.22599930 -0.07254923 0.00000318
-0.25648317 -0.53374565 0.00000116
-0.22598273 -0.01142384 0.00000345
-0.29375863 0.09080874 0.01081075
-0.73877674 -0.34505519 -0.02352850
-0.53001064 -0.45206219 -0.00101186
-0.62905353 -0.31699789 -0.01480042
-0.01563619 -0.52514005 0.00000111
-0.51931101 -0.16589849 -0.01060448
-0.10454601 -0.23653370 0.00000247
-0.61613488 -0.54018420 -0.00542711
-0.64222288 0.11606513 -0.03192926
-0.77488351 -0.27134016 -0.02945688
-0.49206555 -0.38796493 0.12372153
-0.15105557 0.43530461 0.14245325
-0.06498793 -0.09928403 0.00000307
-0.10874974 0.53744733 0.02483027
-0.61763239 -0.69110727 0.05898207
-0.41820019 -0.34794199 0.00000198
-0.44384131 -0.77656972 0.00000010
-0.23996060 -0.72421390 0.00000033
-0.52944469 -0.29437640 -0.00677191
-0.06532882 0.53660315 0.00000766
-0.38591143 0.13752022 -0.00991428
-0.25307146 0.46705174 -0.01023979
-0.32323745 -0.77562654 0.00000011
-0.14431140 -0.58990985 0.00000092
-0.41035369 -0.05291687 -0.00507383
-0.17756160 0.37131429 0.15102583
-0.06757319 0.57886958 0.00000736
-0.47764593 0.18736371 -0.01991353
-0.29193863 -0.66077697 0.00000061
-0.07086813 -0.77029192 0.00000013
-0.35651740 -0.59217542 0.00000091
-0.66042417 0.05937730 -0.03145947
-0.21580353 -0.29495975 0.00000221
-0.40572166 0.31870732 -0.01835473
-0.63748926 -0.66302097 -0.00280069
-0.20472555 0.41168919 -0.00389770
-0.08397195 0.32227868 0.00000872
-0.47369310 -0.34361535 0.28233513
-0.42471996 0.36075813 -0.02159496
-0.47971082 -0.34703371 -0.00040684
-0.25129288 0.01906951 0.00000809
-0.50291091 -0.41415256 0.26702249
-0.19616659 -0.13099068 0.00000293
-0.23124722 -0.20315735 0.00000261
-0.59908056 -0.55348396 -0.00341973
-0.49573174 -0.15588248 -0.00887573
-0.44189021 -0.26682824 0.03521626
-0.42504331 -0.22616126 0.18211977
-0.51735693 -0.04738884 -0.01479747
-0.43923277 -0.26041216 0.02117460
-0.06203136 0.30988762 0.00000913
-0.27314430 0.14055915 0.19699426
-0.28534916 -0.73416352 0.00000029
-0.08251075 -0.17402107 0.00000274
-0.04198656 0.47541440 0.00000840
-0.18505915 -0.53067285 0.00000118
-0.50050414 0.09896710 -0.01868944
-0.09858508 -0.63281006 0.00000073
-0.48437008 -0.09232203 -0.01020697
-0.12615001 0.11684804 0.00000937
-0.66707987 -0.18606514 -0.02300818
-0.16892049 -0.74055600 0.00000026
-0.30309045 0.11121980 -0.00157582
-0.26161340 0.16839376 0.22958145
-0.36291963 -0.07617686 0.03722195
-0.11800251 0.59441972 -0.00291607
-0.33653146 0.10376390 -0.00427649
-0.06604942 0.02963673 0.00001082
-0.52064669 -0.02309886 -0.01598519
-0.57757419 -0.43765822 -0.00577429
-0.32361233 -0.21201898 0.00000257
-0.37088439 -0.21234302 0.00000257
-0.38505948 -0.10847290 -0.00077631
-0.01765816 0.12725621 0.00001094
-0.52908081 -0.47733074 0.26085940
-0.78613043 -0.06916970 -0.03790731
-0.05034236 -0.51036948 0.00000127
-0.39274189 -0.14817601 0.09695885
-0.17689563 0.43655446 -0.00233792
-0.45910025 -0.30837822 0.07603066
-0.62589818 -0.60091442 -0.00405795
-0.57722461 -0.14750658 -0.01643468
-0.41597563 0.01231475 -0.00797473
-0.24160233 0.01062696 0.00000829
-0.33955184 -0.01975314 0.12996559
-0.60711473 -0.46469957 -0.00740605
-0.22650529 0.51380372 -0.00959911
-0.06280149 0.69062340 -0.00155014
-0.12327728 -0.72426480 0.00000033
-0.05536905 0.22105049 0.00000978
-0.40363362 -0.00326166 -0.00630565
-0.00053111 -0.71917772 0.00000035
-0.04606037 -0.09618566 0.00000308
-0.15939271 0.22335826 0.00000820
-0.45045656 -0.79474187 0.00000002
-0.05085401 0.67721778 0.00958756
-0.58199108 -0.71454316 0.00000037
-0.03705981 -0.14980869 0.00000284
-0.26289806 0.16530383 0.09458832
-0.73807740 -0.60808855 -0.01377357
-0.11157429 0.53062528 0.06211958
-0.35348007 -0.64107096 0.00000070
-0.20294785 -0.67938995 0.00000053
-0.12055361 0.67033285 -0.00594097
-0.33331481 -0.00469651 0.13595875
-0.76473290 -0.42858613 -0.02275942
-0.38946360 -0.14026885 0.31358197
-0.36589822 -0.52656847 0.00000120
-0.13330626 0.17400309 0.00000890
-0.14752854 -0.32647476 0.00000207
-0.02866662 -0.40521160 0.00000173
-0.49055600 0.28423378 -0.02463245
-0.07858246 -0.50695753 0.00000128
-0.34448084 -0.35412759 0.00000195
-0.19852173 0.23921233 0.00000751
-0.46288171 0.09191406 -0.01508198
-0.03195195 -0.55272251 0.00000108
-0.17426743 0.17285597 0.00000829
-0.22667708 0.26942703 -0.00060768
-0.46354944 -0.66227752 0.00000060
-0.19152220 0.35050485 -0.00046791
-0.13132416 -0.18913148 0.00000267
-0.37071878 0.01149822 -0.00391783
-0.08805076 -0.07148446 0.00000319
-0.76369208 -0.59368074 -0.01658312
-0.00713473 0.71302426 0.00000744
-0.27619392 0.13321105 0.03009670
-0.75957149 -0.41419485 -0.02283058
-0.11907352 0.01521769 0.00001011
-0.26569310 0.21593454 -0.00210768
-0.06120285 -0.45301640 0.00000152
-0.49725282 -0.40049309 0.30045292
-0.19632161 -0.60870856 0.00000084
-0.37941083 -0.11599827 0.28181848
-0.70645094 -0.13586619 -0.02836070
-0.38902101 -0.60401976 0.00000086
-0.49809766 -0.51645744 0.00000124
-0.32309464 0.01997934 0.10295769
-0.10837039 0.28011641 0.00000861
-0.33418730 -0.68394011 0.00000051
-0.12599318 0.13213055 0.00000927
-0.37335491 -0.10137216 0.28622532
-0.04756843 -0.74850833 0.00000023
-0.07616595 0.62621146 -0.00036531
-0.31983411 -0.76542318 0.00000015
-0.22048452 -0.64742470 0.00000067
-0.19692764 0.32456180 0.15019818
-0.41202730 -0.19474421 0.37070471
-0.12556002 -0.36406216 0.00000191
-0.78216165 -0.17378885 -0.03369907
-0.05064937 -0.59819824 0.00000088
-0.05081090 0.20734461 0.00000994
-0.50747329 -0.63677645 0.00000071
-0.25601304 -0.76275164 0.00000016
-0.18325759 0.35757503 0.01260041
-0.62642556 -0.55770731 -0.00569697
-0.09789542 0.24065214 0.00000902
-0.65094924 -0.74719888 -0.00089643
-0.39334214 0.20445272 -0.01304229
-0.12024085 -0.05585030 0.00000326
-0.49224028 0.08868852 -0.01757532
-0.07536113 0.05480338 0.00001052
-0.73131663 -0.29190513 -0.02482326
-0.71432352 -0.62335235 -0.01109801
-0.38310778 -0.03584879 -0.00327872
-0.01151950 0.28259838 0.00001006
-0.33240005 -0.00249712 0.24218225
-0.59724265 -0.17966300 -0.01703076
-0.42621666 -0.22898841 0.01633365
-0.76777041 -0.52859676 -0.01934425
-0.76086885 -0.50500304 -0.01959973
-0.47622770 -0.02943981 -0.01179964
-0.63900572 -0.70997953 -0.00120528
-0.27203014 0.14324369 0.25857338
-0.55010074 -0.45140675 -0.00282340
-0.70809996 -0.10483100 -0.02965100
-0.43635812 0.22419596 -0.01759736
-0.04087292 0.44007596 0.00000863
-0.60113466 -0.03817307 -0.02259064
-0.01415769 -0.08980585 0.00000311
-0.40977317 -0.75547159 0.00000019
-0.12626468 0.65914124 -0.00603658
-0.42221496 -0.21933796 0.33004707
-0.42153296 -0.21769375 0.40100384
-0.09540255 0.24194857 0.00000905
-0.43345502 0.02482713 -0.00999114
-0.06246806 0.14184056 0.00001017
-0.39277303 -0.14825191 0.11796804
-0.50740266 -0.00209169 -0.01558095
-0.45119584 0.04500040 -0.01231316
-0.37394932 0.05089765 -0.00565737
-0.12776151 -0.31498075 0.00000212
-0.07524274 -0.73632997 0.00000028
-0.56910563 -0.26610836 -0.01134211
-0.34504014 -0.45648926 0.00000150
-0.09560467 -0.40311745 0.00000174
-0.44959289 -0.28542560 0.07941847
-0.22174507 -0.57099831 0.00000100
-0.59589469 -0.55422908 -0.00310884
-0.42702714 -0.22497547 -0.00021724
-0.70639515 -0.28188342 -0.02297530
-0.17488475 -0.51558095 0.00000124
-0.01465180 0.19886602 0.00001054
-0.04204887 -0.40454513 0.00000173
-0.12889536 -0.78089207 0.00000008
-0.54486221 0.10022228 -0.02268253
-0.10568413 -0.54193765 0.00000113
-0.52285928 0.04322303 -0.01862403
-0.27130303 0.14500259 0.21655796
-0.28745991 0.44625542 -0.01253310
-0.57970750 -0.76616514 0.00000015
-0.49045873 -0.37527329 -0.00032249
-0.73709643 -0.31397438 -0.02452427
-0.76631570 -0.74984592 -0.01106185
-0.77972263 -0.22881521 -0.03145439
-0.58605200 0.11168012 -0.02676975
-0.06844215 0.38012114 0.00000859
-0.09865856 -0.45409885 0.00000151
-0.25324246 -0.41874611 0.00000167
-0.68755382 0.00258322 -0.03178018
-0.04536093 0.47084233 0.00000837
-0.50845993 -0.13218448 -0.01088136
-0.01781366 -0.43452805 0.00000160
-0.24608660 -0.56377578 0.00000103
-0.73769021 -0.74044043 -0.00886199
-0.61423182 -0.01895610 -0.02446399
-0.15081242 0.43589863 0.05979170
-0.30550295 -0.38003510 0.00000184
-0.43927324 0.16828211 -0.01579598
-0.24931623 -0.46816847 0.00000145
-0.41589147 -0.20407435 0.41234854
-0.03805204 -0.69664627 0.00000045
-0.06594593 0.64078146 0.03456989
-0.14648885 -0.50468707 0.00000129
-0.64865363 -0.28383940 -0.01776604
-0.55358326 -0.39231950 -0.00531048
-0.10709722 -0.24102128 0.00000245
-0.25869492 -0.54792631 0.00000110
-0.69184947 -0.05822785 -0.02992245
-0.28716251 -0.10598335 0.00000304
-0.44153586 -0.15975013 -0.00391148
-0.38216048 -0.40034807 0.00000175
-0.17390487 -0.07338505 0.00000318
-0.29124668 -0.69970149 0.00000044
-0.43288472 -0.47120968 0.00000144
-0.14569470 -0.01130974 0.00000345
-0.28013495 -0.42423233 0.00000164
-0.13802078 0.55055177 -0.00308044
-0.59454143 -0.37898678 -0.00944576
-0.22343351 0.30134299 -0.00149537
-0.39656442 -0.15740494 0.11226335
-0.07577385 0.21612585 0.00000951
-0.35038689 -0.04591196 0.14601219
-0.55791527 -0.67507517 0.00000055
-0.57051593 -0.33472022 -0.00893938
-0.50896615 -0.37847209 -0.00185121
-0.53883153 0.07301186 -0.02114308
-0.25526407 -0.69347328 0.00000047
-0.07930416 -0.19262724 0.00000266
-0.44383493 -0.19901498 -0.00266919
-0.18630400 0.35021788 0.04361114
-0.01959015 -0.70400298 0.00000042
-0.10091837 0.20526130 0.00000919
-0.03747117 0.07584416 0.00001096
-0.54902446 -0.17028165 -0.01308653
-0.27932072 -0.39807874 0.00000176
-0.07993037 0.60701740 0.07567163
-0.19394661 0.55282056 -0.00814015
-0.27263758 0.48697162 -0.01271488
-0.57019639 0.12118299 -0.02570921
-0.46554771 0.14261103 -0.01718767
-0.24178858 -0.09490706 0.00000308
-0.56495208 -0.28624797 -0.01023047
-0.60694778 -0.16298197 -0.01850888
-0.52891284 -0.10161832 -0.01382734
-0.62214011 -0.22903140 -0.01742673
-0.55809397 -0.08093536 -0.01718567
-0.10935422 -0.27843601 0.00000228
-0.01066010 -0.75499636 0.00000020
-0.24017383 0.45857164 -0.00877966
-0.77341914 -0.72216034 -0.01271397
-0.30375627 -0.48985118 0.00000136
-0.23650035 0.22903556 0.05156375
-0.18549503 -0.60082555 0.00000087
-0.15427487 0.42754054 0.05055846
-0.76020396 -0.25485465 -0.02875850
-0.18368687 -0.50140071 0.00000131
-0.16769268 0.39513871 0.15901060
-0.02609826 -0.79143453 0.00000004
-0.41140878 0.21817689 -0.01515561
-0.21409576 0.28311211 0.18825319
-0.21132393 -0.20026565 0.00000262
-0.60209179 -0.23719232 -0.01534234
-0.13607159 -0.43786755 0.00000158
-0.10621872 0.48351225 0.00000738
-0.32935360 0.07416584 -0.00254697
-0.40051439 0.06150798 -0.00841210
-0.39671099 -0.59123266 0.00000091
-0.66031337 -0.12943223 -0.02449298
-0.03298198 0.19061673 0.00001031
-0.63795567 -0.52861059 -0.00779494
-0.44292042 0.01096800 -0.01032255
-0.24073325 0.21880636 0.17353238
-0.32590985 0.41720536 -0.01488358
-0.13779563 0.46731979 0.09959053
-0.57952738 -0.55311066 -0.00169387
-0.57293838 -0.79482758 0.00000002
-0.66536897 -0.65260231 -0.00566502
-0.43047330 -0.57474029 0.00000099
-0.68717629 -0.79065645 -0.00251793
-0.28485447 0.11228878 0.19980931
-0.13106252 -0.05112344 0.00000328
-0.09371250 -0.49652496 0.00000133
-0.04192752 -0.02437461 0.00000339
-0.54089755 -0.46664387 -0.00144315
-0.53504264 -0.74229413 0.00000025
-0.38248324 -0.12341237 0.18233065
-0.71625406 -0.57132733 -0.01318686
-0.34036145 -0.42754209 0.00000163
-0.08546095 0.71336067 -0.00440431
-0.16673541 -0.18428095 0.00000269
-0.26643020 0.52443528 -0.01354339
-0.01528349 -0.46456939 0.00000147
-0.69020969 -0.00371414 -0.03178527
-0.24291541 0.06491386 0.00000793
-0.41403237 -0.65505302 0.00000063
-0.09752699 0.38907254 0.00000810
-0.66328865 0.13206451 -0.03439329
-0.14871834 -0.04362877 0.00000331
-0.65957606 -0.54365814 -0.00916400
-0.77313679 -0.24002606 -0.03045541
-0.23209563 -0.05910795 0.00000324
-0.07324162 -0.76922029 0.00000013
-0.15585503 0.42371735 0.15000267
-0.12601039 -0.11874476 0.00000298
-0.66629094 -0.73486465 -0.00271585
-0.46741420 -0.26764646 -0.00223808
-0.43447557 -0.00872630 -0.00884825
-0.23443829 0.05875156 0.00000810
-0.04338262 -0.11394986 0.00000300
-0.56944650 -0.24035360 -0.01232145
-0.64922857 -0.28949949 -0.01760863
-0.71028620 -0.43809485 -0.01756541
-0.44455197 -0.74186343 0.00000025
-0.29798216 -0.50536335 0.00000129
-0.36834291 0.29765359 -0.01425294
-0.26374406 0.16325291 0.19524547
-0.12547462 -0.76785433 0.00000014
-0.25846687 -0.35212925 0.00000196
-0.37836272 -0.61031950 0.00000083
-0.18225300 -0.70446956 0.00000042
-0.30078709 -0.66076016 0.00000061
-0.50503367 0.11722417 -0.01976534
-0.52509159 -0.46769595 0.10212969
-0.73814958 -0.67852473 -0.01118443
-0.03595562 0.68108565 0.00000720
-0.21602866 -0.33679047 0.00000203
-0.32412204 0.01750299 0.05643557
-0.38198814 -0.46995619 0.00000144
-0.76790625 -0.23676670 -0.03011022
-0.44606125 -0.55299050 0.00000108
-0.36472335 -0.08053375 0.28005221
-0.13401273 0.04468694 0.00000970
-0.29957542 -0.54670066 0.00000111
-0.45782250 -0.30530056 0.28671151
-0.25701123 0.29354024 -0.00419542
-0.04828162 0.23497169 0.00000980
-0.06971082 -0.05940846 0.00000324
-0.50502837 -0.25918090 -0.00589651
-0.33470097 -0.23960587 0.00000245
-0.46166590 -0.31457192 0.06611859
-0.29306296 -0.21660043 0.00000255
-0.61995947 0.03787867 -0.02706671
-0.49982288 -0.40669760 0.29147831
-0.18845475 -0.23244403 0.00000248
-0.57008284 -0.08451472 -0.01812041
-0.12462479 0.49912384 0.00924257
-0.52549225 -0.05324030 -0.01530564
-0.58320719 -0.12958470 -0.01762733
-0.55533731 -0.16330570 -0.01390523
-0.22643054 0.25334269 0.08638881
-0.09093720 0.20593034 0.00000934
-0.05269769 -0.63738477 0.00000071
-0.43728882 0.02654501 -0.01039557
-0.59261823 -0.44228181 -0.00694236
-0.57057327 -0.20440401 -0.01374636
-0.15345994 0.42950332 0.10478196
-0.24656893 0.20473576 0.00000667
-0.41388386 -0.19922026 0.18945871
-0.07306131 0.43581054 0.00000817
-0.15269484 0.43134925 0.11814234
-0.74563235 -0.71586996 -0.01047391
-0.41902432 -0.21163729 0.39464417
-0.75291622 -0.03855010 -0.03608056
-0.23553979 -0.27265748 0.00000231
-0.57782400 -0.69241178 0.00000047
-0.61641961 -0.76729798 0.00000014
-0.56350487 -0.56043285 0.07926364
-0.27323207 -0.04294592 0.00000331
-0.32647702 0.01179557 0.31765357
-0.10853700 -0.25884351 0.00000237
-0.54825902 -0.52362752 0.11873771
-0.32642373 -0.15899119 0.00000280
-0.07729188 -0.20907161 0.00000259
-0.73173124 -0.49876586 -0.01723755
-0.24643648 -0.22597641 0.00000251
-0.74117130 -0.70507532 -0.01047485
-0.42615858 -0.66596293 0.00000059
-0.75359225 -0.69995081 -0.01176863
-0.65045619 -0.75635844 -0.00051505
-0.24835189 0.43415630 -0.00860747
-0.04412234 0.18216529 0.00001020
-0.28431183 -0.61215401 0.00000082
-0.74076992 -0.52201748 -0.01718480
-0.62392247 0.03776373 -0.02741508
-0.49239460 -0.38875762 0.07324832
-0.46443510 -0.64321619 0.00000069
-0.70626813 0.02144737 -0.03414057
-0.20820072 0.52922207 -0.00853869
-0.27888554 0.20615539 -0.00292108
-0.15146922 0.43430454 0.16022949
-0.10556680 -0.33455834 0.00000204
-0.03044227 0.15887195 0.00001055
-0.75629872 -0.28362101 -0.02735107
-0.18786272 0.34645477 0.04499569
-0.26471269 0.16090867 0.26406643
-0.20948826 0.04810897 0.00000854
-0.52975345 0.16600007 -0.02376250
-0.59618843 -0.36375922 -0.01015340
-0.32322231 0.01965953 0.23981826
-0.12827803 0.57705408 -0.00319033
-0.41477627 0.17130338 -0.01372768
-0.44030195 -0.26299986 0.21416819
-0.26518053 -0.61197209 0.00000082
-0.47308061 0.23270682 -0.02117848
-0.39134115 -0.04503328 -0.00367280
-0.24720523 -0.48016578 0.00000140
-0.55569714 0.11156830 -0.02406476
-0.54152155 0.00860688 -0.01900873
-0.63389623 0.15211356 -0.03251698
-0.48792356 -0.56064230 0.00000105
-0.19769526 0.10990732 0.00000833
-0.77952325 0.01483920 -0.04041504
-0.09782702 0.56381506 0.04133409
-0.46024150 -0.72632957 0.00000032
-0.52316326 -0.55096227 0.00000109
-0.24067679 0.21894786 0.11210050
-0.49781084 0.12816703 -0.01952599
-0.09522689 0.23348825 0.00000910
-0.33951232 -0.53546631 0.00000116
-0.25298154 0.18925118 0.00744791
-0.23120950 -0.23244675 0.00000248
-0.63584018 -0.59757292 -0.00506561
-0.43087652 -0.24024956 0.35289401
-0.59252834 -0.49814880 -0.00487578
-0.47369668 -0.79157120 0.00000004
-0.48227194 -0.36432552 0.25506422
-0.63445240 -0.16296314 -0.02095662
-0.22402821 0.25914073 0.10438311
-0.72506380 -0.05761482 -0.03290007
-0.38704774 -0.13442756 0.04900183
-0.45770058 -0.30500737 0.32156992
-0.35437363 -0.05555417 0.35399389
-0.38278759 0.21868491 -0.01262772
-0.30072790 0.21097171 -0.00504205
-0.19620512 0.14379816 0.00000814
-0.28593403 -0.71723509 0.00000036
-0.72923309 -0.26509953 -0.02562562
-0.32721293 -0.55179358 0.00000109
-0.51803333 -0.00988284 -0.01623966
-0.25136077 -0.59269768 0.00000091
-0.07387592 0.18210737 0.00000975
-0.14971921 -0.27798387 0.00000228
-0.39369282 -0.50562370 0.00000129
-0.17088838 0.24552985 0.00000789
-0.49591058 -0.39724672 0.09651695
-0.17318247 0.38189542 0.04186177
-0.69004911 -0.40979451 -0.01680776
-0.62575293 -0.13530107 -0.02120193
-0.65931636 -0.09837669 -0.02554861
-0.05182896 -0.30721781 0.00000216
-0.03094644 0.48324004 0.00000851
-0.25899610 0.27075562 -0.00353228
-0.02307206 -0.02617949 0.00000339
-0.44294748 -0.26938909 0.28536493
-0.36449763 -0.00560520 -0.00273742
-0.48162270 -0.36275357 0.11999400
-0.16087510 -0.72970206 0.00000031
-0.23467986 0.23343012 0.05606253
-0.14099810 -0.28495121 0.00000225
-0.06516424 0.53303546 0.00000769
-0.30200502 0.46394813 -0.01447935
-0.22300725 0.01101373 0.00000857
-0.25214016 0.05780631 0.00000783
-0.56765914 -0.72634804 0.00000032
-0.26255244 0.30842948 -0.00523722
-0.75853008 -0.24009879 -0.02915335
-0.06688367 0.00133250 0.00001098
-0.26764348 0.15385117 0.05271684
-0.42626795 -0.22911620 0.13453814
-0.20444061 0.30643597 0.01268456
-0.14021152 -0.78169715 0.00000008
-0.29583165 0.38844144 -0.01114720
-0.07616594 0.43996599 0.00000810
-0.70409250 -0.17451575 -0.02672672
-0.34673557 -0.47577342 0.00000142
-0.77594298 -0.49283409 -0.02138911
-0.71134204 -0.22767328 -0.02541295
-0.25356463 0.24563599 -0.00212320
-0.03585564 -0.62570810 0.00000076
-0.12310190 0.50279135 0.11580987
-0.22285131 0.29244128 -0.00111548
-0.32767057 0.36537421 -0.01312995
-0.78780705 -0.42474172 -0.02495370
-0.76883417 -0.19308357 -0.03180248
-0.47099376 -0.33040068 -0.00024419
-0.58255571 -0.14031456 -0.01717400
-0.13792899 -0.74588144 0.00000024
-0.19195876 -0.20420466 0.00000261
-0.51424366 -0.28794244 -0.00565657
-0.15163492 -0.43372136 0.00000160
-0.35117567 -0.68367189 0.00000051
-0.48239371 -0.48072484 0.00000140
-0.33675855 -0.01300255 0.04540419
-0.17967306 0.02899815 0.00000911
-0.73629147 -0.63165659 -0.01274622
-0.41021824 -0.19036821 0.11602356
-0.68710095 -0.13012426 -0.02685074
-0.31768149 0.03304153 0.17346139
-0.21150252 -0.44188574 0.00000157
-0.15526679 0.42514941 0.00887225
-0.20150232 -0.16034463 0.00000280
-0.20662108 0.30115777 0.18051291
-0.45361200 -0.29512995 0.12085538
-0.72223467 -0.67419738 -0.00992814
-0.02611120 -0.68995339 0.00000048
-0.34194246 -0.02553454 0.06516504
-0.64272767 -0.40082112 -0.01292828
-0.16957697 -0.45576003 0.00000151
-0.05306374 -0.04474647 0.00000330
-0.43353552 -0.24665767 0.01799006
-0.44715858 -0.22565328 -0.00198333
-0.04930343 -0.17002431 0.00000276
-0.05577155 -0.09225494 0.00000310
-0.48354644 -0.36739433 0.01344271
-0.58741891 -0.34477848 -0.01007259
-0.38845709 0.37558311 -0.01891480
-0.26313290 0.25170419 -0.00319820
-0.49967277 -0.48018801 0.00000140
-0.21858962 -0.41579258 0.00000168
-0.56572455 0.05776933 -0.02297415
-0.44287261 -0.26920554 0.20092805
-0.27372381 -0.23266485 0.00000248
-0.01122511 -0.08976911 0.00000304
-0.54502463 0.02647745 -0.01997905
-0.26579410 0.03427870 0.00000778
-0.28228137 -0.45021272 0.00000153
-0.31404960 0.04180553 0.22019991
-0.23293005 0.23765583 0.03956376
-0.53427428 -0.11987103 -0.01363176
-0.01197594 -0.13971956 0.00000289
-0.02272323 0.37222442 0.00000933
-0.35362720 -0.32484302 0.00000208
-0.27784500 0.12922509 0.03009890
-0.63805717 0.07631036 -0.03009341
-0.14151993 -0.16618486 0.00000277
-0.19553344 0.13374931 0.00000821
-0.56306988 -0.55938238 0.07067589
-0.56166589 -0.55599123 0.02212675
-0.69037598 -0.12910591 -0.02717964
-0.43966863 -0.26146674 0.09090182
-0.48392761 -0.36832401 0.33524770
-0.14870939 -0.31780100 0.00000211
-0.43591732 -0.25240830 0.03091778
-0.28354359 0.11547001 0.00424475
-0.23496869 0.37397462 -0.00519863
-0.13938744 -0.06974758 0.00000319
-0.13077058 -0.31319091 0.00000213
-0.44959602 -0.78863674 0.00000005
-0.41874033 -0.21095128 0.38292149
-0.19114658 0.33851480 0.18976966
-0.02552083 -0.28715771 0.00000224
-0.68140894 -0.68787664 -0.00579229
-0.47843516 -0.13008305 -0.00828753
-0.64134765 -0.70531058 -0.00158569
-0.41727328 -0.20739947 0.08346483
-0.10171872 -0.69513792 0.00000046
-0.11138357 -0.43307638 0.00000161
-0.75970584 -0.27256995 -0.02806138
-0.41708079 -0.11643567 -0.00333179
-0.20877153 0.54724139 -0.00925359
-0.48567006 -0.36187032 -0.00039033
-0.43285134 0.29714888 -0.01997408
-0.17671253 -0.26739198 0.00000233
-0.17111652 -0.67325395 0.00000055
