ply
format ascii 1.0
element vertex 1409
property float x
property float y
property float z
end_header
-0.67186087 0.06154635 0.00000000
-0.21906957 -0.32116017 0.00000000
0.19461600 0.34463638 0.00000000
0.39968607 0.42286226 0.00457187
0.74034715 -0.61118346 0.00000000
-0.51346308 0.07201135 0.00000000
0.57317877 -0.10183418 0.00000000
-0.70787382 -0.36176318 0.00000000
-0.11834631 0.24331066 0.00000000
0.72005534 0.37883195 0.06060204
-0.20454651 -0.22880109 0.00000000
0.00878605 0.18319689 0.00000000
0.10058188 0.19081625 0.00000000
0.26257494 0.02094144 0.00000000
0.58951455 0.02674149 0.00000000
-0.13109884 0.36978319 0.00000000
-0.27787805 0.14899977 0.00000000
-0.55930716 0.25716236 0.00000000
-0.15199630 0.46390846 0.00000000
-0.54415143 0.18442228 0.00000000
-0.73230618 -0.62419504 0.00000000
0.28284898 0.41561985 0.00000000
-0.48094091 0.20194688 0.00000000
0.22933017 0.59185833 0.00429616
0.37927315 0.00626086 0.00000000
0.03548446 -0.79550898 0.00000000
-0.24534494 -0.70855051 0.00000000
-0.48175994 -0.04546039 0.00000000
0.51184195 -0.34261397 0.00000000
0.75997031 0.73814940 0.14154947
0.64095825 -0.10438917 0.00000000
-0.76801080 -0.10423255 0.00000000
-0.38611302 0.23123939 0.00000000
0.56626403 0.23651801 0.00056408
-0.19237772 -0.03480417 0.00000000
-0.67586631 0.05386946 0.00000000
0.11905818 0.36130112 0.00000000
0.51883781 -0.08878014 0.00000000
0.10835305 -0.24994995 0.00000000
-0.64818740 0.51861018 0.00000000
-0.14722143 0.32937026 0.00000000
-0.05554578 0.37675232 0.00000000
-0.40384406 0.77976429 0.00000000
-0.47958997 -0.25535181 0.00000000
0.43064633 -0.08161756 0.00000000
-0.36811268 -0.47212982 0.00000000
-0.51107925 -0.22330455 0.00000000
0.01149154 -0.16114463 0.00000000
0.10810629 -0.50461775 0.00000000
0.66757238 -0.30113384 0.00000000
0.03852688 -0.77434802 0.00000000
0.11644118 0.04473511 0.00000000
-0.44202316 -0.46202961 0.00000000
0.73226786 -0.47742832 0.00000000
0.51967734 0.15334880 0.00000000
-0.27232864 -0.12842096 0.00000000
0.48416474 0.39303726 0.01565338
0.38663015 -0.19716047 0.00000000
-0.52233016 0.16424412 0.00000000
0.51056504 0.28208533 0.00000000
0.28632614 -0.50802118 0.00000000
-0.21668886 0.21298200 0.00000000
0.34090471 -0.01726214 0.00000000
-0.36826724 -0.17156377 0.00000000
-0.36944619 -0.51495570 0.00000000
-0.73036212 0.70385832 0.00000000
0.65748388 0.08284589 0.00000000
0.35528499 -0.08641831 0.00000000
-0.27620000 -0.78460240 0.00000000
0.03616825 -0.62935156 0.00000000
-0.45041117 0.67025810 0.00000000
0.38843188 0.04943135 0.00000000
0.30461571 0.10292438 0.00000000
0.70961475 0.65148938 0.11376854
-0.45789751 -0.69904160 0.00000000
0.71773440 -0.44033214 0.00000000
-0.29257482 -0.57301605 0.00000000
-0.32616985 0.05691084 0.00000000
0.01430556 -0.03252527 0.00000000
0.57153523 0.18705374 0.00000000
0.72646612 -0.59202397 0.00000000
-0.69268435 0.37388560 0.00000000
0.30576903 0.31760061 0.00000000
0.41396746 0.17186259 0.00000000
-0.54118770 0.22309022 0.00000000
-0.49120113 -0.10216414 0.00000000
-0.02070592 -0.21821941 0.00000000
-0.26044616 0.51726341 0.00000000
0.68243408 -0.36609527 0.00000000
-0.66139603 0.23102131 0.00000000
-0.75946975 0.56352931 0.00000000
0.49174324 -0.13912022 0.00000000
-0.09685821 0.18307637 0.00000000
0.06875072 0.76510429 0.00686440
-0.58101505 -0.72335833 0.00000000
0.27976447 -0.00381694 0.00000000
-0.62309831 0.26936242 0.00000000
0.60876560 0.28681889 0.01938060
-0.77195108 -0.00373871 0.00000000
-0.04163507 0.19634442 0.00000000
0.40168500 -0.05230495 0.00000000
0.64579630 -0.13818467 0.00000000
-0.35359976 -0.32415819 0.00000000
0.65291572 -0.39607853 0.00000000
-0.79246235 0.00930887 0.00000000
0.73045862 0.67874205 0.12352047
-0.64692461 -0.23049116 0.00000000
0.27722090 0.78631109 0.05343325
-0.36190945 -0.16128168 0.00000000
-0.48660555 -0.72293276 0.00000000
-0.00105122 -0.43561348 0.00000000
-0.25964490 0.38572431 0.00000000
-0.68500471 0.35208938 0.00000000
0.04230382 0.51972717 0.00000000
-0.68664879 -0.03928494 0.00000000
-0.43585229 0.53412551 0.00000000
-0.37721956 0.72942781 0.00000000
-0.49161872 -0.63383591 0.00000000
-0.13074678 -0.30578083 0.00000000
0.65507489 0.52397561 0.07685584
-0.02340197 0.53618121 0.00000000
-0.64369601 -0.05983062 0.00000000
-0.68232220 -0.01570329 0.00000000
-0.18965776 -0.55944765 0.00000000
0.06644390 0.79700863 0.01286552
0.42303774 -0.74453986 0.00000000
0.73946971 -0.78999180 0.00000000
0.46965224 0.74428499 0.08392917
0.08709901 0.72307307 0.00206248
0.30005181 -0.24122304 0.00000000
-0.03928665 -0.00267663 0.00000000
0.37800711 0.25250867 0.00000000
0.25537810 0.39652592 0.00000000
0.75413162 0.23313776 0.03797052
0.41773266 -0.48335245 0.00000000
0.05463620 0.43837127 0.00000000
0.32007790 -0.03965239 0.00000000
-0.56307662 -0.67863661 0.00000000
0.09443543 0.79417896 0.01796728
0.53767776 -0.34117177 0.00000000
-0.09512816 0.20541900 0.00000000
-0.50462091 -0.33859682 0.00000000
0.13075842 -0.03283021 0.00000000
0.10068131 -0.06396714 0.00000000
-0.63752198 -0.01008463 0.00000000
-0.08853068 -0.41469043 0.00000000
0.04203675 -0.52006614 0.00000000
-0.63553470 -0.72239512 0.00000000
0.13713299 -0.34253222 0.00000000
-0.18521339 -0.24855463 0.00000000
-0.41929114 0.10953240 0.00000000
-0.34219229 -0.49836433 0.00000000
0.71167803 -0.37416804 0.00000000
-0.33434880 0.55091596 0.00000000
0.19536564 -0.00606548 0.00000000
0.78039330 -0.23738045 0.00000000
-0.13092284 -0.09082799 0.00000000
0.72283930 0.28357619 0.04185257
-0.46743730 0.07983980 0.00000000
-0.63301653 0.29008210 0.00000000
0.40821221 -0.74176329 0.00000000
-0.70167452 -0.26971120 0.00000000
-0.71061707 -0.63707030 0.00000000
-0.55556333 0.31134272 0.00000000
-0.22070432 -0.39865521 0.00000000
-0.41357502 0.07885724 0.00000000
0.67007864 -0.14059646 0.00000000
-0.42017809 -0.58601886 0.00000000
-0.57394791 0.23121911 0.00000000
0.36356303 -0.55179763 0.00000000
0.05081567 -0.41003302 0.00000000
0.21522237 0.03476293 0.00000000
-0.02626275 0.23842742 0.00000000
0.31403717 -0.03028442 0.00000000
-0.52162701 -0.04315979 0.00000000
-0.54858100 -0.36793640 0.00000000
0.27982867 0.73781109 0.04412828
-0.67518765 0.08531310 0.00000000
-0.19311751 0.62691760 0.00000000
-0.33535737 0.58218545 0.00000000
0.26106834 0.54757613 0.00175274
0.02905577 0.12578949 0.00000000
-0.11977198 -0.42418832 0.00000000
-0.58838731 0.70803577 0.00000000
0.34060127 -0.13437928 0.00000000
0.13384958 0.40368095 0.00000000
-0.68576914 0.19986022 0.00000000
-0.75101483 0.42609644 0.00000000
0.25907159 0.43514147 0.00000000
0.43070951 -0.34380776 0.00000000
0.13654973 -0.23173615 0.00000000
0.40055907 -0.06282456 0.00000000
-0.37575874 0.36287069 0.00000000
0.09966711 0.28965142 0.00000000
0.67687482 0.62445569 0.10164899
0.29909253 0.26619983 0.00000000
0.57636756 0.03611421 0.00000000
-0.36203441 0.12878984 0.00000000
0.43036976 -0.00001320 0.00000000
-0.06361251 -0.63426483 0.00000000
-0.63383514 -0.57204002 0.00000000
0.10076102 0.44785133 0.00000000
0.39701492 0.46321502 0.01221215
-0.33233467 0.09319994 0.00000000
0.28870815 -0.73642486 0.00000000
0.09763227 -0.62619883 0.00000000
0.44950265 -0.19044445 0.00000000
-0.58773339 -0.64220268 0.00000000
0.55263084 -0.62150848 0.00000000
-0.72199017 0.31247795 0.00000000
0.55841202 -0.06674650 0.00000000
-0.18850300 0.50692761 0.00000000
-0.58278942 0.57459342 0.00000000
-0.67399329 0.10420404 0.00000000
-0.49028885 0.49754083 0.00000000
-0.36387494 -0.61665136 0.00000000
0.59692001 -0.02932818 0.00000000
0.36034146 -0.28472415 0.00000000
0.69227403 -0.13400708 0.00000000
0.29776147 -0.38496804 0.00000000
0.69408518 -0.09989382 0.00000000
-0.14106055 0.36351648 0.00000000
0.59603554 -0.73609978 0.00000000
-0.00196054 -0.29092577 0.00000000
-0.02720864 -0.73871899 0.00000000
0.06659522 -0.41108933 0.00000000
0.59264940 0.16171911 0.00000000
0.17170674 0.14585771 0.00000000
0.24100225 0.76873159 0.04252526
0.26252803 -0.35752568 0.00000000
0.15683641 0.65194285 0.00178007
-0.12542360 0.20941383 0.00000000
0.52237636 0.44038358 0.03300101
0.30541879 -0.66087741 0.00000000
0.61619085 0.59316468 0.08300035
0.06169909 -0.43361646 0.00000000
0.79099166 0.13615750 0.02578062
-0.49560124 0.24577425 0.00000000
-0.53846526 -0.07222254 0.00000000
-0.24757865 0.65143794 0.00000000
-0.45202035 -0.41735837 0.00000000
0.75834113 0.26661193 0.04561122
0.03971323 -0.09979756 0.00000000
0.00876980 0.19270919 0.00000000
-0.56956500 0.13318999 0.00000000
0.65977043 -0.28213644 0.00000000
0.17756847 0.65913123 0.00744119
0.00883610 -0.36256674 0.00000000
-0.62040842 0.37751213 0.00000000
-0.30290118 -0.54472560 0.00000000
0.27053043 -0.28635380 0.00000000
-0.66907746 0.07165210 0.00000000
-0.07241811 0.42624661 0.00000000
0.66516972 0.45808381 0.06554252
0.48702326 -0.72450912 0.00000000
-0.61224067 0.76960582 0.00000000
-0.24764773 0.59669298 0.00000000
-0.77066374 -0.28507817 0.00000000
0.40523916 0.01466144 0.00000000
0.72830284 0.20866545 0.02777153
0.76913905 -0.03848965 0.00000000
0.77141219 -0.61784267 0.00000000
-0.54569799 -0.43232614 0.00000000
-0.24507049 0.53225690 0.00000000
0.17665476 0.34057963 0.00000000
-0.57026142 -0.26082736 0.00000000
0.58165056 0.55291444 0.06783601
-0.54467452 0.25842950 0.00000000
0.34329134 -0.79322749 0.00000000
0.58257556 0.77641201 0.11333926
-0.15440716 -0.24640459 0.00000000
-0.07612152 -0.38370982 0.00000000
0.50854975 -0.45618820 0.00000000
-0.30947182 -0.37949127 0.00000000
-0.56773221 -0.00975155 0.00000000
-0.60172552 0.29932779 0.00000000
0.36616075 0.02626215 0.00000000
0.51038700 -0.30912501 0.00000000
0.24658452 -0.10729157 0.00000000
0.70311815 0.52937675 0.08769211
-0.66756660 0.49322346 0.00000000
0.15610033 0.58994621 0.00000000
-0.78904849 0.50364310 0.00000000
0.02352628 0.53355092 0.00000000
-0.26811460 -0.36631650 0.00000000
-0.35871011 0.45731413 0.00000000
0.77326787 0.54618907 0.10532435
-0.14503370 0.38274041 0.00000000
-0.69607735 -0.51134527 0.00000000
0.25260165 0.37128517 0.00000000
0.10549960 0.69379658 0.00000000
0.28484187 0.58031923 0.01321199
-0.51821452 -0.14175977 0.00000000
-0.79001629 -0.13501634 0.00000000
0.67466336 0.20189703 0.01552330
-0.72523236 -0.71012473 0.00000000
0.77903098 -0.76888913 0.00000000
-0.51866192 -0.67948055 0.00000000
-0.50745130 -0.71159470 0.00000000
-0.43719211 0.11602490 0.00000000
-0.17879121 -0.19615534 0.00000000
0.69365221 -0.53658140 0.00000000
-0.74578530 0.45807782 0.00000000
0.09254343 -0.21832314 0.00000000
-0.36816260 0.65355712 0.00000000
-0.24098036 -0.57790905 0.00000000
0.70135587 -0.65900743 0.00000000
0.26582608 0.75840843 0.04546540
-0.44416335 0.05044426 0.00000000
0.75024718 -0.76632571 0.00000000
-0.48193517 -0.78325969 0.00000000
0.07848958 0.33914879 0.00000000
0.10266343 -0.56987029 0.00000000
-0.13998231 -0.66084242 0.00000000
-0.23551828 -0.70773035 0.00000000
-0.35808358 0.70178497 0.00000000
-0.73171186 -0.11043819 0.00000000
0.71741480 -0.52866775 0.00000000
-0.22221307 -0.10353369 0.00000000
-0.51316392 0.33274916 0.00000000
0.17843570 0.25126156 0.00000000
-0.23343419 0.26163840 0.00000000
-0.34543860 -0.67099178 0.00000000
-0.46388918 -0.47120219 0.00000000
0.79947209 -0.53296399 0.00000000
0.00335631 -0.61195463 0.00000000
0.43836960 0.45166478 0.01825527
0.33556581 -0.06373169 0.00000000
0.56915969 0.37619498 0.02947195
0.28587517 -0.68077528 0.00000000
0.35541251 0.19621179 0.00000000
0.49030173 -0.21542543 0.00000000
-0.78307867 -0.57569081 0.00000000
0.44943187 0.07863368 0.00000000
0.31420383 0.30289823 0.00000000
-0.48176154 0.08262740 0.00000000
0.74562550 0.30928782 0.05168593
-0.58650643 0.26427418 0.00000000
-0.23474082 -0.15125544 0.00000000
0.71277374 -0.16353677 0.00000000
0.68954104 -0.58252996 0.00000000
-0.21652509 0.67675340 0.00000000
-0.31356189 0.19111191 0.00000000
0.20522311 -0.70076567 0.00000000
0.60171264 0.41464725 0.04386888
-0.05500514 0.03110453 0.00000000
-0.56574243 0.18145375 0.00000000
-0.19882117 -0.23572549 0.00000000
-0.30758807 -0.43191081 0.00000000
0.57284182 0.02236540 0.00000000
0.54826719 -0.37466836 0.00000000
-0.24509916 0.50057280 0.00000000
0.10238508 -0.15125436 0.00000000
-0.09848723 0.76276875 0.00000000
0.52467918 0.07150326 0.00000000
-0.13356118 0.39909369 0.00000000
0.73852599 -0.37342668 0.00000000
-0.07977328 0.67873061 0.00000000
0.11174443 -0.27131647 0.00000000
-0.58819580 0.02145017 0.00000000
0.60019231 0.20702595 0.00146356
-0.25748768 0.51100177 0.00000000
-0.65668213 -0.33979142 0.00000000
-0.41111413 0.71996570 0.00000000
0.05747027 0.31030869 0.00000000
-0.13583343 -0.45822856 0.00000000
0.63464558 -0.55815858 0.00000000
0.18039016 0.41394708 0.00000000
-0.51170176 -0.75917244 0.00000000
-0.69274580 -0.72938144 0.00000000
0.45508689 -0.76188946 0.00000000
-0.21252222 -0.33301309 0.00000000
-0.57926458 0.64314705 0.00000000
0.33339196 0.01993199 0.00000000
-0.24269825 0.17640834 0.00000000
-0.12416477 -0.61909229 0.00000000
-0.02383780 0.44558313 0.00000000
0.00600434 -0.56592971 0.00000000
-0.44909754 -0.04855082 0.00000000
0.55839288 0.56717205 0.06601116
0.04168157 0.25725815 0.00000000
-0.03160119 -0.69451916 0.00000000
0.27022922 0.21172695 0.00000000
0.14972469 0.42748865 0.00000000
0.53966492 -0.41125947 0.00000000
-0.65851003 -0.62330616 0.00000000
-0.30460384 -0.40631190 0.00000000
-0.54907483 0.76758248 0.00000000
0.14654349 0.79534978 0.02877001
-0.45426717 0.70837468 0.00000000
-0.24699448 0.01803550 0.00000000
0.46207049 -0.29790378 0.00000000
-0.08371588 0.38037309 0.00000000
-0.46699744 0.62210888 0.00000000
0.39224002 -0.01780785 0.00000000
-0.53380078 -0.49097580 0.00000000
0.78578550 0.21457817 0.04062551
0.13265817 0.75891531 0.01856730
0.58686292 0.18235686 0.00000000
0.13149554 -0.56961107 0.00000000
-0.03932154 -0.11771872 0.00000000
0.60429150 -0.44067127 0.00000000
0.14503820 0.20377207 0.00000000
-0.08942274 -0.23631378 0.00000000
0.23806286 0.68837261 0.02563591
-0.40739596 -0.47011915 0.00000000
0.06357178 -0.75663632 0.00000000
-0.60405064 -0.63276255 0.00000000
-0.24526589 -0.67421317 0.00000000
-0.50804752 -0.16317344 0.00000000
0.06763255 -0.06020448 0.00000000
0.40686768 0.11894019 0.00000000
-0.72537988 -0.23561707 0.00000000
0.05003178 0.01533143 0.00000000
-0.62976378 0.22680719 0.00000000
-0.53727806 -0.38136953 0.00000000
-0.12113873 -0.78077155 0.00000000
0.16107029 -0.26714820 0.00000000
0.39191073 0.16244970 0.00000000
-0.29893953 0.60177225 0.00000000
0.13436209 0.77820462 0.02282383
-0.40155184 0.75542969 0.00000000
0.75654650 0.01898692 0.00000000
-0.53509730 -0.05600150 0.00000000
0.44068950 -0.57532126 0.00000000
0.39048046 -0.18320733 0.00000000
0.01036466 -0.63356930 0.00000000
0.08492782 0.60933822 0.00000000
0.73924440 0.58978760 0.10726572
0.52980548 -0.04131151 0.00000000
-0.64531004 0.72692609 0.00000000
-0.30641192 -0.20278706 0.00000000
0.68722808 0.51195979 0.08093886
0.40614247 -0.70705539 0.00000000
0.61146557 -0.42187911 0.00000000
-0.64066625 -0.77887648 0.00000000
-0.31844303 -0.09717761 0.00000000
-0.53674996 0.11596615 0.00000000
0.44108403 0.38700056 0.00569440
-0.10203677 -0.23299617 0.00000000
-0.05079134 -0.12706812 0.00000000
0.29505160 0.34368819 0.00000000
-0.53722495 -0.48447201 0.00000000
0.16917455 -0.72636378 0.00000000
-0.12910742 0.02050595 0.00000000
0.71589005 -0.70083594 0.00000000
0.54376525 0.66214401 0.08230152
-0.01552991 0.09094211 0.00000000
0.51098871 0.57011312 0.05699589
0.61356229 -0.15085474 0.00000000
0.15794951 0.28200883 0.00000000
0.09640555 -0.00652090 0.00000000
-0.44572371 0.70054430 0.00000000
0.32566512 0.19634582 0.00000000
-0.26402083 0.23158474 0.00000000
-0.69054449 -0.24967901 0.00000000
0.64639783 -0.13784049 0.00000000
0.23985893 0.04519539 0.00000000
-0.47861147 0.31297404 0.00000000
-0.57887912 0.72031093 0.00000000
0.06687601 0.57992721 0.00000000
-0.72627664 0.46040094 0.00000000
0.35743999 -0.69318420 0.00000000
-0.70499331 0.43238696 0.00000000
0.08212161 0.03294711 0.00000000
0.57868195 -0.53974223 0.00000000
-0.04498156 0.26191586 0.00000000
-0.46847132 -0.78961521 0.00000000
-0.54038209 -0.19646540 0.00000000
-0.76054507 -0.55997676 0.00000000
-0.44769219 -0.18059537 0.00000000
0.32766762 0.37797555 0.00000000
0.12385623 0.46459961 0.00000000
0.17932300 -0.67853695 0.00000000
-0.50526196 -0.19160362 0.00000000
0.54611719 0.00191490 0.00000000
-0.38926309 -0.55439514 0.00000000
-0.32645053 -0.14136417 0.00000000
-0.67193341 0.78484583 0.00000000
0.79129446 0.42035818 0.08346622
-0.22114423 -0.31072018 0.00000000
0.30139530 0.72010773 0.04491161
0.26576686 -0.69121593 0.00000000
-0.14032683 0.33068678 0.00000000
-0.31643122 0.00276219 0.00000000
-0.23709466 0.23577984 0.00000000
0.71738136 -0.69761956 0.00000000
0.13721992 0.16274254 0.00000000
0.16064484 0.24177054 0.00000000
0.14436413 0.35710970 0.00000000
0.63256484 0.13283253 0.00000000
0.62268800 0.27730450 0.02027436
-0.40694445 -0.09672406 0.00000000
0.31507146 -0.27513933 0.00000000
-0.73168325 -0.08604752 0.00000000
-0.77694470 0.72288030 0.00000000
-0.71393692 -0.72978109 0.00000000
-0.11049789 -0.68322885 0.00000000
-0.45591193 0.21133985 0.00000000
-0.04038252 0.30476454 0.00000000
-0.78144276 -0.19931291 0.00000000
0.06329450 -0.69936448 0.00000000
0.23917906 -0.19640496 0.00000000
0.03323408 0.12762073 0.00000000
-0.50342798 -0.62839466 0.00000000
0.51698852 0.12707826 0.00000000
0.70134079 0.37600622 0.05623456
-0.65962178 -0.05130075 0.00000000
0.73996598 0.13193563 0.01457869
-0.69626904 0.26634580 0.00000000
0.22569706 -0.21029660 0.00000000
-0.00351593 0.68618804 0.00000000
-0.73825473 0.10126401 0.00000000
-0.65650755 -0.03308572 0.00000000
-0.32951641 -0.26434648 0.00000000
-0.03665376 0.65039766 0.00000000
0.08243005 -0.14536498 0.00000000
-0.55781114 0.33688539 0.00000000
0.51753104 0.14403816 0.00000000
-0.62872446 0.19951910 0.00000000
-0.04103554 0.26811582 0.00000000
-0.04054549 0.41295326 0.00000000
0.08736780 0.64529884 0.00000000
0.57921737 0.66496730 0.09006216
0.43792120 -0.77674162 0.00000000
0.11592353 -0.79690826 0.00000000
0.52469403 -0.03960902 0.00000000
0.17160235 -0.23595633 0.00000000
-0.32178426 -0.10398144 0.00000000
-0.69853103 0.56060487 0.00000000
0.39806372 -0.79843736 0.00000000
0.48486769 -0.09369964 0.00000000
0.78759521 -0.78258598 0.00000000
-0.34255993 0.37004650 0.00000000
-0.63297212 0.58342141 0.00000000
-0.65593374 -0.10264542 0.00000000
-0.62396628 -0.09956865 0.00000000
-0.21364194 -0.25506026 0.00000000
-0.26053658 0.12219918 0.00000000
-0.53077877 -0.59000278 0.00000000
-0.76926053 0.31850442 0.00000000
0.35487604 0.26986393 0.00000000
-0.42858240 0.65834755 0.00000000
0.34905505 -0.09623060 0.00000000
-0.39527780 -0.22701079 0.00000000
-0.21158744 0.65101564 0.00000000
-0.58194202 0.10907755 0.00000000
-0.58422768 -0.25927886 0.00000000
0.50246924 -0.56329441 0.00000000
-0.77567041 -0.49984390 0.00000000
0.25268114 0.01536467 0.00000000
0.48860642 0.22286117 0.00000000
-0.52513176 -0.04873521 0.00000000
-0.75322795 0.28565386 0.00000000
0.35982946 -0.51662177 0.00000000
0.46621150 0.57755941 0.04942671
0.06336554 0.06689403 0.00000000
0.00615712 0.18849058 0.00000000
0.27356896 -0.01565036 0.00000000
-0.24415831 0.57085204 0.00000000
-0.08157338 0.31131285 0.00000000
0.71079689 -0.42382798 0.00000000
0.15563077 -0.42686507 0.00000000
0.24958487 -0.37320316 0.00000000
0.74221396 -0.52091986 0.00000000
-0.16450439 0.68201768 0.00000000
-0.49496430 0.12148274 0.00000000
0.38602266 -0.34265983 0.00000000
-0.29960957 0.01698618 0.00000000
0.55939603 -0.37014362 0.00000000
-0.71294767 0.69020385 0.00000000
-0.27604741 0.67181456 0.00000000
-0.52047831 0.08156371 0.00000000
0.31916776 -0.73347932 0.00000000
0.34637874 0.24566080 0.00000000
-0.08551049 0.29774761 0.00000000
0.50166196 -0.46839568 0.00000000
-0.13143329 -0.39246204 0.00000000
-0.10273617 0.36051282 0.00000000
-0.19587718 -0.08666885 0.00000000
0.09896909 0.56356287 0.00000000
0.34714836 0.31715280 0.00000000
0.50791723 -0.57286149 0.00000000
0.06495735 0.22147150 0.00000000
-0.59616828 0.03409977 0.00000000
-0.13650255 -0.10233216 0.00000000
0.41701022 -0.02023929 0.00000000
-0.06677198 -0.70353609 0.00000000
-0.23345429 0.34315917 0.00000000
0.64454311 0.64473134 0.09920451
-0.52488512 -0.67687470 0.00000000
0.14931984 -0.03206322 0.00000000
-0.11217924 0.59994358 0.00000000
0.12142282 -0.21463303 0.00000000
0.40616164 -0.53054887 0.00000000
-0.33607706 0.18094413 0.00000000
-0.08241289 -0.15181310 0.00000000
0.25177047 -0.14514136 0.00000000
0.60820323 0.13436195 0.00000000
0.18737766 -0.20306130 0.00000000
0.22692005 0.29242265 0.00000000
-0.70425498 -0.36828282 0.00000000
-0.46782330 0.75893539 0.00000000
0.45425785 0.24362446 0.00000000
0.17002299 0.66951817 0.00801732
0.54626048 -0.32779869 0.00000000
-0.04639496 0.66802686 0.00000000
0.52753037 0.33329418 0.01233271
0.75096184 0.73884732 0.13986444
0.31013149 0.54317516 0.01080840
-0.78442127 -0.48441660 0.00000000
0.72665685 -0.43425784 0.00000000
0.67672282 -0.52751613 0.00000000
0.44964370 0.03745754 0.00000000
0.28849140 0.29149297 0.00000000
-0.52341694 -0.25926325 0.00000000
0.05262633 0.28337446 0.00000000
0.06917327 -0.72963095 0.00000000
-0.56770837 -0.52064937 0.00000000
0.50904357 -0.56429422 0.00000000
0.36099401 0.69030052 0.05095211
0.00553171 -0.52113891 0.00000000
0.08488148 0.57148427 0.00000000
-0.65771824 -0.26014644 0.00000000
-0.63379741 -0.26558530 0.00000000
0.11135148 -0.17593767 0.00000000
0.54722863 0.75333959 0.10149429
-0.46079385 0.75522262 0.00000000
-0.30068535 0.79513526 0.00000000
0.28647143 -0.46444660 0.00000000
0.78314346 0.04234101 0.00516720
-0.77075291 0.29642817 0.00000000
0.74196917 0.70817941 0.13182296
-0.68546140 0.42695963 0.00000000
-0.79119748 0.61381459 0.00000000
-0.58257419 -0.79720896 0.00000000
-0.14121373 -0.37171566 0.00000000
0.16444822 0.43790114 0.00000000
0.09314187 -0.14078498 0.00000000
0.72186565 0.47955078 0.08139074
-0.79342669 -0.26450184 0.00000000
0.52313256 0.08332574 0.00000000
-0.10386035 0.20964660 0.00000000
0.49812573 -0.45874417 0.00000000
0.78052920 -0.49239767 0.00000000
0.03641976 -0.22711124 0.00000000
-0.64248800 -0.76568246 0.00000000
0.53670782 0.01811004 0.00000000
-0.09058731 -0.66713554 0.00000000
-0.37361521 0.56580025 0.00000000
-0.54460377 0.20302115 0.00000000
-0.10608559 0.31687805 0.00000000
0.77586615 0.63951874 0.12477441
-0.45951200 -0.77591944 0.00000000
0.48133218 0.76076210 0.08963821
0.79033166 -0.39436096 0.00000000
-0.52534753 0.78117520 0.00000000
0.63472933 -0.08439264 0.00000000
-0.62759197 0.62232512 0.00000000
0.64429665 0.49141544 0.06806860
-0.62237215 -0.02101559 0.00000000
0.64027470 -0.69745857 0.00000000
0.26499641 -0.18928193 0.00000000
-0.47260413 0.36230937 0.00000000
-0.46582058 -0.21277863 0.00000000
-0.77157152 0.55013841 0.00000000
0.73783636 0.08301356 0.00422750
0.25914490 -0.05047220 0.00000000
0.38324994 0.13381375 0.00000000
0.56227708 0.73373967 0.10057146
0.61104894 -0.49390951 0.00000000
-0.42318526 0.49458838 0.00000000
-0.32655099 0.16763015 0.00000000
-0.39991456 -0.59662330 0.00000000
0.10802791 0.07697780 0.00000000
-0.70020002 0.52205837 0.00000000
-0.53792536 0.63882685 0.00000000
0.24633668 0.22959349 0.00000000
-0.18861943 0.04065190 0.00000000
0.04171435 0.27997592 0.00000000
0.05162969 0.21635050 0.00000000
-0.43207851 -0.70795703 0.00000000
-0.36912954 0.49987912 0.00000000
-0.59688115 -0.53286415 0.00000000
0.28905329 0.69365454 0.03704560
0.66334307 -0.64114028 0.00000000
-0.76027560 -0.73497099 0.00000000
0.51772630 0.23392650 0.00000000
-0.11360287 -0.33551416 0.00000000
0.59983629 0.24119890 0.00832024
-0.39452362 -0.49894521 0.00000000
-0.48177555 -0.35758284 0.00000000
-0.24515063 0.03243157 0.00000000
0.60954881 -0.54277444 0.00000000
0.72960067 0.21477845 0.02927414
-0.08502101 0.59136689 0.00000000
0.78449833 -0.71696156 0.00000000
-0.75460899 0.41324115 0.00000000
-0.46079984 0.35513937 0.00000000
0.72234976 0.45502189 0.07651545
0.28267241 -0.20337719 0.00000000
-0.19413950 -0.58620673 0.00000000
0.17588219 0.75791204 0.02712790
-0.59391290 0.61644036 0.00000000
0.03614089 -0.43770969 0.00000000
-0.25600353 0.41298959 0.00000000
-0.46539792 -0.50909775 0.00000000
0.62505275 0.09333713 0.00000000
-0.57455695 -0.73521906 0.00000000
-0.59304184 0.65153760 0.00000000
0.01124044 0.69518942 0.00000000
0.25281927 0.59061414 0.00880651
0.76025891 0.59426099 0.11243359
-0.74843097 0.36955002 0.00000000
0.76889259 -0.06088572 0.00000000
0.71786356 0.77726549 0.14094304
-0.62629098 0.42379895 0.00000000
-0.06926445 0.43760175 0.00000000
0.34523880 0.16786613 0.00000000
-0.43468842 -0.30744544 0.00000000
0.20777377 -0.71367693 0.00000000
0.34465906 0.44346672 0.00000000
-0.18306103 -0.61752683 0.00000000
0.12861334 -0.42321518 0.00000000
-0.50348538 -0.63892353 0.00000000
0.15937410 -0.70423335 0.00000000
0.00352774 0.43046555 0.00000000
-0.57758898 -0.57220227 0.00000000
-0.76293832 -0.44204831 0.00000000
-0.17172007 0.35704598 0.00000000
-0.49638063 -0.42579567 0.00000000
-0.71349746 -0.41119999 0.00000000
-0.78224915 -0.53390950 0.00000000
-0.18113285 0.01658335 0.00000000
-0.60556751 0.66034180 0.00000000
0.70701438 0.23701790 0.02920382
-0.20461395 0.52788770 0.00000000
-0.31283906 0.58701926 0.00000000
-0.32937038 -0.11754653 0.00000000
-0.11248340 0.33820450 0.00000000
-0.37344792 -0.26704475 0.00000000
0.70156431 0.54154652 0.08984456
-0.57584018 0.18763225 0.00000000
0.78522146 0.44326988 0.08688042
-0.04866805 -0.23076735 0.00000000
-0.34820095 -0.03694071 0.00000000
0.12580088 0.26495633 0.00000000
-0.77563757 -0.13244393 0.00000000
0.11287395 -0.22776473 0.00000000
-0.74253738 -0.57259721 0.00000000
0.79404306 0.27997270 0.05555912
0.70900720 -0.25386429 0.00000000
0.30603299 0.22027242 0.00000000
-0.77396178 0.24780895 0.00000000
0.21656099 0.46872416 0.00000000
0.08224556 0.02182733 0.00000000
0.44204712 -0.47242481 0.00000000
0.56158298 0.48117092 0.04922050
0.31428644 0.17746267 0.00000000
-0.77087933 0.13794965 0.00000000
-0.79858094 -0.63902259 0.00000000
-0.01496537 0.05417723 0.00000000
-0.32376090 0.37839806 0.00000000
0.55179167 -0.56988579 0.00000000
-0.65009469 0.73857158 0.00000000
-0.60362262 -0.06842763 0.00000000
0.49765906 0.71784604 0.08424709
-0.68357658 0.51629627 0.00000000
0.10129423 0.29079962 0.00000000
0.56625468 0.48705199 0.05136017
0.03696855 0.61748475 0.00000000
0.72822881 -0.58822900 0.00000000
0.57047784 0.62032467 0.07923856
0.22428332 -0.10665679 0.00000000
-0.79665804 0.43480152 0.00000000
-0.76949769 0.23722816 0.00000000
0.24678971 0.61538959 0.01260740
-0.75503927 0.34211299 0.00000000
0.07844342 0.53521651 0.00000000
0.67607760 0.25713938 0.02701092
0.27163810 0.65771896 0.02622829
0.00613106 0.24999622 0.00000000
0.57621002 -0.13345100 0.00000000
-0.76276278 0.16902088 0.00000000
0.08157400 -0.52761370 0.00000000
-0.72289449 -0.03040336 0.00000000
0.10731540 0.53560632 0.00000000
0.09180818 -0.33071324 0.00000000
-0.14259551 0.08488954 0.00000000
0.45115128 0.68909627 0.06898805
-0.71753353 0.68953913 0.00000000
-0.21222880 0.06955369 0.00000000
-0.62386262 -0.15548933 0.00000000
-0.48403394 -0.06833509 0.00000000
-0.43543509 0.74152172 0.00000000
0.00157801 0.18402968 0.00000000
-0.00431806 -0.40498891 0.00000000
0.37948969 0.20443900 0.00000000
0.08948526 -0.60626054 0.00000000
-0.32996526 0.40274283 0.00000000
-0.51387638 0.74123544 0.00000000
0.70138544 0.51449054 0.08432251
0.66938198 -0.11489921 0.00000000
0.61713701 0.31625432 0.02704628
0.26303145 -0.57887977 0.00000000
0.44711488 -0.49181327 0.00000000
0.48135820 -0.05081062 0.00000000
-0.61253661 0.17777890 0.00000000
0.55720532 -0.34636480 0.00000000
-0.26366150 0.09765280 0.00000000
-0.21548311 -0.16500323 0.00000000
0.04100670 0.77437830 0.00311944
0.57506984 0.20392101 0.00000000
-0.59798533 0.63078743 0.00000000
-0.22105063 0.34872308 0.00000000
0.00441066 -0.75223678 0.00000000
0.62969714 0.11354428 0.00000000
-0.71348840 0.20685969 0.00000000
-0.76176643 -0.15975569 0.00000000
-0.46450809 0.75446415 0.00000000
0.34145463 0.39707318 0.00000000
0.46519491 -0.08488609 0.00000000
0.07184663 -0.21466611 0.00000000
0.62018532 0.77256477 0.12018488
-0.25429019 -0.42571199 0.00000000
0.46052477 -0.58441597 0.00000000
-0.50949371 -0.53932989 0.00000000
0.30599716 0.70216715 0.04220709
0.38355318 0.59369659 0.03593896
-0.65216458 -0.05399068 0.00000000
-0.22593383 -0.54487640 0.00000000
-0.47156978 -0.14125311 0.00000000
0.02376387 0.67195117 0.00000000
0.33989099 0.60775357 0.02993624
0.38405389 -0.03146460 0.00000000
0.72742808 0.14510855 0.01470744
-0.63667363 0.74216682 0.00000000
0.64445859 -0.08009066 0.00000000
-0.47350726 -0.14148343 0.00000000
-0.69809562 0.73269171 0.00000000
0.26696762 -0.32138202 0.00000000
0.26802221 0.12455287 0.00000000
-0.01365449 -0.37321505 0.00000000
-0.10322908 0.19328918 0.00000000
0.21606548 -0.27446303 0.00000000
-0.28035730 -0.02851736 0.00000000
-0.70865375 -0.09776285 0.00000000
-0.53075445 0.72423500 0.00000000
-0.77563488 -0.23043646 0.00000000
-0.02399239 -0.18226635 0.00000000
-0.55400085 -0.39566770 0.00000000
-0.27702656 0.33846992 0.00000000
-0.01644446 -0.38629371 0.00000000
0.40257770 -0.38266951 0.00000000
0.11660201 -0.45990807 0.00000000
-0.33136687 0.41083428 0.00000000
-0.67622054 -0.58563393 0.00000000
-0.36211863 -0.18473312 0.00000000
-0.06964999 0.65569395 0.00000000
-0.39971438 -0.46675918 0.00000000
-0.26651350 -0.22098432 0.00000000
0.11634538 -0.07938308 0.00000000
-0.34373224 -0.29577032 0.00000000
-0.58201009 -0.46022594 0.00000000
0.56012660 0.49903783 0.05254788
-0.17432924 0.69837755 0.00000000
0.44348592 -0.29871440 0.00000000
-0.76171315 0.48451421 0.00000000
0.66002071 0.14475386 0.00096808
0.16223253 -0.35868362 0.00000000
-0.06932052 -0.78046387 0.00000000
0.38717452 -0.35696989 0.00000000
-0.04645384 -0.11815470 0.00000000
-0.32205710 0.65089262 0.00000000
0.27596292 -0.11642325 0.00000000
-0.56599367 0.68958694 0.00000000
-0.03568745 -0.33621803 0.00000000
-0.02542125 -0.41492444 0.00000000
-0.16582209 -0.69576508 0.00000000
-0.36481953 0.51888973 0.00000000
0.33289143 -0.53660679 0.00000000
0.17707241 -0.21083063 0.00000000
-0.64060235 0.14492583 0.00000000
-0.34237698 0.75358254 0.00000000
0.19859838 0.07959298 0.00000000
-0.06171372 -0.15576668 0.00000000
0.66681027 -0.36114052 0.00000000
-0.36802724 0.36249536 0.00000000
-0.45965257 0.22584438 0.00000000
-0.17704687 0.08718673 0.00000000
0.53702426 -0.54672992 0.00000000
-0.22092082 0.20850852 0.00000000
0.33243200 0.79176325 0.06573320
0.10394971 0.39330518 0.00000000
-0.71959853 -0.67559034 0.00000000
0.58510137 -0.55495894 0.00000000
-0.18968128 0.73460215 0.00000000
-0.43714121 -0.18095489 0.00000000
0.64579678 0.49333307 0.06876158
0.69367796 0.04741240 0.00000000
-0.07485749 -0.76026231 0.00000000
-0.50348419 -0.55796105 0.00000000
0.34717786 -0.35425237 0.00000000
-0.00959241 -0.06597124 0.00000000
0.00395510 -0.15925039 0.00000000
0.50797987 -0.66926295 0.00000000
0.71780127 0.27244172 0.03857346
-0.69780093 -0.36778861 0.00000000
-0.33136934 -0.14032781 0.00000000
0.28501719 -0.59671819 0.00000000
-0.47895467 -0.44585440 0.00000000
0.63556737 0.18446545 0.00406183
-0.31960934 0.41866535 0.00000000
0.74902010 0.24203788 0.03873869
-0.62551296 0.73810917 0.00000000
-0.26446787 -0.29057252 0.00000000
-0.65562719 0.52134967 0.00000000
0.61209893 0.53117085 0.06960100
-0.25223336 -0.49307033 0.00000000
-0.15358089 -0.32709032 0.00000000
0.14436068 0.66876030 0.00266039
-0.42063436 -0.01304178 0.00000000
-0.68574566 0.03406112 0.00000000
-0.78340209 -0.63198096 0.00000000
0.09936286 0.50515628 0.00000000
0.29471460 0.39476615 0.00000000
0.43609315 -0.60397267 0.00000000
-0.56906760 -0.32950729 0.00000000
0.72948790 -0.22277851 0.00000000
-0.00658272 -0.02599473 0.00000000
-0.00663314 0.08029102 0.00000000
0.35958302 0.70344132 0.05333040
0.36301553 0.15139022 0.00000000
-0.65185899 0.58015734 0.00000000
-0.54812407 0.00339570 0.00000000
0.00669589 0.73724598 0.00000000
0.42423010 -0.24525848 0.00000000
0.11022288 -0.47571051 0.00000000
0.39891490 0.21756040 0.00000000
0.53868848 0.65065575 0.07894284
-0.19034465 -0.71355224 0.00000000
0.47713670 0.44217175 0.02419084
0.56250197 0.34039381 0.02086303
-0.62581182 -0.74956614 0.00000000
-0.67239124 0.60478503 0.00000000
0.69969827 -0.67950815 0.00000000
-0.27432188 -0.17831495 0.00000000
-0.63987547 -0.33793634 0.00000000
0.40557507 -0.46189883 0.00000000
-0.69887960 -0.52382964 0.00000000
-0.44130990 0.41741058 0.00000000
-0.64761847 0.15967084 0.00000000
0.12746938 -0.69983214 0.00000000
-0.53058934 -0.36550495 0.00000000
0.71604407 0.12413580 0.00814682
-0.57665527 -0.57326084 0.00000000
0.57073033 0.20341541 0.00000000
-0.47323504 0.28204563 0.00000000
0.26601887 -0.26847446 0.00000000
0.28819716 -0.59476185 0.00000000
0.66211092 -0.22365893 0.00000000
-0.35409382 0.34459499 0.00000000
0.54539686 -0.35205838 0.00000000
-0.03016072 -0.35236865 0.00000000
-0.26385677 0.27922246 0.00000000
-0.52376062 0.67949748 0.00000000
0.65757591 -0.73331743 0.00000000
-0.31093341 -0.22499456 0.00000000
0.77784419 -0.42592844 0.00000000
-0.59452784 0.20123322 0.00000000
0.76156110 -0.19716297 0.00000000
0.43661147 -0.35118592 0.00000000
-0.33938888 -0.39183480 0.00000000
0.36976099 0.31942862 0.00000000
0.79752547 -0.31885433 0.00000000
-0.74068409 -0.35248077 0.00000000
-0.27672419 0.56837064 0.00000000
0.50593609 0.61738074 0.06555528
-0.48722062 0.35082453 0.00000000
-0.56818759 0.29260877 0.00000000
0.07009203 -0.64665908 0.00000000
0.46513060 -0.30215049 0.00000000
-0.24359953 0.38643765 0.00000000
0.37591881 -0.18246481 0.00000000
-0.41220659 0.35551515 0.00000000
-0.15376662 0.18475786 0.00000000
-0.00278792 0.66951710 0.00000000
0.76566827 0.66465455 0.12780319
-0.06520487 -0.11126519 0.00000000
0.03440806 -0.24204484 0.00000000
-0.60163456 -0.15322299 0.00000000
-0.71713388 -0.22336164 0.00000000
-0.12511548 0.50129360 0.00000000
-0.04853069 -0.73047900 0.00000000
0.56855345 0.30523598 0.01496147
0.33932966 0.55927050 0.01999206
0.28813171 -0.41887984 0.00000000
0.17254154 0.77636832 0.03019270
0.25888628 0.69144064 0.03048010
-0.31469351 0.74792928 0.00000000
0.16022754 -0.48308849 0.00000000
0.66571605 -0.73116392 0.00000000
-0.72766751 0.75221461 0.00000000
0.07738122 0.47262624 0.00000000
0.32687417 0.76182568 0.05853626
-0.19120370 -0.63422388 0.00000000
0.13091809 -0.75025898 0.00000000
0.55494875 0.67514038 0.08720417
-0.46190819 0.23693649 0.00000000
-0.40975192 0.78498214 0.00000000
-0.06225685 0.50582230 0.00000000
0.28013873 0.37627822 0.00000000
-0.45693398 -0.47703126 0.00000000
-0.08983994 0.40506908 0.00000000
-0.40649387 -0.52085829 0.00000000
0.18861341 0.40327609 0.00000000
-0.14590450 -0.23300876 0.00000000
-0.78687245 0.13681203 0.00000000
-0.13802417 0.48169532 0.00000000
0.38825306 0.54078710 0.02616403
0.27320838 0.78058648 0.05145897
0.09125339 -0.02206960 0.00000000
0.01427699 0.68346012 0.00000000
-0.21601647 -0.43255028 0.00000000
-0.74930245 -0.12074198 0.00000000
-0.41518638 0.02156018 0.00000000
-0.45436141 0.34634295 0.00000000
-0.32845747 -0.02333748 0.00000000
-0.32515076 0.02432460 0.00000000
-0.46235970 0.59614795 0.00000000
-0.35877976 0.05864424 0.00000000
-0.78116179 0.55153692 0.00000000
0.34898436 -0.54327083 0.00000000
-0.13314006 -0.59470063 0.00000000
0.37450093 -0.37856969 0.00000000
0.67821068 0.54851633 0.08652261
-0.59390962 0.40664235 0.00000000
-0.42091611 0.26221326 0.00000000
0.31385776 -0.35925981 0.00000000
0.76028544 0.42628199 0.07837998
-0.65019023 -0.37592065 0.00000000
-0.28829938 -0.15664208 0.00000000
-0.33418974 -0.63842285 0.00000000
0.23680896 -0.77524751 0.00000000
0.62927431 -0.32424441 0.00000000
0.75838196 0.42584661 0.07790575
0.77546287 -0.38481462 0.00000000
0.19805714 -0.38443667 0.00000000
0.37071574 0.35007319 0.00000000
-0.52765167 -0.01918341 0.00000000
0.11052069 0.35278755 0.00000000
-0.53651851 0.38472265 0.00000000
0.14704825 -0.62020636 0.00000000
0.72414017 0.36819825 0.05927421
-0.03166444 -0.60594451 0.00000000
-0.11283898 -0.12450240 0.00000000
0.13908102 0.67232770 0.00231321
0.11907171 -0.72176993 0.00000000
-0.66773617 0.78980082 0.00000000
-0.68493247 -0.47382438 0.00000000
-0.40217343 0.72545969 0.00000000
-0.64517719 -0.40956154 0.00000000
0.15090744 0.52263421 0.00000000
0.51804513 0.69437414 0.08362144
-0.27566516 -0.29630947 0.00000000
0.37128085 0.76106650 0.06738614
-0.38053805 -0.11028896 0.00000000
-0.72284269 0.61242783 0.00000000
-0.22096936 0.45743701 0.00000000
-0.32631886 -0.54339790 0.00000000
-0.61747950 0.60008454 0.00000000
-0.59922314 0.40272355 0.00000000
0.33677560 -0.59629399 0.00000000
0.50023615 -0.05226754 0.00000000
0.41557497 0.21366446 0.00000000
0.39447793 0.76053768 0.07198231
-0.16299318 0.18027814 0.00000000
0.12275333 -0.54964638 0.00000000
-0.66714519 -0.51758844 0.00000000
0.30131280 0.69278127 0.03935425
0.74868834 -0.39861330 0.00000000
0.38354149 -0.56861615 0.00000000
-0.23288237 -0.28772056 0.00000000
-0.55180377 -0.22076482 0.00000000
0.78539580 -0.60266727 0.00000000
-0.78971672 -0.75471163 0.00000000
-0.14449613 0.28413916 0.00000000
-0.48715898 -0.13163689 0.00000000
-0.29875636 -0.46542713 0.00000000
-0.14560720 -0.28241420 0.00000000
0.19299538 -0.79457986 0.00000000
0.62783819 -0.31937346 0.00000000
0.57599562 0.18160197 0.00000000
0.09618159 -0.63278246 0.00000000
-0.20292279 -0.20294768 0.00000000
0.27161807 0.78862083 0.05276554
0.05253327 -0.54586971 0.00000000
0.63317490 -0.44362402 0.00000000
-0.77716005 0.48057860 0.00000000
0.11305869 -0.76777011 0.00000000
0.52803916 -0.62191570 0.00000000
0.53337699 0.73131740 0.09422061
0.68608838 0.35569996 0.04902473
-0.78987879 -0.34828272 0.00000000
0.13409644 -0.35847786 0.00000000
0.39119926 0.23040074 0.00000000
-0.16039193 -0.12566496 0.00000000
-0.48738536 0.13718385 0.00000000
0.42524725 -0.49840069 0.00000000
0.60358107 -0.74387556 0.00000000
-0.39433971 0.20258567 0.00000000
-0.59981608 0.44336450 0.00000000
-0.35308594 -0.71370417 0.00000000
0.46318203 0.53487885 0.04015860
-0.47733718 0.68098420 0.00000000
0.30775419 0.16445100 0.00000000
-0.32081777 0.07358486 0.00000000
-0.71443570 -0.42002407 0.00000000
-0.20291552 -0.02706127 0.00000000
0.55659258 0.74037147 0.10076353
0.61447889 -0.47171116 0.00000000
-0.43901843 -0.29676425 0.00000000
-0.68203598 0.25562572 0.00000000
-0.76142263 -0.33010218 0.00000000
-0.66595358 -0.54747093 0.00000000
0.21442758 -0.14787839 0.00000000
0.16846384 -0.53797549 0.00000000
-0.16838466 -0.09951622 0.00000000
0.33475888 0.33034751 0.00000000
-0.57134420 0.40704036 0.00000000
0.49736413 0.45657569 0.03121267
0.07638361 -0.68415767 0.00000000
-0.50656432 -0.72698700 0.00000000
-0.69186807 -0.43168876 0.00000000
-0.51431745 0.03905423 0.00000000
0.53025019 0.27366978 0.00079480
0.37768543 -0.69470716 0.00000000
0.08546739 -0.12623140 0.00000000
0.72031415 0.06172779 0.00000000
0.63205147 0.10841954 0.00000000
0.03327689 0.36626685 0.00000000
-0.38235301 0.62103182 0.00000000
0.16194826 -0.62133127 0.00000000
-0.56962973 -0.69388801 0.00000000
0.47615051 0.51989865 0.03975070
-0.42010647 0.07900697 0.00000000
0.68107498 0.43915424 0.06492931
0.64547718 0.27025586 0.02346589
-0.77703238 0.02631115 0.00000000
-0.73870373 -0.69644707 0.00000000
0.59118724 0.22552130 0.00338780
-0.77037942 -0.07608352 0.00000000
-0.36284295 0.02456951 0.00000000
0.49158934 -0.55663931 0.00000000
0.42773166 0.34308046 0.00000000
-0.44116673 -0.60377657 0.00000000
0.73826319 0.62903649 0.11502477
-0.57498783 0.17795023 0.00000000
0.00912200 0.26092985 0.00000000
-0.50329071 -0.58789361 0.00000000
-0.22477363 -0.30970889 0.00000000
-0.56132251 0.58229947 0.00000000
-0.44922453 -0.61451340 0.00000000
-0.78202981 0.38627192 0.00000000
0.53753662 -0.68937474 0.00000000
0.65601045 -0.21866281 0.00000000
-0.53585654 -0.49328819 0.00000000
0.05461630 0.25861958 0.00000000
0.09822623 -0.72473258 0.00000000
0.06579783 0.23620892 0.00000000
-0.49968648 0.18746471 0.00000000
-0.74405485 0.78196508 0.00000000
0.65781140 0.16799577 0.00523263
-0.27019784 -0.54229224 0.00000000
0.77918553 0.63176960 0.12387625
0.62889075 0.37325048 0.04098593
-0.45441478 -0.78827733 0.00000000
0.48731077 0.49403486 0.03676943
-0.21833727 0.35926399 0.00000000
-0.25937459 -0.08701881 0.00000000
0.68217736 0.67671835 0.11332074
0.30963695 -0.15278009 0.00000000
0.47604689 0.49916664 0.03552610
-0.75973046 0.23743518 0.00000000
-0.43436155 -0.34630761 0.00000000
0.54718870 0.57539093 0.06540586
-0.77547860 0.34718683 0.00000000
0.12673195 0.35392612 0.00000000
0.14187931 0.48154470 0.00000000
-0.55732948 0.32717898 0.00000000
0.02678772 0.15368561 0.00000000
0.30546910 -0.51749206 0.00000000
-0.73990774 -0.73625010 0.00000000
-0.07679200 -0.00771563 0.00000000
-0.78428769 -0.17615703 0.00000000
-0.15194534 0.59823889 0.00000000
0.76978111 0.18129477 0.03063198
0.46568093 0.71327257 0.07683596
-0.09506685 0.18513376 0.00000000
0.26418096 0.52873135 0.00000000
-0.16694362 -0.34265724 0.00000000
-0.61847788 -0.06845308 0.00000000
-0.59923476 -0.49564269 0.00000000
0.49054742 0.35723698 0.00968871
0.06195539 -0.37078905 0.00000000
0.60049075 0.02402677 0.00000000
-0.47644386 0.67802286 0.00000000
0.42058796 0.62769330 0.05034121
-0.07704441 -0.75380415 0.00000000
-0.74817175 0.39721885 0.00000000
0.77020097 -0.49926776 0.00000000
0.30165738 0.37711531 0.00000000
0.19504479 -0.51765686 0.00000000
0.35890910 0.17416500 0.00000000
0.62617600 -0.78672272 0.00000000
-0.49932337 -0.71662229 0.00000000
-0.73667234 -0.36901525 0.00000000
-0.27752423 0.10289326 0.00000000
0.21825209 -0.47617510 0.00000000
-0.14889339 -0.56729603 0.00000000
0.01437215 -0.13854340 0.00000000
-0.10633457 -0.21609844 0.00000000
-0.28008547 0.12069958 0.00000000
0.59235924 0.41319403 0.04167774
-0.42435136 -0.59400600 0.00000000
-0.17461756 0.72631413 0.00000000
-0.61377865 0.28083694 0.00000000
-0.32346624 0.27045923 0.00000000
-0.22490425 0.28422379 0.00000000
0.33522993 0.77530223 0.06296292
0.09193058 -0.38137919 0.00000000
-0.23442996 0.58152711 0.00000000
0.44172275 0.24492712 0.00000000
-0.42208678 0.06068797 0.00000000
-0.11061939 0.43001360 0.00000000
0.60555559 0.20183255 0.00149801
-0.66624337 0.72271705 0.00000000
-0.31246576 0.64222896 0.00000000
-0.24889439 0.23219910 0.00000000
0.26409176 0.37253648 0.00000000
-0.44910318 0.79527539 0.00000000
-0.70972639 -0.16706821 0.00000000
-0.79481161 0.67517978 0.00000000
0.78977841 -0.50684220 0.00000000
-0.42071599 -0.58950156 0.00000000
0.05721983 -0.07946785 0.00000000
0.05630847 -0.00719314 0.00000000
0.09932610 0.49786937 0.00000000
0.01581167 0.30935121 0.00000000
-0.11357664 -0.56790948 0.00000000
-0.63234711 0.23483568 0.00000000
0.51728576 0.42508072 0.02886607
0.75617528 -0.41722170 0.00000000
0.50884104 0.18817692 0.00000000
0.74047667 -0.79285771 0.00000000
0.07459276 0.66086483 0.00000000
-0.55153263 -0.34046561 0.00000000
0.52092624 0.61345947 0.06779959
-0.42085552 0.64325863 0.00000000
0.57595778 0.73673826 0.10395332
-0.46521330 0.06684758 0.00000000
-0.62689328 0.00530259 0.00000000
-0.20547275 0.62130421 0.00000000
-0.09766365 -0.28907871 0.00000000
0.54124820 0.13550869 0.00000000
-0.19548854 0.31994870 0.00000000
0.68014473 -0.02148847 0.00000000
-0.01657711 -0.10722609 0.00000000
0.13596492 0.02125384 0.00000000
0.66819793 0.23629881 0.02118764
0.39156488 -0.55505878 0.00000000
-0.54937083 -0.72348905 0.00000000
-0.76536995 -0.46885759 0.00000000
0.34452429 -0.44734940 0.00000000
-0.49853465 -0.76646733 0.00000000
-0.09473085 0.09906081 0.00000000
-0.29659119 0.73606122 0.00000000
0.46952069 0.53988391 0.04245864
0.70103157 -0.32948449 0.00000000
-0.04160688 0.72270393 0.00000000
0.04273953 -0.38564485 0.00000000
-0.30810052 -0.36688337 0.00000000
0.47788668 -0.57078588 0.00000000
0.38003615 -0.40429595 0.00000000
0.42957747 0.32511243 0.00000000
-0.09070471 -0.75036412 0.00000000
-0.51217049 -0.40626025 0.00000000
-0.75024068 0.61405796 0.00000000
0.16409230 -0.06540811 0.00000000
-0.58180314 0.78019637 0.00000000
0.35976779 0.77463466 0.06780282
-0.13748594 0.09341757 0.00000000
-0.20744206 -0.00089020 0.00000000
0.78868008 -0.00062354 0.00000000
0.03540434 -0.42938372 0.00000000
0.42346466 -0.13895196 0.00000000
-0.49706033 -0.19180037 0.00000000
-0.42128527 -0.79728001 0.00000000
0.63262022 -0.11153407 0.00000000
-0.00021406 -0.40439716 0.00000000
0.24722275 0.10029323 0.00000000
-0.71816140 -0.54318368 0.00000000
0.40482301 0.67582709 0.05690420
-0.25348982 -0.49940205 0.00000000
-0.09092234 0.58847702 0.00000000
-0.13216884 -0.10360062 0.00000000
-0.62680304 -0.53499097 0.00000000
-0.09241502 0.39243001 0.00000000
0.46317238 0.56725502 0.04672120
0.34616646 0.11774035 0.00000000
-0.13109401 -0.46720931 0.00000000
0.73477989 0.35971412 0.05971127
-0.39805067 0.30042470 0.00000000
-0.40385744 -0.17840290 0.00000000
-0.22908480 0.70006049 0.00000000
-0.45372510 0.05432775 0.00000000
0.77885938 0.75514352 0.14882503
0.28708437 0.74831724 0.04772963
0.11224646 0.12860861 0.00000000
0.01220970 0.78618938 0.00000000
-0.47516835 -0.41457099 0.00000000
0.13745667 -0.30762058 0.00000000
0.66025698 0.41680065 0.05617589
0.47582960 -0.06033018 0.00000000
0.56763154 -0.02594754 0.00000000
0.23644564 -0.05772325 0.00000000
0.03721392 0.48936066 0.00000000
-0.43974042 0.44387686 0.00000000
-0.13441867 -0.47608373 0.00000000
0.13862251 0.21641909 0.00000000
-0.27533293 -0.01042633 0.00000000
-0.17615125 0.77283973 0.00000000
0.49713242 0.09064943 0.00000000
0.33279422 -0.12856507 0.00000000
-0.21022575 0.48950225 0.00000000
0.66314834 -0.35853437 0.00000000
-0.71957427 0.51131487 0.00000000
-0.28794125 0.62229806 0.00000000
-0.20691416 -0.54008079 0.00000000
0.78996396 0.12778281 0.02387420
-0.53211284 -0.43532345 0.00000000
-0.50304163 0.50618017 0.00000000
-0.70240206 0.27912560 0.00000000
0.79327625 0.25385201 0.05010744
-0.56373817 -0.55955040 0.00000000
-0.08940436 -0.37126693 0.00000000
-0.46351284 0.49709940 0.00000000
0.56394780 -0.08268663 0.00000000
0.39310589 0.28332439 0.00000000
0.00211283 -0.59028029 0.00000000
-0.06563723 -0.42975131 0.00000000
0.30921856 -0.23379754 0.00000000
-0.15074813 -0.35131466 0.00000000
0.20569848 0.58991605 0.00000000
0.78712076 0.49070135 0.09688261
0.23030539 0.32498381 0.00000000
-0.62961507 0.44045061 0.00000000
-0.07262171 0.30207634 0.00000000
-0.58985209 0.47036260 0.00000000
0.01293026 0.33201501 0.00000000
0.48950046 -0.10822410 0.00000000
0.32440627 -0.60903108 0.00000000
0.24420726 0.19947875 0.00000000
0.73376256 -0.47131842 0.00000000
-0.00731957 0.29415849 0.00000000
-0.66247761 -0.65650678 0.00000000
-0.35118854 0.73249328 0.00000000
-0.47019795 0.66191602 0.00000000
0.67725384 -0.39267972 0.00000000
-0.10779160 -0.47391891 0.00000000
-0.57660019 -0.55767387 0.00000000
0.01158688 0.03392180 0.00000000
0.68342954 0.25323492 0.02770993
0.79410535 0.25027576 0.04955044
-0.69904995 0.38282657 0.00000000
0.58586031 -0.51630217 0.00000000
0.65821207 0.55570871 0.08392604
0.03079800 0.24924947 0.00000000
-0.14592580 -0.00786278 0.00000000
-0.68810552 0.41728219 0.00000000
-0.57699996 0.05150600 0.00000000
-0.19918095 -0.29751214 0.00000000
0.10034843 0.06746723 0.00000000
-0.55268556 -0.11354750 0.00000000
0.10025855 0.67799127 0.00000000
-0.40929455 0.30478060 0.00000000
-0.00797620 -0.49156845 0.00000000
0.18506120 -0.57341534 0.00000000
0.75614387 0.06512049 0.00431154
-0.12946682 -0.52575225 0.00000000
0.53768855 0.56874239 0.06213159
-0.34009844 -0.36199564 0.00000000
-0.42309752 -0.47040498 0.00000000
0.63657898 0.18687835 0.00475617
-0.65895945 0.53956670 0.00000000
-0.63883156 0.27204591 0.00000000
0.56224853 -0.26338699 0.00000000
0.39275998 -0.79680306 0.00000000
0.11672599 -0.03059315 0.00000000
-0.66295993 -0.60512561 0.00000000
-0.12440349 -0.37429500 0.00000000
-0.24602249 -0.10869855 0.00000000
0.65318000 0.11751751 0.00000000
0.04854624 0.08503324 0.00000000
-0.17601676 -0.70827085 0.00000000
-0.03422818 -0.50916213 0.00000000
0.18448213 0.69015956 0.01513426
0.47142544 0.48701599 0.03212540
0.72697359 0.08384950 0.00219447
