ply
format ascii 1.0
element vertex 1373
property float x
property float y
property float z
end_header
0.24586859 -0.17538401 -0.00000039
0.49020839 -0.42689958 -0.00000023
-0.78396261 -0.48152995 0.00000000
-0.61588871 0.31720769 0.09576924
-0.72040892 -0.78917438 0.00000000
0.11347246 -0.31407070 -0.00000030
-0.65870970 -0.68728834 -0.00000002
-0.29654369 -0.00996117 -0.00000049
0.33956277 0.24464984 0.00000245
0.61761981 -0.55061448 -0.00000034
-0.13747440 -0.12278896 -0.00000042
-0.58080000 -0.55361503 -0.00000013
0.28907561 0.04966077 0.00000683
-0.21009681 -0.61124045 -0.00000012
-0.37766466 -0.79675335 -0.00000000
-0.42098206 -0.11307772 -0.00000038
0.46971974 -0.63791901 -0.00000010
0.67092234 -0.01849856 -0.00000155
-0.61862004 0.27009177 0.06383244
-0.23601995 -0.63749838 -0.00000010
-0.60470581 -0.45728832 -0.00000012
0.26353595 -0.36172393 -0.00000027
-0.11011701 0.77255523 0.05948539
0.61033845 -0.24404788 -0.00000092
-0.44870889 0.28785110 -0.00000043
0.27310446 -0.48333052 -0.00000020
-0.01432355 -0.40202206 -0.00000025
-0.06638150 0.75572050 0.01590188
0.62470490 -0.78111982 -0.00000001
0.39052042 -0.45796424 -0.00000021
-0.76655883 0.13519032 0.07321388
0.49981275 -0.35176250 -0.00000035
-0.29240882 0.04669169 -0.00000053
-0.52618277 -0.00213422 -0.00000029
-0.11004496 0.37792099 -0.00000074
-0.17399906 -0.01990778 -0.00000049
0.05518869 0.51192719 0.00000285
-0.57921547 0.09001711 -0.00000025
-0.39478639 0.02583932 -0.00000044
0.50146961 0.23216116 -0.00000044
0.24064746 0.36855564 0.00000212
-0.67479670 -0.40190062 -0.00000006
0.43641230 -0.74434477 -0.00000003
0.38514966 0.16512556 0.00000300
-0.20026074 0.55119002 -0.00000074
0.59204209 0.09564759 0.00000028
0.45891681 -0.42940325 -0.00000023
-0.03504152 -0.68992597 -0.00000007
-0.28037816 -0.26593482 -0.00000033
0.35578430 -0.38604921 -0.00000026
0.22928873 0.06656396 0.00000746
-0.09364996 -0.67100185 -0.00000008
-0.08253737 0.58931267 -0.00000087
-0.27169356 -0.58403081 -0.00000013
-0.45697814 0.37723097 0.02461472
0.27962095 0.19830595 0.00000443
0.44027597 0.12363099 0.00000269
-0.75552750 0.15447514 0.07915260
-0.64231694 -0.36629030 -0.00000010
0.70116013 -0.64328790 -0.00000039
-0.11911190 0.13990802 -0.00000059
-0.40536943 0.39747936 0.00204936
-0.02656527 0.14772476 -0.00000059
-0.25815690 -0.27602360 -0.00000033
-0.24064572 0.57203054 0.00912017
0.26188490 -0.06383086 -0.00000046
0.52357656 0.23153912 -0.00000085
0.47107780 -0.50419980 -0.00000018
-0.18679078 0.06931321 -0.00000054
-0.74883616 -0.50114614 0.00000000
0.45861700 -0.64616752 -0.00000010
-0.28555784 -0.41448274 -0.00000024
0.07701131 0.38162246 0.00000464
-0.06033788 0.53953815 -0.00000084
-0.32513720 -0.28001341 -0.00000032
-0.13973410 0.03829917 -0.00000052
-0.70540231 -0.39739642 -0.00000003
0.26895690 0.45784155 -0.00000002
-0.50006324 0.40844429 0.07807604
-0.42782116 0.24410897 -0.00000044
-0.21885061 -0.75021309 -0.00000003
0.30278787 -0.34408948 -0.00000028
0.52612567 -0.72170842 -0.00000005
0.24472409 -0.76995617 -0.00000002
0.51937908 -0.46134606 -0.00000021
-0.51296234 0.28242999 -0.00000036
0.70683771 -0.25449282 -0.00000121
0.43422115 0.28396472 -0.00000007
-0.43434593 -0.56776083 -0.00000015
-0.65743732 -0.74743432 -0.00000002
0.21019660 0.15084998 0.00000638
-0.13987817 0.41110000 -0.00000076
-0.34941873 0.37299037 -0.00000055
-0.60666734 -0.22777066 -0.00000016
-0.44468650 0.16882332 -0.00000041
-0.59440064 -0.72194356 -0.00000005
-0.71405834 0.34642538 0.18743065
0.63485539 -0.09272307 -0.00000129
0.65063775 -0.78851569 -0.00000001
-0.22141650 -0.18049978 -0.00000039
-0.71838707 -0.45533484 -0.00000000
0.60458219 -0.45509821 -0.00000049
-0.72950470 -0.28348115 -0.00000002
-0.17785878 0.50811881 -0.00000076
-0.00257902 -0.17007844 -0.00000039
0.22924325 -0.32569009 -0.00000030
-0.00188827 0.63010269 -0.00000089
0.28286737 0.13269022 0.00000555
0.04736268 -0.54371452 -0.00000016
0.02877751 -0.07379050 -0.00000045
-0.67694986 -0.11823003 -0.00000011
-0.06565762 -0.08539664 -0.00000045
-0.07259406 0.04770583 -0.00000053
-0.33567435 0.27631706 -0.00000055
-0.00961137 -0.61755019 -0.00000011
-0.17664105 -0.66896623 -0.00000008
-0.35648909 0.67090029 0.16361712
-0.74309313 -0.74660820 0.00000000
0.48225114 -0.45355281 -0.00000022
-0.34301767 0.57339215 0.08376164
-0.30431303 0.54765272 0.03739100
-0.41359001 0.28879663 -0.00000047
0.02374324 -0.00650236 -0.00000050
0.19002514 -0.09952634 -0.00000044
0.12134350 0.29015988 0.00000545
-0.50239599 0.36788291 0.05056874
0.59329730 -0.46679342 -0.00000043
-0.76676929 -0.44606888 0.00000000
-0.08160688 -0.36713433 -0.00000027
-0.24227376 -0.72373182 -0.00000005
0.37458596 -0.28280342 -0.00000032
-0.64604425 0.21677630 0.04520255
-0.59450006 -0.59152865 -0.00000011
0.30529323 -0.01451276 -0.00000049
-0.67062855 -0.36561513 -0.00000007
-0.57810318 -0.36306915 -0.00000017
-0.21905652 -0.34343106 -0.00000029
-0.46099734 0.33452541 -0.00000042
0.03832297 0.59955943 0.00000168
0.25564924 -0.54800653 -0.00000016
0.13179013 -0.18536203 -0.00000038
0.32959855 0.17779259 0.00000384
0.22893168 0.25994641 0.00000430
-0.24091625 0.08774972 -0.00000055
0.43436912 0.24931002 0.00000055
0.45269406 -0.29888815 -0.00000031
-0.55471551 -0.43484354 -0.00000018
-0.76447934 0.11911663 0.06015181
-0.07641634 0.07958978 -0.00000055
0.00517643 -0.08561534 -0.00000045
-0.65842158 -0.07646559 -0.00000014
0.19753140 0.26893204 0.00000465
0.41765651 -0.29255834 -0.00000032
0.03924975 0.60342246 0.00000160
0.27647322 0.37236679 0.00000137
-0.31424624 -0.09345882 -0.00000044
0.64559180 0.15079634 -0.00000174
-0.52760106 0.64722967 0.26970908
-0.46722341 0.14462528 -0.00000038
-0.29529443 0.66154337 0.11285148
0.30959389 0.25523886 0.00000284
0.56638151 -0.24679989 -0.00000077
-0.76612777 0.06491279 0.02233572
0.57019234 -0.26452306 -0.00000075
-0.62518221 0.55074900 0.27050093
-0.46133673 0.61338550 0.19767565
-0.72482908 0.00788999 -0.00000008
0.09591210 0.63641125 0.00000010
-0.66995925 0.21130288 0.05847221
0.27101165 -0.57400364 -0.00000014
-0.12422966 0.68473089 0.00644617
0.30696970 -0.71900874 -0.00000005
0.17458887 0.40515038 0.00000274
0.78761733 -0.36573002 -0.00000109
0.15907568 0.05743655 0.00000867
0.70100325 -0.50431955 -0.00000070
-0.06992206 0.02637333 -0.00000052
0.24836285 -0.48858437 -0.00000019
0.17586920 -0.16142982 -0.00000040
-0.64365077 -0.28613630 -0.00000011
-0.34340259 0.54989988 0.06713479
0.54493839 -0.61553776 -0.00000012
0.03573577 -0.61848658 -0.00000011
-0.27039081 -0.48437634 -0.00000020
-0.48800626 0.52956378 0.15655158
0.11977968 -0.49184385 -0.00000019
-0.54146481 0.30862695 0.03604330
0.14980476 0.56023085 0.00000043
0.14378402 0.03883554 0.00000920
-0.16296367 0.20639583 -0.00000063
0.61216450 -0.66563153 -0.00000010
0.06084903 -0.26937351 -0.00000033
0.73113638 -0.03755666 -0.00000171
0.26216415 -0.40896001 -0.00000024
-0.48247024 0.15332659 -0.00000037
-0.00757537 0.11747122 -0.00000057
-0.65166813 -0.51401567 -0.00000006
0.63345081 -0.19829087 -0.00000108
0.64306331 -0.22742072 -0.00000105
-0.74212891 -0.40521550 0.00000000
-0.60394788 -0.58793914 -0.00000010
-0.63920760 -0.75197828 -0.00000003
-0.31693307 -0.29418510 -0.00000032
-0.24715471 0.36379108 -0.00000066
0.23355272 -0.53394681 -0.00000017
-0.54385406 -0.69662821 -0.00000006
-0.26957485 0.40858272 -0.00000064
0.39079511 -0.77278346 -0.00000002
0.26958466 -0.05106074 -0.00000047
-0.52962804 -0.38900325 -0.00000022
-0.24540104 -0.30545563 -0.00000031
0.17647702 0.00656056 0.00000923
0.19497658 -0.17663893 -0.00000039
0.27743354 -0.21063928 -0.00000037
-0.62890965 -0.18772975 -0.00000015
-0.45928493 0.11441084 -0.00000038
0.17745185 -0.08933766 -0.00000044
-0.76316619 -0.26281232 0.00000000
0.40833473 -0.57107866 -0.00000014
0.50362849 -0.06402991 -0.00000093
0.05124119 0.01825631 0.00001093
-0.25732946 0.39102387 -0.00000065
0.40023199 0.00523180 0.00000558
-0.34814391 -0.06658395 -0.00000046
-0.55221277 0.33891276 0.06556903
-0.38069546 -0.23681691 -0.00000035
-0.15488251 0.09495146 -0.00000056
0.61628199 0.02863145 0.00000101
0.15647911 0.61334801 -0.00000065
-0.05003936 -0.64456499 -0.00000010
-0.36223641 0.66192347 0.16129331
0.48300406 -0.48384246 -0.00000020
-0.04779728 -0.42982298 -0.00000023
0.77949780 -0.32023942 -0.00000120
0.62773335 -0.09523949 -0.00000126
-0.07043875 0.75108415 0.01548521
0.48220360 -0.14383827 -0.00000070
-0.55320704 0.57350570 0.23508561
-0.21785742 -0.13778920 -0.00000041
-0.13832025 -0.07537281 -0.00000045
0.57490480 0.19991025 -0.00000127
-0.37479797 0.17292494 -0.00000049
-0.72369927 -0.79705530 0.00000000
-0.68034494 -0.28048506 -0.00000008
-0.24285942 -0.24586438 -0.00000035
-0.46668357 0.10314155 -0.00000037
-0.05326649 0.17788586 -0.00000061
-0.49216995 -0.48232365 -0.00000020
0.23027949 0.38662446 0.00000200
-0.49826729 0.01233458 -0.00000032
0.32382259 0.35590997 0.00000075
-0.63698435 -0.33512804 -0.00000011
0.52502829 -0.73066342 -0.00000004
-0.69979447 0.51590306 0.29911491
-0.31357446 0.67679715 0.13698088
0.19148326 0.06730110 0.00000802
-0.19734541 0.64691979 0.03184977
0.77112550 -0.30066413 -0.00000125
0.51429433 -0.13796164 -0.00000082
0.48616084 -0.01778852 -0.00000096
-0.16957305 -0.04391429 -0.00000047
0.07713520 0.07842161 0.00000956
0.70849550 -0.73827434 -0.00000015
-0.69220525 0.58686119 0.34471226
0.06686099 -0.21409760 -0.00000037
-0.47588417 -0.68140173 -0.00000007
0.50296038 -0.11860042 -0.00000082
-0.53885299 -0.70746094 -0.00000006
0.74420452 -0.22380807 -0.00000138
-0.39161646 0.12639058 -0.00000046
0.38806686 -0.13985480 -0.00000041
0.16319574 0.57257956 -0.00000005
0.60612273 -0.56961888 -0.00000027
0.54861629 0.19832113 -0.00000073
0.24348938 -0.14107658 -0.00000041
-0.49928120 -0.38460380 -0.00000025
-0.34816408 0.34215170 -0.00000054
-0.07761775 -0.76999289 -0.00000002
0.03772368 0.20122595 0.00000816
0.20662145 0.04521618 0.00000815
0.32869360 -0.08117852 -0.00000045
-0.76389813 -0.59505314 0.00000000
-0.43099394 0.08377757 -0.00000041
-0.41236717 -0.60748577 -0.00000012
-0.18062885 0.43978032 -0.00000074
-0.70908016 -0.16096997 -0.00000007
-0.43955162 -0.01636992 -0.00000038
0.03783206 0.74062717 -0.00000066
0.08316063 0.45471370 0.00000336
0.06015095 0.35184592 0.00000537
0.47293562 -0.57479846 -0.00000014
-0.32767084 -0.53384215 -0.00000017
-0.11568559 -0.53152931 -0.00000017
-0.38045973 -0.25332695 -0.00000034
-0.63688779 -0.50805557 -0.00000008
-0.12008042 0.05959635 -0.00000054
-0.41675702 0.08434813 -0.00000042
-0.48628405 0.42783156 0.08211127
-0.29041579 -0.02484704 -0.00000048
0.44672424 -0.56392568 -0.00000015
-0.62479615 -0.37969983 -0.00000012
-0.66092992 0.23800592 0.07118926
0.24301660 -0.65553761 -0.00000009
0.35614434 -0.72872061 -0.00000004
-0.18842307 -0.04183839 -0.00000047
-0.27096260 -0.34990305 -0.00000028
-0.26099065 0.63310188 0.06770305
-0.20917434 -0.57784605 -0.00000014
0.41193485 -0.07091598 -0.00000062
0.42330262 -0.45551798 -0.00000022
-0.41809192 -0.27485612 -0.00000033
-0.72001725 0.02831400 -0.00000009
-0.49942178 0.13789997 -0.00000035
-0.52068251 0.21771340 -0.00000034
0.08110191 -0.66068298 -0.00000009
-0.09558261 0.53796566 -0.00000084
0.31139562 -0.41788760 -0.00000024
-0.41993457 -0.17709321 -0.00000037
-0.26087332 0.49994192 -0.00000067
0.19858989 -0.70180112 -0.00000006
0.15089966 -0.57620281 -0.00000014
0.12880978 -0.46093431 -0.00000021
-0.49711233 -0.59421402 -0.00000013
0.57356459 -0.29651994 -0.00000070
0.19503763 0.58870071 -0.00000095
0.42639953 -0.72475129 -0.00000005
0.64232618 0.10106269 -0.00000079
-0.33556831 -0.69867742 -0.00000006
-0.49915704 -0.65281433 -0.00000009
-0.21678543 -0.41697386 -0.00000024
0.45588270 -0.75909907 -0.00000003
0.49688232 -0.63223028 -0.00000010
0.06528547 -0.28878996 -0.00000032
-0.14093719 -0.40310028 -0.00000025
-0.10462417 0.14153565 -0.00000059
-0.12265434 0.68033886 0.00215239
0.09130423 0.34797159 0.00000497
0.66705674 -0.07377805 -0.00000143
-0.28002194 -0.52507955 -0.00000017
-0.01537115 0.57901675 -0.00000086
-0.45892587 0.43919152 0.07059971
-0.25266963 -0.00355300 -0.00000050
0.58265162 0.18810628 -0.00000120
0.54851937 -0.62534362 -0.00000011
-0.21518224 0.51448220 -0.00000072
-0.35716718 0.45523492 0.00892325
-0.23183052 0.24311757 -0.00000065
-0.06664329 0.65587419 -0.00000090
0.02627107 -0.34903157 -0.00000028
0.76204228 -0.76988542 -0.00000008
-0.59235978 -0.73270315 -0.00000004
-0.02805784 0.47474885 -0.00000080
-0.05059996 -0.46856180 -0.00000021
-0.72172636 0.03428171 -0.00000009
-0.49998054 0.18998443 -0.00000035
-0.05175750 0.06982669 -0.00000054
-0.34848541 -0.19260697 -0.00000038
0.18056110 0.40533984 0.00000262
-0.75761402 -0.17595039 -0.00000001
0.78524679 -0.28531802 -0.00000129
0.08192360 -0.74539846 -0.00000003
0.12628303 -0.31790999 -0.00000030
-0.50129837 -0.30575329 -0.00000026
0.28384742 -0.04165508 -0.00000047
-0.48499390 -0.35474220 -0.00000027
-0.18146592 0.58081234 -0.00000077
-0.50643712 0.20684014 -0.00000035
0.79241735 -0.21276802 -0.00000147
-0.33015820 0.53435487 0.04641943
-0.25413892 -0.20871177 -0.00000037
-0.21416923 -0.57843387 -0.00000014
-0.13163000 0.28555316 -0.00000068
-0.40300369 -0.33756033 -0.00000029
0.10349483 -0.68433225 -0.00000007
0.01682686 0.46521941 0.00000419
-0.15988199 -0.65457869 -0.00000009
0.38480619 -0.19868296 -0.00000038
-0.14174144 -0.78701735 -0.00000001
0.39834705 -0.00112219 -0.00000071
-0.17429398 -0.14809252 -0.00000041
-0.11672715 -0.43479896 -0.00000023
0.27521893 -0.16725831 -0.00000040
-0.78549433 -0.68635172 0.00000000
0.60266179 0.15412185 -0.00000098
0.37888989 0.08868341 0.00000450
0.49871925 -0.61580527 -0.00000012
0.60662174 -0.14961861 -0.00000109
0.06700678 0.26735970 0.00000664
0.59837037 -0.59962058 -0.00000018
-0.11210623 -0.28441119 -0.00000032
0.22870585 -0.41767606 -0.00000024
0.61639857 -0.56166643 -0.00000032
0.30320719 -0.50969166 -0.00000018
-0.62913370 0.31849509 0.10622602
-0.44966075 0.37348542 0.01665440
0.07792190 0.47116569 0.00000317
-0.61267543 -0.59548336 -0.00000009
0.18918090 0.00984664 0.00000899
-0.16725791 -0.08617234 -0.00000045
0.10254128 0.03060528 0.00000996
-0.60682839 0.24062762 0.03414693
-0.71920961 -0.40870142 -0.00000001
0.45732027 -0.39061809 -0.00000026
0.12820353 -0.55740577 -0.00000015
-0.42899501 -0.03880869 -0.00000039
0.01307035 -0.33137491 -0.00000029
0.67044723 -0.41354302 -0.00000078
-0.20828716 -0.41710013 -0.00000024
-0.70862055 -0.33956283 -0.00000004
-0.10610657 0.24945694 -0.00000066
0.09644889 -0.60244298 -0.00000012
0.61092657 -0.73145151 -0.00000004
-0.20498022 0.21081118 -0.00000063
0.44291836 0.27278414 -0.00000004
-0.14331682 0.74940908 0.06671954
-0.72904414 -0.36322355 -0.00000001
-0.14391989 -0.51823282 -0.00000018
-0.59020454 -0.56673837 -0.00000012
-0.71126801 0.12092386 0.02316400
-0.18677494 -0.67020524 -0.00000008
0.55933017 -0.46142483 -0.00000033
0.51300067 -0.47738552 -0.00000020
-0.28177428 0.63248754 0.08221586
-0.16257451 -0.17631795 -0.00000039
-0.32049510 -0.16506533 -0.00000040
0.24473916 -0.29404679 -0.00000032
0.02731744 0.36349639 0.00000568
-0.59539026 0.08738052 -0.00000023
-0.30209661 -0.52867281 -0.00000017
-0.34586310 0.71471179 0.18749587
-0.47848290 0.06233719 -0.00000035
-0.18695460 -0.01223319 -0.00000049
-0.22766232 0.19383769 -0.00000062
0.65687335 -0.14967781 -0.00000125
-0.08957862 -0.77725041 -0.00000001
-0.42577600 -0.01890989 -0.00000040
-0.16999660 -0.38454655 -0.00000026
-0.06773178 -0.18365906 -0.00000039
0.20749381 -0.12773997 -0.00000042
-0.01388152 0.48668253 -0.00000080
-0.78996563 -0.44760853 0.00000000
0.64924926 0.02062709 0.00000052
-0.08908093 0.55100566 -0.00000084
-0.55547446 0.26216993 0.01269594
-0.45864487 -0.64932024 -0.00000009
-0.54319614 -0.40828049 -0.00000020
0.52988476 0.20041189 -0.00000041
-0.22474451 -0.70448935 -0.00000006
-0.34115979 0.63153386 0.12426063
-0.74185699 0.26342490 0.14771049
0.63408363 -0.01728985 -0.00000144
0.30102310 -0.11359200 -0.00000043
0.67491424 0.07640799 -0.00000097
0.11396788 0.45352584 0.00000291
0.79814142 -0.12833622 -0.00000168
-0.02816192 -0.36744881 -0.00000027
-0.40395263 0.09192668 -0.00000044
0.11680750 -0.37463143 -0.00000027
-0.58270305 -0.20981792 -0.00000019
-0.44663686 -0.61029744 -0.00000012
-0.53289449 0.50411582 0.17053992
-0.15498094 0.21578117 -0.00000063
-0.79927975 -0.35480067 0.00000000
0.36605301 -0.41855314 -0.00000024
0.14206906 0.36540726 0.00000392
-0.64685935 -0.11157719 -0.00000014
-0.26494923 -0.20438226 -0.00000037
0.52077127 -0.71019858 -0.00000006
0.63674629 -0.43986276 -0.00000062
0.35272214 0.16162463 0.00000369
-0.50981295 0.50027865 0.15117057
-0.45535719 -0.68646264 -0.00000007
0.71254051 -0.60021532 -0.00000050
-0.79296386 -0.78204864 0.00000000
-0.24811415 0.39889088 -0.00000066
-0.69810414 0.45433113 0.25359431
0.66721624 -0.63598228 -0.00000033
-0.62996316 0.32897142 0.11436103
-0.47438163 0.37691832 0.03691244
0.77178949 -0.15531515 -0.00000161
-0.16962297 -0.58879018 -0.00000013
0.70588005 -0.14165102 -0.00000142
-0.62918419 0.28631112 0.08310445
-0.38615477 0.38432172 -0.00000051
0.17114225 -0.12496197 -0.00000042
0.03786422 -0.76301324 -0.00000002
0.24177663 0.55756766 -0.00000129
-0.08320196 -0.06227083 -0.00000046
-0.13051246 -0.38350490 -0.00000026
-0.61650658 0.06656950 -0.00000021
-0.12228917 -0.57033461 -0.00000014
0.72249246 -0.45993325 -0.00000085
-0.31710002 0.54594040 0.04535974
0.38283092 -0.70074874 -0.00000006
0.44083175 0.23023868 0.00000076
-0.50973004 0.49516127 0.14742869
-0.63688922 0.63428116 0.33903065
-0.29447773 0.54102427 0.02554451
-0.64681333 0.14548400 -0.00000019
-0.07344757 0.31954727 -0.00000070
0.37946078 0.05749057 0.00000504
0.65422362 -0.47420183 -0.00000061
-0.32142389 0.33328527 -0.00000057
-0.40906948 -0.00100460 -0.00000042
-0.33725086 -0.41283029 -0.00000024
-0.77902019 -0.02193872 -0.00000002
-0.33833495 -0.37638107 -0.00000026
-0.27393502 0.59331745 0.04839038
0.36249381 -0.35362062 -0.00000028
-0.63073868 0.65824533 0.35184851
-0.34902892 0.62523782 0.12539256
-0.09635247 -0.11587038 -0.00000043
0.63022125 -0.60434419 -0.00000028
0.63221896 -0.48173717 -0.00000052
-0.28047225 -0.42674816 -0.00000023
0.38240936 0.40288159 -0.00000121
-0.08876625 -0.38172701 -0.00000026
0.17046396 0.56279439 -0.00000001
0.23565990 0.11513270 0.00000657
0.71649843 -0.00465026 -0.00000172
0.07038932 0.33091137 0.00000556
-0.05561914 0.09031886 -0.00000056
-0.64665741 -0.66326576 -0.00000004
-0.48027426 -0.33734852 -0.00000028
0.30408061 0.11190468 0.00000551
-0.31232205 0.46580458 -0.00000061
0.46655741 -0.43905073 -0.00000023
-0.63308960 0.59430969 0.30753499
0.33262166 0.02971017 0.00000644
0.07225810 0.36335266 0.00000501
-0.43838605 -0.09993715 -0.00000037
0.34691852 0.26978204 0.00000186
0.02673518 0.77236784 -0.00000102
-0.35759878 0.55398291 0.08028762
0.31916881 -0.61027670 -0.00000012
-0.13738076 -0.49966502 -0.00000019
-0.25565431 0.06400861 -0.00000054
-0.32954791 0.08609446 -0.00000052
-0.31209806 -0.65916163 -0.00000009
-0.01558888 -0.54191387 -0.00000016
-0.38674065 -0.74581581 -0.00000003
0.43621695 -0.75219256 -0.00000003
-0.44921032 0.12155905 -0.00000040
0.38444486 0.39558452 -0.00000112
-0.36782637 0.49454790 0.04488061
0.42324343 0.18445864 0.00000192
0.31659985 0.22179396 0.00000330
0.77257138 -0.77730620 -0.00000006
-0.58114493 0.39115661 0.12397907
-0.46488979 -0.51108599 -0.00000018
0.32527614 0.29912272 0.00000175
0.19950002 0.13105032 0.00000686
0.29054207 0.15088624 0.00000507
-0.65920687 0.25191709 0.07995916
0.11786814 -0.41956395 -0.00000024
-0.69176245 -0.33364075 -0.00000005
0.03002706 -0.52605838 -0.00000017
-0.40936953 0.03170772 -0.00000042
-0.10804088 -0.75697225 -0.00000003
-0.23186170 0.59334534 0.01813662
0.26058635 0.20528214 0.00000467
0.25964355 0.16932698 0.00000533
0.71320444 -0.32007837 -0.00000110
-0.07693645 -0.15503326 -0.00000040
-0.72124100 0.36829534 0.20833538
0.16692206 0.50705069 0.00000105
0.09972834 -0.22629632 -0.00000036
0.41180396 -0.06286283 -0.00000063
0.27381125 -0.02055763 -0.00000049
0.24699178 -0.28750440 -0.00000032
-0.21924880 0.67787302 0.06988264
0.53896737 0.04567619 0.00000219
0.11357066 0.23708934 0.00000643
-0.17710337 -0.04979917 -0.00000047
-0.30623204 -0.71178079 -0.00000006
-0.13724811 -0.44379240 -0.00000022
0.35094130 0.28620571 0.00000149
0.70411664 -0.67080599 -0.00000032
-0.53404957 -0.55884850 -0.00000015
0.26445568 -0.73651820 -0.00000004
-0.54298079 0.37374502 0.08398962
-0.44727561 -0.63464540 -0.00000010
0.73692304 -0.24160486 -0.00000133
-0.34421414 0.73420805 0.20033798
-0.27413824 -0.08509961 -0.00000045
0.44904584 -0.08411034 -0.00000071
-0.03681352 0.73824996 -0.00000095
0.22139332 -0.62475127 -0.00000011
-0.66053951 0.25544983 0.08346005
-0.61572808 -0.52002102 -0.00000010
0.01903992 0.62704891 0.00000152
-0.16519684 0.45310184 -0.00000076
0.78596693 -0.52848065 -0.00000068
0.45929208 -0.22868954 -0.00000046
-0.74447340 0.31236616 0.18480861
-0.04343888 0.11963922 -0.00000057
-0.73924214 -0.05408391 -0.00000005
0.49116355 -0.04155189 -0.00000093
-0.35716859 0.21580195 -0.00000051
0.13446787 0.17821079 0.00000708
0.00015001 -0.41792732 -0.00000024
-0.35985434 0.70029533 0.18718989
-0.27052101 -0.66502476 -0.00000008
0.06990180 0.17445847 0.00000811
-0.49167398 0.65161222 0.24701110
0.18467356 -0.12136567 -0.00000042
0.31054419 -0.60053980 -0.00000012
0.35902491 -0.67524070 -0.00000008
-0.03390645 -0.12792280 -0.00000042
0.13469154 0.42288163 0.00000310
-0.33384591 0.52112770 0.03955536
-0.01881561 0.53553426 -0.00000083
0.56667399 -0.21023691 -0.00000084
0.37224483 0.16559435 0.00000324
0.15717511 -0.15809004 -0.00000040
-0.04839227 -0.71457362 -0.00000005
0.70678103 -0.42756143 -0.00000087
0.06918924 -0.75290591 -0.00000003
-0.39314860 0.20075452 -0.00000047
-0.55427551 0.39385965 0.10659016
-0.59757489 0.29439980 0.06618019
-0.68640983 -0.02600889 -0.00000012
-0.68956745 -0.60927695 -0.00000001
-0.09000312 -0.74821860 -0.00000003
0.31045291 0.44084033 -0.00000051
-0.57660800 0.37639776 0.11009483
0.01570430 -0.40449989 -0.00000025
0.20974530 -0.35434040 -0.00000028
0.39776590 0.12509310 0.00000348
0.63184786 -0.40521964 -0.00000067
0.69701594 -0.63259178 -0.00000042
0.27847597 -0.44875211 -0.00000022
-0.04140810 0.19447605 -0.00000062
0.30461812 -0.22919604 -0.00000036
-0.06521258 -0.66682148 -0.00000008
0.00999912 0.41330203 0.00000513
0.12672277 0.15062636 0.00000764
-0.37637559 0.45697266 0.02399505
0.31314340 -0.66645974 -0.00000008
-0.32210878 -0.32088053 -0.00000030
-0.43487516 0.14991286 -0.00000042
-0.17749564 0.59834361 -0.00000077
-0.74997354 0.16921103 0.08575943
0.09579963 0.65138656 -0.00000017
0.56268299 -0.30899635 -0.00000064
0.74480778 -0.32617342 -0.00000118
0.11273160 0.32850149 0.00000496
-0.62509888 0.40217173 0.16353200
0.25219291 -0.07755459 -0.00000045
0.52936465 -0.17961416 -0.00000078
0.09763075 0.16437262 0.00000786
-0.67606866 0.63689387 0.36910233
-0.74132162 -0.05210752 -0.00000005
-0.50917459 0.34428397 0.03846578
0.50593472 -0.39045438 -0.00000030
0.68986833 -0.51432031 -0.00000064
-0.54857576 0.62300688 0.26737189
-0.24175052 -0.42204493 -0.00000024
-0.45959717 -0.74648082 -0.00000003
0.02934658 -0.60489750 -0.00000012
-0.02587950 0.66678345 -0.00000092
-0.76504976 0.11281052 0.05602471
-0.73324168 -0.31701928 -0.00000001
0.60605007 0.16346452 -0.00000121
0.63907599 -0.09487330 -0.00000130
-0.33682904 -0.46804008 -0.00000021
-0.25825170 0.73400122 0.13833454
0.35001692 -0.69687515 -0.00000006
-0.18856391 -0.79641289 -0.00000000
-0.42046306 0.25620043 -0.00000045
-0.38686752 0.63831323 0.16202790
-0.48638085 0.60801715 0.21183339
0.01034737 0.07080994 0.00001069
0.68506277 -0.49775553 -0.00000066
0.35068783 -0.53032243 -0.00000017
-0.50597650 0.29528418 0.00090692
0.31428599 -0.31355768 -0.00000030
0.34922603 -0.04137478 -0.00000048
-0.62595361 0.29499125 0.08702566
0.24197780 -0.24344575 -0.00000035
-0.33606502 -0.78541416 -0.00000001
-0.01206686 -0.73860830 -0.00000004
0.75112069 -0.06076186 -0.00000173
-0.63529927 -0.14384837 -0.00000015
0.65392745 -0.76990885 -0.00000003
0.54593074 -0.70514905 -0.00000006
0.65716803 -0.30463344 -0.00000095
-0.12934835 -0.01642964 -0.00000049
0.72385287 -0.50529277 -0.00000074
0.13417055 0.61813498 -0.00000031
-0.08799865 0.47142857 -0.00000079
0.36673695 -0.25243095 -0.00000034
-0.63077343 0.26398849 0.06818583
-0.25932083 -0.74267483 -0.00000004
0.65963608 0.04141492 -0.00000005
-0.39823675 -0.17568719 -0.00000039
0.22875953 0.45728627 0.00000076
-0.32290962 -0.11439748 -0.00000043
0.13010050 -0.40175620 -0.00000025
0.79600376 -0.24190030 -0.00000140
0.55721283 -0.49170202 -0.00000026
-0.02088416 -0.42878410 -0.00000023
0.64290303 -0.24362227 -0.00000102
-0.05495951 0.35030919 -0.00000072
-0.76015413 -0.79186964 0.00000000
-0.20727240 0.55977356 -0.00000073
-0.27481100 0.34088472 -0.00000062
0.32785785 -0.05239217 -0.00000047
0.13911092 -0.55863303 -0.00000015
0.49990493 0.18885724 0.00000037
0.41611961 -0.39425924 -0.00000025
0.10588038 0.01421950 0.00001017
0.07457025 -0.19207884 -0.00000038
-0.13156559 -0.34227169 -0.00000029
-0.04604483 -0.09643794 -0.00000044
0.29222280 -0.38766447 -0.00000026
0.33151123 0.25694206 0.00000238
-0.36322314 -0.64423031 -0.00000010
0.36685666 -0.33944324 -0.00000029
-0.26093948 -0.34213325 -0.00000029
0.67219770 -0.54437423 -0.00000053
-0.78412133 -0.53836918 0.00000000
-0.60438675 -0.57017100 -0.00000010
0.16164945 0.60971999 -0.00000069
-0.34202015 -0.07877542 -0.00000045
-0.46058601 -0.54271889 -0.00000016
-0.56700283 -0.21312720 -0.00000021
-0.39093474 0.10568497 -0.00000046
-0.62859058 -0.14513013 -0.00000016
0.56567490 -0.57505029 -0.00000014
-0.40108237 -0.21019381 -0.00000037
-0.46803072 -0.15134229 -0.00000033
-0.28364062 0.63767147 0.08728884
-0.63789260 -0.46954793 -0.00000009
0.62791431 -0.74696505 -0.00000003
0.30785519 0.40613925 0.00000016
-0.01060025 -0.70897877 -0.00000006
0.52514839 0.11371499 0.00000124
-0.52701479 -0.61368793 -0.00000012
-0.44067031 0.53996813 0.12997741
0.36342171 -0.15466192 -0.00000040
-0.19454406 -0.03462189 -0.00000048
0.69890440 -0.30600250 -0.00000108
-0.34429836 0.15337299 -0.00000051
-0.07229307 0.04440669 -0.00000053
0.09329276 -0.47020179 -0.00000021
-0.14153861 -0.20123394 -0.00000037
-0.45590627 0.47258762 0.09245703
0.21815877 -0.62729889 -0.00000011
-0.29134285 -0.05000340 -0.00000047
-0.61535424 -0.51632011 -0.00000010
0.08551993 -0.76278991 -0.00000002
0.15317126 -0.71375155 -0.00000005
0.25635651 0.10183424 0.00000648
0.10851708 0.53610057 0.00000165
0.03945525 0.63752002 0.00000104
0.59109217 -0.28985080 -0.00000077
0.67509723 -0.22498992 -0.00000116
0.08883813 0.32346523 0.00000540
-0.45816007 -0.01526151 -0.00000036
0.27179804 -0.78627378 -0.00000001
0.25370041 -0.70726579 -0.00000006
0.21644750 0.03068688 0.00000824
-0.46210295 -0.36748219 -0.00000027
-0.05512894 0.49580672 -0.00000081
-0.76018721 0.21085320 0.12307215
-0.37917760 0.06983698 -0.00000046
-0.31494093 0.63787735 0.10995920
-0.41030556 -0.07245858 -0.00000040
-0.64110178 0.46153066 0.21775851
0.66881496 0.07694863 -0.00000086
0.52207106 -0.16747189 -0.00000078
0.17632924 -0.76252812 -0.00000002
-0.51495177 0.10697751 -0.00000032
-0.34542605 0.60642838 0.10926567
0.09349733 0.06079711 0.00000960
0.00227792 -0.55497414 -0.00000015
-0.08987894 -0.61142194 -0.00000012
-0.49913555 -0.67296952 -0.00000008
-0.77541357 -0.30043572 0.00000000
0.08837927 -0.49306402 -0.00000019
-0.41784734 0.07226262 -0.00000042
0.69311816 -0.62850910 -0.00000043
0.67882425 -0.10367238 -0.00000141
0.47176316 -0.13943116 -0.00000068
0.64293987 -0.62850243 -0.00000027
-0.15838026 0.05054848 -0.00000053
-0.01857692 -0.48256525 -0.00000020
-0.09577535 0.72041571 0.01164881
-0.58168316 0.52584922 0.22128429
0.68843752 -0.47084689 -0.00000072
-0.75781667 -0.69322795 0.00000000
0.56870288 -0.01970534 -0.00000122
0.25321180 0.04558364 0.00000744
-0.77245301 0.14193709 0.08230966
-0.48822954 0.12938628 -0.00000036
-0.43323952 0.28269753 -0.00000044
-0.01005154 -0.04344874 -0.00000047
-0.24124277 0.66423386 0.07589438
0.18741044 -0.02955115 -0.00000048
-0.43335393 0.10820332 -0.00000041
0.72786272 -0.39627045 -0.00000100
0.09982504 0.22294317 0.00000687
-0.65241981 -0.40925100 -0.00000008
0.68386799 -0.08501254 -0.00000146
0.26293701 -0.60740334 -0.00000012
0.59089112 -0.41922060 -0.00000051
0.05319098 -0.31235728 -0.00000030
0.05224021 0.23983653 0.00000731
0.51405925 -0.17434566 -0.00000074
0.55074215 -0.12793985 -0.00000095
-0.36586177 -0.17288174 -0.00000039
-0.27976036 0.50266337 -0.00000065
0.19683595 -0.43103814 -0.00000023
0.21236350 -0.66200662 -0.00000009
-0.18674280 -0.60097325 -0.00000012
-0.55437213 0.17945884 -0.00000029
0.50192779 0.22734830 -0.00000036
-0.49744835 0.69861406 0.28498644
-0.46106017 -0.09830186 -0.00000034
0.15456958 0.59313989 -0.00000025
-0.60442120 -0.79327643 -0.00000000
-0.64531422 0.09214116 -0.00000018
0.77522516 -0.31631964 -0.00000121
0.14489140 0.13789479 0.00000757
-0.59521359 -0.32646033 -0.00000016
0.75585139 -0.21963739 -0.00000143
-0.07770729 0.54516011 -0.00000084
0.32145196 0.41675800 -0.00000029
-0.77001315 -0.18928246 0.00000000
-0.67361623 0.03790154 -0.00000014
-0.08956554 -0.50116265 -0.00000019
-0.42086187 -0.73455048 -0.00000004
0.42128265 -0.37892997 -0.00000026
0.28383920 -0.34430698 -0.00000028
-0.14095172 0.54876906 -0.00000080
-0.14584801 0.39070150 -0.00000074
-0.07271191 -0.25832754 -0.00000034
0.38225618 -0.01741848 -0.00000063
0.04136332 0.05143606 0.00001054
0.66023672 -0.24362548 -0.00000108
0.06678393 0.41963351 0.00000417
0.20802373 0.25898823 0.00000465
0.56982327 -0.15004852 -0.00000097
0.78687149 -0.38969207 -0.00000103
-0.67330933 0.65677220 0.38142037
-0.48803991 0.31926948 0.00525921
0.03611910 0.67608595 0.00000047
-0.72687596 0.24477053 0.12350816
-0.10942696 0.13231513 -0.00000058
-0.63402569 -0.01239870 -0.00000017
-0.24370196 -0.27093819 -0.00000033
-0.31614214 -0.16517188 -0.00000040
-0.28749481 -0.19142535 -0.00000038
-0.64059055 -0.45043498 -0.00000009
-0.28007847 -0.52949870 -0.00000017
-0.13368206 -0.29038247 -0.00000032
-0.09048568 -0.68017375 -0.00000007
0.34448802 -0.68674403 -0.00000007
0.16459298 -0.13675992 -0.00000041
-0.45263848 0.64160067 0.21171913
0.41994584 -0.07484026 -0.00000064
-0.18901074 0.36968067 -0.00000072
-0.63103986 0.37017056 0.14478049
0.59708416 -0.21073803 -0.00000094
0.26129293 -0.36965823 -0.00000027
-0.04328785 -0.58265942 -0.00000014
-0.77671647 -0.15883082 0.00000000
0.34077629 0.02827236 0.00000631
-0.23558420 0.16610456 -0.00000060
0.37504697 -0.44160625 -0.00000022
-0.32128239 -0.20857310 -0.00000037
-0.64589870 0.50728488 0.25413278
0.01284917 0.62621784 0.00000163
0.36066410 0.03411273 0.00000582
-0.49647120 -0.63534594 -0.00000010
0.54373288 -0.03548129 -0.00000111
-0.53299445 0.43012220 0.11736994
-0.35333237 -0.36816397 -0.00000027
-0.48422325 -0.77272588 -0.00000002
0.78470206 -0.12794609 -0.00000168
0.17166211 -0.30908325 -0.00000031
-0.60892868 -0.24935609 -0.00000016
-0.63710004 -0.57401067 -0.00000007
0.59267759 -0.14424986 -0.00000105
-0.32570964 0.18076602 -0.00000054
-0.46792570 0.32607636 -0.00000041
-0.52217859 0.62103546 0.24695916
-0.26701221 -0.68705612 -0.00000007
-0.32690972 0.15286282 -0.00000053
-0.01055047 0.00814533 -0.00000051
0.03750606 0.26782528 0.00000708
0.68627363 -0.27401477 -0.00000110
-0.55987966 -0.33127499 -0.00000020
0.58755237 -0.67112595 -0.00000008
0.57146531 -0.07127700 -0.00000113
-0.20031361 0.59623635 -0.00000075
-0.04515053 0.14120859 -0.00000059
0.60738438 -0.60264915 -0.00000021
0.48847419 -0.48275051 -0.00000020
-0.26772603 -0.79841602 -0.00000000
0.25846422 0.15070044 0.00000565
-0.35154593 -0.25608248 -0.00000034
0.65948689 0.11847904 -0.00000143
-0.38857782 0.31534308 -0.00000050
0.69041300 -0.65917242 -0.00000035
-0.69984394 -0.57600129 -0.00000000
0.00082376 0.64061224 0.00000158
0.40720353 -0.76952082 -0.00000002
-0.55135113 0.01966039 -0.00000027
-0.07957070 0.22993711 -0.00000064
0.33303708 -0.61366940 -0.00000012
0.01711822 0.48234561 0.00000390
-0.58449101 -0.55789006 -0.00000013
0.40024099 -0.47683170 -0.00000020
-0.51374441 -0.79953742 -0.00000000
-0.41686580 0.61497545 0.16682050
0.43034625 -0.45086795 -0.00000022
0.23805945 0.03006327 0.00000792
0.52818608 0.03642399 0.00000257
0.12692048 0.10282842 0.00000841
-0.71672213 0.19759344 0.08225583
-0.49635825 0.61102664 0.22117819
-0.37127230 0.64740241 0.15734643
-0.01416453 -0.42925864 -0.00000023
-0.36448270 0.37611485 -0.00000053
0.33721083 -0.42279994 -0.00000024
0.45279688 -0.59120190 -0.00000013
-0.19680759 0.18503156 -0.00000062
0.72358078 -0.46570283 -0.00000084
0.14105925 -0.62819499 -0.00000011
-0.24068347 -0.72877413 -0.00000004
0.59903562 -0.00067244 -0.00000136
0.14083277 0.06319347 0.00000885
-0.11696977 -0.32721466 -0.00000030
0.39308569 -0.17430118 -0.00000039
-0.26326680 -0.10509877 -0.00000043
-0.59920454 0.08630891 -0.00000023
0.23641010 0.46500820 0.00000047
-0.66563451 -0.75547838 -0.00000001
0.30301768 -0.34249154 -0.00000029
-0.26180372 -0.11925448 -0.00000043
-0.76995301 -0.46190301 0.00000000
-0.58846796 0.15949191 -0.00000025
-0.56116879 0.49300426 0.18288939
0.19695452 0.34041214 0.00000347
-0.44172084 -0.58364731 -0.00000014
-0.66620994 -0.12899846 -0.00000012
0.61970204 -0.45172903 -0.00000054
0.29863757 -0.76018292 -0.00000002
-0.65684253 0.04907399 -0.00000016
0.39295170 0.34281805 -0.00000034
0.02732313 0.15222871 0.00000911
-0.17741834 0.14983611 -0.00000059
-0.18509945 -0.38960499 -0.00000026
-0.28315151 0.65891212 0.10222064
0.55405152 -0.67349291 -0.00000008
-0.10809140 0.48400429 -0.00000080
-0.18756901 0.41050389 -0.00000073
0.14300150 0.19448666 0.00000668
-0.61710799 -0.08310478 -0.00000018
-0.26951382 0.03610813 -0.00000052
0.43626508 -0.52136260 -0.00000017
0.55660415 -0.12672532 -0.00000097
-0.23958999 -0.40528351 -0.00000025
-0.57859415 0.27932292 0.04167408
-0.67464346 0.63911450 0.36967465
-0.56537670 -0.77281666 -0.00000002
-0.01072258 -0.65069109 -0.00000009
-0.08953403 -0.13004011 -0.00000042
0.21713641 -0.56056553 -0.00000015
-0.78714144 -0.34302467 0.00000000
-0.29504162 -0.46124345 -0.00000021
0.61457092 0.01063479 0.00000137
-0.32312754 -0.59611249 -0.00000013
-0.45101669 -0.54059440 -0.00000016
0.23561941 -0.32201001 -0.00000030
-0.04052623 -0.64503235 -0.00000010
0.39654887 -0.13188121 -0.00000045
0.73558986 -0.51200640 -0.00000072
-0.01813703 -0.74873185 -0.00000003
0.76592773 -0.52584195 -0.00000069
-0.78678650 -0.15572685 0.00000000
0.05830999 -0.53268856 -0.00000017
-0.49685374 -0.36428234 -0.00000026
-0.37953225 0.52685648 0.07655110
-0.02764983 0.26047611 -0.00000066
-0.67024225 -0.75827938 0.00000000
-0.36155948 0.13356192 -0.00000049
0.46009660 -0.46083251 -0.00000021
0.50024313 -0.13265893 -0.00000078
-0.63813198 0.67759746 0.37109324
-0.22827081 -0.03506631 -0.00000048
-0.00718492 0.55997443 -0.00000085
-0.38140965 -0.10782144 -0.00000043
0.23037314 0.13651051 0.00000631
0.68693769 -0.32950306 -0.00000100
-0.50043076 0.38394904 0.06071502
-0.17218195 0.42331123 -0.00000075
-0.34564775 -0.67484725 -0.00000008
0.16686510 0.47191563 0.00000169
-0.36532468 -0.38624820 -0.00000026
-0.49785340 0.53629088 0.16847759
0.10979121 0.15056089 0.00000790
-0.50431520 -0.01520974 -0.00000031
-0.26030865 0.12270599 -0.00000058
0.05844967 -0.38590685 -0.00000026
0.22633465 -0.03585503 -0.00000048
0.72782379 -0.41238779 -0.00000096
-0.00814443 -0.09689627 -0.00000044
-0.24911563 0.72090995 0.12234080
-0.34863365 0.25660086 -0.00000053
0.36371115 -0.79414970 -0.00000000
0.74147838 -0.04103591 -0.00000173
-0.74474001 -0.59373879 0.00000000
-0.21879435 -0.55314338 -0.00000015
0.32069281 0.34491286 0.00000101
0.41860187 -0.08232872 -0.00000062
-0.69322443 0.41760296 0.22365522
-0.19122154 -0.40969911 -0.00000024
-0.00232521 0.46441561 -0.00000079
-0.39649087 0.72428304 0.23081231
0.42697564 0.06010743 0.00000408
0.05387145 -0.04293986 -0.00000047
-0.79888332 -0.36484694 0.00000000
0.51635677 -0.03744985 -0.00000102
0.08768468 -0.76292223 -0.00000002
-0.14500138 -0.03610405 -0.00000048
-0.29450846 -0.50219715 -0.00000019
-0.53852999 -0.78796893 -0.00000001
-0.61980635 0.18804745 0.00565132
0.25181606 0.06735677 0.00000711
0.31190023 -0.17679921 -0.00000039
0.26809967 0.03766106 0.00000734
0.37257129 0.15854684 0.00000336
0.77694058 -0.42617470 -0.00000093
0.75540423 -0.61840105 -0.00000045
0.20523770 0.38779625 0.00000246
-0.05390156 -0.26901144 -0.00000033
-0.02591411 0.53358406 -0.00000083
-0.47880250 -0.41912007 -0.00000024
0.10743174 -0.29238999 -0.00000032
0.27422458 -0.17178342 -0.00000039
-0.70888793 -0.26552692 -0.00000005
0.65824938 -0.45586249 -0.00000066
0.22203004 -0.45539322 -0.00000022
0.43906146 -0.07229377 -0.00000070
-0.47475207 -0.01908490 -0.00000034
-0.70984453 0.10186542 0.00842629
-0.36842683 -0.19092582 -0.00000038
-0.06630845 -0.54343635 -0.00000016
0.11006494 0.68936598 -0.00000113
0.20695861 0.29657248 0.00000406
0.08283419 0.68540382 -0.00000053
-0.46386090 0.08541249 -0.00000037
0.32859966 -0.36729118 -0.00000027
-0.09544619 -0.66193366 -0.00000009
0.10428580 0.66243410 -0.00000053
-0.48849458 0.36456326 0.03817737
0.14733848 0.53411263 0.00000094
0.38523069 0.19188254 0.00000252
-0.73693371 0.18283235 0.08617779
-0.16780590 0.42931119 -0.00000075
-0.46678433 0.41956520 0.06213221
0.77311510 -0.40716419 -0.00000098
-0.06052236 -0.05684346 -0.00000046
0.09567629 -0.50210083 -0.00000019
-0.49863386 0.07464199 -0.00000034
0.58408129 -0.45360273 -0.00000042
0.53638303 -0.23056220 -0.00000071
0.02590234 -0.07662741 -0.00000045
0.30932787 -0.56724042 -0.00000015
-0.11836406 -0.50198090 -0.00000019
0.38856015 0.23545982 0.00000167
-0.12640242 -0.54749769 -0.00000016
0.30832216 -0.41602302 -0.00000024
-0.51608539 -0.10919092 -0.00000028
-0.21211761 0.49984041 -0.00000072
-0.03725910 0.58530563 -0.00000087
-0.18295234 0.37349156 -0.00000073
0.12304026 0.66530883 -0.00000094
0.75221878 0.00237070 -0.00000112
-0.31231195 -0.70443451 -0.00000006
0.60489172 -0.00894058 -0.00000136
-0.58154190 -0.73387569 -0.00000004
0.36235827 0.27969444 0.00000138
-0.34147683 -0.47291529 -0.00000020
0.28265354 0.14364891 0.00000536
0.21598077 0.18156502 0.00000579
0.22097038 -0.35310608 -0.00000028
0.45162216 -0.71470243 -0.00000005
-0.38528657 0.45362920 0.02800117
0.00161998 -0.36845925 -0.00000027
-0.36409280 0.53344995 0.07018596
-0.21878032 0.49725261 -0.00000071
0.39824817 0.30961967 0.00000016
0.43319777 -0.34456807 -0.00000028
-0.31491148 0.20138969 -0.00000055
0.06033992 0.34541473 0.00000548
-0.69251949 0.34484237 0.17079334
0.13627391 -0.35366651 -0.00000028
0.05366695 0.59816098 0.00000147
-0.30850464 0.27281642 -0.00000057
0.14983077 -0.78469801 -0.00000001
0.52030122 0.16807871 0.00000035
-0.66396224 -0.12154815 -0.00000012
-0.34571826 0.28163674 -0.00000054
-0.67838562 0.33343223 0.15241317
-0.51466131 0.52391022 0.17166328
-0.40238318 -0.14073031 -0.00000040
-0.63947111 0.61138141 0.32441083
0.33960059 -0.23525400 -0.00000035
-0.72182477 -0.19470830 -0.00000005
-0.42731634 -0.11329585 -0.00000038
-0.64835626 0.16708438 0.01111052
-0.14240816 -0.28206569 -0.00000032
0.31452006 0.46554700 -0.00000104
0.13766892 -0.43315187 -0.00000023
-0.26006824 -0.23755361 -0.00000035
0.42768884 -0.74418616 -0.00000003
0.50633615 -0.45867029 -0.00000021
-0.20172319 -0.48764563 -0.00000020
-0.10508845 -0.41632035 -0.00000024
-0.15289757 0.66478127 0.01271950
-0.13727257 0.67856026 0.01139114
0.22583668 0.24151964 0.00000467
0.77505398 -0.25796980 -0.00000136
-0.62613577 0.17666511 0.00201554
-0.43718967 -0.25398737 -0.00000034
-0.38016838 0.55821991 0.09957630
-0.61491519 0.53153878 0.24929051
-0.34647736 0.43668905 -0.00000056
-0.25678384 -0.43437549 -0.00000023
-0.47802219 -0.42309606 -0.00000024
-0.56862766 0.09073313 -0.00000026
0.37699133 0.00642033 0.00000601
-0.59929198 0.45760688 0.18485086
0.51620835 -0.56479257 -0.00000015
-0.32752043 0.73253894 0.18712492
0.42535168 0.00008917 0.00000519
0.06887486 0.19201851 0.00000784
-0.45754212 -0.09561466 -0.00000035
-0.26491067 -0.27034941 -0.00000033
-0.73797196 -0.39986253 0.00000000
0.40209556 -0.04482724 -0.00000064
-0.17292424 -0.41854092 -0.00000024
0.13086842 -0.11360122 -0.00000043
-0.00509243 -0.27002090 -0.00000033
-0.46926582 0.46122408 0.09389329
-0.25439551 0.44209468 -0.00000066
0.75051731 -0.60122490 -0.00000050
-0.38679817 -0.17471801 -0.00000039
-0.63524783 0.24274226 0.05611771
0.53706861 -0.71090090 -0.00000006
0.37132028 -0.44495577 -0.00000022
-0.17719491 0.48373666 -0.00000075
-0.23012565 -0.76346290 -0.00000002
0.21233854 -0.44560415 -0.00000022
-0.48764262 0.05181631 -0.00000034
-0.45472261 0.54135954 0.14108995
0.53666282 -0.45597947 -0.00000027
-0.32009083 0.12134764 -0.00000053
-0.39201429 0.04736219 -0.00000044
-0.30316898 0.61270291 0.08337444
0.21121150 -0.30948582 -0.00000031
-0.39019534 -0.14291944 -0.00000041
-0.51873249 0.45150396 0.12249294
0.33271897 -0.13160791 -0.00000042
-0.70691818 -0.32810020 -0.00000004
-0.69861096 0.12974428 0.02040333
0.51857090 -0.12268827 -0.00000086
-0.35442069 0.24583969 -0.00000052
-0.15288788 0.03856189 -0.00000052
0.60670292 -0.34199154 -0.00000071
-0.05156840 -0.13970901 -0.00000041
0.11864739 -0.10521360 -0.00000043
0.46819884 -0.38497102 -0.00000026
-0.34781557 0.57009321 0.08484023
-0.55407113 0.61960858 0.26888084
0.71146798 -0.46477458 -0.00000081
0.46600720 -0.77807879 -0.00000001
-0.59160578 -0.68621439 -0.00000007
-0.53325421 -0.48479566 -0.00000020
0.30547881 -0.57030940 -0.00000014
-0.47016695 0.07195220 -0.00000037
-0.19705248 0.57437831 -0.00000075
0.10464831 -0.58840692 -0.00000013
-0.43940726 -0.39285299 -0.00000025
-0.23526274 0.74729109 0.13135552
-0.57762921 -0.43563941 -0.00000016
0.17144603 0.23237644 0.00000564
0.07811502 -0.12106933 -0.00000042
-0.36259240 0.31669390 -0.00000052
-0.06106324 0.26551700 -0.00000067
0.37852916 -0.47576255 -0.00000020
-0.03313829 0.20707127 -0.00000063
-0.57951939 -0.31309909 -0.00000018
-0.78842044 -0.78473371 0.00000000
0.07269680 0.48775321 0.00000298
0.62619227 0.00662420 0.00000122
-0.61187422 -0.21562053 -0.00000016
0.62926561 -0.20685209 -0.00000105
-0.57107008 -0.11399304 -0.00000022
-0.69900692 0.24836291 0.10603987
0.43437573 -0.75300968 -0.00000003
0.16111320 -0.18997981 -0.00000038
-0.11511935 -0.48141798 -0.00000020
-0.01180866 -0.56785727 -0.00000015
0.19222876 0.33555523 0.00000365
-0.54105693 -0.31626883 -0.00000022
0.63479519 -0.02499071 -0.00000142
0.50575781 -0.45048338 -0.00000022
-0.67916954 0.00572588 -0.00000013
-0.06700947 0.31804675 -0.00000070
0.09956512 -0.50761086 -0.00000018
-0.23256093 0.53667057 -0.00000070
0.40568978 -0.03446436 -0.00000067
0.43233615 -0.09930886 -0.00000063
-0.32785210 0.57863426 0.07662117
0.28161764 -0.25304261 -0.00000034
-0.45904407 -0.53300935 -0.00000017
0.34722883 -0.38252780 -0.00000026
0.61367881 -0.58951497 -0.00000025
-0.39938825 -0.17473064 -0.00000039
-0.47639301 -0.25366682 -0.00000030
-0.44969252 0.20746657 -0.00000041
-0.63812226 0.14909495 -0.00000020
-0.67554909 -0.55884296 -0.00000003
-0.03252010 -0.39955407 -0.00000025
-0.12834398 -0.50741690 -0.00000018
0.61279184 -0.52856433 -0.00000037
-0.48971495 0.14691119 -0.00000036
-0.23248950 0.58396256 0.01183699
-0.13827807 -0.00401711 -0.00000050
-0.75249869 -0.69531733 0.00000000
-0.49114683 0.41269857 0.07472138
-0.16360439 0.67557621 0.02819103
-0.43553019 0.56473494 0.14409976
0.60450292 -0.28995991 -0.00000081
-0.37740457 -0.74472308 -0.00000003
-0.16841471 -0.67955548 -0.00000008
0.03971923 0.53567880 0.00000270
0.74663782 -0.36363161 -0.00000109
-0.18190168 0.07065758 -0.00000054
0.29258919 -0.34069505 -0.00000029
0.49412271 0.18952614 0.00000047
-0.05822871 -0.75393999 -0.00000003
-0.10468008 0.67091614 -0.00000086
-0.68920678 0.34223473 0.16653337
0.59474891 -0.76328874 -0.00000002
0.10422113 0.16152975 0.00000780
-0.66564363 -0.60121351 -0.00000003
0.69816083 -0.42838213 -0.00000084
-0.71463358 -0.02803151 -0.00000009
-0.54426205 0.64800179 0.28225315
0.47602886 0.32371980 -0.00000159
-0.51738119 0.57569498 0.21088226
0.31641948 -0.61793035 -0.00000011
-0.72300166 -0.77063805 0.00000000
-0.62220007 0.50792837 0.23754334
-0.38351247 0.24284180 -0.00000049
0.23631959 -0.54776347 -0.00000016
0.21371900 -0.36280730 -0.00000027
0.59584886 -0.28267828 -0.00000080
-0.09200039 0.30337778 -0.00000069
0.35149306 -0.29429242 -0.00000032
-0.66563183 0.22948118 0.06843858
-0.17701843 -0.74204808 -0.00000004
-0.19441456 -0.10844919 -0.00000043
-0.27874544 0.45808724 -0.00000064
-0.11637496 -0.73384690 -0.00000004
-0.14648627 -0.73255163 -0.00000004
0.65992278 0.03316991 0.00000009
-0.18568821 -0.79689044 -0.00000000
0.05796807 -0.23757236 -0.00000035
-0.76890844 -0.19343390 0.00000000
0.44291085 0.05430840 0.00000388
0.46189272 -0.51645422 -0.00000018
0.77711791 0.00270257 -0.00000161
0.49930233 0.27400932 -0.00000114
0.49986574 0.13946310 0.00000126
-0.38554212 -0.30629170 -0.00000031
0.35700983 -0.30019569 -0.00000031
0.10874817 -0.27322876 -0.00000033
-0.26763245 -0.33746028 -0.00000029
0.26138610 -0.20751774 -0.00000037
-0.55008584 -0.76264071 -0.00000002
-0.25353584 -0.27960518 -0.00000033
0.24045298 -0.68026030 -0.00000007
-0.02931684 -0.65623474 -0.00000009
-0.14595295 0.20341820 -0.00000063
0.42207241 0.33867481 -0.00000082
-0.21690769 0.36360171 -0.00000069
-0.12072120 -0.13881685 -0.00000041
-0.04802498 -0.55396503 -0.00000015
0.21912719 0.20056354 0.00000543
-0.04113139 0.76749986 0.00620897
0.74398220 -0.20304058 -0.00000142
-0.10219522 0.48568094 -0.00000080
-0.76674908 0.14752890 0.08222894
0.37501535 -0.19519523 -0.00000038
0.49024746 -0.53795707 -0.00000016
0.39340150 -0.63777006 -0.00000010
0.46655387 -0.76872158 -0.00000002
0.09638435 0.49790937 0.00000245
-0.63051456 -0.43658236 -0.00000010
-0.07848813 0.01196134 -0.00000051
-0.43392441 -0.14021367 -0.00000036
-0.61677325 0.67140055 0.35126546
-0.30404520 0.40527311 -0.00000060
0.25080654 0.06591770 0.00000714
-0.04889671 -0.15749227 -0.00000040
0.16001986 -0.58022618 -0.00000014
0.64965945 0.00749711 0.00000075
0.00108114 0.79698795 -0.00000097
0.31714982 -0.34781128 -0.00000028
-0.73796284 0.24213514 0.12958944
-0.58846819 0.39361218 0.13101541
-0.72745132 0.01243928 -0.00000008
0.53387755 -0.43974632 -0.00000029
0.04985291 0.32791674 0.00000592
0.22890395 -0.40060279 -0.00000025
-0.72287720 -0.36403489 -0.00000002
0.14550576 0.51225704 0.00000137
-0.31872642 0.52700150 0.03290262
-0.08787203 0.00198909 -0.00000050
-0.26771751 -0.08694366 -0.00000045
-0.64892721 -0.16524164 -0.00000013
-0.56087083 0.61570185 0.27096251
0.58772296 0.01843451 0.00000175
0.30134445 0.48034486 -0.00000105
-0.04166631 0.63249403 -0.00000090
-0.65857357 -0.43514445 -0.00000007
0.60087866 -0.51849842 -0.00000035
-0.60201120 0.56433177 0.26360169
-0.38901249 0.33062994 -0.00000050
-0.10931707 0.33537614 -0.00000071
0.45431402 0.01340563 0.00000440
0.50411934 -0.56887782 -0.00000014
-0.49378687 0.07676268 -0.00000034
-0.23031762 -0.09940768 -0.00000044
-0.26397955 -0.29494181 -0.00000032
0.65614665 -0.61428988 -0.00000034
-0.12909700 0.12441416 -0.00000058
0.58927792 -0.07749967 -0.00000117
-0.06021155 0.08248079 -0.00000055
0.33204812 -0.06800501 -0.00000046
-0.37028897 -0.76258129 -0.00000002
-0.01886719 0.12830146 -0.00000058
-0.63671511 0.32803389 0.11854483
-0.40676150 0.49225184 0.07124425
0.24203014 -0.12813582 -0.00000042
-0.74426109 0.31632879 0.18750712
0.23859271 0.10578153 0.00000668
0.23167931 -0.24455565 -0.00000035
-0.20751625 0.59344935 0.00069369
-0.39640254 -0.42181870 -0.00000024
-0.70886534 -0.45884550 -0.00000001
0.40653610 -0.74277383 -0.00000004
-0.49538383 0.70663238 0.28927049
-0.44238269 -0.45574090 -0.00000022
-0.44627127 -0.35846555 -0.00000028
-0.04840751 -0.15960948 -0.00000040
-0.16386566 -0.70606524 -0.00000006
0.58116424 -0.21929546 -0.00000087
-0.01590139 -0.19420473 -0.00000038
-0.51909250 -0.38794810 -0.00000023
-0.13281102 -0.29804972 -0.00000031
-0.33813146 -0.77920234 -0.00000001
0.53285950 -0.14253584 -0.00000087
-0.05096485 0.69621664 -0.00000093
-0.69418609 0.26172566 0.11218618
-0.41039047 -0.51188815 -0.00000018
