ply
format ascii 1.0
element vertex 1407
property float x
property float y
property float z
end_header
-0.12449246 0.00731628 0.00000000
-0.75634432 0.32467669 0.00000000
0.31888407 -0.75066966 0.00000000
0.57724327 -0.04661741 0.00000000
0.45189881 -0.56269658 0.00000000
-0.48574823 0.36597213 0.00000000
-0.40375614 0.36687320 0.00000000
-0.64609689 -0.32811993 0.00000000
0.47065055 0.20700441 0.00000000
0.53590256 0.13149109 0.00000000
0.00470063 -0.23230033 0.00000000
0.46800095 0.22057714 0.00000000
0.70817405 0.11315774 0.00390091
-0.76441020 -0.13557158 0.00000000
-0.25073376 0.76631320 0.00000000
-0.10033138 0.03111151 0.00000000
0.01339473 -0.50802660 0.00000000
-0.45024842 0.38439450 0.00000000
-0.44788527 0.31620711 0.00000000
0.33415872 -0.16926786 0.00000000
0.31082207 0.57403046 0.01551682
-0.16353153 0.58177167 0.00000000
0.71167302 -0.37001359 0.00000000
-0.22075421 -0.36206180 0.00000000
-0.60914344 -0.10979706 0.00000000
-0.59535784 0.47002310 0.00000000
-0.14293149 -0.11848752 0.00000000
0.11998474 -0.28777632 0.00000000
0.21072949 -0.67098570 0.00000000
-0.17976595 0.05108330 0.00000000
-0.11527673 -0.03692277 0.00000000
-0.08829395 0.10379143 0.00000000
-0.16381209 0.14980522 0.00000000
0.17557201 0.28784844 0.00000000
-0.10211323 0.47375956 0.00000000
0.30166662 0.48665497 0.00000000
0.04812916 -0.04934029 0.00000000
-0.74761569 0.53655964 0.00000000
0.26378712 0.01186834 0.00000000
0.35826203 -0.13106212 0.00000000
-0.30687463 0.68365157 0.00000000
-0.10998534 -0.63081819 0.00000000
0.32872167 -0.12438904 0.00000000
-0.61139208 -0.07478656 0.00000000
0.72534442 -0.60738325 0.00000000
-0.26126391 -0.77428311 0.00000000
0.19764592 -0.71360415 0.00000000
0.18835351 0.46346107 0.00000000
0.10069819 0.35593402 0.00000000
0.65279663 0.31033313 0.02983123
0.46894753 -0.44034395 0.00000000
0.68922824 -0.67026967 0.00000000
0.10663417 0.72501230 0.00578713
0.56206429 0.23756936 0.00000000
0.02536765 0.04848638 0.00000000
-0.34949249 -0.54320180 0.00000000
-0.23248591 -0.35280421 0.00000000
-0.60229856 -0.66449034 0.00000000
-0.13537668 0.65838367 0.00000000
0.62706298 0.25084257 0.01424644
-0.08302488 -0.01865571 0.00000000
0.19128168 -0.34941068 0.00000000
0.19859135 -0.07086816 0.00000000
0.07098409 0.67470241 0.00000000
0.16365258 -0.21470696 0.00000000
0.42697817 -0.24664117 0.00000000
-0.03455665 0.77418298 0.00000000
0.34565035 0.02227029 0.00000000
0.16638596 -0.17301627 0.00000000
-0.57434398 0.75402480 0.00000000
-0.31716901 -0.59949845 0.00000000
-0.74350882 0.09219424 0.00000000
0.44779357 0.24149741 0.00000000
0.13864332 -0.61026490 0.00000000
-0.06046285 0.26873896 0.00000000
-0.50546485 0.37451395 0.00000000
-0.19926617 0.59722728 0.00000000
0.60841835 0.46436304 0.04988302
-0.62784040 -0.28395963 0.00000000
0.46969771 0.24023777 0.00000000
0.00957950 0.39117539 0.00000000
0.38938248 0.29375660 0.00000000
-0.42140678 -0.05732138 0.00000000
-0.05134742 0.38376248 0.00000000
-0.08414518 0.28581670 0.00000000
0.63910145 -0.61099887 0.00000000
0.74290466 -0.72232461 0.00000000
-0.02546289 0.72822827 0.00000000
0.70671469 -0.66913474 0.00000000
0.73411649 0.35405785 0.05269790
0.64120573 0.58872187 0.07862031
0.10081344 -0.57548589 0.00000000
-0.22171021 -0.62368983 0.00000000
0.61149859 -0.11054660 0.00000000
0.37836516 -0.75802994 0.00000000
0.29822904 0.17805374 0.00000000
0.15715726 -0.62390721 0.00000000
-0.13647658 -0.57611209 0.00000000
-0.25990859 -0.33624604 0.00000000
0.10341624 0.71500927 0.00336944
-0.68928337 -0.69305474 0.00000000
-0.15374251 -0.04481649 0.00000000
0.45756051 0.74619889 0.07383532
-0.51545000 -0.24969643 0.00000000
0.61641175 0.30477852 0.02216184
0.18921493 0.75023043 0.02550024
-0.20992251 0.46613964 0.00000000
-0.76973432 -0.49804461 0.00000000
-0.04032181 -0.69824755 0.00000000
0.06936578 0.09704103 0.00000000
-0.58512777 0.03251740 0.00000000
-0.33085397 0.27609771 0.00000000
0.44911394 0.74743009 0.07251585
-0.30120918 0.50040108 0.00000000
0.11251969 -0.00862579 0.00000000
0.25774318 -0.25485432 0.00000000
0.22781496 -0.61115909 0.00000000
-0.10364101 -0.76509321 0.00000000
0.54933488 -0.07896322 0.00000000
0.18697684 0.60574424 0.00000000
-0.66143978 -0.64144754 0.00000000
-0.69536734 0.59803545 0.00000000
-0.71273375 0.60033572 0.00000000
-0.64072973 0.69216651 0.00000000
0.20771337 0.32968128 0.00000000
-0.41836739 -0.38742670 0.00000000
0.34777126 0.40778103 0.00000000
-0.70835781 -0.52110296 0.00000000
-0.36896864 0.33913687 0.00000000
0.46178675 -0.44381821 0.00000000
0.23894407 0.76632535 0.03753752
-0.62891847 0.74105573 0.00000000
-0.39072636 0.69748867 0.00000000
-0.45462635 0.33014196 0.00000000
-0.45779508 -0.00516017 0.00000000
0.12377858 -0.06903297 0.00000000
0.72482252 0.09580789 0.00377265
-0.66523665 -0.04791808 0.00000000
-0.04536334 -0.35373190 0.00000000
-0.26747161 0.14934710 0.00000000
0.37411648 0.41567406 0.00000000
-0.35714132 0.31038988 0.00000000
-0.47111997 -0.21135102 0.00000000
0.32869679 -0.17183137 0.00000000
-0.45997807 0.07800325 0.00000000
0.52648324 -0.30255401 0.00000000
-0.12182487 0.76179677 0.00000000
-0.75548285 -0.10169613 0.00000000
0.35497350 -0.57342452 0.00000000
0.75018024 -0.33958271 0.00000000
0.68539578 -0.07030745 0.00000000
-0.62481040 0.36968073 0.00000000
-0.65618747 -0.56651598 0.00000000
-0.17315947 -0.21806084 0.00000000
0.61672080 -0.38157779 0.00000000
-0.41938382 0.10480620 0.00000000
-0.59272802 -0.60759306 0.00000000
0.08625259 0.79223156 0.01435237
0.07292696 -0.56566668 0.00000000
-0.70673305 -0.61445844 0.00000000
0.48988906 0.03078927 0.00000000
0.53667086 0.33378574 0.01288426
-0.24404027 0.56657857 0.00000000
-0.15300693 0.10613464 0.00000000
-0.36919326 -0.53981578 0.00000000
-0.77977777 -0.08644676 0.00000000
-0.74717760 0.54116648 0.00000000
0.04937045 -0.41147998 0.00000000
-0.47122261 -0.08256453 0.00000000
-0.14713764 0.34450665 0.00000000
0.11492924 0.42925912 0.00000000
-0.56983221 -0.58931231 0.00000000
-0.51442701 0.28203836 0.00000000
-0.47806865 -0.37649623 0.00000000
-0.09675178 0.00859055 0.00000000
0.05643597 0.42706203 0.00000000
-0.07195693 0.27384639 0.00000000
0.57840651 -0.37926984 0.00000000
0.25630993 -0.42072254 0.00000000
-0.45511547 0.02860430 0.00000000
-0.59647763 0.16069995 0.00000000
-0.71467578 0.45312783 0.00000000
-0.79711789 0.41472831 0.00000000
0.37695977 -0.73473108 0.00000000
-0.19411248 0.65716457 0.00000000
-0.36138970 -0.20154738 0.00000000
-0.37542680 0.14101936 0.00000000
0.12646972 -0.65599239 0.00000000
0.11020336 0.00263459 0.00000000
-0.36592779 -0.25673637 0.00000000
0.05988604 0.47370914 0.00000000
0.11955477 0.31596005 0.00000000
0.48394331 -0.62571055 0.00000000
0.41470715 -0.39004803 0.00000000
0.61719847 0.57439739 0.07161056
0.35914800 -0.20137198 0.00000000
-0.24244165 0.15047826 0.00000000
-0.39591840 -0.36965984 0.00000000
0.33751425 -0.46439445 0.00000000
-0.25013477 0.71736735 0.00000000
-0.36880961 0.52110440 0.00000000
0.43607828 -0.23882917 0.00000000
0.73091650 -0.61263007 0.00000000
-0.39703357 0.36366409 0.00000000
-0.71834880 -0.30180064 0.00000000
0.14844367 -0.10978396 0.00000000
-0.44912556 -0.56583112 0.00000000
0.10690239 -0.21373156 0.00000000
-0.22497146 0.33201870 0.00000000
-0.69641978 0.10937861 0.00000000
-0.75373882 0.03627526 0.00000000
0.43377197 -0.01172191 0.00000000
-0.78284371 -0.44723207 0.00000000
-0.29715118 -0.25988987 0.00000000
0.30693290 -0.73025143 0.00000000
-0.08350928 -0.25020438 0.00000000
0.44519669 -0.19364037 0.00000000
-0.65466118 -0.77862573 0.00000000
0.37113348 -0.63089991 0.00000000
-0.21639067 0.53010482 0.00000000
-0.68376511 0.77102804 0.00000000
0.21338974 0.26753268 0.00000000
0.65384322 -0.05537079 0.00000000
0.34200731 -0.26220039 0.00000000
-0.20151566 -0.56170487 0.00000000
0.12946284 -0.31730622 0.00000000
0.32922456 -0.79952407 0.00000000
0.32602176 -0.42896527 0.00000000
-0.76482749 0.79673499 0.00000000
-0.61978203 -0.01679004 0.00000000
0.08707780 -0.76039517 0.00000000
0.41544911 0.59649873 0.03875850
-0.00172411 0.26162651 0.00000000
0.25103036 0.02623064 0.00000000
-0.36391723 0.24892519 0.00000000
-0.19049227 0.21800718 0.00000000
0.06714982 -0.06700362 0.00000000
0.64417481 0.54344589 0.07088354
-0.65199482 -0.11180030 0.00000000
-0.26281482 0.23496275 0.00000000
-0.77875358 0.31411633 0.00000000
-0.14258650 -0.70639390 0.00000000
0.48821965 0.69986522 0.07096881
0.78030145 0.76202691 0.13574941
0.50025362 0.50030708 0.03667616
0.72439927 0.32463327 0.04554011
-0.03293228 -0.21592216 0.00000000
0.28367966 0.38061029 0.00000000
0.06107937 -0.00245430 0.00000000
-0.40178880 -0.37196693 0.00000000
-0.55342114 0.05442049 0.00000000
0.29657584 -0.02865358 0.00000000
0.19464184 0.00739916 0.00000000
0.78254211 -0.49085733 0.00000000
0.38330814 0.32447779 0.00000000
0.11448228 0.12409420 0.00000000
-0.63609600 -0.35558251 0.00000000
-0.77246642 0.68014330 0.00000000
-0.73519588 0.13426884 0.00000000
0.75934303 -0.49573475 0.00000000
-0.04454078 0.73484999 0.00000000
0.31949475 -0.74195218 0.00000000
0.59165150 0.02572116 0.00000000
0.10219150 0.62266499 0.00000000
-0.33462027 -0.43780774 0.00000000
-0.79584539 -0.32226765 0.00000000
0.09926669 0.76038533 0.01090847
-0.21465743 -0.65804374 0.00000000
0.19442528 0.35398185 0.00000000
-0.09980395 -0.44427511 0.00000000
0.60352999 0.70041770 0.09215662
0.59684497 -0.68035340 0.00000000
-0.20772289 -0.43113840 0.00000000
0.62475383 -0.77475160 0.00000000
0.77461791 0.66035962 0.11611795
0.53469062 -0.22686499 0.00000000
-0.05283589 -0.14047664 0.00000000
0.02209145 0.50310433 0.00000000
-0.44222274 -0.62276548 0.00000000
0.21066687 -0.55502075 0.00000000
-0.75282091 0.45605040 0.00000000
0.61301750 0.09652983 0.00000000
-0.59075791 -0.56086439 0.00000000
-0.16133493 -0.60644370 0.00000000
0.63734472 0.50135064 0.06193658
-0.41065183 0.33269185 0.00000000
0.56599647 -0.69578260 0.00000000
-0.24094728 0.01263051 0.00000000
0.47343785 0.17966084 0.00000000
-0.49389908 0.21151663 0.00000000
-0.52795774 0.20241337 0.00000000
0.67214912 0.38887393 0.04773280
0.13671859 0.54920059 0.00000000
0.15842038 0.75179356 0.02015470
0.42407048 -0.74278176 0.00000000
-0.65855646 0.72474366 0.00000000
-0.70423335 0.16025595 0.00000000
-0.64762622 -0.40889150 0.00000000
0.13399839 0.17002273 0.00000000
0.05472281 -0.30664265 0.00000000
0.20554265 0.41751847 0.00000000
0.64419335 -0.67368382 0.00000000
-0.73007298 0.29637811 0.00000000
0.06098500 0.49633425 0.00000000
-0.44419014 -0.48669368 0.00000000
-0.31561792 0.36192375 0.00000000
0.12261871 -0.67122465 0.00000000
0.74357498 -0.54573596 0.00000000
0.29808453 0.06500094 0.00000000
-0.43583471 0.32760364 0.00000000
0.71739227 -0.18420754 0.00000000
0.06595884 -0.05129417 0.00000000
-0.73889929 0.24845567 0.00000000
0.04947233 -0.26927376 0.00000000
0.51399809 -0.08080208 0.00000000
-0.17532460 -0.60287172 0.00000000
0.47725341 0.22179189 0.00000000
-0.24126165 -0.38188070 0.00000000
0.78763723 0.08277652 0.01287643
0.77284819 0.71813852 0.12636048
-0.39258921 -0.69853735 0.00000000
0.03033482 0.17080265 0.00000000
0.54095125 0.78207713 0.09564611
0.29271439 0.19643416 0.00000000
-0.65413457 -0.20560426 0.00000000
0.49534196 -0.11407988 0.00000000
-0.18971813 -0.73149115 0.00000000
0.00815319 0.70615786 0.00000000
0.36099252 0.68473935 0.04493669
0.42377496 0.19179699 0.00000000
-0.38551122 -0.14010130 0.00000000
-0.11979639 -0.69961709 0.00000000
0.69730955 -0.45181179 0.00000000
-0.66646755 -0.09168253 0.00000000
0.40673247 0.41536987 0.00404181
0.22104110 -0.79134423 0.00000000
-0.37552440 -0.44144630 0.00000000
-0.20148306 -0.63889766 0.00000000
-0.78358650 -0.20135880 0.00000000
-0.40227857 -0.59163457 0.00000000
-0.72828245 0.73068798 0.00000000
0.76617146 -0.23409849 0.00000000
-0.34204182 -0.17260192 0.00000000
0.71281064 -0.33819857 0.00000000
-0.01521749 -0.10292732 0.00000000
-0.75972098 -0.53714013 0.00000000
-0.10730512 0.45200491 0.00000000
0.37996885 -0.16471972 0.00000000
-0.44993788 0.51352197 0.00000000
-0.40847352 0.69305021 0.00000000
-0.55627191 0.37756583 0.00000000
-0.53403276 0.29687712 0.00000000
0.76589936 -0.47560245 0.00000000
-0.73683429 0.32708448 0.00000000
-0.36761132 0.65498179 0.00000000
-0.18017420 -0.49737224 0.00000000
0.41756114 0.24232426 0.00000000
0.32122487 -0.60879427 0.00000000
0.06970590 -0.28429890 0.00000000
-0.03602238 0.04603703 0.00000000
-0.52841651 0.75147194 0.00000000
0.20571131 -0.05058826 0.00000000
-0.18184958 -0.47050169 0.00000000
0.53316879 0.64841801 0.06978039
0.18284871 -0.71917534 0.00000000
0.00860120 -0.28121293 0.00000000
-0.25380725 0.53085279 0.00000000
-0.47815701 -0.64685589 0.00000000
-0.23806348 -0.07613396 0.00000000
0.12252549 0.07228885 0.00000000
-0.50934154 -0.29116258 0.00000000
0.48756689 -0.65646511 0.00000000
-0.10453116 0.62940651 0.00000000
-0.50537282 -0.02410142 0.00000000
-0.18578152 -0.43901673 0.00000000
0.56706250 -0.63886172 0.00000000
0.61812305 -0.05794321 0.00000000
-0.35607418 -0.78597504 0.00000000
-0.12157270 -0.00970552 0.00000000
-0.08459971 -0.68463427 0.00000000
0.31866607 0.76911104 0.05262570
0.09774663 0.37365648 0.00000000
-0.37773213 -0.64371282 0.00000000
-0.61576766 0.03153396 0.00000000
0.30868730 0.03959117 0.00000000
-0.43872267 -0.57407176 0.00000000
0.41113660 -0.03678892 0.00000000
0.77864015 -0.27600890 0.00000000
-0.67073035 -0.02373643 0.00000000
-0.65314394 0.09893552 0.00000000
-0.32524171 0.54731268 0.00000000
0.30973071 0.02751879 0.00000000
0.56272483 0.22620122 0.00000000
-0.45399892 0.16094516 0.00000000
0.18068612 -0.68117774 0.00000000
0.71353114 -0.27610496 0.00000000
-0.09327627 -0.30826509 0.00000000
0.23557563 -0.66547489 0.00000000
0.02034788 -0.12976757 0.00000000
-0.23495001 -0.04915136 0.00000000
-0.64319605 -0.28435978 0.00000000
-0.15676390 -0.64445472 0.00000000
0.70586455 0.36398295 0.04934651
0.57058835 0.31356320 0.01538864
0.74535644 -0.33884057 0.00000000
-0.20121165 -0.62411761 0.00000000
-0.09793401 0.33966002 0.00000000
-0.40902805 0.15438315 0.00000000
-0.76522517 0.60422784 0.00000000
0.73738807 0.58583391 0.09568104
-0.67129064 0.48681024 0.00000000
0.34066316 0.05614506 0.00000000
-0.16697960 0.41719526 0.00000000
0.19411545 0.15302287 0.00000000
0.40564460 0.18508306 0.00000000
-0.29110563 0.73492914 0.00000000
0.66587144 -0.04919317 0.00000000
0.79178065 -0.20645645 0.00000000
-0.52812129 -0.43736956 0.00000000
0.62662178 0.71173137 0.09844838
0.71178436 0.08122251 0.00000000
-0.34546697 0.44742483 0.00000000
0.65193993 -0.19377305 0.00000000
-0.55564559 0.54242569 0.00000000
-0.23391345 -0.72019368 0.00000000
-0.63636440 -0.55218273 0.00000000
0.39601830 0.78237355 0.06919644
-0.33459818 -0.56775749 0.00000000
0.74483150 0.06873929 0.00248166
0.43469736 -0.42241737 0.00000000
-0.34438843 -0.31068438 0.00000000
-0.19652550 0.51121485 0.00000000
0.26938042 -0.06075751 0.00000000
0.36333841 -0.26553878 0.00000000
0.05203555 -0.52730590 0.00000000
-0.17513736 -0.19812481 0.00000000
-0.71506387 0.42821512 0.00000000
-0.72279435 0.68864661 0.00000000
0.36277923 -0.53252834 0.00000000
0.28645995 0.32037508 0.00000000
-0.64425910 -0.43904871 0.00000000
-0.05687703 -0.51036692 0.00000000
0.64625955 -0.36977136 0.00000000
0.03976341 -0.03782831 0.00000000
0.17903280 -0.44437733 0.00000000
0.08672227 -0.77439529 0.00000000
-0.69934255 -0.35105035 0.00000000
0.52226686 -0.39807203 0.00000000
-0.52291524 -0.17116120 0.00000000
0.73460817 0.27664426 0.03863133
0.01543208 -0.75795168 0.00000000
-0.30548036 -0.72024930 0.00000000
0.60407889 -0.33781576 0.00000000
-0.49460244 -0.66428876 0.00000000
0.50087899 0.75204957 0.08282688
0.39443505 -0.69676077 0.00000000
0.02698639 -0.76397187 0.00000000
-0.15641241 0.38524175 0.00000000
-0.70063251 -0.15417998 0.00000000
0.30336037 -0.45059574 0.00000000
-0.25915885 0.23598360 0.00000000
-0.54510498 -0.61647326 0.00000000
-0.50812936 0.79911357 0.00000000
0.14680205 0.24042664 0.00000000
-0.76203871 -0.75307184 0.00000000
-0.30792665 0.64417386 0.00000000
0.34866363 -0.49707240 0.00000000
0.06013002 0.55061877 0.00000000
0.56137711 -0.65220636 0.00000000
0.29096541 -0.53564316 0.00000000
-0.75335592 -0.19875349 0.00000000
0.46271682 -0.28451338 0.00000000
0.71395236 0.77385956 0.12578005
-0.04114115 0.71120721 0.00000000
-0.60606670 0.06322165 0.00000000
0.55283570 -0.16655892 0.00000000
0.51831388 0.57016808 0.05275415
-0.79817843 -0.07637594 0.00000000
0.19019651 0.77029759 0.02934947
0.74291152 0.42103365 0.06655397
-0.74229622 -0.21513958 0.00000000
-0.10880943 -0.22522658 0.00000000
-0.28844973 0.33828849 0.00000000
0.50335187 -0.77693993 0.00000000
0.07891341 0.21047647 0.00000000
-0.18571509 -0.64514226 0.00000000
0.35230821 0.64113277 0.03537419
0.24846889 0.03573839 0.00000000
-0.40100482 -0.68753380 0.00000000
-0.56321341 0.43645418 0.00000000
-0.04924745 -0.39392817 0.00000000
-0.00734994 0.75236249 0.00000000
-0.53319031 0.45346099 0.00000000
0.46539921 0.03750213 0.00000000
0.09467730 -0.33381891 0.00000000
0.08451782 -0.78351796 0.00000000
0.00623993 -0.15953332 0.00000000
-0.77285331 0.73972815 0.00000000
0.76869172 0.50880623 0.08731930
-0.50498295 0.72295457 0.00000000
-0.65355879 -0.53605765 0.00000000
0.64895761 -0.65043724 0.00000000
0.42039022 -0.17141849 0.00000000
-0.54942000 -0.13246118 0.00000000
0.68548900 -0.18143600 0.00000000
0.27565521 -0.00090792 0.00000000
-0.07825738 0.67686760 0.00000000
0.45923954 0.75091499 0.07500481
0.10278905 0.37718341 0.00000000
-0.00905322 0.15110289 0.00000000
-0.06549332 -0.09505596 0.00000000
0.14113434 -0.37771109 0.00000000
-0.57202280 0.06320990 0.00000000
0.68443775 -0.38927218 0.00000000
-0.74733526 -0.48117667 0.00000000
-0.61473542 0.49026725 0.00000000
0.56489366 0.63971305 0.07399000
0.13447841 0.02866211 0.00000000
-0.58949953 -0.63730574 0.00000000
0.23630987 -0.58947581 0.00000000
0.56973404 0.41624781 0.03401015
0.18741848 -0.06465314 0.00000000
-0.56393546 -0.20500578 0.00000000
-0.08325104 -0.47907531 0.00000000
-0.43542668 -0.35988966 0.00000000
0.67814296 -0.78869414 0.00000000
-0.29146463 0.15973572 0.00000000
-0.23808086 -0.57426441 0.00000000
0.30580282 0.52231067 0.00514106
-0.08359557 -0.15354642 0.00000000
-0.35240635 -0.02690963 0.00000000
0.42517838 -0.04556718 0.00000000
0.35872474 -0.24022737 0.00000000
0.15796217 -0.52203536 0.00000000
0.60955769 -0.53893399 0.00000000
-0.77443129 -0.46023399 0.00000000
-0.74824971 0.00027766 0.00000000
0.03767066 0.31879517 0.00000000
0.30377370 0.60028237 0.01902853
0.25615475 0.30810979 0.00000000
0.53230900 0.66407096 0.07248563
0.14915843 -0.10428404 0.00000000
0.47104269 0.58268017 0.04639782
-0.64948893 0.25016958 0.00000000
0.52530956 0.69734466 0.07729050
-0.01862418 -0.53151351 0.00000000
-0.31080258 -0.13991556 0.00000000
-0.68102807 0.15626256 0.00000000
-0.55457067 0.43841997 0.00000000
-0.36461708 0.68793237 0.00000000
-0.66479146 0.21120097 0.00000000
0.11421462 0.36859518 0.00000000
0.04049559 -0.26941618 0.00000000
-0.40000063 0.75148106 0.00000000
0.02843479 -0.34303874 0.00000000
-0.17940778 -0.65093982 0.00000000
-0.74479616 0.66561639 0.00000000
0.59718919 0.20340388 0.00010845
-0.38720846 -0.60952890 0.00000000
-0.15207085 0.77462494 0.00000000
0.27115828 -0.63705444 0.00000000
0.38996965 -0.74186271 0.00000000
0.73083460 -0.29323846 0.00000000
0.45186880 -0.24528188 0.00000000
-0.57063764 -0.56832248 0.00000000
-0.72320050 0.21235898 0.00000000
-0.42432323 0.61827230 0.00000000
0.23254830 -0.11520031 0.00000000
-0.49301240 -0.73859668 0.00000000
-0.77183443 -0.74521160 0.00000000
0.51595432 -0.78988689 0.00000000
0.24392173 -0.72917938 0.00000000
-0.22628161 0.39425474 0.00000000
0.45455694 -0.60932416 0.00000000
0.57648677 0.05681103 0.00000000
-0.58356810 0.72291082 0.00000000
-0.44005674 -0.15643749 0.00000000
-0.02356243 -0.31599677 0.00000000
0.48014995 -0.05460282 0.00000000
0.70306426 -0.63297480 0.00000000
-0.16626981 0.54010069 0.00000000
-0.54463679 -0.04803842 0.00000000
-0.24235381 -0.24192445 0.00000000
-0.39684913 0.45751840 0.00000000
-0.44389290 -0.43150261 0.00000000
-0.10531277 -0.09637771 0.00000000
-0.30711627 0.68931442 0.00000000
0.75126523 -0.17272598 0.00000000
0.72274745 -0.13986526 0.00000000
-0.23142253 0.14558949 0.00000000
-0.24994493 -0.49769515 0.00000000
0.77731526 0.72176671 0.12784088
0.47700688 -0.21965180 0.00000000
-0.68580240 -0.34699601 0.00000000
0.48847711 -0.11552082 0.00000000
0.62100273 -0.73730093 0.00000000
0.48683766 -0.05774300 0.00000000
0.06213891 0.08615150 0.00000000
0.07263599 -0.65884274 0.00000000
0.36390069 0.32716852 0.00000000
-0.28059688 0.11187459 0.00000000
-0.78031170 0.29576406 0.00000000
0.36922455 0.34967428 0.00000000
-0.67664379 -0.37657163 0.00000000
-0.53690541 -0.42768738 0.00000000
-0.01157401 0.41410470 0.00000000
0.19139358 0.08089150 0.00000000
-0.57704222 -0.13796341 0.00000000
-0.44420797 0.66686356 0.00000000
0.28288943 -0.20941396 0.00000000
-0.47786295 -0.65563476 0.00000000
-0.00140702 -0.66612893 0.00000000
-0.55904853 -0.36123571 0.00000000
-0.19858509 -0.72966450 0.00000000
-0.75436532 -0.78559262 0.00000000
0.38537428 0.17672008 0.00000000
0.60451251 -0.68822545 0.00000000
-0.54202986 0.02007315 0.00000000
0.41017288 -0.08324662 0.00000000
-0.03247641 -0.52182680 0.00000000
0.18301278 -0.16996276 0.00000000
0.39917511 -0.28944552 0.00000000
-0.62017399 -0.31944129 0.00000000
0.71116596 -0.00649593 0.00000000
0.61824369 0.49673170 0.05759896
0.38450906 -0.11801049 0.00000000
-0.39283672 -0.31133994 0.00000000
0.38841766 0.09398896 0.00000000
0.31025749 -0.15721259 0.00000000
-0.65321165 -0.25808167 0.00000000
0.74021280 -0.23513475 0.00000000
0.27977759 0.05183884 0.00000000
0.39756837 0.08857124 0.00000000
0.71538872 0.04594483 0.00000000
-0.33903238 0.68910861 0.00000000
-0.46339500 0.74504250 0.00000000
-0.37875134 -0.38469592 0.00000000
-0.09403978 0.13208100 0.00000000
0.70707709 -0.23351683 0.00000000
0.43745455 -0.42353693 0.00000000
-0.02732642 0.04917420 0.00000000
-0.57482606 -0.79236495 0.00000000
0.00395743 -0.20180476 0.00000000
-0.15883420 0.28442717 0.00000000
-0.74273139 0.76956666 0.00000000
-0.04072168 -0.66223174 0.00000000
0.12159278 -0.57269675 0.00000000
-0.47914967 -0.02739303 0.00000000
-0.13161662 -0.76943499 0.00000000
0.28386661 -0.40414569 0.00000000
0.31100211 -0.31133565 0.00000000
0.42773122 -0.74828184 0.00000000
-0.75085264 -0.01052873 0.00000000
0.19992518 0.73689026 0.02501928
-0.02647563 -0.38017967 0.00000000
-0.40490618 -0.61936992 0.00000000
0.39654049 0.37194568 0.00000000
-0.33879879 -0.11593947 0.00000000
0.54769623 -0.17371155 0.00000000
0.43168235 -0.71538287 0.00000000
-0.07959300 -0.66422272 0.00000000
-0.25278664 0.43323672 0.00000000
0.17982510 0.27853081 0.00000000
0.55216241 -0.34967592 0.00000000
0.01263978 -0.00249976 0.00000000
0.48253554 0.47180879 0.02822466
0.23531847 -0.75087571 0.00000000
-0.20564553 -0.31115478 0.00000000
0.25942135 -0.60294718 0.00000000
-0.40822646 0.72173053 0.00000000
0.51114714 -0.23798244 0.00000000
-0.79357970 0.14854971 0.00000000
0.34964347 -0.72476333 0.00000000
0.30681115 0.50236869 0.00167870
-0.60635769 0.03128893 0.00000000
0.55903977 -0.35326928 0.00000000
-0.54842889 -0.58274996 0.00000000
0.07771555 0.74558330 0.00426061
0.02416241 0.28699735 0.00000000
-0.25841999 -0.29646766 0.00000000
0.42263144 0.29001063 0.00000000
-0.00735987 -0.23768410 0.00000000
-0.26981702 -0.37890640 0.00000000
0.28035679 -0.46388406 0.00000000
0.56381118 -0.79109842 0.00000000
-0.73785543 -0.63272005 0.00000000
0.46810722 0.43773076 0.01935439
-0.26061052 -0.76814520 0.00000000
-0.46085665 -0.48198211 0.00000000
-0.56416184 -0.55632877 0.00000000
0.28845701 -0.72969729 0.00000000
-0.64353019 0.32598323 0.00000000
-0.70387435 0.16587231 0.00000000
0.01029593 -0.70930088 0.00000000
0.12294152 0.37215602 0.00000000
-0.18250722 0.07031077 0.00000000
0.68056494 0.77886981 0.12059071
-0.21341757 0.13781402 0.00000000
-0.68775976 -0.40697950 0.00000000
-0.49301466 0.27622876 0.00000000
0.49331504 0.51940262 0.03889928
-0.63954711 0.58960998 0.00000000
0.61877543 -0.13224909 0.00000000
-0.63835168 0.53444844 0.00000000
0.61499220 0.43022218 0.04484190
-0.44292015 -0.72478229 0.00000000
-0.38573018 0.79384005 0.00000000
0.31644383 -0.16508108 0.00000000
0.56724620 -0.48453173 0.00000000
0.43457222 0.52082604 0.02841739
-0.38521579 0.18090254 0.00000000
-0.64801079 -0.58974224 0.00000000
-0.78185016 0.47782758 0.00000000
-0.16738443 -0.29468459 0.00000000
-0.64127719 -0.62329733 0.00000000
-0.51980221 -0.01721043 0.00000000
-0.58817327 0.25812921 0.00000000
0.77088797 0.18300188 0.02814155
0.00724288 0.51155090 0.00000000
0.66570181 -0.64880061 0.00000000
0.09087908 0.51103747 0.00000000
-0.39231229 -0.54801321 0.00000000
-0.38311803 0.19212204 0.00000000
-0.30684593 0.47821599 0.00000000
0.47527641 -0.36951798 0.00000000
-0.28323558 -0.55700386 0.00000000
-0.26197571 0.19481248 0.00000000
0.16130885 -0.58425045 0.00000000
-0.17612648 0.68783963 0.00000000
-0.65550929 0.68858409 0.00000000
0.43592376 0.62199146 0.04716451
0.16106521 0.51594919 0.00000000
-0.52139843 0.10950323 0.00000000
-0.15625212 -0.60198420 0.00000000
0.56115079 -0.27071092 0.00000000
-0.30897069 0.49890101 0.00000000
0.69369429 -0.18961829 0.00000000
0.61499053 -0.36092305 0.00000000
0.13502897 -0.63242680 0.00000000
0.20170747 0.57463497 0.00000000
-0.36692858 0.75343722 0.00000000
0.59934920 0.40650871 0.03764485
-0.78744251 -0.63683724 0.00000000
-0.32037482 0.59066629 0.00000000
0.55079067 -0.26313248 0.00000000
0.44366634 -0.04131081 0.00000000
-0.46438283 0.34396824 0.00000000
-0.60922408 0.20759878 0.00000000
0.72141385 0.17414837 0.01747529
-0.18770739 -0.79665273 0.00000000
-0.55094469 -0.14083463 0.00000000
-0.32414395 0.01477083 0.00000000
-0.09206806 0.04420430 0.00000000
0.78405786 -0.25021538 0.00000000
-0.44628796 0.40671849 0.00000000
-0.35044265 0.68812990 0.00000000
0.25558817 -0.05012135 0.00000000
-0.37129158 0.54659539 0.00000000
-0.53859586 -0.63415593 0.00000000
0.32729092 -0.31628716 0.00000000
0.23262176 0.60622150 0.00710319
-0.45955315 0.09376587 0.00000000
-0.66567630 -0.54999745 0.00000000
0.13763320 -0.65400434 0.00000000
0.40568689 0.60992938 0.03942934
0.34766418 0.10942970 0.00000000
-0.37185034 0.36067733 0.00000000
-0.23747709 -0.03577576 0.00000000
0.62609184 0.16480321 0.00000000
0.20125324 0.63433093 0.00650720
0.46297526 0.32665792 0.00000000
0.03709562 -0.58758330 0.00000000
-0.26138499 -0.75187206 0.00000000
-0.44604978 -0.27646694 0.00000000
0.25278166 0.61531693 0.01245306
0.30860201 -0.66148257 0.00000000
-0.57382578 -0.39673436 0.00000000
0.24298690 -0.10129547 0.00000000
0.45954913 -0.26164371 0.00000000
-0.50998861 -0.65495503 0.00000000
-0.22485825 -0.64397532 0.00000000
0.13836916 0.35800007 0.00000000
0.22281913 0.47580609 0.00000000
-0.06514340 0.24288066 0.00000000
-0.03435857 -0.59462017 0.00000000
0.28617877 0.27788156 0.00000000
0.15373445 0.60122347 0.00000000
-0.66230798 0.67984742 0.00000000
0.61273217 0.78324234 0.10898577
0.67758024 0.68300974 0.10251476
-0.77292156 -0.22561350 0.00000000
0.73537934 0.70122224 0.11641505
0.32665911 0.29797876 0.00000000
0.72250825 -0.32134914 0.00000000
0.08109611 -0.18808272 0.00000000
0.06072218 0.05150526 0.00000000
-0.21729025 -0.63037938 0.00000000
0.02046858 0.33726344 0.00000000
-0.63243425 -0.35596153 0.00000000
0.07378319 0.19477218 0.00000000
0.58244842 -0.72822863 0.00000000
0.35057658 0.14565729 0.00000000
-0.60346568 0.09876359 0.00000000
-0.48017523 0.22566710 0.00000000
0.16750947 0.52983642 0.00000000
0.49892831 -0.23483244 0.00000000
0.29039642 -0.57662082 0.00000000
0.35368070 0.12239106 0.00000000
0.45928156 -0.78400904 0.00000000
-0.10274626 -0.20347174 0.00000000
-0.13531590 -0.06984788 0.00000000
-0.29429021 -0.08657593 0.00000000
0.01108422 -0.62124699 0.00000000
0.42745909 -0.03215350 0.00000000
0.03881501 -0.44739094 0.00000000
0.05581521 -0.79736859 0.00000000
-0.39262527 -0.52568251 0.00000000
0.54776716 0.37660274 0.02274329
0.17985126 -0.51335531 0.00000000
-0.07366805 -0.09379098 0.00000000
0.16231430 -0.75774854 0.00000000
-0.58234590 -0.51803857 0.00000000
-0.24361993 -0.25243467 0.00000000
-0.35356203 0.00476238 0.00000000
0.42642492 -0.29978269 0.00000000
0.46696144 -0.42785874 0.00000000
0.14235815 -0.61085498 0.00000000
-0.35265180 -0.61926866 0.00000000
-0.22298831 0.39299169 0.00000000
-0.37304503 -0.17706598 0.00000000
0.68228978 -0.56800205 0.00000000
-0.31736001 -0.13152879 0.00000000
-0.71651191 -0.18315005 0.00000000
0.55327427 -0.79047871 0.00000000
-0.31196681 -0.43319374 0.00000000
0.31643623 -0.14888531 0.00000000
0.38136831 -0.07838609 0.00000000
0.73894316 0.72135186 0.12074791
-0.79042917 0.11623386 0.00000000
0.59609169 0.54202086 0.06183001
-0.48129731 0.48068678 0.00000000
-0.59781504 -0.75419980 0.00000000
-0.58137167 0.36741406 0.00000000
-0.48800206 -0.30326065 0.00000000
0.78312087 -0.74707580 0.00000000
0.19022018 0.75061971 0.02575525
0.29993334 -0.14819913 0.00000000
-0.76770002 0.60235929 0.00000000
-0.22096910 -0.60270876 0.00000000
-0.07937206 -0.16930377 0.00000000
0.71938175 -0.30266386 0.00000000
-0.67673671 0.02015941 0.00000000
-0.34093237 -0.69188237 0.00000000
-0.34732851 0.30982831 0.00000000
0.46038446 0.38889864 0.00901231
-0.39071286 -0.13196646 0.00000000
0.77239621 0.56535405 0.09833778
-0.30638337 -0.44473323 0.00000000
-0.23423587 0.19181944 0.00000000
-0.39906532 0.36665612 0.00000000
0.23470236 0.60029262 0.00639947
-0.27300653 0.74432820 0.00000000
0.21166334 -0.14527142 0.00000000
-0.04185178 0.22852945 0.00000000
-0.66259027 0.79077560 0.00000000
-0.76405191 0.08475127 0.00000000
-0.35080510 0.21582688 0.00000000
-0.39827251 0.18313609 0.00000000
0.49597612 0.20237747 0.00000000
0.33656517 0.76415211 0.05499205
0.26749918 -0.78556663 0.00000000
0.60324436 0.61810637 0.07705193
-0.08565887 -0.76939672 0.00000000
0.08070780 -0.59083873 0.00000000
-0.51280886 0.01123104 0.00000000
-0.39333528 -0.14326647 0.00000000
0.42876041 0.73602813 0.06670870
0.54557490 0.22893342 0.00000000
-0.38719890 0.47794613 0.00000000
0.18652339 0.45316502 0.00000000
0.78636217 -0.11718725 0.00000000
-0.24064028 0.39208439 0.00000000
0.27154097 -0.48447904 0.00000000
0.17228003 -0.35487458 0.00000000
-0.79713374 -0.72820091 0.00000000
0.11623345 0.40302420 0.00000000
-0.29955587 0.69104975 0.00000000
0.24241917 -0.48630631 0.00000000
-0.41064560 -0.05242593 0.00000000
-0.64995944 0.05495573 0.00000000
0.73804480 0.18845852 0.02313343
-0.41239202 0.20680720 0.00000000
0.31428841 -0.40925598 0.00000000
-0.49126279 0.00155791 0.00000000
0.65001273 -0.34731573 0.00000000
0.31591955 -0.15881342 0.00000000
-0.33454290 0.37922895 0.00000000
0.51748544 0.45337752 0.03124539
-0.36327213 0.74064589 0.00000000
0.41106921 0.36202425 0.00000000
0.12132021 0.75945145 0.01477061
0.38633415 -0.69322592 0.00000000
0.60411531 -0.19726761 0.00000000
-0.68659216 0.29876012 0.00000000
-0.17899081 -0.54081994 0.00000000
0.07368814 -0.52910906 0.00000000
0.49839878 -0.01979740 0.00000000
0.35330552 0.72289497 0.05050857
-0.37040147 0.72398090 0.00000000
-0.32311609 -0.79026413 0.00000000
-0.05457483 -0.25957751 0.00000000
-0.69874895 0.27720094 0.00000000
0.53865826 0.35153386 0.01649326
-0.39239180 0.29488605 0.00000000
-0.06392549 0.10992670 0.00000000
-0.46301875 0.42640591 0.00000000
-0.51775599 0.34137598 0.00000000
-0.21047340 -0.60904127 0.00000000
0.14665703 -0.16682900 0.00000000
0.14187217 0.40188301 0.00000000
0.30287981 -0.24291340 0.00000000
-0.78503346 -0.36065325 0.00000000
0.55515224 0.73864925 0.09030128
-0.58656222 -0.34842193 0.00000000
0.53746188 0.32202762 0.01087873
-0.78687823 0.43500143 0.00000000
-0.28501958 -0.05513003 0.00000000
0.44175154 0.64433956 0.05231709
0.55786973 0.04306256 0.00000000
-0.51077247 -0.20932008 0.00000000
-0.26419225 -0.06490205 0.00000000
-0.43028146 -0.29992917 0.00000000
-0.18160617 -0.12774529 0.00000000
0.17307113 0.55811095 0.00000000
-0.32941568 0.76050234 0.00000000
-0.64957744 -0.24130529 0.00000000
-0.35523292 -0.21053280 0.00000000
-0.00504361 -0.71777731 0.00000000
-0.12416889 0.46095172 0.00000000
-0.11488624 -0.29303846 0.00000000
0.60386568 -0.27687982 0.00000000
-0.45290324 0.16866013 0.00000000
0.41644511 0.01470758 0.00000000
0.32142895 0.21473317 0.00000000
-0.58789581 -0.29489055 0.00000000
-0.43928489 0.55995792 0.00000000
-0.15670031 0.63302344 0.00000000
-0.76090509 0.22701997 0.00000000
-0.25007644 -0.53303039 0.00000000
-0.31106511 -0.54884231 0.00000000
0.15970844 0.20407593 0.00000000
0.63625902 0.08081220 0.00000000
0.29568422 -0.08429604 0.00000000
0.57646406 -0.75867862 0.00000000
0.27052000 0.69148910 0.02962633
-0.56033093 0.41114452 0.00000000
-0.28923425 0.36779279 0.00000000
-0.62939268 0.34949222 0.00000000
0.11900673 0.71634686 0.00646505
0.31951869 -0.30255932 0.00000000
0.17792536 -0.07607433 0.00000000
-0.01213677 -0.64555925 0.00000000
-0.45786080 0.75063986 0.00000000
-0.29922602 0.14419086 0.00000000
0.59870088 -0.23336875 0.00000000
-0.59572983 -0.60365415 0.00000000
-0.16854513 0.05413340 0.00000000
0.00560633 -0.31575567 0.00000000
-0.04033520 -0.49599999 0.00000000
0.10327241 -0.35863447 0.00000000
-0.07945673 0.07959935 0.00000000
0.13429891 0.52076590 0.00000000
0.11657725 0.63581496 0.00000000
-0.22462399 0.69116437 0.00000000
0.42956319 -0.66777176 0.00000000
-0.15113837 0.19224571 0.00000000
-0.57938701 0.44292724 0.00000000
-0.53188729 0.69159257 0.00000000
0.54579931 -0.46579185 0.00000000
0.75093067 0.63375175 0.10692042
-0.06680498 -0.76254785 0.00000000
0.02181696 -0.54075313 0.00000000
-0.63828135 -0.19263402 0.00000000
0.21419685 0.31714350 0.00000000
0.21999440 -0.37902635 0.00000000
0.13614681 0.14261414 0.00000000
0.57875484 0.29004887 0.01258200
-0.62247920 0.47054106 0.00000000
-0.17044692 0.36226937 0.00000000
0.49819449 -0.30271766 0.00000000
0.51514101 -0.40361175 0.00000000
-0.21294247 -0.47178540 0.00000000
-0.77457380 -0.12475588 0.00000000
-0.49520895 -0.27567989 0.00000000
-0.01898802 -0.13761532 0.00000000
0.10812708 -0.22614712 0.00000000
0.35651356 -0.01012614 0.00000000
0.72997463 -0.51872951 0.00000000
-0.23449023 -0.10163063 0.00000000
-0.12846544 0.20782866 0.00000000
-0.08785918 -0.07816653 0.00000000
-0.24209958 0.12879008 0.00000000
-0.02881057 0.15104349 0.00000000
0.56632370 -0.73025113 0.00000000
-0.76595473 0.70997024 0.00000000
-0.14135145 -0.10923774 0.00000000
-0.07583366 -0.09485134 0.00000000
0.46077618 0.29090741 0.00000000
-0.45351931 -0.73989224 0.00000000
0.16266289 0.24760444 0.00000000
0.50729531 -0.24862646 0.00000000
0.18023507 0.65997440 0.00735303
0.38325810 0.39517769 0.00000000
0.73833239 -0.69496107 0.00000000
-0.56915849 -0.74502850 0.00000000
-0.67237663 -0.79843694 0.00000000
-0.46971998 0.15130182 0.00000000
0.70503592 -0.05261214 0.00000000
-0.03346645 0.25230822 0.00000000
-0.78308904 0.73494852 0.00000000
0.13649780 0.19974045 0.00000000
-0.18364035 0.30397469 0.00000000
-0.28233293 0.52726668 0.00000000
-0.59035200 0.38465565 0.00000000
-0.31486163 0.72961575 0.00000000
0.67002761 -0.66866124 0.00000000
0.26963353 -0.38221827 0.00000000
-0.10995794 0.16591045 0.00000000
-0.12483223 0.51335227 0.00000000
-0.55547637 0.05994349 0.00000000
0.09234276 0.52588493 0.00000000
0.61164427 -0.33648431 0.00000000
0.78243661 -0.14716898 0.00000000
-0.43985361 -0.58935910 0.00000000
-0.40417409 0.72960865 0.00000000
0.28002891 -0.00155658 0.00000000
0.54508489 0.25369102 0.00000000
0.55763155 -0.43343893 0.00000000
0.41671553 0.52715003 0.02630842
-0.58370423 0.78384340 0.00000000
0.15188392 0.14199923 0.00000000
-0.52560979 0.29880971 0.00000000
-0.62748891 -0.33630198 0.00000000
0.60307443 0.01907812 0.00000000
0.23015288 -0.54130459 0.00000000
0.51986343 -0.44407004 0.00000000
0.55407190 0.71279931 0.08537649
0.69701189 -0.32757381 0.00000000
0.45558125 -0.71485877 0.00000000
0.39621478 -0.13185517 0.00000000
-0.35619757 0.19928706 0.00000000
-0.42928326 0.64249408 0.00000000
-0.33668908 -0.38656741 0.00000000
0.51194173 -0.74877435 0.00000000
-0.72158921 0.14802641 0.00000000
0.60809910 0.30848724 0.02131993
0.26050183 0.32049060 0.00000000
0.62887532 -0.68135160 0.00000000
0.59442073 0.28894946 0.01524575
0.02557783 -0.43320835 0.00000000
-0.41893685 0.67489129 0.00000000
-0.01947719 -0.74621785 0.00000000
-0.66051275 -0.77997023 0.00000000
0.38702515 0.58730412 0.03187927
-0.54957491 0.58122188 0.00000000
0.03299082 0.53138334 0.00000000
0.26974812 -0.43637910 0.00000000
0.52159506 -0.27078968 0.00000000
-0.60849947 0.70784909 0.00000000
-0.76914501 0.33114928 0.00000000
-0.74187499 0.62327498 0.00000000
-0.27216876 0.67401755 0.00000000
0.04950350 -0.51011306 0.00000000
0.70355994 0.37076122 0.05016459
-0.76824826 -0.22438420 0.00000000
-0.42289203 -0.11420032 0.00000000
-0.15674382 -0.66395944 0.00000000
-0.41122121 0.36491227 0.00000000
0.30883846 0.61001658 0.02173480
-0.45006174 -0.21015359 0.00000000
0.65226078 0.24538742 0.01785674
-0.03050969 0.50401121 0.00000000
-0.46925393 -0.62385982 0.00000000
-0.06705191 0.79567808 0.00000000
0.17311126 -0.43396509 0.00000000
-0.52018744 0.18480714 0.00000000
0.68993127 0.30097362 0.03491042
-0.08706933 -0.32836309 0.00000000
-0.79244220 0.78225237 0.00000000
-0.65253729 -0.55674285 0.00000000
0.73551786 0.27343154 0.03821018
-0.59132499 -0.50749743 0.00000000
-0.04940649 -0.16959886 0.00000000
-0.40804222 -0.33183905 0.00000000
-0.04402575 -0.33037603 0.00000000
0.31513909 -0.69278526 0.00000000
-0.76841414 0.55793154 0.00000000
-0.78557819 -0.10610569 0.00000000
0.46716917 -0.17015342 0.00000000
-0.32019034 -0.05631151 0.00000000
-0.72110516 -0.24152921 0.00000000
-0.52450240 -0.44290552 0.00000000
-0.55272251 -0.29697654 0.00000000
-0.10357117 0.72716701 0.00000000
0.59185153 -0.13932712 0.00000000
0.52085698 0.76894528 0.08957001
0.42918366 -0.54176962 0.00000000
-0.07094733 -0.38012770 0.00000000
0.47492728 -0.39256194 0.00000000
0.56062335 -0.18370426 0.00000000
0.03447880 -0.32003009 0.00000000
-0.16819477 0.07537195 0.00000000
-0.61461473 -0.55265832 0.00000000
-0.19382028 0.53502625 0.00000000
-0.71822232 -0.66129810 0.00000000
0.15526585 0.36076313 0.00000000
0.47090375 -0.41534609 0.00000000
0.55352056 -0.09429909 0.00000000
-0.48383757 0.06541725 0.00000000
-0.33380631 -0.07926052 0.00000000
0.71395963 -0.59235835 0.00000000
0.51784235 0.60170472 0.05843508
0.18010825 0.65727639 0.00683646
-0.18564357 -0.09614750 0.00000000
0.35180119 0.50261402 0.00995081
0.78394979 -0.60069960 0.00000000
0.58502769 -0.00184257 0.00000000
-0.23202766 0.16891475 0.00000000
-0.28110611 0.32866788 0.00000000
-0.64956266 0.75288051 0.00000000
0.50018436 -0.59875566 0.00000000
0.28651226 0.67985678 0.03042360
-0.68751580 -0.32080227 0.00000000
-0.75197041 0.35589930 0.00000000
-0.34001952 -0.71148270 0.00000000
0.05742773 0.02023153 0.00000000
-0.62188411 0.13311265 0.00000000
-0.75350344 0.59030610 0.00000000
-0.26424417 0.66219687 0.00000000
0.75214148 0.26768684 0.04019959
0.60464579 -0.29164371 0.00000000
0.45931092 -0.16591451 0.00000000
0.63340306 0.53504002 0.06737652
0.21766639 0.55684650 0.00000000
-0.01802080 0.40511394 0.00000000
0.25372341 0.73455662 0.03443060
0.65598655 0.39025173 0.04502913
-0.65180367 0.71490723 0.00000000
0.31955835 0.23855355 0.00000000
0.52741331 -0.48902386 0.00000000
0.53417003 -0.22792958 0.00000000
-0.18417691 -0.63528621 0.00000000
-0.12426620 0.30077356 0.00000000
-0.69976908 -0.32630005 0.00000000
0.76033908 -0.72229940 0.00000000
0.08417479 0.40511695 0.00000000
-0.19738308 0.07711891 0.00000000
0.21596365 -0.57731205 0.00000000
0.73311394 0.49246201 0.07782430
-0.42779443 -0.40727282 0.00000000
0.20151137 -0.16318706 0.00000000
-0.05592430 0.62171948 0.00000000
0.21386746 0.79012173 0.03730345
-0.61981678 0.61548012 0.00000000
-0.37192214 0.00094107 0.00000000
0.56100303 0.48057702 0.04417729
-0.31957632 -0.46814567 0.00000000
0.48889789 -0.54376513 0.00000000
-0.76884651 -0.05285531 0.00000000
0.31231278 -0.23272219 0.00000000
-0.03755620 -0.59411794 0.00000000
0.17912824 -0.36382356 0.00000000
0.43461984 -0.65748054 0.00000000
-0.53546745 -0.65995455 0.00000000
0.37285590 -0.23297381 0.00000000
0.45660669 -0.65661865 0.00000000
-0.46700963 -0.58376759 0.00000000
0.01578107 -0.20837215 0.00000000
-0.59579176 -0.32682157 0.00000000
-0.64431119 -0.24626178 0.00000000
-0.50890893 0.62440038 0.00000000
-0.75973082 0.32404211 0.00000000
-0.12704803 0.26662886 0.00000000
-0.19255625 0.13488533 0.00000000
-0.32896665 -0.34472924 0.00000000
-0.42034370 -0.54134363 0.00000000
0.19192544 -0.24119109 0.00000000
-0.73991507 -0.50018799 0.00000000
-0.23163863 -0.25633448 0.00000000
0.68360865 0.17011362 0.00982409
0.68471700 -0.16255096 0.00000000
0.07336475 -0.15593363 0.00000000
0.71719795 0.71970266 0.11646977
0.36212155 -0.52184659 0.00000000
0.74257082 0.08612194 0.00524699
0.25369960 0.10866485 0.00000000
0.50736636 0.12699191 0.00000000
-0.00129426 0.34179434 0.00000000
-0.65903723 -0.48272508 0.00000000
-0.16891021 -0.73476219 0.00000000
-0.72755295 0.13837536 0.00000000
0.38004118 0.36344466 0.00000000
0.21559229 -0.16237088 0.00000000
0.48614007 0.41842791 0.01912215
-0.39416295 -0.14316317 0.00000000
0.76900887 -0.13015838 0.00000000
-0.22591013 0.64629644 0.00000000
-0.31326681 -0.04964971 0.00000000
0.30241746 0.65812862 0.02935876
-0.69590873 0.67257005 0.00000000
-0.14398377 0.49509361 0.00000000
0.71824741 0.08759030 0.00106753
-0.23804986 -0.15276152 0.00000000
-0.38018239 -0.52705079 0.00000000
0.74230915 -0.37273517 0.00000000
-0.60052830 0.46778587 0.00000000
-0.44238725 -0.41878638 0.00000000
0.03730526 -0.25828293 0.00000000
0.61287463 0.46286079 0.05042322
0.09896576 -0.64989245 0.00000000
-0.57224023 0.47084111 0.00000000
0.12925246 0.67953306 0.00160659
0.70486683 -0.51201427 0.00000000
-0.24648099 0.27935442 0.00000000
-0.37385210 -0.68752909 0.00000000
0.73757499 0.22836019 0.03034425
0.61404419 0.48745233 0.05513410
0.55093771 0.46839836 0.04010958
-0.53628242 -0.52225208 0.00000000
0.73327893 -0.55494934 0.00000000
0.12942252 -0.19331755 0.00000000
0.13811463 -0.56661016 0.00000000
-0.10428320 -0.56843251 0.00000000
-0.40087223 0.16177200 0.00000000
0.66384417 -0.05736567 0.00000000
0.06104046 0.70492113 0.00000000
-0.79506612 -0.29255095 0.00000000
0.69501114 -0.15401666 0.00000000
0.53820014 -0.23341259 0.00000000
0.55852646 0.50332129 0.04788360
0.70551282 -0.16190359 0.00000000
-0.77818322 0.76706731 0.00000000
-0.38947189 -0.10734036 0.00000000
0.46676800 -0.68500257 0.00000000
0.36850700 0.65386879 0.04066549
-0.08309400 -0.68340838 0.00000000
0.20686325 -0.65557981 0.00000000
0.62269109 0.64275920 0.08511648
0.60550582 0.73153019 0.09820756
-0.44473338 -0.78668994 0.00000000
0.07415220 -0.57950938 0.00000000
-0.16068381 -0.37308097 0.00000000
-0.36694482 -0.00666602 0.00000000
0.49635571 0.49510229 0.03501157
-0.22406515 -0.66463280 0.00000000
0.34714380 -0.66235799 0.00000000
-0.48907712 0.78244328 0.00000000
0.21190268 0.50175500 0.00000000
-0.42455369 0.65245390 0.00000000
0.39888015 -0.41634506 0.00000000
-0.63795549 -0.39179641 0.00000000
-0.03835941 -0.33057705 0.00000000
0.20767266 -0.68204099 0.00000000
0.47207871 0.40955055 0.01492739
-0.61181951 0.63482296 0.00000000
-0.55934221 0.74927300 0.00000000
0.26576385 -0.20496549 0.00000000
-0.07630628 0.09921098 0.00000000
0.10603860 0.11130310 0.00000000
-0.57733697 -0.48005098 0.00000000
0.25298008 -0.01636167 0.00000000
0.00408055 0.67805028 0.00000000
-0.00592432 -0.73786396 0.00000000
-0.19393271 0.38106370 0.00000000
0.31479049 0.70770741 0.04068795
-0.76056105 0.42922613 0.00000000
0.50930661 0.77820373 0.08915091
-0.25210193 -0.73857921 0.00000000
-0.79046804 -0.69532210 0.00000000
-0.27922672 0.49759033 0.00000000
-0.69347674 -0.33822456 0.00000000
-0.44027379 -0.21943912 0.00000000
0.29093894 -0.14742604 0.00000000
0.75670701 0.21328042 0.03108529
0.55277914 -0.53702396 0.00000000
-0.30147806 -0.76464742 0.00000000
-0.14784987 -0.02931129 0.00000000
-0.29365239 -0.33299100 0.00000000
-0.59097242 -0.73682362 0.00000000
0.19028564 0.79024196 0.03301304
-0.57987982 0.14873151 0.00000000
0.22168542 0.51663476 0.00000000
-0.19658697 0.09554314 0.00000000
0.31728226 0.79294610 0.05673142
-0.10727071 0.19601616 0.00000000
-0.22003400 0.57289237 0.00000000
0.61826646 0.10828381 0.00000000
0.02429499 0.24892017 0.00000000
-0.36329746 -0.07787524 0.00000000
-0.27177939 -0.55845451 0.00000000
-0.14606971 -0.57873464 0.00000000
0.18359569 -0.17947964 0.00000000
-0.03479964 0.21472442 0.00000000
0.77210391 -0.00726850 0.00000000
-0.43976513 0.37943625 0.00000000
0.53653574 -0.58941752 0.00000000
0.49023926 -0.14876133 0.00000000
-0.75184530 0.57463068 0.00000000
-0.72492528 -0.75285637 0.00000000
-0.66649640 -0.44053328 0.00000000
0.30964115 -0.10952678 0.00000000
0.21390177 0.07611711 0.00000000
0.23602270 -0.20725051 0.00000000
0.29264218 0.48733503 0.00000000
0.19266573 0.40734306 0.00000000
-0.40998107 0.51250398 0.00000000
0.35071385 0.44176257 0.00000000
0.62214488 -0.66716051 0.00000000
-0.21576153 0.44985151 0.00000000
0.76445055 -0.34611455 0.00000000
0.15416938 0.51591957 0.00000000
0.34538263 0.17656495 0.00000000
0.21523057 0.44386265 0.00000000
-0.02549303 -0.34858048 0.00000000
0.49205106 -0.15923013 0.00000000
-0.79155427 0.50373816 0.00000000
0.02609253 -0.33087453 0.00000000
-0.11055486 0.68053365 0.00000000
-0.38061029 0.21614315 0.00000000
0.11154589 0.65511239 0.00000000
-0.26660803 0.07166077 0.00000000
-0.70770651 0.32364038 0.00000000
-0.27879331 0.06437916 0.00000000
0.76562655 -0.43891326 0.00000000
-0.26042822 -0.27165422 0.00000000
0.08326232 0.74845183 0.00579950
0.41363981 -0.04731057 0.00000000
-0.30552360 -0.69464391 0.00000000
-0.47540858 -0.53275979 0.00000000
-0.65025568 -0.70595646 0.00000000
0.19784546 0.73854780 0.02494208
-0.03618707 0.50373566 0.00000000
0.39202487 0.53754866 0.02369487
-0.61061829 -0.26755852 0.00000000
0.28532904 -0.29749885 0.00000000
-0.73516601 -0.67027855 0.00000000
0.00381688 0.53002572 0.00000000
0.21568061 -0.13731109 0.00000000
-0.70473516 -0.54411483 0.00000000
-0.30073902 0.26958331 0.00000000
-0.29161721 0.42767525 0.00000000
-0.75877732 0.68684763 0.00000000
0.21731091 0.43855754 0.00000000
0.27988338 0.73525417 0.03934203
-0.69766772 0.39353749 0.00000000
0.03635217 0.32315087 0.00000000
0.11267729 -0.74482453 0.00000000
-0.67603505 0.42058313 0.00000000
0.70735240 -0.70596695 0.00000000
0.63540137 -0.70115793 0.00000000
-0.59883517 0.29605648 0.00000000
0.09114260 0.48805782 0.00000000
0.43305513 0.01953728 0.00000000
-0.34349966 0.34748888 0.00000000
0.29468486 0.23568647 0.00000000
0.04530007 -0.51119965 0.00000000
-0.65416545 0.70606118 0.00000000
0.28337768 -0.35188577 0.00000000
-0.01866644 0.45912096 0.00000000
-0.73256075 -0.24641170 0.00000000
0.12761508 0.26838717 0.00000000
0.13830882 -0.24221519 0.00000000
-0.45314929 -0.04548932 0.00000000
-0.56368589 -0.42950493 0.00000000
0.48551378 -0.45884505 0.00000000
0.27840546 -0.46958098 0.00000000
-0.34861988 0.34037369 0.00000000
0.23752256 0.02268866 0.00000000
-0.75424731 0.78578168 0.00000000
0.54019928 -0.19616763 0.00000000
-0.29170710 0.58683336 0.00000000
0.39426702 0.54546016 0.02555165
0.26867324 -0.52104622 0.00000000
0.67955577 0.51136798 0.07148751
-0.12656748 0.70786005 0.00000000
0.70219231 0.67913193 0.10630641
-0.44600341 0.34542686 0.00000000
-0.09626938 0.68483961 0.00000000
-0.62643158 -0.33940360 0.00000000
0.56358451 0.02509160 0.00000000
-0.21485396 -0.01393333 0.00000000
-0.65949494 -0.62760532 0.00000000
0.46365455 -0.04695666 0.00000000
0.67419493 -0.16240932 0.00000000
-0.25188643 0.65952271 0.00000000
0.00925488 -0.13856928 0.00000000
-0.66666102 -0.20043018 0.00000000
0.32571086 0.28615922 0.00000000
0.29750761 0.53601199 0.00612966
0.66309607 -0.55029088 0.00000000
-0.27126127 -0.18586136 0.00000000
0.04106338 -0.04243538 0.00000000
0.15307756 0.47656924 0.00000000
-0.70448774 0.05737178 0.00000000
0.02910973 -0.71255225 0.00000000
0.37445581 -0.61805129 0.00000000
0.79245448 -0.45820779 0.00000000
