ply
format ascii 1.0
element vertex 1086
property float x
property float y
property float z
end_header
-0.17743593 -0.78588516 0.00000107
-0.28382248 -0.16377652 0.00000171
-0.44469956 -0.27361819 0.28570122
-0.01344053 -0.30840600 0.00000008
-0.41651702 -0.20556831 0.04303985
-0.07864730 -0.45836735 0.00000047
-0.08906608 -0.46657142 0.00000054
-0.34230751 -0.02641204 0.21404780
-0.15040530 0.43703002 -0.00577554
-0.05822293 -0.36586368 0.00000035
-0.39952746 -0.16384748 -0.02967116
-0.02453248 -0.20242153 0.00000015
-0.41446266 -0.19326411 -0.32098359
-0.15469098 0.35016796 0.00000161
-0.03072365 0.26996562 0.00000693
-0.48676381 -0.36774021 -0.32412988
-0.36129689 -0.65579921 0.00000218
-0.13010380 0.15888786 0.00000530
-0.47088671 -0.33683071 0.07964000
-0.13762154 0.47103480 -0.14371106
-0.03238275 -0.73548925 0.00000020
-0.03579038 -0.19702049 0.00000022
-0.56226617 -0.69410151 0.00000339
-0.19897863 0.08927420 0.00000406
-0.27779561 -0.70477104 0.00000168
-0.27915284 0.12605768 0.18391840
-0.15070361 0.43616170 0.14275518
-0.50620174 -0.42031339 -0.07631197
-0.03839002 0.45324767 0.00000393
-0.16644606 0.39816427 0.04343967
-0.42756951 -0.62528092 0.00000258
-0.34543663 -0.03396622 0.21283267
-0.27656347 0.13555846 -0.14155649
-0.06334914 -0.33039394 0.00000038
-0.39379975 -0.50453311 0.00000238
-0.00463704 -0.14227393 -0.00000003
-0.08006227 -0.05314290 0.00000048
-0.37529588 -0.20345277 0.00000227
-0.22578093 -0.01729248 0.00000136
-0.23182456 0.24032605 0.07060438
-0.47379678 -0.34386128 0.19123892
-0.32932901 0.00491907 0.23263992
-0.47619176 -0.52219093 0.00000287
-0.06560977 -0.49994695 0.00000040
-0.29380611 0.09068986 0.08322312
-0.00065697 -0.09190278 -0.00000000
-0.18459766 0.35433418 0.15362307
-0.12291709 -0.48233369 0.00000074
-0.36072415 -0.07087422 0.09969632
-0.48099968 -0.62615716 0.00000290
-0.34680626 -0.30001613 0.00000209
-0.15611336 0.42310554 0.09227761
-0.27367795 -0.28396446 0.00000165
-0.50613308 -0.57168996 0.00000305
-0.06588236 0.44956103 0.00000307
-0.08306231 0.59946966 0.02774811
-0.60547119 -0.65855169 -0.13843471
-0.02681806 0.27375489 0.00000700
-0.21796605 0.27377167 0.21584632
-0.37873450 -0.65381265 0.00000229
-0.26359424 0.16361186 0.27574220
-0.22605753 0.25917906 -0.21579422
-0.06934078 0.43284470 0.00000321
-0.56420851 -0.55771381 -0.19207497
-0.39932871 -0.15671770 -0.32144901
-0.37901714 -0.11505106 0.40458384
-0.28362086 -0.18387794 0.00000171
-0.23973750 0.22121796 0.13111062
-0.34516257 -0.65688705 0.00000208
-0.13443810 0.17206731 0.00000496
-0.06986846 0.43199697 0.00000320
-0.49340612 -0.38381529 -0.32241523
-0.07816357 -0.35423276 0.00000047
-0.07531277 0.40513024 0.00000342
-0.03630686 0.71237540 -0.00113055
-0.37927312 -0.11248865 -0.13767757
-0.03020978 -0.69773585 0.00000018
-0.50591516 -0.42140269 0.19998364
-0.29646337 0.08426271 0.23565491
-0.10241294 -0.17434621 0.00000062
-0.02278833 -0.47124857 0.00000014
-0.16502745 -0.55772722 0.00000100
-0.10037688 -0.58636886 0.00000061
-0.25089100 -0.00267860 0.00000151
-0.10146913 -0.57566565 0.00000061
-0.07539709 -0.08201731 0.00000046
-0.48581561 -0.67322004 0.00000293
-0.29337332 0.09218884 -0.01919073
-0.66522592 -0.80600590 0.06127885
-0.21460976 -0.70428294 0.00000130
-0.02935637 -0.65706563 0.00000018
-0.37206638 -0.09200697 -0.27293232
-0.21896188 0.27137819 0.08092535
-0.21528405 -0.17268318 0.00000130
-0.11602522 -0.07995141 0.00000070
-0.18033627 0.18933886 0.00000317
-0.43379760 -0.24729311 0.16766313
-0.45961830 -0.30963740 0.33069083
-0.02670234 -0.28263187 0.00000016
-0.08082062 0.08986297 0.00000797
-0.08910906 0.31761196 0.00000428
-0.01221285 -0.04204368 0.00000007
-0.36565599 -0.07723831 -0.24190146
-0.54920769 -0.52592009 0.21195710
-0.60801071 -0.66787809 0.05743072
-0.31611913 -0.52873653 0.00000191
-0.57850379 -0.59664387 0.10567662
-0.01402291 0.76614594 0.00131143
-0.11725400 -0.45094079 0.00000071
-0.35163447 -0.74890000 0.00000212
-0.11361433 0.36566070 0.00000274
-0.53498787 -0.62229371 0.00000323
-0.22775608 0.25015348 0.00269549
-0.13745587 -0.70344442 0.00000083
-0.32338020 0.01927175 0.34481165
-0.34135917 -0.02389199 -0.00895444
-0.03643171 0.24920729 0.00000705
-0.43340689 -0.24635255 0.22773051
-0.31639561 0.04137524 -0.22835788
-0.20184545 0.31270671 0.00208965
-0.27207318 0.14314625 0.22304522
-0.05660316 0.12250351 0.00000828
-0.06796888 -0.13116069 0.00000041
-0.23652154 0.22898601 0.07882523
-0.42999303 -0.23810238 0.04079083
-0.05559938 -0.63119221 0.00000034
-0.33182073 -0.00110409 0.33015993
-0.39058614 -0.38173825 0.00000236
-0.28387278 0.11465464 0.28820461
-0.47733951 -0.35240650 0.01906532
-0.44193572 -0.26223585 -0.20482755
-0.00807812 0.27255049 0.00000764
-0.17191228 0.38496560 0.07116387
-0.45276323 -0.28694430 -0.26761082
-0.33890331 -0.01818728 0.13357913
-0.12817746 -0.79527050 0.00000077
-0.13673505 0.46988842 0.09210037
-0.27487445 0.13639165 0.11908990
-0.39018598 -0.13703611 -0.21656550
-0.22555284 -0.02478254 0.00000136
-0.02920165 0.59706110 0.00000207
-0.39948869 -0.79132682 0.00000241
-0.61083549 -0.67464036 -0.00065857
-0.13384365 0.47687197 0.05264578
-0.47780895 -0.64615905 0.00000288
-0.28818512 0.00026194 0.00000243
-0.35005793 -0.18663909 0.00000211
-0.34574801 -0.03472546 0.30786833
-0.09662485 -0.50153685 0.00000058
-0.20749778 0.30278501 -0.16312018
-0.32523596 0.01479141 0.34736219
-0.07399194 -0.08328160 0.00000045
-0.11368624 0.39188567 0.00000235
-0.05517881 0.00979983 0.00001002
-0.36303389 -0.23193780 0.00000219
-0.50366426 -0.41592363 -0.00013603
-0.48711765 -0.37602285 0.23602708
-0.22135323 -0.64024138 0.00000134
-0.46129912 -0.31116048 -0.10925254
-0.38477734 -0.12894399 0.09793833
-0.42333668 -0.22203261 0.04466470
-0.42219946 -0.21182196 -0.32625023
-0.02550687 -0.76966387 0.00000015
-0.05313194 -0.43071923 0.00000032
-0.28304562 0.11665147 0.28905040
-0.16212235 -0.58413714 0.00000098
-0.30213889 -0.15305863 0.00000182
-0.49858171 -0.39918071 -0.19638950
-0.56263781 -0.55404621 -0.18660565
-0.30251145 -0.57775831 0.00000183
-0.42280480 -0.22075205 0.12365787
-0.29042119 -0.78520364 0.00000175
-0.50002855 -0.40719414 0.28833985
-0.34946546 -0.58504438 0.00000211
-0.17158815 0.28767404 0.00000199
-0.43329164 -0.60824054 0.00000262
-0.19585818 -0.37037504 0.00000118
-0.02548103 -0.49855101 0.00000015
-0.41086045 -0.19129954 -0.02561744
-0.48531291 -0.36748585 -0.18155164
-0.40561685 -0.59978318 0.00000245
-0.46204054 -0.57283771 0.00000279
-0.42837131 -0.79693836 0.00000259
-0.50282073 -0.41392648 0.07575975
-0.15677217 0.42152146 0.01103785
-0.00501677 -0.11909486 0.00000003
-0.26443937 0.16158846 0.06134751
-0.12048935 0.50911564 0.00346694
-0.05931661 -0.02226526 0.00000036
-0.17061219 -0.79512268 0.00000103
-0.31503895 0.04043800 -0.04347556
-0.30976731 -0.43642986 0.00000187
-0.08355303 0.03854602 0.00000865
-0.22138114 -0.07722792 0.00000134
-0.05965250 -0.30029345 0.00000036
-0.43272164 -0.23985191 -0.21095574
-0.16675013 -0.29114768 0.00000101
-0.11106866 0.49288872 0.00000092
-0.19731127 -0.38845548 0.00000119
-0.11614553 0.51979518 -0.00826829
-0.64491886 -0.75539452 -0.06779356
-0.33196220 -0.79502630 0.00000200
-0.35463464 -0.44041476 0.00000214
-0.13166326 -0.56138527 0.00000079
-0.27545345 0.13589400 -0.03867046
-0.54413134 -0.51366246 0.13866217
-0.01815934 -0.44448721 0.00000011
-0.58553380 -0.73144412 0.00000353
-0.05567195 -0.06345620 0.00000034
-0.12092739 0.43983504 0.00000139
-0.23411013 0.23808990 -0.14342356
-0.17666638 -0.72575611 0.00000107
-0.07373573 -0.57034016 0.00000045
-0.47132400 -0.73507279 0.00000284
-0.09295932 0.57573771 -0.00683905
-0.13356750 0.47967613 -0.09342497
-0.03702422 0.11600006 0.00000903
-0.37013960 -0.09360211 0.02927433
-0.17717294 0.37453488 -0.09908699
-0.21775810 -0.32666817 0.00000131
-0.12074211 0.24035996 0.00000439
-0.44946131 -0.28511006 0.19469222
-0.28375852 0.11559764 -0.02784526
-0.49295330 -0.39010948 0.19243124
-0.52215934 -0.46061727 0.14288735
-0.17480950 0.37796688 0.12561148
-0.03266251 0.72145933 -0.01367839
-0.21609779 0.14986636 0.00000258
-0.10291639 -0.58984113 0.00000062
-0.43466818 -0.68994462 0.00000262
-0.11777873 0.38270688 0.00000235
-0.22978777 -0.19137393 0.00000139
-0.62560403 -0.70926565 -0.04577996
-0.38309923 -0.12488889 0.01332214
-0.21029744 0.29229748 0.05929775
-0.48346290 -0.48762998 0.00000292
-0.28888348 -0.29561785 0.00000174
-0.01356909 0.72546297 0.00000067
-0.00739500 -0.78251737 -0.00000004
-0.23799831 -0.73097175 0.00000144
-0.05250669 0.45894679 0.00000337
-0.07365425 -0.04391108 0.00000044
-0.38417459 -0.64753693 0.00000232
-0.25001028 -0.18854402 0.00000151
-0.04552826 -0.02712418 0.00000027
-0.51271313 -0.43781585 0.22940080
-0.02045674 -0.47402206 0.00000012
-0.12219642 -0.27509379 0.00000074
-0.42203689 -0.21738259 -0.06504710
-0.34338632 -0.73475099 0.00000207
-0.49880919 -0.40424174 0.07662467
-0.40161920 -0.33046976 0.00000242
-0.11027455 0.53377414 0.02796154
-0.56160426 -0.55188435 -0.17195325
-0.27251694 -0.70014751 0.00000164
-0.15391713 -0.79858142 0.00000093
-0.15638122 0.42587093 -0.14919271
-0.37291560 -0.10030515 0.05489187
-0.31352535 0.04991779 -0.29916424
-0.19197033 -0.79889143 0.00000116
-0.02825091 -0.14569443 0.00000017
-0.34780288 -0.03967648 0.03521987
-0.08956471 0.14267260 0.00000689
-0.22458264 0.25977477 -0.08566633
-0.13074614 -0.54136276 0.00000079
-0.11757831 0.16630846 0.00000560
-0.02732041 0.45480528 0.00000427
-0.01304107 0.52757221 0.00000365
-0.39753863 -0.15975124 0.06649848
-0.14718029 0.44530538 -0.02726763
-0.41290811 -0.19384006 -0.13104703
-0.19588123 0.32945776 -0.10293152
-0.36595094 -0.53432524 0.00000221
-0.11256348 -0.57435471 0.00000068
-0.29761067 0.08485378 -0.14623100
-0.36897129 -0.08180271 -0.39284819
-0.41381630 -0.19905181 0.12424624
-0.18141568 -0.43259314 0.00000109
-0.03285089 0.15763570 0.00000854
-0.32880029 -0.49875787 0.00000198
-0.04547957 0.58577973 0.00000170
-0.09017596 -0.71400225 0.00000054
-0.54459870 -0.58221215 0.00000329
-0.38674080 -0.12437641 -0.40709734
-0.49368998 -0.38763949 -0.18462177
-0.37641490 -0.09987671 -0.38828340
-0.29283956 0.09569579 -0.11655379
-0.18464895 -0.45439899 0.00000111
-0.09796186 0.56444347 -0.04118933
-0.01450956 0.25922960 0.00000763
-0.20531087 0.30573186 -0.06073965
-0.30611622 -0.72181624 0.00000185
-0.09859987 0.17296217 0.00000613
-0.35182884 -0.04940356 0.28034976
-0.36205846 -0.28028700 0.00000219
-0.43071124 -0.23984885 0.32281047
-0.13263160 -0.51314342 0.00000080
-0.18628833 -0.59150112 0.00000112
-0.10799313 0.40253183 0.00000238
-0.04747387 0.24861050 0.00000669
-0.30619898 0.06077003 0.09700207
-0.44730058 -0.27988607 0.02602344
-0.66696459 -0.81020331 0.08034063
-0.02214837 0.29434910 0.00000685
-0.36920169 -0.37082180 0.00000223
-0.35195979 -0.66597170 0.00000212
-0.48147655 -0.35757613 -0.20998868
-0.41466132 -0.20109549 0.20571980
-0.03410882 -0.58719212 0.00000021
-0.55765623 -0.54116392 -0.22421269
-0.34391874 -0.02352164 -0.29630619
-0.12675184 0.34709588 0.00000259
-0.09545772 0.47296703 0.00000174
-0.49072543 -0.38473290 0.23781617
-0.08309530 0.04005442 0.00000864
-0.24986833 -0.72486180 0.00000151
-0.04472058 -0.36273322 0.00000027
-0.35920525 -0.05849422 -0.38107529
-0.34082884 -0.01878018 -0.17701308
-0.43920001 -0.73374546 0.00000265
-0.26708657 0.15518214 0.25751212
-0.21028921 -0.31970081 0.00000127
-0.53891778 -0.50107682 0.16268764
-0.56132179 -0.55078959 -0.19009823
-0.40867624 -0.27268049 0.00000247
-0.43515095 -0.24717638 -0.14690778
-0.21941882 0.27026317 0.23150893
-0.11614778 0.37006491 0.00000259
-0.26956809 -0.67082256 0.00000163
-0.03071145 0.11573276 0.00000924
-0.25357074 -0.63771856 0.00000153
-0.49197957 -0.38775268 0.05765340
-0.34166706 -0.26095268 0.00000206
-0.04405287 -0.47487921 0.00000027
-0.30101159 0.07659491 -0.14410269
-0.01859936 0.52668923 0.00000348
-0.44264251 -0.26864806 0.19725844
-0.51655418 -0.44096982 -0.26660159
-0.36801946 -0.08849088 0.19227967
-0.17792048 -0.44509000 0.00000107
-0.45808014 -0.62229401 0.00000276
-0.15509196 0.42754844 -0.08621356
-0.06409701 -0.52813804 0.00000039
-0.22993584 0.24769129 -0.12253220
-0.48353809 -0.52203166 0.00000292
-0.00283820 0.61346936 0.00000270
-0.62699544 -0.71371168 0.16125429
-0.36032277 -0.06808994 -0.07842230
-0.14882252 0.25002989 0.00000331
-0.26662907 -0.00356404 0.00000161
-0.16455007 -0.43045944 0.00000099
-0.21020417 0.29251695 0.13189195
-0.00122214 -0.69326669 0.00000001
-0.00609945 -0.17417380 0.00000004
-0.18412524 0.35548234 0.05636922
-0.28656131 0.10818587 0.01111654
-0.22386000 -0.35589224 0.00000135
-0.03630439 -0.59014565 0.00000022
-0.35286677 -0.29919076 0.00000213
-0.13714369 0.14596491 0.00000526
-0.11193776 0.42006722 0.00000198
-0.16959541 0.24720998 0.00000266
-0.09104023 0.35231587 0.00000369
-0.36604571 -0.08166369 -0.08905584
-0.46927235 -0.33293104 0.02960115
-0.04088764 0.58951467 0.00000180
-0.11771956 -0.19275370 0.00000071
-0.08486773 0.14164910 0.00000706
-0.08210882 0.60176736 0.08117589
-0.44536373 -0.27317849 -0.08781358
-0.45575532 -0.50489259 0.00000275
-0.41190264 -0.19442768 0.03224700
-0.41781980 -0.20701912 -0.07306585
-0.00535443 -0.22619668 0.00000003
-0.13636532 0.47078049 0.09871084
-0.40582618 -0.76067966 0.00000245
-0.25777593 -0.74670160 0.00000156
-0.37195507 -0.09799043 0.25947902
-0.13938224 0.46349534 0.12106472
-0.55249661 -0.62941784 0.00000333
-0.04484528 0.69173157 0.04356571
-0.41969568 -0.46762204 0.00000253
-0.19102789 0.06592045 0.00000467
-0.42291188 -0.22100791 0.06393476
-0.38500214 -0.12948649 0.09258304
-0.33886033 -0.43743578 0.00000205
-0.05931272 0.32217649 0.00000520
-0.41388878 -0.19885544 -0.01486550
-0.01789535 -0.39745620 0.00000011
-0.24226028 0.04979470 0.00000321
-0.42715171 -0.23125386 0.28884971
-0.58495206 -0.73595309 0.00000353
-0.13139401 -0.10923111 0.00000079
-0.02915607 0.19815090 0.00000806
-0.56378782 -0.72783309 0.00000340
-0.12112785 -0.51218671 0.00000073
-0.05273101 -0.51125580 0.00000032
-0.10228222 0.44032919 0.00000200
-0.33811539 -0.01629362 0.24134102
-0.26740915 0.15440945 0.18045197
-0.60783136 -0.66516298 -0.09829240
-0.22702269 0.25191638 0.09984878
-0.30808172 0.06222376 -0.26248050
-0.28293374 -0.40565950 0.00000171
-0.19436251 0.15531829 0.00000322
-0.23991314 0.22079821 0.07659757
-0.53763884 -0.49798858 0.14974409
-0.04703191 0.27745548 0.00000628
-0.07214083 -0.36651641 0.00000044
-0.50045300 -0.40798616 -0.00825136
-0.63198757 -0.72328818 -0.10679216
-0.08682775 -0.40514833 0.00000052
-0.47463441 -0.56920141 0.00000286
-0.21108279 -0.14072467 0.00000127
-0.05036468 -0.19610249 0.00000030
-0.04969377 0.24930269 0.00000661
-0.17918345 -0.76699221 0.00000108
-0.07314760 0.62340522 0.03318384
-0.22755136 -0.08732915 0.00000137
-0.46856290 -0.53771454 0.00000283
-0.00354914 -0.65088862 -0.00000002
-0.40382767 -0.17367975 -0.05376506
-0.48156965 -0.36262310 0.10996304
-0.09536599 0.56976831 0.00180760
-0.15109599 0.43877706 -0.15563390
-0.40394744 -0.16618913 -0.39511478
-0.31601104 0.04450873 -0.32513753
-0.15022147 0.43732902 0.10027978
-0.41989711 -0.20471419 -0.39423850
-0.18808804 -0.50952595 0.00000114
-0.21174689 0.16129202 0.00000255
-0.44150171 -0.26589972 0.32816902
-0.23786587 0.22574420 0.03230785
-0.24441455 -0.66808105 0.00000148
-0.17464165 -0.18200877 0.00000105
-0.08379274 0.01566506 0.00000898
-0.62587529 -0.71100742 0.07760807
-0.07059514 0.48430595 0.00000239
-0.38117963 -0.11373464 -0.28495470
-0.22161762 -0.34934345 0.00000134
-0.23746596 -0.51719540 0.00000143
-0.03375620 0.71883208 -0.01425324
-0.04034204 0.42504534 0.00000429
-0.14729375 0.12683687 0.00000521
-0.23254251 -0.05908644 0.00000140
-0.35871506 -0.32048267 0.00000216
-0.31326288 0.04370679 0.21942791
-0.47966227 -0.35802060 0.16261812
-0.37643999 -0.10645616 -0.10226194
-0.47003737 -0.33420771 -0.02361822
-0.00483934 -0.20941263 0.00000003
-0.13659720 0.47336781 -0.13757133
-0.60735118 -0.66628450 0.02674960
-0.21133272 0.29259884 -0.12238992
-0.11566726 -0.27259627 0.00000070
-0.11948408 -0.75457919 0.00000072
-0.10523939 -0.77738088 0.00000064
-0.19200145 0.33756962 -0.04786995
-0.25071761 -0.19713032 0.00000151
-0.07846124 -0.72985554 0.00000047
-0.38756514 -0.13471381 -0.04084539
-0.07893539 -0.46784371 0.00000048
-0.24002393 0.09362991 0.00000263
-0.17559801 -0.37044537 0.00000106
-0.43808222 -0.25763392 0.09497642
-0.32032704 -0.75305933 0.00000193
-0.01003832 0.68987423 0.00000132
-0.16899133 -0.56346059 0.00000102
-0.05522808 0.30385506 0.00000561
-0.41325289 -0.19631077 -0.05916128
-0.34258908 -0.02676951 -0.01297767
-0.05638570 -0.39139727 0.00000034
-0.42763865 -0.23058581 -0.07910277
-0.10019249 0.21827522 0.00000540
-0.00779298 0.61414295 0.00000253
-0.03181247 -0.00534579 0.00000019
-0.41121802 -0.19277769 0.09602670
-0.39473373 -0.15103453 -0.08408145
-0.17785360 -0.08284096 0.00000107
-0.24074742 -0.17122318 0.00000145
-0.05421314 -0.45455885 0.00000033
-0.30508825 -0.64775282 0.00000184
-0.66823393 -0.81014264 -0.13546906
-0.36063239 -0.47721791 0.00000218
-0.44867256 -0.28320611 0.19990617
-0.16041082 0.41302586 -0.01238948
-0.44640473 -0.27772695 0.10832394
-0.22020511 0.26836571 0.22151536
-0.16069864 0.41204017 0.03669011
-0.55868870 -0.68936515 0.00000337
-0.11743836 -0.16208720 0.00000071
-0.36448136 -0.41876677 0.00000220
-0.10261357 -0.47523752 0.00000062
-0.32842055 -0.35097402 0.00000198
-0.64521503 -0.75705421 -0.02627816
-0.16201450 0.10483764 0.00000505
-0.27657267 0.13385426 -0.06773575
-0.35494399 -0.04882024 -0.35415488
-0.37089220 -0.09036698 -0.22054997
-0.11167010 0.11982355 0.00000650
-0.03723260 0.17095572 0.00000820
-0.40399605 -0.17535397 0.35963008
-0.57153583 -0.57778239 -0.08763275
-0.42441326 -0.22464293 0.29634476
-0.52494335 -0.46734229 0.26425761
-0.16612884 0.40092760 -0.08726280
-0.17167339 0.38554549 0.03111109
-0.29327518 0.09739418 -0.23725137
-0.45077327 -0.28827074 0.04468333
-0.07862021 -0.13590512 0.00000047
-0.37211922 -0.08931691 -0.39659539
-0.10340980 0.33179680 0.00000359
-0.35711378 -0.23648979 0.00000216
-0.22434735 0.25836727 0.19972035
-0.19445845 0.33053648 0.05072982
-0.34614435 -0.26920325 0.00000209
-0.05601667 0.15179966 0.00000786
-0.14610547 -0.74641997 0.00000088
-0.53779060 -0.49526498 -0.13374694
-0.26921597 -0.18182349 0.00000162
-0.42808157 -0.22487520 -0.37658271
-0.01239056 -0.58901674 0.00000007
-0.14048502 0.46083629 0.07950235
-0.11023466 0.53387117 0.01887453
-0.07587758 -0.63147581 0.00000046
-0.68005818 -0.83900750 -0.12147337
-0.34720457 -0.27731472 0.00000210
-0.38807213 -0.13690640 0.27805689
-0.35780573 -0.06382560 0.03478987
-0.28205669 0.12362922 -0.20002845
-0.06994424 0.42202619 0.00000335
-0.50609678 -0.41903707 -0.12119537
-0.26327723 0.16437680 0.28055474
-0.40423250 -0.17591152 0.06089890
-0.45549744 -0.29968920 0.35789418
-0.13166574 0.48213074 0.04135602
-0.42127424 -0.21706375 0.27636522
-0.35441327 -0.78475732 0.00000214
-0.21920498 -0.42406729 0.00000132
-0.26820514 0.15248312 0.23971789
-0.21368542 0.28680518 -0.11739315
-0.22245522 0.26294708 0.04962204
-0.22717831 0.25153100 0.22269636
-0.22486806 0.16195704 0.00000211
-0.32378754 -0.78767622 0.00000195
-0.31684303 0.03505456 0.33418873
-0.44938010 -0.27837291 -0.28533527
-0.23468722 0.23885985 -0.23836260
-0.06568350 0.13136299 0.00000785
-0.17135131 0.38631842 0.08946916
-0.41221023 -0.19518366 0.33223715
-0.05235655 0.61283606 0.00000107
-0.06369161 -0.03798047 0.00000038
-0.07193889 -0.43542272 0.00000043
-0.11463550 -0.11312459 0.00000069
-0.49984729 -0.66682899 0.00000302
-0.33920434 -0.01078528 -0.35577992
-0.24639659 0.20984964 -0.20579736
-0.54901797 -0.52499163 -0.01870307
-0.23503698 0.23318654 -0.02642346
-0.60436207 -0.78032976 0.00000365
-0.06988815 0.63127387 0.03712585
-0.02783863 -0.49646148 0.00000017
-0.24657759 0.20983292 -0.22424103
-0.02094716 0.42769936 0.00000489
-0.22166581 -0.65059149 0.00000134
-0.04393206 -0.14979798 0.00000027
-0.35657787 -0.06086711 0.26107061
-0.21264353 -0.22527793 0.00000128
-0.04563438 0.66247600 0.00000055
-0.50575882 -0.42102271 0.14343049
-0.20031694 0.31819803 -0.07873743
-0.17159355 -0.03416381 0.00000104
-0.35127822 -0.33584100 0.00000212
-0.07413658 -0.36171255 0.00000045
-0.51797175 -0.73467106 0.00000313
-0.26770857 0.15727974 -0.15666263
-0.06497678 -0.61941558 0.00000039
-0.16580214 -0.74114001 0.00000100
-0.29969472 -0.74199790 0.00000181
-0.06267708 -0.32088652 0.00000038
-0.06436522 -0.13548863 0.00000039
-0.23903792 -0.10197507 0.00000144
-0.44875434 -0.50673366 0.00000271
-0.42567924 -0.22769807 0.26926792
-0.00496753 -0.21942513 0.00000003
-0.14097635 0.11612897 0.00000558
-0.35535109 -0.05790197 0.21739464
-0.49312398 -0.39051524 0.05142645
-0.00759640 -0.07952701 0.00000005
-0.34963173 -0.04409343 0.20613469
-0.09030310 0.58198893 0.02891333
-0.35624519 -0.06006223 0.12749317
-0.35819986 -0.06478347 0.26831055
-0.41620937 -0.20483060 0.15573215
-0.29060102 -0.23046377 0.00000175
-0.50337166 -0.64548987 0.00000304
-0.44506142 -0.26609841 -0.36644545
-0.09967875 -0.22854058 0.00000060
-0.22342354 0.26060033 0.16405305
-0.46688035 -0.32716197 0.15890431
-0.07942227 0.40120715 0.00000335
-0.12585168 -0.02265257 0.00000076
-0.16468848 -0.06749473 0.00000099
-0.07259079 -0.19888993 0.00000044
-0.47938442 -0.53926593 0.00000289
-0.61786675 -0.69167250 0.05010635
-0.11756466 0.51678884 -0.02668653
-0.55847722 -0.54829818 0.24885891
-0.42709202 -0.52134848 0.00000258
-0.12646499 0.20278689 0.00000476
-0.26365358 -0.20338362 0.00000159
-0.23550522 -0.55507082 0.00000142
-0.33332294 -0.00472121 0.20939003
-0.48135039 -0.36209822 0.21022666
-0.25498775 -0.22745147 0.00000154
-0.35198376 -0.34349367 0.00000212
-0.21027306 0.02142123 0.00000470
-0.00347628 0.64953142 0.00000214
-0.40766031 -0.17450026 -0.42373726
-0.16552053 0.11727098 0.00000475
-0.24043737 0.21952149 0.21750996
-0.47960177 -0.75184339 0.00000289
-0.09130487 -0.03136996 0.00000055
-0.10079893 -0.52464604 0.00000061
-0.40106070 -0.59016705 0.00000242
-0.05158177 -0.22037211 0.00000031
-0.09376989 -0.78347152 0.00000057
-0.14390516 -0.72197753 0.00000087
-0.23166306 -0.66996837 0.00000140
-0.47770575 -0.35329774 0.17694306
-0.28408602 -0.35367563 0.00000171
-0.03150037 -0.34298477 0.00000019
-0.20842367 0.29681396 0.14976905
-0.05041592 0.46738470 0.00000332
-0.09864030 -0.08819745 0.00000060
-0.00304067 -0.64501452 0.00000002
-0.45514143 -0.29848677 -0.01307643
-0.32504433 -0.65177852 0.00000196
-0.44268879 -0.26875430 0.07398119
-0.21285532 0.28612110 0.07392732
-0.27329969 -0.60636306 0.00000165
-0.41469374 -0.20117243 0.17547601
-0.21281619 0.28620911 0.15620673
-0.09380419 -0.19997105 0.00000057
-0.16195276 0.41018519 -0.05109212
-0.19660136 -0.73879778 0.00000119
-0.07433187 0.62108719 -0.02351571
-0.41057423 -0.18152344 -0.42424604
-0.40101445 -0.16814014 0.01016436
-0.24830770 0.20053266 0.06999965
-0.06964817 0.23525989 0.00000616
-0.19492707 0.33238518 -0.13031438
-0.20983501 0.29340559 0.16442049
-0.24416418 -0.56748241 0.00000147
-0.63395202 -0.73050588 0.05860220
-0.23671728 0.22851568 0.05031289
-0.39261505 -0.27510870 0.00000237
-0.09897326 -0.08512442 0.00000060
-0.32981908 0.00374779 0.08220479
-0.01728997 0.28591034 0.00000714
-0.31609249 -0.49772832 0.00000191
-0.12362906 -0.46765551 0.00000075
-0.02781997 -0.20083746 0.00000017
-0.20433925 0.30667642 0.12606733
-0.08318423 0.60052860 -0.05916877
-0.20915714 0.29986933 -0.21097171
-0.33842683 -0.01078471 -0.27342281
-0.01166690 0.11153291 0.00000994
-0.09543003 0.00836879 0.00000871
-0.30659041 -0.63459671 0.00000185
-0.05891089 -0.51390129 0.00000036
-0.05302541 0.67198497 0.02118834
-0.14164223 -0.54550052 0.00000085
-0.15151337 0.43577084 -0.06791696
-0.07894726 0.61043006 -0.04480675
-0.10474767 0.23802067 0.00000495
-0.25260428 0.19413479 -0.17382136
-0.27315342 -0.78430223 0.00000165
-0.21792749 0.27906749 -0.22726028
-0.24076883 0.21872398 0.18353219
-0.13334078 0.01910907 0.00000729
-0.05158485 0.59241420 0.00000140
-0.40515459 -0.17814980 0.33392087
-0.39539704 -0.59282625 0.00000239
-0.11157574 -0.29846436 0.00000067
-0.09068717 0.58105826 0.07277460
-0.30382386 -0.06034756 0.00000183
-0.46589449 -0.71209902 0.00000281
-0.08083746 0.06057144 0.00000841
-0.18852916 0.34485334 0.01971692
-0.47142541 -0.33812848 0.01703660
-0.21098350 0.29481879 -0.18281993
-0.62474036 -0.70826662 0.04247995
-0.23056154 0.15751787 0.00000198
-0.02545475 0.73885107 -0.01328722
-0.16077869 0.41347852 -0.07123471
-0.00344767 -0.73740757 0.00000002
-0.07218489 0.19868353 0.00000662
-0.19738819 -0.63259763 0.00000119
-0.58799529 -0.61667913 -0.12444767
-0.22657739 0.10697697 0.00000287
-0.03546383 0.60609555 0.00000173
-0.00248334 -0.58111650 -0.00000001
-0.64786297 -0.76408905 0.09497721
-0.23556177 -0.24920294 0.00000142
-0.59907675 -0.64563346 -0.02783683
-0.34994787 -0.03912794 -0.25017604
-0.27574340 0.02592805 0.00000246
-0.15701519 -0.41360325 0.00000095
-0.49529430 -0.38939685 -0.27745256
-0.38584077 -0.13111559 -0.01607105
-0.07804305 -0.25845656 0.00000047
-0.51806277 -0.45072562 0.10660723
-0.01727689 0.15388674 0.00000912
-0.41850585 -0.21015725 -0.00804499
-0.03713753 -0.26611051 0.00000022
-0.32668322 0.01808015 -0.29598209
-0.24382567 0.21134809 0.13395616
-0.45834395 -0.30655456 0.19010982
-0.44368929 -0.36581644 0.00000268
-0.16905659 -0.60103583 0.00000102
-0.32151163 0.02978975 -0.26194844
-0.00244939 0.36888584 0.00000639
-0.35672560 -0.67728049 0.00000215
-0.38592574 -0.76032627 0.00000233
-0.30375078 0.07087923 -0.18347692
-0.41628489 -0.20501840 0.27831379
-0.59071302 -0.62194860 -0.18122341
-0.00843272 0.32543889 0.00000684
-0.47665122 -0.34319088 -0.33007568
-0.19513597 -0.21593860 0.00000118
-0.17622453 0.37454605 0.18469796
-0.50030357 -0.71632189 0.00000302
-0.38961673 -0.14062886 0.13159084
-0.53917438 -0.69684994 0.00000325
-0.55421340 -0.73946708 0.00000334
-0.31762996 0.03315724 0.30296728
-0.07101535 -0.16374916 0.00000043
-0.13100393 -0.19330093 0.00000079
-0.12541978 0.00314694 0.00000779
-0.17075022 0.17004120 0.00000378
-0.24647240 -0.22796193 0.00000149
-0.08908179 0.08381570 0.00000779
-0.11066106 -0.37534666 0.00000067
-0.04148753 0.52028161 0.00000282
-0.11380430 -0.79540235 0.00000069
-0.45196909 -0.29116514 0.21134256
-0.08010077 -0.16256692 0.00000048
-0.25829542 -0.18392511 0.00000156
-0.12902282 -0.05326121 0.00000078
-0.28506544 -0.58040947 0.00000172
-0.19368850 -0.15140086 0.00000117
-0.03926400 0.21696207 0.00000744
-0.20281449 0.31519553 -0.21159028
-0.29807091 -0.47312459 0.00000180
-0.20871183 0.12361836 0.00000322
-0.53897142 -0.50120175 0.05979668
-0.14681005 0.09809035 0.00000566
-0.42683858 -0.65489274 0.00000258
-0.13808610 -0.04443691 0.00000083
-0.27184072 0.14834252 -0.20223913
-0.25392717 -0.06600023 0.00000153
-0.35032386 -0.04535929 -0.01662945
-0.24877881 0.20531049 -0.25898564
-0.46787646 -0.61519533 0.00000282
-0.37780747 -0.10830767 -0.16587490
-0.04051806 -0.32015863 0.00000024
-0.37014079 -0.09361276 0.20341662
-0.19318993 0.33360261 0.00394012
-0.11386081 0.52612805 -0.04413454
-0.47243252 -0.33453819 -0.26282623
-0.28181857 0.11962886 0.09831393
-0.13727126 0.47115630 -0.11193024
-0.44483069 -0.26636699 -0.33021697
-0.29947224 0.07701298 0.05465944
-0.09436744 -0.27283335 0.00000057
-0.21411784 -0.62490273 0.00000129
-0.23642524 0.22920790 0.21296307
-0.12223204 0.50490367 0.06373666
-0.46927941 -0.33295324 0.14551653
-0.59992224 -0.64703059 -0.05609361
-0.43409836 -0.24063927 -0.32223821
-0.37326375 -0.09643321 -0.20559210
-0.39899459 -0.16327459 0.25246570
-0.01700462 -0.77341795 0.00000010
-0.26604882 0.15768567 0.28029802
-0.40874985 -0.42652035 0.00000247
-0.19174039 0.33708879 0.17249706
-0.18942246 0.23112112 0.00000225
-0.07624990 0.40498132 0.00000339
-0.32590079 0.01320745 0.08015138
-0.37594458 -0.09874270 -0.38822287
-0.20933530 0.29461128 0.17326833
-0.21238849 -0.63426459 0.00000128
-0.23522243 0.23224162 -0.00460075
-0.00086813 -0.50778669 -0.00000001
-0.18683526 -0.32828492 0.00000113
-0.42290464 -0.22099400 0.14438032
-0.32011971 0.02852418 -0.05892191
-0.06236087 -0.73398024 0.00000038
-0.10433882 -0.03883682 0.00000063
-0.36686110 -0.71654785 0.00000221
-0.08475411 -0.04618735 0.00000051
-0.48906711 -0.78605479 0.00000295
-0.22591487 0.25619808 -0.06984500
-0.12454915 0.50040603 -0.04770242
-0.30728295 -0.20804332 0.00000185
-0.26523450 0.16197453 -0.10057256
-0.45301756 -0.29368758 0.01323786
-0.23931366 0.22619705 -0.17279793
-0.43060201 -0.23290558 -0.29121456
-0.46406630 -0.73425388 0.00000280
-0.35693979 -0.06174004 0.14703256
-0.32633489 0.01214462 0.26801062
-0.32379857 0.01834332 -0.00188627
-0.39587331 -0.30140132 0.00000239
-0.22363549 0.13458909 0.00000256
-0.18749306 0.34791207 -0.02410426
-0.02969085 -0.65536624 0.00000018
-0.28575581 0.11254286 -0.10539770
-0.43131635 -0.24131234 0.38788673
-0.09816269 0.56301063 0.07671653
-0.61759424 -0.69101572 0.13718455
-0.47251508 -0.46168375 0.00000285
-0.11714205 0.07433361 0.00000700
-0.12381652 0.07917389 0.00000670
-0.33705333 -0.01357701 -0.00544454
-0.34504455 -0.03302697 0.30517590
-0.04758930 -0.23408256 0.00000029
-0.09570212 0.56894898 0.10126648
-0.40273240 -0.17230093 0.30715644
-0.17548206 -0.62857270 0.00000106
-0.43705249 -0.55989736 0.00000264
-0.17277920 -0.21237274 0.00000104
-0.16487917 -0.78562766 0.00000100
-0.26340011 -0.25520092 0.00000159
-0.01791273 0.70449364 0.00000084
-0.22355878 -0.13082059 0.00000135
-0.00274118 -0.03276708 -0.00000002
-0.06628340 0.38234299 0.00000406
-0.00011302 -0.56142592 0.00000000
-0.37627205 -0.10842313 0.39508158
-0.54347509 -0.51207721 0.11775761
-0.13886905 -0.55471361 0.00000084
-0.09308774 0.51056874 0.00000125
-0.23713256 -0.31026635 0.00000143
-0.31803992 -0.16654973 0.00000192
-0.57319832 -0.58383507 0.10175480
-0.25727603 -0.25316429 0.00000155
-0.28275731 0.11735274 0.22301421
-0.47179642 -0.33902547 0.04666931
-0.06409762 0.25921577 0.00000598
-0.44610181 -0.27699566 0.10915958
-0.39579931 -0.15339454 -0.09340623
-0.04339214 -0.51733512 0.00000026
-0.20472214 -0.04055005 0.00000124
-0.44167107 -0.26629436 0.00877531
-0.28390440 0.11458404 0.21534266
-0.16431774 -0.43442947 0.00000099
-0.12446302 -0.21929516 0.00000075
-0.02166974 0.59202087 0.00000240
-0.53338897 -0.48457950 -0.13634671
-0.46809536 -0.32855901 -0.06575697
-0.47297916 -0.33862787 -0.14128673
-0.21480770 0.28139609 0.22090794
-0.16030376 -0.28557366 0.00000097
-0.40009227 -0.16592412 0.24178351
-0.38377008 -0.48707861 0.00000232
-0.30749241 0.05763856 0.21002759
-0.48766914 -0.75815874 0.00000294
-0.01845667 -0.60659057 0.00000011
-0.57879966 -0.70980477 0.00000349
-0.21811175 0.27343231 0.05838912
-0.52002704 -0.45109186 -0.19030586
-0.43947530 -0.26100910 0.36295700
-0.55049831 -0.78800058 0.00000332
-0.09747139 0.56468481 0.01019910
-0.51759207 -0.44959143 0.15547758
-0.50945646 -0.42994863 0.12011061
-0.01736573 -0.39640820 0.00000010
-0.33132303 0.00010226 0.26905152
-0.56427491 -0.56228954 0.04784218
-0.52360916 -0.76003987 0.00000316
-0.09933630 -0.22955304 0.00000060
-0.12508766 -0.09344314 0.00000075
-0.11163213 -0.65796816 0.00000067
-0.21236925 0.28729668 0.04761547
-0.34908137 -0.62770218 0.00000211
-0.19781405 0.32703146 -0.20123570
-0.22129285 0.27041432 -0.20405802
-0.39373589 -0.14746676 -0.13492692
-0.13333325 0.28292516 0.00000333
-0.44634151 -0.27758539 0.36395022
-0.10450891 0.30355778 0.00000398
-0.32908595 0.00551567 0.10828878
-0.31583324 -0.74201858 0.00000191
-0.32109895 -0.71236295 0.00000194
-0.02749030 -0.72151428 0.00000017
-0.32827416 -0.39839080 0.00000198
-0.14450336 0.45113137 0.12898523
-0.59859091 -0.75256282 0.00000361
-0.35051903 -0.04624817 0.36585087
-0.49031025 -0.78542900 0.00000296
-0.47348467 -0.34309939 0.00389720
-0.20723079 -0.77388936 0.00000125
-0.36170253 -0.07324857 0.38234946
-0.34598380 -0.02936839 -0.25850222
-0.30416936 0.06830504 -0.11484804
-0.18473177 -0.56795979 0.00000111
-0.42703381 -0.23097001 0.30681717
-0.09111267 0.54172075 0.00000085
-0.39648998 -0.74001634 0.00000239
-0.34778979 -0.03964411 0.01741423
-0.21718518 -0.02112489 0.00000131
-0.22343002 0.26325858 -0.11644194
-0.30410311 -0.09746721 0.00000184
-0.49843785 -0.68126100 0.00000301
-0.55126673 -0.64674401 0.00000333
-0.38583308 -0.12753502 -0.17235956
-0.42266542 -0.21528691 -0.22357561
-0.43772864 -0.25636375 -0.01683834
-0.13928913 0.46372035 0.11837115
-0.11570058 0.52066952 0.09359197
-0.30251831 0.07340973 -0.16395167
-0.30096686 0.07338809 0.26508671
-0.56341356 -0.56021011 0.04882247
-0.10772719 0.25079113 0.00000466
-0.57698828 -0.59298444 0.09151665
-0.09073738 0.58220571 -0.05528879
-0.22767629 0.08465622 0.00000317
-0.53632617 -0.49443501 -0.01504351
-0.53517669 -0.49204710 0.20957477
-0.34657565 -0.59804338 0.00000209
-0.24516660 0.21209905 -0.17419730
-0.25121558 0.19351101 0.08887349
-0.12230557 -0.57125843 0.00000074
-0.29262298 -0.76699769 0.00000177
-0.08256722 0.60066336 0.04729514
-0.34293655 -0.02793343 0.24929968
-0.46302688 -0.31786636 0.32743871
-0.24534394 0.20768745 0.07406002
-0.15112010 -0.17793332 0.00000091
-0.16163833 0.25700328 0.00000278
-0.63054550 -0.71997476 -0.09940509
-0.32996535 0.00662421 -0.14094746
-0.48952639 -0.38183543 0.17660885
-0.40461719 -0.17685097 0.30113816
-0.17342938 -0.68431008 0.00000105
-0.12059687 0.08714473 0.00000669
-0.39743084 -0.15722468 -0.09817191
-0.54371113 -0.51264715 0.12047454
-0.10007170 0.05878871 0.00000780
-0.31342334 -0.62187177 0.00000189
-0.37922898 -0.11271181 -0.12320972
-0.09437103 0.14545996 0.00000669
-0.04866642 -0.14730644 0.00000029
-0.18831132 -0.10378808 0.00000114
-0.19864240 -0.60437274 0.00000120
-0.02285438 0.44119957 0.00000462
-0.01780848 -0.26009402 0.00000011
-0.46382007 -0.31945905 -0.01217025
-0.01853254 0.38339874 0.00000563
-0.25265267 0.19003816 0.13247892
-0.33871484 -0.18403161 0.00000204
-0.13268748 0.48154163 -0.08205825
-0.04479490 0.22159787 0.00000719
-0.34943303 -0.03571896 -0.34524500
-0.43989658 -0.25376517 -0.36049700
-0.36919275 -0.09131841 0.07856942
-0.20221087 0.31435099 -0.11056677
-0.55635148 -0.53857470 -0.19956724
-0.48771337 -0.37276921 -0.20400520
-0.21729463 -0.79532909 0.00000131
-0.43593368 -0.24848938 -0.17220749
-0.31341881 -0.71163058 0.00000189
-0.44522384 -0.27468708 -0.00680312
-0.06824096 0.04129606 0.00000912
-0.29991525 0.07592855 0.24402924
-0.01251128 0.53051215 0.00000363
-0.20271960 0.07266048 0.00000418
-0.27864176 -0.08938443 0.00000168
-0.31982940 0.02786600 0.06658924
-0.11231840 -0.53557658 0.00000068
-0.02708607 -0.56150913 0.00000016
-0.00500345 0.08302621 0.00001059
-0.26900163 -0.38982934 0.00000162
-0.09175100 -0.19240987 0.00000055
-0.17293490 0.26709360 0.00000225
-0.17048606 -0.18988492 0.00000103
-0.19325164 0.33344069 0.16830678
-0.48945439 -0.37629601 -0.23367883
-0.27902424 0.13016373 -0.16551819
-0.16105315 -0.31354058 0.00000097
-0.10208952 0.01635815 0.00000837
-0.00625605 0.48337498 0.00000454
-0.36778584 -0.36482501 0.00000222
-0.23428574 0.05062252 0.00000346
-0.05200989 0.67493922 -0.02190578
-0.08490843 -0.39946809 0.00000051
-0.13589858 -0.01013677 0.00000082
-0.00187687 0.11897882 0.00001015
-0.02831699 0.07994729 0.00000986
-0.10702857 -0.52270049 0.00000065
-0.13496172 0.47416905 0.09894605
-0.15748493 0.41979194 0.12217575
-0.28105521 -0.12608762 0.00000170
-0.22950265 0.24592577 0.14416769
-0.57295758 -0.57953894 -0.16117923
-0.46127903 -0.31290457 -0.03059978
-0.42787635 -0.69864720 0.00000258
-0.34768975 -0.03775366 -0.07132032
-0.03934700 0.45358369 0.00000389
-0.67412370 -0.82748652 0.10227808
-0.40144959 -0.16920801 0.39901403
-0.33855826 -0.01409767 -0.14194481
-0.25885546 0.17526647 -0.00805112
-0.28032833 0.12647501 -0.14179903
-0.28745419 0.10602495 0.07892905
-0.00418656 0.47082135 0.00000480
-0.07093892 -0.13970745 0.00000043
-0.23314527 0.24084030 -0.16190341
-0.38686240 -0.56513119 0.00000233
-0.29000464 0.10393017 -0.17757982
-0.48755366 -0.37240410 -0.20310695
-0.48142210 -0.68739963 0.00000291
-0.18293314 0.35836071 0.05133964
-0.17936912 0.36695975 0.11720586
-0.06439442 0.64453518 0.05720504
-0.42299291 -0.21324104 -0.34803331
-0.23971374 0.22166197 -0.01614613
-0.16766517 -0.55928808 0.00000101
-0.44277725 -0.26897529 0.24139206
-0.18295912 -0.40045309 0.00000110
-0.34715742 -0.64606231 0.00000210
-0.41076931 -0.19170149 0.25388521
-0.11414608 -0.60903823 0.00000069
-0.38757342 -0.49684381 0.00000234
-0.48129413 -0.36196634 0.31939319
-0.16017158 -0.48870495 0.00000097
-0.03219802 -0.15402927 0.00000019
-0.02391819 -0.40245491 0.00000014
-0.39166385 -0.79570729 0.00000236
-0.32256421 0.02225973 -0.04298757
-0.17770202 0.03668298 0.00000555
-0.29285330 -0.40502584 0.00000177
-0.47598705 -0.34915423 0.31950572
-0.33003005 -0.53131771 0.00000199
-0.30562171 0.06538937 -0.14076678
-0.34511927 -0.24108551 0.00000208
-0.08366068 -0.60081637 0.00000050
-0.41215250 -0.78981036 0.00000249
-0.21187803 -0.45991400 0.00000128
-0.02329426 0.69126004 0.00000086
-0.21279383 -0.53424037 0.00000128
-0.34524629 -0.35105190 0.00000208
-0.02251170 -0.77252531 0.00000014
-0.29811135 0.08029886 0.04938486
-0.05844514 0.34860435 0.00000483
-0.38197184 -0.12217809 0.32645357
-0.21308428 0.28555810 0.20398878
-0.41324395 -0.19613627 -0.06587049
-0.14946644 -0.44083363 0.00000090
-0.22781323 0.25000229 0.17047927
-0.03324510 0.38389939 0.00000514
-0.21659677 -0.51898825 0.00000131
-0.52494395 -0.46671793 -0.02550988
-0.41574422 -0.20311479 -0.02451814
-0.37991580 -0.11632489 -0.03743225
-0.08496102 -0.15929784 0.00000051
-0.12605689 0.49824539 -0.11262773
-0.25137359 -0.24078256 0.00000152
-0.37013084 -0.09358733 0.17167522
-0.18405549 -0.74820435 0.00000111
-0.46487120 -0.75124794 0.00000281
-0.23047403 0.24357930 0.16193917
-0.32817164 -0.49374202 0.00000198
-0.07834900 0.41515988 0.00000317
-0.21951830 0.27176017 -0.07510375
-0.17355762 -0.65623009 0.00000105
-0.45928702 -0.30850783 -0.01250891
-0.17491142 -0.47845763 0.00000106
-0.62312049 -0.70435691 0.14534836
-0.30481398 -0.16831402 0.00000184
-0.57056457 -0.76978815 0.00000344
-0.38319981 -0.12514488 0.30890703
