ply
format ascii 1.0
element vertex 465
property float x
property float y
property float z
end_header
-0.77023292 -0.66600984 0.06238646
-0.75006765 -0.60650331 0.06410200
-0.65563422 -0.24863841 0.08468987
-0.73818785 -0.61248106 0.05860797
-0.51315755 0.13817319 0.09147781
-0.49627072 -0.15200195 0.03901922
-0.44833410 -0.18484788 0.01546695
-0.13053209 0.64466774 0.02533510
-0.75851560 -0.80089557 0.03652040
-0.45154572 0.18501963 0.07532434
-0.47280580 -0.03254362 0.04897533
-0.78925580 -0.76277417 0.05432770
-0.44893366 0.28317592 0.08988577
-0.44848371 -0.25948659 0.00369266
-0.77100205 -0.39209884 0.10610063
-0.72784901 -0.06610213 0.14126207
-0.15325470 0.46065050 0.00485856
-0.76421773 -0.44383743 0.09530274
-0.64664835 -0.28978100 0.07472910
-0.15172280 0.62971985 0.03107552
-0.35899743 0.15865719 0.03572469
-0.26903608 0.41546571 0.04200736
-0.78312802 -0.61693412 0.07510085
-0.76028949 -0.68960959 0.05484010
-0.21767028 0.55254161 0.04407972
-0.71970332 -0.34891036 0.09331455
-0.32753780 0.29526895 0.04534200
-0.69434714 -0.27969381 0.09458268
-0.72813851 -0.55823517 0.06336100
-0.60159248 -0.01613749 0.10086333
-0.18577255 0.48109123 0.02054442
-0.48934627 0.22479875 0.09609781
-0.59718698 -0.47291529 0.02676995
-0.39841336 0.04458155 0.03272518
-0.42622271 -0.08863036 0.02225700
-0.45826104 -0.21466759 0.01453910
-0.38604450 0.22033320 0.05585397
-0.56842124 -0.41399735 0.02510068
-0.48357102 0.25431278 0.09856648
-0.48120925 -0.33500871 0.00424529
-0.33541474 0.21407899 0.03548531
-0.71472424 -0.03338055 0.14142610
-0.36443835 0.05229924 0.02094569
-0.76432145 -0.03046094 0.16087002
-0.72985536 -0.42796642 0.08466798
-0.48510128 0.22132087 0.09392180
-0.65234768 -0.62087399 0.02442616
-0.59239954 -0.58463877 0.00722761
-0.46343350 -0.29414055 0.00392075
-0.44361049 0.08864387 0.05700851
-0.47930342 -0.02168444 0.05318337
-0.60882735 -0.41113564 0.04101794
-0.57344222 -0.33789274 0.03908617
-0.53489822 0.20416117 0.11025982
-0.60919052 -0.41571689 0.04043072
-0.72705847 -0.27335370 0.10810648
-0.61240524 -0.48882881 0.03007148
-0.62833345 -0.32887200 0.06152327
-0.65238905 -0.00740472 0.12168578
-0.41445127 0.34638429 0.08670927
-0.29708636 0.43799809 0.05631498
-0.31740999 0.15575172 0.01934762
-0.55905396 -0.12857446 0.06676035
-0.67763388 -0.26747629 0.09012312
-0.36690453 0.09225620 0.02822409
-0.76205122 -0.62745804 0.06536645
-0.53781694 -0.44980913 0.00771146
-0.69680536 0.04554262 0.14707887
-0.06725197 0.67590040 0.00606782
-0.46166128 -0.14449251 0.02696438
-0.40020618 -0.13233835 0.00537185
-0.68218833 -0.26886329 0.09164626
-0.40780959 0.03590748 0.03494619
-0.68657053 -0.08229225 0.12289816
-0.25267008 0.35556024 0.02624666
-0.15434299 0.45083362 0.00371876
-0.45597166 -0.22213914 0.01247856
-0.48165971 -0.03236648 0.05239184
-0.33517766 0.23410714 0.03856972
-0.16906473 0.55488026 0.02584804
-0.27086487 0.41380811 0.04244449
-0.45724466 -0.07411949 0.03642948
-0.38213459 0.01320827 0.02152118
-0.30275065 0.24721195 0.02823673
-0.41558427 0.22225183 0.06746366
-0.45235762 0.07885165 0.05880383
-0.68986028 -0.25902164 0.09614242
-0.55555052 -0.53828114 0.00047380
-0.55489582 -0.44601941 0.01484836
-0.53634000 0.17457063 0.10612050
-0.58278161 -0.37348092 0.03701904
-0.42972168 -0.01227507 0.03569973
-0.76248509 -0.11856499 0.14620116
-0.52522427 -0.09447765 0.05921850
-0.66787159 -0.70088148 0.01768463
-0.28928792 0.44945756 0.05514707
-0.21696813 0.50628567 0.03647785
-0.68279618 -0.51186615 0.05335862
-0.63030869 -0.17303365 0.08698234
-0.32238007 0.23816656 0.03431535
-0.51139909 0.25677866 0.10960784
-0.69604188 0.01224315 0.14150757
-0.72792405 -0.26255587 0.11014939
-0.59264898 -0.49920419 0.02086598
-0.42808840 0.34314233 0.09141454
-0.21540724 0.41460672 0.02134622
-0.30899319 0.20074376 0.02325909
-0.20552714 0.51256973 0.03309536
-0.28063777 0.14952514 0.00428695
-0.55041814 0.13288368 0.10489972
-0.21363249 0.33566901 0.00815267
-0.67581624 -0.07471541 0.11998350
-0.34780121 0.03434969 0.01173267
-0.69664782 -0.40744764 0.07521191
-0.64215088 -0.37561038 0.05940241
-0.56610298 -0.24558911 0.05090916
-0.24843965 0.33945239 0.02207394
-0.18782113 0.49352407 0.02329948
-0.42423889 0.19717231 0.06680002
-0.39091727 0.12878633 0.04320558
-0.74822783 -0.44289935 0.08933206
-0.72914982 -0.59077054 0.05859059
-0.49934816 -0.03155435 0.05929004
-0.50722951 0.14815827 0.09079200
-0.45612872 -0.03869154 0.04161837
-0.44701198 0.20307140 0.07645101
-0.43062764 0.17330389 0.06546118
-0.15211397 0.46693826 0.00541880
-0.63914454 -0.50109988 0.03835956
-0.51782840 -0.17687844 0.04332608
-0.76085299 -0.21656568 0.13004169
-0.49556103 -0.11292311 0.04494229
-0.12615187 0.65843391 0.02584110
-0.47594777 0.02097569 0.05865701
-0.64829314 -0.21265408 0.08758455
-0.20615140 0.31296664 0.00169038
-0.63423496 -0.41795176 0.04966110
-0.70205271 -0.01123513 0.14008708
-0.71351975 -0.30134860 0.09848746
-0.54690480 -0.07827489 0.07008419
-0.42649239 0.29245639 0.08276826
-0.25372273 0.25080240 0.01004185
-0.63526332 -0.50067681 0.03694127
-0.27442673 0.18110336 0.00691606
-0.64056802 -0.49429902 0.03998239
-0.64129055 -0.33770239 0.06508224
-0.16158345 0.56244195 0.02418357
-0.27981961 0.42369872 0.04743967
-0.31713536 0.17325316 0.02201709
-0.15300848 0.55118698 0.01911743
-0.58651632 0.04046781 0.10406425
-0.55029255 0.17888539 0.11214450
-0.62677020 0.03589233 0.11874493
-0.75390202 -0.68553394 0.05304165
-0.35985008 0.00091453 0.01104342
-0.73263967 -0.31887600 0.10302634
-0.55204892 0.14564078 0.10754629
-0.29883677 0.46265393 0.06089370
-0.30805603 0.13578571 0.01260236
-0.60308582 0.11193664 0.12173600
-0.72895592 -0.55772668 0.06375443
-0.55430448 0.12772983 0.10557006
-0.47776401 0.21189038 0.08961861
-0.36551070 0.38689706 0.07440126
-0.74353772 -0.63118488 0.05769050
-0.75799537 -0.30906442 0.11428536
-0.33917499 0.17800678 0.03120577
-0.55713248 0.11370035 0.10442824
-0.28143159 0.25424892 0.02119304
-0.15706176 0.60834569 0.02973032
-0.58004546 0.09675321 0.11051086
-0.62163919 -0.28020921 0.06667525
-0.74920338 -0.23414588 0.12279657
-0.45210731 0.00536195 0.04705742
-0.42464486 0.16119592 0.06125191
-0.71116108 -0.60460836 0.04951269
-0.27046144 0.20000929 0.00839569
-0.41728196 -0.02707112 0.02859355
-0.60340989 0.03809291 0.11015329
-0.71224225 -0.52488691 0.06256374
-0.04963165 0.70466650 0.00388454
-0.60082299 -0.36656645 0.04501964
-0.65198100 -0.07063352 0.11150868
-0.63360435 -0.64184010 0.01392948
-0.66505075 -0.46355724 0.05422517
-0.32930914 0.18802997 0.02901890
-0.69710523 -0.79160386 0.01449133
-0.67230946 -0.07522236 0.11856108
-0.46649706 0.10285093 0.06802002
-0.23525932 0.38577297 0.02437293
-0.50888085 0.17550752 0.09575981
-0.55070513 -0.13320534 0.06283114
-0.51333046 -0.38717121 0.00826958
-0.43556815 -0.22330576 0.00448511
-0.39019614 0.04662029 0.02990348
-0.44859406 0.11608657 0.06326644
-0.76825595 -0.02741968 0.16285786
-0.44110426 0.25600457 0.08258170
-0.29446679 0.14806075 0.00934747
-0.35384753 0.19227548 0.03908335
-0.70720911 -0.38922921 0.08214171
-0.59599859 -0.49022135 0.02357182
-0.53382939 -0.10296237 0.06116675
-0.72077501 -0.00714816 0.14789931
-0.25858954 0.47174218 0.04693097
-0.65965670 -0.08602817 0.11200588
-0.56536961 -0.03771176 0.08358073
-0.30407798 0.44271249 0.05973823
-0.65300643 0.04825146 0.13074547
-0.24192208 0.21974894 0.00060244
-0.45808747 -0.09907339 0.03279640
-0.70181465 -0.63050020 0.04183147
-0.41070232 0.23533018 0.06766860
-0.60093004 0.13069239 0.12388436
-0.51258093 -0.31459138 0.01948792
-0.14919057 0.54686654 0.01697130
-0.64476627 0.11802074 0.13865259
-0.61408442 -0.07317658 0.09660235
-0.73898357 -0.72616315 0.04089185
-0.72475040 -0.45165244 0.07895964
-0.51253545 0.25440270 0.10966608
-0.30675763 0.06590650 0.00102720
-0.65732855 -0.52161914 0.04206600
-0.65369248 -0.60540086 0.02739358
-0.48487115 -0.17685267 0.03071725
-0.51490694 -0.08381625 0.05696004
-0.77130300 -0.57333952 0.07748589
-0.76622456 -0.52374667 0.08340371
-0.45539740 0.15992934 0.07282081
-0.18678302 0.47524995 0.02000510
-0.58837759 0.09766714 0.11384464
-0.67129791 -0.34263507 0.07578430
-0.67256230 0.02908823 0.13519192
-0.48117831 -0.04196146 0.05068664
-0.56879163 -0.38380271 0.03002881
-0.55804318 -0.34397805 0.03222825
-0.16348270 0.40918225 0.00061356
-0.56737280 -0.32275331 0.03916324
-0.31974620 0.20572548 0.02816429
-0.64487612 -0.02304051 0.11633395
-0.14035787 0.60085678 0.02215012
-0.10304456 0.61317736 0.00982271
-0.54633588 -0.14104670 0.05991601
-0.33533385 0.41523293 0.06734411
-0.51831692 -0.41064063 0.00645759
-0.51281804 -0.32809347 0.01743833
-0.64023864 -0.61303633 0.02103437
-0.24304482 0.46862665 0.04048775
-0.54206592 -0.27163318 0.03758160
-0.41437170 -0.04550233 0.02455811
-0.57797509 -0.14593184 0.07125012
-0.20036057 0.37302265 0.00899502
-0.22735015 0.39764947 0.02322874
-0.48893547 0.17684259 0.08833791
-0.65220791 -0.74850374 0.00414109
-0.54457837 0.06836589 0.09243643
-0.39129567 0.27668440 0.06679729
-0.63473845 -0.18215828 0.08723122
-0.67874849 -0.50927991 0.05221951
-0.67715979 -0.19453052 0.10150487
-0.24516034 0.24465480 0.00579023
-0.12387274 0.54157490 0.00644269
-0.39109662 0.05091809 0.03092945
-0.33205777 0.14004867 0.02246419
-0.72153634 -0.68240267 0.04115156
-0.46731576 0.10370061 0.06846806
-0.43224984 -0.19007125 0.00848343
-0.41796833 0.05773245 0.04229417
-0.29303300 0.11630375 0.00376416
-0.68357790 -0.60408771 0.03903904
-0.46725917 -0.23236267 0.01517774
-0.61658734 -0.31655356 0.05898067
-0.66736895 -0.24979563 0.08899737
-0.58593148 -0.31099477 0.04812967
-0.66198784 -0.57439417 0.03548336
-0.74574435 -0.01678729 0.15592799
-0.69927955 -0.52051383 0.05829608
-0.74137169 -0.28756163 0.11133201
-0.65538764 -0.18579295 0.09455761
-0.67926949 -0.07654073 0.12101573
-0.74551463 -0.48305738 0.08192794
-0.25084770 0.52145010 0.05184840
-0.50378162 -0.30275932 0.01799595
-0.65225661 -0.49191493 0.04483360
-0.38485453 -0.09901714 0.00477869
-0.35957825 0.41041148 0.07585862
-0.39839220 0.00114946 0.02583161
-0.36702690 0.39264902 0.07589343
-0.48821232 -0.32772747 0.00807961
-0.26279256 0.22286399 0.00908388
-0.34049684 0.35257339 0.05938643
-0.10630364 0.54655820 0.00050863
-0.73071229 -0.79887998 0.02619948
-0.48685810 0.18274753 0.08847898
-0.55010229 0.14877190 0.10729767
-0.30098864 0.18459177 0.01763494
-0.60378820 -0.60666746 0.00809418
-0.49070010 0.15434884 0.08544725
-0.32488087 0.07891841 0.01002620
-0.67415208 -0.32167590 0.08019901
-0.46161616 0.26831895 0.09238431
-0.12935930 0.49290526 0.00082673
-0.37226182 0.28893188 0.06145425
-0.65628809 -0.29871666 0.07700182
-0.75289845 -0.29717383 0.11421962
-0.58185858 -0.26899245 0.05322906
-0.04511739 0.73190641 0.00647528
-0.38535249 0.25707164 0.06141342
-0.34933123 0.19917212 0.03844822
-0.68423265 -0.65969723 0.03047452
-0.63768107 -0.41939369 0.05075136
-0.63213575 -0.58353460 0.02260990
-0.42483604 0.10459347 0.05235167
-0.43058428 0.23647600 0.07545953
-0.77806658 -0.37466493 0.11156782
-0.53842252 0.11471651 0.09742861
-0.14311530 0.58028203 0.01994365
-0.43076769 0.04157450 0.04463119
-0.45874998 -0.13859411 0.02678521
-0.39747816 -0.12245899 0.00589387
-0.41807097 0.02402593 0.03698982
-0.14425495 0.59357983 0.02248798
-0.42917174 0.13521449 0.05886551
-0.76660776 -0.62236494 0.06791761
-0.68488824 0.06191485 0.14511348
-0.52703422 0.22036624 0.10981914
-0.46125898 0.02059332 0.05297466
-0.66783291 -0.55949587 0.04008195
-0.71978360 -0.19512963 0.11772226
-0.64823329 -0.71946019 0.00722390
-0.58355248 -0.23839153 0.05872812
-0.75796539 -0.38614708 0.10205491
-0.54192972 -0.00918479 0.07913220
-0.30240628 0.30179566 0.03675831
-0.36707041 0.12587437 0.03361721
-0.73465514 -0.66071922 0.04960938
-0.53161544 -0.21647288 0.04232604
-0.50439537 0.26269731 0.10786565
-0.46540707 0.14192773 0.07379787
-0.33110529 0.00684741 0.00098271
-0.69511837 -0.22913401 0.10289244
-0.28888968 0.15547682 0.00838868
-0.33622560 0.31100574 0.05116184
-0.21979776 0.31943065 0.00793792
-0.53907812 -0.09473909 0.06447899
-0.28905180 0.21417812 0.01775688
-0.76030368 -0.52044350 0.08166138
-0.58373684 -0.15973063 0.07126782
-0.56579351 -0.44265801 0.01955182
-0.65264976 -0.37937754 0.06282322
-0.42825922 0.31908208 0.08766555
-0.56588119 0.14811242 0.11323206
-0.68161833 -0.04752882 0.12651354
-0.30866891 0.22488441 0.02696210
-0.51431453 -0.18446065 0.04077939
-0.21221489 0.30704704 0.00307256
-0.41358721 -0.19199152 0.00103675
-0.48794118 0.03037754 0.06473766
-0.66600299 -0.40012410 0.06464487
-0.18760867 0.51354116 0.02639157
-0.72906280 -0.25382754 0.11196880
-0.34147218 0.37844205 0.06386078
-0.65639740 0.00223379 0.12474790
-0.24691501 0.22280230 0.00299741
-0.32868725 0.24906670 0.03845729
-0.47403225 0.09994224 0.07044278
-0.58907419 -0.00486833 0.09785588
-0.62013543 -0.33387890 0.05759216
-0.54932249 -0.11497267 0.06519220
-0.48449540 0.10188883 0.07475587
-0.61530727 0.13738725 0.13044822
-0.38269085 0.38961050 0.08140666
-0.40198055 0.12548572 0.04691648
-0.74663788 -0.49995083 0.07967989
-0.62534845 -0.07995354 0.09983888
-0.30160958 0.22384515 0.02409558
-0.61484689 0.12554772 0.12839505
-0.13724457 0.53524566 0.01055699
-0.36268306 -0.02199971 0.00850218
-0.22655788 0.39080071 0.02183976
-0.29954299 0.23469050 0.02502401
-0.57314855 0.17576149 0.12039676
-0.67889065 -0.32407168 0.08163270
-0.54762590 -0.11191076 0.06502827
-0.66127235 -0.31136671 0.07690406
-0.67947584 -0.24162596 0.09492577
-0.35153443 0.23067363 0.04428549
-0.69111240 -0.26366186 0.09588607
-0.12953252 0.53820705 0.00807490
-0.32807398 0.25218442 0.03871684
-0.59485120 -0.56160921 0.01181646
-0.49554655 -0.04092796 0.05634926
-0.56316167 -0.40034893 0.02525133
-0.48331472 -0.34145397 0.00402938
-0.72359782 -0.55192375 0.06262375
-0.30524081 0.17125128 0.01714742
-0.57139027 -0.41135639 0.02665559
-0.12563977 0.61927009 0.01943630
-0.51689041 -0.31542158 0.02100556
-0.56316519 0.17717662 0.11680025
-0.31713355 0.34217298 0.04879595
-0.51734954 -0.09491637 0.05613527
-0.75009763 -0.50667429 0.07993816
-0.67395264 -0.49365625 0.05286075
-0.41574985 0.08712990 0.04610560
-0.30556044 0.07704836 0.00233537
-0.48913392 -0.35248905 0.00450717
-0.68393087 -0.68355733 0.02657677
-0.32470992 0.31079894 0.04672175
-0.63721901 -0.68621016 0.00827939
-0.40865877 0.26088089 0.07093714
-0.48582712 -0.01044637 0.05746146
-0.57951909 0.06984553 0.10604361
-0.42737269 -0.03437457 0.03129760
-0.48518309 -0.30357462 0.01074897
-0.71712077 -0.71229213 0.03472368
-0.62335396 -0.38224736 0.05115665
-0.41996399 0.07068559 0.04511146
-0.73086047 -0.18204409 0.12403572
-0.41684893 -0.06271686 0.02277735
-0.69275743 -0.11222741 0.12052066
-0.08191611 0.65033978 0.00762789
-0.50903189 -0.37071118 0.00923370
-0.77981293 -0.67939425 0.06393110
-0.58908409 -0.09546339 0.08350173
-0.50313783 -0.29075888 0.01965185
-0.62354016 -0.68582940 0.00310479
-0.18185303 0.44669965 0.01359209
-0.48187080 -0.09433174 0.04265004
-0.66715515 -0.30295438 0.08048894
-0.22979395 0.48616219 0.03819632
-0.68605423 -0.04530928 0.12856302
-0.32284760 0.16497631 0.02289114
-0.27471322 0.42533526 0.04574479
-0.45849520 -0.07820544 0.03626038
-0.48141074 0.22688892 0.09339208
-0.49256781 -0.03226830 0.05658199
-0.51587325 0.15706906 0.09551282
-0.70022309 -0.59874189 0.04625664
-0.28741476 0.40013102 0.04661023
-0.55902177 -0.27865624 0.04295742
-0.78156084 -0.74814242 0.05370220
-0.47135830 0.10796090 0.07069064
-0.56490439 0.04759382 0.09692258
-0.55995262 0.16611576 0.11381720
-0.47600317 0.23220007 0.09216447
-0.61151361 -0.16117273 0.08166954
-0.46329457 -0.05863732 0.04119901
-0.69155812 -0.41201761 0.07253962
-0.45616776 -0.07579015 0.03575252
-0.48758692 -0.27267185 0.01656756
-0.53280419 -0.28782898 0.03146978
-0.66437650 -0.75965458 0.00703047
-0.68218708 -0.39841765 0.07110912
-0.31104383 0.05547240 0.00101346
-0.63769513 0.07696124 0.12943697
-0.57946396 -0.21261221 0.06124989
-0.32367593 0.30774993 0.04584264
-0.61151099 -0.56277752 0.01800706
-0.50888067 0.26231077 0.10952101
-0.16014776 0.49885675 0.01355368
-0.47701684 -0.02412470 0.05192146
-0.73594052 -0.03278961 0.14963935
-0.48576948 -0.14284343 0.03645212
-0.30740529 0.14124766 0.01321922
