ply
format ascii 1.0
element vertex 386
property float x
property float y
property float z
end_header
-0.44546461 0.35075110 0.30700019
-0.76735073 0.03224486 0.03273255
-0.60942400 0.18854998 0.16431603
-0.18743467 0.60946417 0.25165293
-0.37301227 0.42149940 0.44528684
-0.37237996 0.42726243 0.02901899
-0.30476499 0.49401385 0.09908631
-0.29281616 0.50450695 0.21719094
-0.69066638 0.10932399 0.00072015
-0.23498772 0.56122041 0.30768031
-0.57303649 0.22557934 0.11225549
-0.78498691 0.01490537 0.00865889
-0.63875854 0.15952204 0.13944004
-0.20682521 0.58995908 0.26094103
-0.30060580 0.49856880 0.06698074
-0.31968462 0.47701153 0.26805496
-0.41436878 0.38535213 0.02263867
-0.45285714 0.34349480 0.29594234
-0.48868230 0.31051287 0.06527352
-0.43871069 0.35589021 0.43802801
-0.22970267 0.56908995 0.09798292
-0.17797166 0.62139177 0.05168680
-0.34384149 0.45173463 0.35892555
-0.76352507 0.03620840 0.02154955
-0.15476823 0.64488751 0.02797770
-0.35107100 0.44829270 0.05163091
-0.44812408 0.34823632 0.29525721
-0.37664071 0.42110914 0.18254706
-0.27116621 0.52691585 0.15561856
-0.45176315 0.34385449 0.35552278
-0.54443842 0.25341603 0.17402811
-0.13617329 0.66365635 0.01387342
-0.60181355 0.19773030 0.03696602
-0.39471531 0.40245667 0.22942202
-0.51814789 0.27777982 0.33034399
-0.45320562 0.34199899 0.38903779
-0.64995193 0.14767046 0.19283088
-0.29076508 0.50844711 0.06393072
-0.47108388 0.32601365 0.23544727
-0.28914309 0.50831848 0.20595902
-0.73870349 0.06049894 0.06463364
-0.43674091 0.36318448 0.00604706
-0.47075689 0.32577813 0.28108013
-0.29351407 0.50561899 0.07035216
-0.42624047 0.37066877 0.25073183
-0.77153200 0.02800765 0.03726902
-0.52024513 0.27838224 0.11132912
-0.31196374 0.48263127 0.43854520
-0.59333515 0.20327374 0.27506268
-0.21205692 0.58534139 0.21111739
-0.53831893 0.26123542 0.03612307
-0.37830201 0.41655269 0.41745183
-0.35196409 0.44782704 0.01695600
-0.52444863 0.27483255 0.05828610
-0.57528263 0.22272532 0.16157003
-0.51224065 0.28604883 0.13874225
-0.41112837 0.38825315 0.05017188
-0.22367221 0.57554615 0.06344659
-0.51205289 0.28378776 0.33741185
-0.32675442 0.46964523 0.29210880
-0.41396305 0.37950784 0.52972317
-0.39655292 0.39685050 0.53520370
-0.46440142 0.33491373 0.05554572
-0.25300682 0.54401296 0.24181587
-0.54881793 0.24693814 0.34425908
-0.08694596 0.71274853 0.02485035
-0.73468256 0.06505386 0.02131347
-0.10842516 0.69139123 0.01495802
-0.19428872 0.60481256 0.07295063
-0.16039172 0.63694853 0.21584640
-0.16646551 0.63066649 0.23273778
-0.21201877 0.58767116 0.02519062
-0.36979920 0.42400280 0.50287211
-0.13444769 0.66388226 0.13554820
-0.05200530 0.74787635 0.00967409
-0.39509296 0.40300292 0.15447253
-0.32081309 0.47485858 0.35118282
-0.40606102 0.39129606 0.21440300
-0.16481753 0.63344842 0.14072995
-0.36659494 0.42961308 0.30764759
-0.39138633 0.40669703 0.15548775
-0.43349600 0.36121088 0.42943022
-0.37368533 0.42141449 0.39756441
-0.35425663 0.44499049 0.06108740
-0.40824342 0.39121026 0.04431855
-0.20404088 0.59355634 0.19497982
-0.50741601 0.28812170 0.36199099
-0.47292200 0.32363918 0.27895811
-0.28809622 0.50907701 0.22935376
-0.18328552 0.61581117 0.07332442
-0.09432125 0.70521641 0.03757141
-0.34461963 0.45060062 0.38780135
-0.21946456 0.57995009 0.04752483
-0.39555326 0.40332115 0.09131345
-0.56480318 0.23449975 0.05651539
-0.40097600 0.39573109 0.26714236
-0.62003201 0.17816667 0.14608432
-0.67088318 0.12759244 0.12360854
-0.41482881 0.38316324 0.16289341
-0.55133456 0.24681368 0.15019298
-0.51466519 0.28175652 0.29026270
-0.42271447 0.37541521 0.15172465
-0.34381220 0.45580840 0.03078939
-0.69478029 0.10514939 0.00564465
-0.77150679 0.02826894 0.01811664
-0.24600039 0.55067497 0.26976293
-0.63960183 0.15804580 0.19078776
-0.30996203 0.48814619 0.15348847
-0.29251289 0.50579971 0.13691126
-0.36297393 0.43395498 0.24915580
-0.22628701 0.57370621 0.00058717
-0.49738675 0.30081627 0.14575928
-0.15708522 0.64250249 0.03349613
-0.22161801 0.57710510 0.10362356
-0.25436527 0.54425174 0.11222333
-0.18276744 0.61674464 0.03962593
-0.08703206 0.71195585 0.08217502
-0.62716246 0.17282227 0.00119544
-0.25653544 0.54128039 0.17722361
-0.57481915 0.22214250 0.24645151
-0.44751060 0.35102874 0.11848706
-0.17958350 0.61794502 0.20056234
-0.60727841 0.19150960 0.09828248
-0.41408679 0.38001075 0.47887868
-0.54852760 0.24979886 0.13573584
-0.49751949 0.30005714 0.19657481
-0.38094151 0.41542202 0.29502320
-0.38557625 0.41012645 0.34864214
-0.43957153 0.35789421 0.20558313
-0.51851481 0.28005648 0.11587816
-0.43128496 0.36345825 0.42648166
-0.52402544 0.27317792 0.22685011
-0.33348677 0.46379551 0.22049381
-0.47679994 0.31980029 0.27578971
-0.34130585 0.45721710 0.11983598
-0.36299300 0.43165216 0.43445998
-0.54291284 0.25565651 0.11602950
-0.18254857 0.61457390 0.23350675
-0.32606095 0.47252244 0.11493618
-0.30427286 0.49415731 0.12737015
-0.29987666 0.49793833 0.17727789
-0.44439751 0.35323787 0.19182014
-0.32266888 0.47680989 0.04230069
-0.48433572 0.31406581 0.12965918
-0.39963049 0.39807025 0.18652584
-0.48465970 0.31052682 0.39049482
-0.32807574 0.46984178 0.16895600
-0.57513762 0.22216582 0.21872264
-0.59813124 0.19878261 0.25032374
-0.62152958 0.17627372 0.17816360
-0.15499350 0.64229280 0.22022419
-0.36710244 0.42671305 0.50177711
-0.44950783 0.34856707 0.15616392
-0.51362139 0.28301561 0.27280006
-0.33841082 0.45863906 0.23934864
-0.39786047 0.40127754 0.06992802
-0.12766482 0.67033058 0.16269703
-0.27285239 0.52314043 0.32513961
-0.25436172 0.54347348 0.17565276
-0.36554721 0.43372849 0.05876768
-0.20350020 0.59492964 0.12742256
-0.41894349 0.37926176 0.14559425
-0.34624583 0.45192912 0.14806715
-0.45214307 0.34488413 0.24115559
-0.33047566 0.46755967 0.15939784
-0.18652944 0.61292809 0.04405049
-0.30874538 0.48843959 0.22839642
-0.51942784 0.27701649 0.28842735
-0.50220221 0.29616782 0.13221005
-0.36171749 0.43635303 0.15653609
-0.34799132 0.44882199 0.25853994
-0.43606085 0.35816622 0.46835989
-0.35555112 0.44435146 0.00791366
-0.33167675 0.46567556 0.21481048
-0.28767455 0.51206297 0.02131784
-0.38084376 0.41589889 0.26426244
-0.43623647 0.35960588 0.33729613
-0.10114746 0.69852889 0.02631752
-0.39441690 0.40306228 0.20450321
-0.46800089 0.32843450 0.28916642
-0.24529257 0.55140215 0.26819646
-0.45072776 0.34531295 0.32119483
-0.51990867 0.27770212 0.19379964
-0.44832569 0.34827554 0.27571717
-0.47826827 0.31635299 0.43635976
-0.38277823 0.41249359 0.38360494
-0.20527755 0.59279168 0.15668271
-0.60933816 0.19016278 0.04044377
-0.51586926 0.28169352 0.19769306
-0.38736337 0.41162193 0.08232065
-0.60418284 0.19527029 0.04432441
-0.33996922 0.45479274 0.42499006
-0.48776650 0.30995870 0.18452488
-0.26845810 0.53136170 0.01464585
-0.43703514 0.35762447 0.43326232
-0.15832905 0.63947284 0.17838424
-0.42324889 0.37238190 0.35446441
-0.55444926 0.24453309 0.08252323
-0.58622074 0.21341133 0.02981186
-0.26454151 0.53375787 0.13799021
-0.60382515 0.19414864 0.16433470
-0.40627837 0.38718316 0.53048533
-0.35998532 0.43464378 0.43576258
-0.20856173 0.59061074 0.06717202
-0.74050575 0.05864017 0.06921795
-0.21849804 0.58036673 0.09213419
-0.75313878 0.04606831 0.06425117
-0.45978758 0.33621287 0.32446012
-0.07764618 0.72110951 0.10101963
-0.25806689 0.54092383 0.08190438
-0.22318184 0.57527739 0.12503296
-0.57955110 0.21687347 0.29001966
-0.09924105 0.70047414 0.02316520
-0.37474197 0.41957062 0.46144190
-0.15655312 0.64217359 0.10334884
-0.54359579 0.25568095 0.05864493
-0.40530175 0.38922021 0.44444257
-0.33055568 0.46514550 0.34878406
-0.31452811 0.48199344 0.28222567
-0.03150676 0.76815200 0.02776020
-0.36095387 0.43492919 0.33401805
-0.45769376 0.33772296 0.37182382
-0.46230400 0.33273429 0.40252835
-0.46710029 0.33186933 0.08357531
-0.34738585 0.45073843 0.15217935
-0.44740325 0.35193369 0.05378308
-0.30653882 0.49181223 0.13378958
-0.47051308 0.32948422 0.00020286
-0.37835443 0.42075562 0.07220181
-0.65160465 0.14686236 0.12431147
-0.42459121 0.37130591 0.33285552
-0.57250178 0.22542392 0.16824412
-0.10457404 0.69533575 0.00737864
-0.36262578 0.43595079 0.11548291
-0.49176645 0.30624005 0.16170260
-0.54071003 0.25927448 0.00122826
-0.28356224 0.51330149 0.25446713
-0.41294819 0.38649157 0.04544487
-0.51592934 0.28345585 0.04985408
-0.26420256 0.53422362 0.12770163
-0.33768648 0.45924646 0.24883509
-0.36481526 0.43428376 0.07309869
-0.26277950 0.53517187 0.16622417
-0.58092582 0.21702072 0.16655052
-0.52647954 0.26905832 0.36197397
-0.16609910 0.63120735 0.21858299
-0.43093383 0.36814323 0.07486660
-0.41413113 0.38028392 0.45311257
-0.26876220 0.52713615 0.33280459
-0.68842030 0.11150788 0.00576869
-0.66464818 0.13449247 0.06966287
-0.38925377 0.40871373 0.16488896
-0.41072348 0.38417414 0.41396019
-0.18949939 0.61022604 0.02231780
-0.52546561 0.27421433 0.02593783
-0.51280528 0.28327113 0.31827956
-0.47354904 0.32106784 0.43671861
-0.42499956 0.37166381 0.27068356
-0.24219438 0.55370855 0.33244222
-0.30097389 0.49552065 0.28441891
-0.27470914 0.52167827 0.29312071
-0.36041933 0.43610460 0.28201491
-0.62042195 0.17765012 0.15635780
-0.30417952 0.49226627 0.28837472
-0.28441083 0.51398003 0.13056453
-0.43026465 0.36824945 0.12053745
-0.41923404 0.37877065 0.16186644
-0.47980690 0.31488854 0.43034348
-0.57250732 0.22426473 0.26182845
-0.53529727 0.26196820 0.22180805
-0.46910357 0.32853112 0.19187057
-0.11743864 0.68082267 0.14112198
-0.19642261 0.60177374 0.14636903
-0.37181780 0.42713979 0.08456985
-0.50892740 0.28988138 0.09661635
-0.24571490 0.55147356 0.22813109
-0.38585472 0.40921253 0.40020186
-0.51682788 0.28206220 0.09001528
-0.35206276 0.44719684 0.06007357
-0.40375730 0.39272904 0.28505239
-0.46030080 0.33946079 0.01933058
-0.42116398 0.37720108 0.13263044
-0.73751622 0.06196010 0.04241285
-0.27313542 0.52569938 0.09455168
-0.41883153 0.38046202 0.05730915
-0.49036264 0.30660042 0.24635334
-0.23729464 0.56031299 0.19412234
-0.18864860 0.60894632 0.19516890
-0.15855023 0.63968843 0.14294516
-0.53059477 0.26788360 0.12341578
-0.16555838 0.63431549 0.01028147
-0.35907847 0.43906799 0.15037654
-0.54375118 0.25346282 0.22598445
-0.29440600 0.50513327 0.03739990
-0.42305088 0.37065345 0.51077855
-0.40992153 0.38969469 0.03113334
-0.44771051 0.35164660 0.05214531
-0.20321468 0.59542203 0.11063562
-0.22775286 0.57016230 0.16917565
-0.38741443 0.40952674 0.24815316
-0.47090802 0.32663012 0.19970305
-0.59237665 0.20426397 0.27248859
-0.53595573 0.26303199 0.08209341
-0.04625281 0.75337416 0.03033393
-0.42661127 0.36757952 0.47130752
-0.53251052 0.26538613 0.17060433
-0.25814477 0.53775477 0.33271176
-0.41976556 0.37685367 0.27426386
-0.11728508 0.68130064 0.11479900
-0.58990532 0.20737620 0.22049791
-0.34098035 0.45365626 0.43516025
-0.48830339 0.31065717 0.08430651
-0.75294822 0.04631719 0.05951948
-0.47085416 0.32540464 0.30349362
-0.36115539 0.43761176 0.10002340
-0.09465982 0.70439672 0.07660252
-0.46485582 0.33428866 0.06939025
-0.37940639 0.41474965 0.47414106
-0.37109548 0.42258245 0.51293725
-0.49525744 0.30286759 0.15208703
-0.39065343 0.40885594 0.03980599
-0.57529175 0.22293220 0.14404397
-0.50433606 0.29554456 0.00966606
-0.68795156 0.11147131 0.04676173
-0.48165032 0.31655914 0.14524010
-0.49290857 0.30571538 0.11161287
-0.31641304 0.47969985 0.31538251
-0.39968485 0.39560837 0.38186246
-0.33817714 0.45817798 0.29572180
-0.40999973 0.38477609 0.42384234
-0.42844376 0.36990407 0.13402750
-0.47388902 0.32180697 0.34915948
-0.07517241 0.72429782 0.04304541
-0.66194141 0.13775919 0.02423734
-0.51181448 0.28650585 0.13624302
-0.39987656 0.39912915 0.08066041
-0.64347553 0.15599960 0.04252829
-0.34336838 0.45194638 0.38013330
-0.20548683 0.59114110 0.27362436
-0.54829854 0.24829720 0.27613929
-0.52150577 0.27806944 0.03443929
-0.47039151 0.32959566 0.00102786
-0.43978828 0.35584646 0.35413820
-0.45591208 0.34310856 0.07943780
-0.55359834 0.24349678 0.23562799
-0.32513988 0.47309333 0.14334749
-0.48372141 0.31102735 0.42601460
-0.35487023 0.43993059 0.42183098
-0.11621653 0.68338621 0.03228385
-0.26747584 0.53228581 0.01936382
-0.27647504 0.52044612 0.24981409
-0.65875334 0.13989918 0.10926055
-0.43987888 0.35864830 0.11947363
-0.06417304 0.73528528 0.04401529
-0.21161354 0.58701599 0.11122054
-0.56420505 0.23178908 0.32494038
-0.51827937 0.27925956 0.19962977
-0.35619459 0.43877950 0.40777111
-0.53487515 0.26145518 0.29767102
-0.41401440 0.37966198 0.51304793
-0.06517798 0.73462600 0.01597066
-0.49368021 0.30460098 0.13941906
-0.43903387 0.35529560 0.46004969
-0.22987472 0.56978691 0.02748750
-0.67293423 0.12661153 0.03679477
-0.30006433 0.49726754 0.21647871
-0.53136986 0.26514328 0.28284466
-0.43324268 0.36390036 0.23176245
-0.37272438 0.42442408 0.23133811
-0.66148859 0.13729274 0.09881081
-0.32382777 0.47356835 0.21125881
-0.35793680 0.44031218 0.14206073
-0.58809608 0.21058457 0.10699547
-0.19723634 0.60080320 0.15909334
-0.62889510 0.17001009 0.08876845
-0.20697665 0.59091443 0.17113666
-0.57070011 0.22801460 0.10423572
-0.61679476 0.18065467 0.20686702
-0.38073322 0.41289699 0.51680672
-0.28370014 0.51344705 0.23147207
-0.71112943 0.08859415 0.02236312
-0.71344882 0.08606322 0.03952217
-0.09583837 0.70262790 0.12449979
-0.32705057 0.46999618 0.23960575
-0.56055737 0.23759227 0.15007760
-0.56270814 0.23335895 0.31902140
