ply
format ascii 1.0
element vertex 131
property float x
property float y
property float z
end_header
0.60680985 0.47967723 0.16699003
0.66321886 0.33853310 0.11759907
0.55628157 0.36251715 0.06924674
0.72804582 0.35671580 0.16598427
0.07045665 0.75676483 0.01586761
0.60819989 0.32076654 0.07517336
0.59005171 0.29548368 0.04985800
0.61663443 0.26344472 0.04667763
0.54996359 0.58526528 0.19540101
0.56752419 0.40216902 0.09891246
0.76025194 0.23470986 0.11364118
0.56570220 0.31967315 0.04976471
0.15992713 0.71741813 0.04508409
0.73619717 0.33257571 0.15666465
0.33757773 0.57942522 0.06820001
0.59937537 0.54915881 0.20315649
0.54272866 0.49828881 0.14048640
0.46753210 0.44186190 0.06376486
0.71321851 0.29961053 0.12405575
0.36926913 0.49426290 0.03703254
0.15830997 0.66183126 0.01174062
0.48760605 0.61965942 0.17910153
0.36944479 0.74287647 0.18204853
0.71341437 0.46271625 0.21924207
0.31586111 0.66370803 0.10466902
0.65113187 0.67758864 0.30818480
0.29727122 0.51872098 0.00932222
0.32499564 0.63828844 0.09517667
0.51759237 0.63222533 0.20390467
0.48166892 0.57726794 0.15093140
0.51297367 0.69341815 0.23688100
0.50815111 0.59196436 0.17493388
0.47598699 0.59265345 0.15658750
0.39474604 0.44573298 0.02359525
0.60817605 0.54580253 0.20632996
0.36665985 0.47564727 0.02466083
0.64601076 0.31173000 0.09194553
0.54290754 0.58036977 0.18843460
0.12257767 0.78373653 0.06196972
0.34777033 0.65538371 0.11841635
0.41399777 0.57184517 0.10832591
0.30330217 0.50576109 0.00528343
0.46745139 0.52418524 0.11170298
0.70511019 0.33566028 0.14034243
0.55816078 0.65104002 0.23851831
0.77097166 0.05388758 0.01449069
0.34597868 0.73939729 0.16634247
0.44860721 0.42809924 0.04471173
0.60770470 0.47326010 0.16377117
0.75984591 0.21053748 0.09931476
0.24071489 0.57294881 0.00796496
0.59614712 0.23568976 0.01855786
0.46764570 0.48046911 0.08633470
0.60263020 0.67637336 0.27920544
0.14199664 0.69870418 0.02372453
0.57513332 0.41751748 0.11229413
0.70408440 0.27401111 0.10381004
0.42926672 0.40293348 0.01876964
0.56775737 0.51002800 0.16191792
0.40763623 0.59324753 0.11709301
0.57879800 0.36381885 0.08313002
0.44949192 0.61379290 0.15346578
0.47495884 0.45475265 0.07560766
0.06773658 0.75403917 0.01269337
0.63074660 0.49316359 0.18880346
0.54741305 0.35476482 0.05955868
0.39349180 0.48836198 0.04771204
0.67693526 0.37249297 0.14538892
0.63215268 0.44940665 0.16411771
0.45507482 0.49500078 0.08747762
0.67117202 0.23896080 0.06419551
0.31803751 0.49476057 0.00746041
0.70212317 0.23169121 0.07799917
0.64453912 0.52387434 0.21474385
0.44468564 0.67863774 0.18846150
0.48590422 0.50044525 0.10862116
0.44341743 0.56646049 0.12233558
0.19309923 0.73403931 0.07410794
0.42473015 0.70699513 0.19335887
0.40671971 0.47740147 0.04903367
0.62029511 0.59145880 0.24000646
0.35960233 0.55714637 0.06805182
0.44143885 0.38034391 0.01269746
0.51247674 0.64250606 0.20691535
0.50660592 0.45186460 0.09237090
0.50898564 0.62551665 0.19497752
0.62590069 0.36406869 0.11073116
0.51645797 0.44425970 0.09368074
0.50708824 0.30338678 0.00610633
0.54338586 0.72545075 0.27327928
0.36314872 0.67152858 0.13679086
0.51065475 0.58671516 0.17333353
0.59128523 0.26176193 0.03092105
0.61067152 0.31364638 0.07246380
0.54767984 0.32727054 0.04368814
0.37000632 0.73846036 0.17980175
0.63152802 0.33341658 0.09614456
0.45395604 0.58449763 0.13899201
0.46450257 0.67874247 0.20007357
0.49401885 0.39318091 0.05082814
0.69027507 0.36687765 0.14989142
0.43103799 0.59516847 0.13185328
0.53060037 0.63588607 0.21362066
0.50497121 0.70269102 0.23762152
0.68748838 0.19430476 0.04767669
0.21587247 0.72306448 0.08098508
0.22782454 0.66026348 0.05134589
0.43011850 0.45728898 0.05094922
0.57414830 0.58992678 0.21221510
0.35506296 0.74669695 0.17589246
0.72790331 0.13255455 0.03524064
0.72862905 0.41527319 0.20045654
0.62418538 0.55306178 0.21989292
0.38658091 0.72871017 0.18377960
0.35672620 0.59493864 0.08840396
0.49845290 0.56233495 0.15201031
0.77824694 0.14188664 0.07002481
0.44533873 0.49311757 0.08070488
0.47991681 0.35532016 0.02053973
0.53821361 0.30447009 0.02488033
0.55790067 0.64832664 0.23678510
0.66340131 0.14518283 0.00500416
0.46168175 0.55896348 0.12861170
0.71676934 0.17480075 0.05337555
0.58167976 0.48183167 0.15359783
0.59639382 0.71750361 0.29954463
0.16226837 0.70302320 0.03805815
0.39335415 0.42919901 0.01314651
0.36647281 0.65571666 0.12951185
0.58822358 0.41679332 0.11950215
0.32773349 0.52141804 0.02865034
