ply
format ascii 1.0
element vertex 285
property float x
property float y
property float z
end_header
-0.18417524 0.73026896 0.00353240
-0.78502256 0.55450398 0.01665666
-0.27884948 0.55377328 0.00100648
-0.17634375 0.66441369 0.00125748
-0.31317952 0.64321977 0.00482782
-0.51429433 0.40540344 0.00369501
-0.64482838 0.51580572 0.01113349
-0.66392481 0.41360104 0.00856775
-0.50300407 0.32057205 0.00072747
-0.68981063 0.63757712 0.01628184
-0.67380118 0.70989841 0.01802041
-0.75498027 0.13141192 0.00266709
-0.70670956 0.44006723 0.01070576
-0.39105567 0.77302212 0.01123968
-0.65505981 0.35592559 0.00651347
-0.68009400 0.77063859 0.02008999
-0.75466943 0.12569425 0.00248097
-0.16706038 0.71628338 0.00257222
-0.69963676 0.75661063 0.02026026
-0.51943010 0.79730564 0.01595290
-0.72092640 0.09567063 0.00051229
-0.69187015 0.18975060 0.00251970
-0.74336386 0.42170787 0.01127062
-0.69307935 0.59604090 0.01510037
-0.28492102 0.73425800 0.00676603
-0.22513588 0.69428778 0.00368617
-0.69528377 0.36897880 0.00815832
-0.75170332 0.14611991 0.00301999
-0.46144244 0.45691994 0.00365371
-0.56475478 0.50945377 0.00846521
-0.64334977 0.44632745 0.00894287
-0.17991905 0.66705620 0.00144945
-0.65383613 0.66244006 0.01593877
-0.55843872 0.44806805 0.00637508
-0.54054201 0.49009535 0.00712003
-0.40792826 0.68841022 0.00914830
-0.18496741 0.69739932 0.00254208
-0.30764055 0.71902597 0.00699721
-0.63202721 0.77497256 0.01873976
-0.57134318 0.75954992 0.01639002
-0.56886786 0.46545348 0.00723380
-0.77787268 0.03041909 0.00025596
-0.38969252 0.56423211 0.00475152
-0.74359918 0.60175472 0.01683655
-0.49080351 0.57410616 0.00817804
-0.62951165 0.52121544 0.01082762
-0.77139693 0.55788803 0.01634045
-0.74716502 0.11223905 0.00183389
-0.36536503 0.70914245 0.00847427
-0.67278773 0.64419025 0.01596044
-0.70745629 0.30764845 0.00664071
-0.22030324 0.68943596 0.00338718
-0.58849835 0.67165262 0.01420593
-0.76425558 0.24951199 0.00659950
-0.63907987 0.19447319 0.00103566
-0.37173095 0.63453257 0.00636733
-0.74085963 0.20286830 0.00443717
-0.75507575 0.14557111 0.00310717
-0.42587537 0.68389392 0.00956297
-0.68554324 0.66234583 0.01691480
-0.71943569 0.26989815 0.00584511
-0.40237373 0.70722359 0.00955765
-0.73369783 0.19705683 0.00403664
-0.45080057 0.65874159 0.00955597
-0.49839795 0.66241723 0.01113900
-0.79375809 0.22879454 0.00687076
-0.42078814 0.55936629 0.00556134
-0.26574141 0.59907335 0.00200031
-0.46167085 0.43390012 0.00295008
-0.17250089 0.71406478 0.00267169
-0.45639166 0.75895029 0.01282244
-0.71822190 0.64866692 0.01750141
-0.58060461 0.58701521 0.01134912
-0.39193597 0.50858808 0.00310291
-0.71446794 0.17332034 0.00271014
-0.76474112 0.54440373 0.01571864
-0.76409692 0.10532908 0.00214331
-0.34329987 0.61733723 0.00495869
-0.75982118 0.73195332 0.02135715
-0.30734050 0.69160485 0.00614134
-0.76897699 0.29807222 0.00824445
-0.31452578 0.67759657 0.00593069
-0.69458306 0.24645764 0.00435415
-0.67360449 0.36963740 0.00750933
-0.60292178 0.76278096 0.01746474
-0.73163652 0.62352091 0.01713922
-0.56481743 0.55927700 0.01000532
-0.79865777 0.42328599 0.01302648
-0.75680667 0.30099869 0.00795905
-0.56456143 0.71273214 0.01473518
-0.67079067 0.69847977 0.01757492
-0.67133397 0.20945452 0.00249398
-0.64730954 0.77772206 0.01929648
-0.28323615 0.70856905 0.00592089
-0.52058226 0.34344435 0.00197630
-0.72810680 0.58756286 0.01592007
-0.58759320 0.50127077 0.00891769
-0.52193141 0.51966161 0.00745823
-0.18253218 0.77450365 0.00484737
-0.67874360 0.59907889 0.01475156
-0.67052966 0.20648944 0.00237761
-0.33600891 0.52556354 0.00190030
-0.76494211 0.58586401 0.01700489
-0.34265026 0.65436852 0.00608188
-0.50649893 0.39659402 0.00318236
-0.23913051 0.58556867 0.00076180
-0.26865491 0.53989106 0.00026315
-0.43132547 0.63513738 0.00822593
-0.67252386 0.64501005 0.01597761
-0.74628258 0.25137016 0.00610197
-0.67267543 0.23063651 0.00318934
-0.37382102 0.63434255 0.00642599
-0.26466435 0.74258876 0.00639782
-0.11160548 0.77627730 0.00271231
-0.40177995 0.70900881 0.00959444
-0.54085368 0.49511510 0.00728462
-0.61843324 0.51296467 0.01023086
-0.69411987 0.65266937 0.01688085
-0.24261758 0.70136690 0.00444445
-0.62942660 0.73209149 0.01733556
-0.76984555 0.23947562 0.00646224
-0.61031145 0.36850220 0.00552019
-0.52079433 0.75659728 0.01473819
-0.79568225 0.62033743 0.01901831
-0.50806910 0.50368440 0.00653699
-0.17945877 0.68061560 0.00185385
-0.66295153 0.21941176 0.00254259
-0.24204250 0.66348922 0.00325731
-0.77253419 0.76436204 0.02275025
-0.16257839 0.75867909 0.00374274
-0.73470545 0.13570185 0.00217357
-0.32587293 0.54919469 0.00231692
-0.59745926 0.20840269 0.00018071
-0.56657183 0.43695185 0.00628299
-0.75451177 0.43145597 0.01191575
-0.73539495 0.39032468 0.01005571
-0.37737194 0.46805316 0.00140184
-0.64108205 0.71185547 0.01707065
-0.70958000 0.11466938 0.00074852
-0.39863965 0.63163322 0.00710859
-0.31616473 0.52576160 0.00129375
-0.57081282 0.49043080 0.00806496
-0.63573271 0.68089545 0.01594963
-0.46924311 0.37516007 0.00137041
-0.65023893 0.27530694 0.00387573
-0.65044463 0.50608528 0.01100679
-0.29753953 0.68252069 0.00555828
-0.54143083 0.64695150 0.01199012
-0.79502982 0.23960859 0.00724388
-0.74314904 0.61630148 0.01727177
-0.65528673 0.70090431 0.01717110
-0.61862957 0.33166310 0.00463968
-0.57034415 0.75894666 0.01634055
-0.38791126 0.59409881 0.00561858
-0.76697814 0.36391085 0.01021534
-0.79177445 0.57771552 0.01758175
-0.62213784 0.22258663 0.00138053
-0.43373024 0.52402824 0.00486993
-0.74807316 0.14046423 0.00273331
-0.70596552 0.09789448 0.00011905
-0.57220775 0.45552194 0.00703030
-0.63681912 0.20610213 0.00132488
-0.52835679 0.68841493 0.01286661
-0.26272526 0.60488725 0.00208668
-0.45207736 0.78620118 0.01353058
-0.50487649 0.74504501 0.01389007
-0.51756567 0.70148152 0.01293686
-0.41477332 0.76917517 0.01185318
-0.46784961 0.49750441 0.00510447
-0.69989163 0.50544453 0.01251363
-0.09901169 0.78091127 0.00246655
-0.63795590 0.20478435 0.00131929
-0.23707555 0.75067353 0.00579564
-0.69038028 0.65777904 0.01692314
-0.61728317 0.35843158 0.00542453
-0.73145211 0.59300542 0.01619139
-0.34116235 0.56300789 0.00321541
-0.58179551 0.26068860 0.00131131
-0.69384038 0.77867323 0.02076246
-0.77362299 0.07079916 0.00137139
-0.48524246 0.74377018 0.01324452
-0.58075225 0.68960702 0.01452110
-0.63526362 0.53126073 0.01131533
-0.62089664 0.28630784 0.00330944
-0.65587521 0.52750504 0.01183574
-0.68926597 0.39529961 0.00878512
-0.53308690 0.77992308 0.01583788
-0.70599341 0.77960271 0.02116638
-0.78551030 0.09309096 0.00242660
-0.39602834 0.76641136 0.01118911
-0.76492989 0.62768644 0.01829574
-0.62744391 0.73984593 0.01751375
-0.74592543 0.30158535 0.00764122
-0.42334947 0.64355224 0.00823948
-0.52115238 0.53947067 0.00804574
-0.29913419 0.62971890 0.00397738
-0.49125659 0.74371189 0.01342840
-0.72407776 0.17838433 0.00316317
-0.51333058 0.53511214 0.00766969
-0.57372069 0.25256756 0.00081129
-0.52269334 0.36702654 0.00276952
-0.39368901 0.45566630 0.00152320
-0.63448864 0.62374514 0.01414676
-0.37276825 0.51609218 0.00274280
-0.34929475 0.73634994 0.00881812
-0.59187704 0.33376765 0.00387870
-0.70982271 0.39856547 0.00952061
-0.48237231 0.76128829 0.01369676
-0.58905756 0.23862267 0.00085429
-0.41905415 0.56622046 0.00571941
-0.77066058 0.03877166 0.00029116
-0.71365058 0.19343306 0.00330583
-0.77385658 0.76678687 0.02286594
-0.74541444 0.09267799 0.00117594
-0.26661581 0.76555413 0.00716710
-0.30167580 0.68265098 0.00569001
-0.75120777 0.32556859 0.00854473
-0.17425212 0.70284641 0.00237942
-0.56018144 0.39644414 0.00483512
-0.75667429 0.41589832 0.01150221
-0.57345182 0.33581090 0.00337293
-0.71105409 0.67644018 0.01813758
-0.65824580 0.63334852 0.01517674
-0.62498176 0.62316972 0.01383547
-0.75297570 0.54608566 0.01540732
-0.54674292 0.32954168 0.00235477
-0.55764991 0.46243823 0.00679437
-0.56107485 0.69645518 0.01412500
-0.60393447 0.69197255 0.01530987
-0.47732246 0.45165101 0.00398132
-0.22764906 0.68155926 0.00337080
-0.57398677 0.31801862 0.00284015
-0.11419900 0.71544224 0.00091422
-0.33120111 0.62539792 0.00483401
-0.12153251 0.70393991 0.00078552
-0.23013978 0.57426810 0.00013535
-0.64463514 0.26722372 0.00345317
-0.19904892 0.66794908 0.00206762
-0.41094196 0.67883337 0.00894567
-0.51310486 0.61733294 0.01020113
-0.45411262 0.45811781 0.00346439
-0.78135097 0.60488462 0.01809875
-0.53566694 0.26635718 0.00006215
-0.54770690 0.72928858 0.01472597
-0.63642663 0.33021861 0.00514455
-0.51232326 0.66418248 0.01162343
-0.37102658 0.43824527 0.00028569
-0.60802245 0.63087898 0.01354988
-0.69330406 0.67900223 0.01766866
-0.59875274 0.25173125 0.00155831
-0.34846613 0.52455002 0.00225361
-0.65574175 0.69437200 0.01698347
-0.37167570 0.70384282 0.00850549
-0.56196469 0.71745163 0.01480072
-0.68899620 0.30518296 0.00599466
-0.41173986 0.47803667 0.00277113
-0.71286386 0.45895234 0.01147880
-0.70701700 0.31118244 0.00673625
-0.76209778 0.26074296 0.00687961
-0.46093827 0.66794235 0.01015303
-0.54261601 0.66503423 0.01258500
-0.68265146 0.25532773 0.00425962
-0.17739849 0.79367977 0.00528092
-0.50955755 0.68347394 0.01213365
-0.57525963 0.38079256 0.00481744
-0.70791376 0.40809992 0.00975603
-0.79763693 0.29522365 0.00904135
-0.54462475 0.51868272 0.00812864
-0.74900609 0.33457294 0.00875474
-0.64575088 0.74426329 0.01821535
-0.53450191 0.57121778 0.00943800
-0.45447063 0.58381408 0.00735601
-0.79280508 0.20469242 0.00609724
-0.74570101 0.27435479 0.00679361
-0.62463796 0.60286945 0.01319811
-0.77578032 0.23620604 0.00654453
-0.58507937 0.79038227 0.01776603
-0.43893525 0.56191587 0.00620032
-0.26128408 0.75276017 0.00660749
-0.64558738 0.33754912 0.00565369
-0.74581701 0.11327261 0.00182418
-0.58705235 0.25027189 0.00115202
-0.59291732 0.75593251 0.01694442
-0.62298763 0.39125273 0.00661392
-0.58625233 0.50775349 0.00907643
