ply
format ascii 1.0
element vertex 138
property float x
property float y
property float z
end_header
0.46442723 0.64374030 0.18284453
0.56529748 0.28999701 0.03280824
0.01749376 0.78841090 0.00350397
0.28328335 0.54040390 0.01405485
0.13803281 0.72029763 0.03460954
0.63147539 0.22702608 0.03471101
0.47475848 0.46067613 0.08035744
0.48507813 0.43861672 0.07339194
0.76944375 0.16464274 0.07955757
0.15683798 0.75840634 0.06837811
0.72665215 0.40493017 0.19673695
0.64142644 0.65700817 0.29573515
0.32309145 0.54191417 0.03857009
0.76167762 0.24299695 0.12143929
0.40675792 0.43218410 0.02310589
0.61607128 0.59674251 0.24493393
0.32124469 0.65736848 0.10597645
0.49423799 0.45848170 0.09061312
0.72785878 0.51443821 0.26242703
0.36218253 0.46911398 0.01856961
0.55583209 0.43196392 0.11142481
0.49347204 0.43750572 0.07771308
0.77101094 0.15843402 0.07680362
0.45176929 0.35619286 0.00472473
0.41831675 0.61402291 0.13785379
0.51288861 0.36012861 0.04332359
0.68286771 0.57908058 0.27408674
0.44533518 0.40882793 0.03213696
0.05888435 0.75382602 0.00754198
0.46823859 0.73452801 0.23897281
0.67644078 0.63876826 0.30568784
0.43288475 0.40189213 0.02063460
0.72781438 0.54252905 0.27906775
0.63292658 0.19141066 0.01444050
0.48767573 0.52032679 0.12341385
0.12872946 0.68000644 0.00518383
0.40453219 0.53686237 0.08389364
0.52869928 0.65558177 0.22800475
0.48615348 0.44730633 0.07918575
0.54046398 0.53851461 0.16552584
0.13156991 0.72679645 0.03463085
0.58601630 0.42141548 0.12307522
0.41307092 0.51498604 0.07598009
0.14493933 0.73700148 0.04861822
0.42266563 0.50221103 0.07409314
0.49728426 0.47787580 0.10392758
0.68113458 0.41614881 0.17638651
0.75298142 0.19445036 0.08747568
0.64630818 0.22122726 0.04007111
0.53645754 0.46457809 0.11928022
0.63760221 0.27856645 0.06892646
0.62343401 0.21167751 0.02083316
0.70670158 0.38240135 0.17153282
0.18353303 0.68692213 0.04180345
0.37958297 0.57391691 0.09107604
0.31726423 0.57951736 0.05742361
0.46659636 0.35673919 0.01384618
0.37188372 0.58892155 0.09541050
0.69353825 0.19194253 0.05071854
0.62524039 0.45374274 0.16552849
0.64483219 0.19350734 0.02274843
0.48279914 0.52043426 0.12058422
0.55327630 0.61210012 0.21678808
0.31310984 0.58328348 0.05719324
0.60047311 0.52132303 0.19093062
0.71982044 0.12205880 0.02484862
0.69370425 0.30309600 0.11676726
0.57400113 0.54706270 0.19049615
0.67914522 0.69061035 0.33805183
0.72172832 0.36480439 0.17000785
0.68506283 0.46914199 0.21015951
0.24058571 0.60007501 0.02412564
0.49836692 0.37497038 0.04351350
0.41230404 0.41083944 0.01373221
0.26234618 0.59871304 0.03622860
0.66118437 0.18872011 0.02961020
0.70918757 0.37132940 0.16643855
0.73161966 0.41856688 0.20777531
0.19851337 0.76245320 0.09550636
0.64998758 0.16782537 0.01056947
0.47729519 0.34688473 0.01434716
0.67379099 0.29981685 0.10300660
0.45920423 0.38566336 0.02662168
0.57468611 0.28594577 0.03597505
0.22735465 0.61918819 0.02761565
0.38454169 0.69453096 0.16558181
0.51165217 0.57895935 0.17242801
0.54228669 0.61226499 0.21036547
0.23273902 0.70791698 0.08345549
0.44176248 0.37877506 0.01218604
0.50954819 0.64514542 0.21044971
0.72571975 0.44507656 0.22000366
0.35442185 0.61796987 0.10228505
0.51320153 0.53025025 0.14444682
0.25827420 0.55110687 0.00556662
0.63502520 0.61557680 0.26735473
0.31666899 0.54700303 0.03777884
0.66328043 0.36023992 0.13262099
0.29157269 0.72733653 0.12988526
0.71294868 0.59327078 0.30035403
0.37755600 0.55190653 0.07681405
0.41097865 0.49695742 0.06404184
0.21781550 0.58537519 0.00189371
0.39876103 0.71110278 0.18385106
0.07344359 0.76433110 0.02241329
0.30352244 0.63409692 0.08165371
0.19169840 0.75985301 0.08992008
0.44852889 0.44139090 0.05335232
0.38851827 0.46985263 0.03463355
0.67092162 0.25187331 0.07285800
0.64741081 0.28629532 0.07933189
0.73039603 0.34243822 0.16188020
0.71461803 0.10731722 0.01301534
0.42979276 0.45577973 0.05077296
0.63837510 0.49385345 0.19712043
0.68882459 0.20454344 0.05539826
0.69071335 0.52708077 0.24788882
0.47314152 0.73480690 0.24204732
0.36670122 0.44107369 0.00461364
0.32322127 0.56548715 0.05263358
0.69194204 0.27476257 0.09891074
0.57761997 0.35073820 0.07615881
0.13093384 0.75905055 0.05339071
0.43517032 0.42774302 0.03732870
0.62942100 0.69860476 0.31329241
0.59797573 0.44313839 0.14305982
0.67321157 0.42059407 0.17432307
0.59938955 0.44800559 0.14678651
0.07282132 0.74348164 0.00967355
0.10743972 0.75891811 0.03937243
0.32280150 0.57545257 0.05829726
0.31750435 0.69368792 0.12530655
0.60456872 0.52916670 0.19801453
0.26900822 0.56674945 0.02121654
0.48807362 0.66007769 0.20656800
0.64920151 0.50902748 0.21254721
0.54825884 0.55811507 0.18178023
0.76177418 0.26304325 0.13339058
