ply
format ascii 1.0
element vertex 387
property float x
property float y
property float z
end_header
-0.44220829 0.22562927 0.06915396
-0.08296107 0.43913656 0.14541264
-0.30163080 0.40372360 0.04952331
-0.20884416 0.23754723 0.18502647
-0.31445119 0.44524160 0.02109040
-0.20427930 0.38229582 0.11167539
-0.39252290 0.18253700 0.11770051
-0.45107579 0.24843852 0.05257889
-0.12837809 0.45575932 0.11295057
-0.33533940 0.44908482 0.00814948
-0.54154444 0.09599578 0.08500704
-0.37820512 0.06596182 0.18619107
-0.17448123 0.42863095 0.10302225
-0.60924178 0.13019553 0.03168864
-0.30955666 0.06515721 0.22253215
-0.21963143 0.53982472 0.02121441
-0.69374150 0.01766717 0.04635464
-0.12492740 0.26389465 0.21514919
-0.41591424 0.32042405 0.03331058
-0.37238801 0.16677172 0.13648552
-0.15779586 0.28794003 0.18536922
-0.10348649 0.23214933 0.24297874
-0.57240111 0.07244741 0.08118285
-0.15265508 0.08951351 0.29188564
-0.26091176 0.07872779 0.24088456
-0.13645807 0.47609881 0.09808015
-0.03600097 0.66286111 0.05292053
-0.56741929 0.07000104 0.08506971
-0.13187410 0.50432450 0.08570960
-0.08199226 0.59527242 0.06422155
-0.65177745 0.13569108 0.00655595
-0.19008256 0.07611420 0.27931309
-0.34263659 0.18914504 0.14034621
-0.46366125 0.06663194 0.14112481
-0.26433414 0.25478476 0.14697210
-0.42208883 0.05236602 0.17034265
-0.24023122 0.06733643 0.25766605
-0.69279844 0.01225292 0.04968112
-0.58361942 0.12503760 0.04779466
-0.11402352 0.65730262 0.01500356
-0.03785640 0.49917334 0.13759921
-0.34765443 0.12790512 0.16976476
-0.67062193 0.11685610 0.00655092
-0.41662201 0.29639816 0.04551193
-0.45209706 0.08474089 0.13770026
-0.14801741 0.17612088 0.24899504
-0.10924061 0.10324651 0.30741626
-0.15966451 0.32434633 0.16534188
-0.44440597 0.10587589 0.13066567
-0.09319643 0.44093490 0.13911605
-0.44411358 0.13708170 0.11449003
-0.31649485 0.22408774 0.13574110
-0.37420207 0.15926713 0.13946313
-0.55900681 0.17344692 0.03534292
-0.09012833 0.38836271 0.16822977
-0.15081154 0.57330728 0.03970501
-0.31343353 0.20406090 0.14782214
-0.29308045 0.28723514 0.11495063
-0.16263302 0.08929407 0.28677958
-0.21814184 0.52736253 0.02851477
-0.05574450 0.45698532 0.15031421
-0.18271875 0.29179844 0.17030953
-0.10471267 0.44316041 0.13192575
-0.17357418 0.54472095 0.04275223
-0.18057433 0.27415442 0.18066382
-0.23465008 0.07360435 0.25730667
-0.34619159 0.26333427 0.09966608
-0.56901115 0.05468222 0.09225242
-0.26791111 0.47564581 0.02953368
-0.56161594 0.03257680 0.10768880
-0.09642092 0.60495126 0.05160741
-0.24847491 0.46361807 0.04599741
-0.34435794 0.11936487 0.17595840
-0.11366838 0.44456840 0.12650299
-0.43918735 0.13449571 0.11842086
-0.47812974 0.28318372 0.02024206
-0.17429908 0.55519181 0.03689400
-0.24349052 0.41721556 0.07288592
-0.35690209 0.26230067 0.09460257
-0.18355364 0.44966674 0.08726809
-0.64609742 0.03671007 0.06132044
-0.23481692 0.22772014 0.17657837
-0.47675845 0.13796853 0.09694431
-0.36129168 0.10311729 0.17559934
-0.11463642 0.52049255 0.08626919
-0.47255978 0.10650395 0.11560532
-0.04002276 0.56692165 0.10101642
-0.57346940 0.18238467 0.02309852
-0.33367828 0.37315080 0.04875160
-0.49473694 0.13021497 0.09159402
-0.18237056 0.32440543 0.15343013
-0.20056266 0.16856956 0.22545224
-0.14716886 0.15780102 0.25902489
-0.22746783 0.19022442 0.20004335
-0.18106784 0.16202612 0.23907664
-0.47794443 0.13638732 0.09715112
-0.29578716 0.14019389 0.19047408
-0.49436003 0.17842442 0.06656537
-0.03728254 0.68705046 0.03959290
-0.50174731 0.16591986 0.06924300
-0.10639400 0.09958669 0.31082073
-0.05945837 0.73751712 0.00158248
-0.06313293 0.31346446 0.22154544
-0.21622097 0.42227414 0.08450799
-0.37359205 0.28079206 0.07619367
-0.02252773 0.66623461 0.05820515
-0.59878337 0.08298584 0.06186382
-0.49797881 0.13392480 0.08795650
-0.68770707 0.04435320 0.03554858
-0.66990137 0.11325641 0.00881153
-0.15015166 0.22824252 0.22060569
-0.17772640 0.33372718 0.15098256
-0.12261000 0.38811764 0.15136215
-0.52801037 0.14237276 0.06782181
-0.54230827 0.09576931 0.08472584
-0.34725317 0.11222765 0.17817804
-0.46542889 0.17325294 0.08440981
-0.65487367 0.10556225 0.02070089
-0.20071112 0.58350950 0.00825628
-0.14129262 0.13342761 0.27485299
-0.64374548 0.13831957 0.00938335
-0.32201895 0.22898525 0.13028793
-0.19603680 0.25396475 0.18313739
-0.07596169 0.43263543 0.15247673
-0.09133760 0.59034830 0.06190820
-0.38125801 0.28127861 0.07192781
-0.11601455 0.50406665 0.09414294
-0.62938827 0.11063827 0.03138029
-0.14344595 0.25114840 0.21212894
-0.06837063 0.34785813 0.20080838
-0.20355372 0.20876551 0.20285468
-0.06120968 0.35895026 0.19875138
-0.69084823 0.01707127 0.04818037
-0.40290481 0.15313409 0.12765335
-0.71903712 0.03596415 0.02354450
-0.25194213 0.22241284 0.17039475
-0.18564546 0.50918192 0.05503186
-0.12498810 0.39126369 0.14847165
-0.28088012 0.32056630 0.10389382
-0.37610942 0.31169456 0.05870651
-0.09282061 0.14056706 0.29647997
-0.12864180 0.43276429 0.12484472
-0.75367230 0.02320159 0.01209943
-0.41459781 0.13935596 0.12874438
-0.34811422 0.42707422 0.01298214
-0.31435055 0.10696403 0.19814838
-0.31276903 0.28067940 0.10807874
-0.36094162 0.06674490 0.19481449
-0.11179377 0.54825622 0.07322929
-0.25733808 0.48980233 0.02765862
-0.17729017 0.29763749 0.17009473
-0.06535616 0.24482609 0.25629714
-0.05089407 0.39628357 0.18461432
-0.43571657 0.10868823 0.13374089
-0.64989632 0.04147888 0.05683734
-0.55628806 0.12554885 0.06182848
-0.15399703 0.20070817 0.23300095
-0.42319924 0.25534704 0.06355058
-0.35175517 0.38568056 0.03273647
-0.18681623 0.14911385 0.24282518
-0.22301626 0.22635622 0.18346667
-0.40966171 0.20772541 0.09555250
-0.50271493 0.05857236 0.12490688
-0.18881717 0.33574286 0.14412469
-0.57787877 0.16289629 0.03098870
-0.14515746 0.16220692 0.25777197
-0.49949071 0.07503560 0.11797951
-0.39365605 0.30019483 0.05554241
-0.38023269 0.27020752 0.07825733
-0.03609720 0.75408190 0.00513879
-0.19312751 0.40141019 0.10750893
-0.29451272 0.34584436 0.08353355
-0.15041021 0.25885782 0.20445096
-0.26357359 0.26320419 0.14296459
-0.37446484 0.20888016 0.11336533
-0.10103884 0.36827311 0.17303279
-0.31099483 0.26215711 0.11869901
-0.04840347 0.51743728 0.12252390
-0.67509866 0.01978167 0.05500323
-0.34209427 0.37068641 0.04563738
-0.24979004 0.31734681 0.12184656
-0.06328587 0.37785664 0.18777226
-0.22155641 0.24386021 0.17507158
-0.02752739 0.74060649 0.01667407
-0.08287744 0.55602127 0.08429654
-0.37181243 0.42029431 0.00412949
-0.23630978 0.24675868 0.16583534
-0.74349838 0.04353610 0.00678287
-0.15968329 0.50324988 0.07172074
-0.39145178 0.25056809 0.08266331
-0.21970874 0.13064072 0.23528039
-0.19574714 0.22441880 0.19874886
-0.32643402 0.16862154 0.15956339
-0.39670965 0.19138467 0.11088016
-0.46776009 0.08705764 0.12829220
-0.39152303 0.31670812 0.04801786
-0.22881491 0.38002247 0.10002655
-0.37340680 0.29683378 0.06789668
-0.21739769 0.34162879 0.12609027
-0.40474319 0.17410158 0.11572003
-0.42064831 0.20931923 0.08896970
-0.54905349 0.17116155 0.04174692
-0.19427414 0.16752262 0.22929049
-0.21302275 0.41879046 0.08800434
-0.52990121 0.25369871 0.00858042
-0.17748559 0.14254925 0.25114232
-0.13585614 0.27596092 0.20311712
-0.23704106 0.07059851 0.25762841
-0.40985006 0.34174123 0.02532937
-0.25988963 0.33969939 0.10486576
-0.26533017 0.15589629 0.19819427
-0.21379748 0.13795643 0.23454548
-0.26847848 0.48754051 0.02301282
-0.05213660 0.52241671 0.11796508
-0.06451266 0.26500157 0.24618170
-0.07913862 0.33680335 0.20095851
-0.40724814 0.38883442 0.00204905
-0.55907738 0.03817254 0.10608911
-0.41757786 0.08251112 0.15692943
-0.24621812 0.48161533 0.03776111
-0.28814474 0.11872472 0.20570667
-0.18734778 0.45631245 0.08180536
-0.14765210 0.61169845 0.02126980
-0.10386458 0.26098925 0.22769044
-0.28327587 0.32790518 0.09880010
-0.06057499 0.39864233 0.17831460
-0.25686187 0.24412441 0.15645996
-0.15258327 0.28299478 0.19068427
-0.14454518 0.24439310 0.21508847
-0.36329350 0.35709631 0.04165582
-0.11300608 0.56965375 0.06139869
-0.42052758 0.23204759 0.07714013
-0.20669612 0.17276821 0.22004598
-0.51785386 0.05373511 0.11951645
-0.21377560 0.15701301 0.22458559
-0.22998939 0.34218171 0.11921240
-0.41949689 0.37354007 0.00364266
-0.35293496 0.11370202 0.17443353
-0.22340418 0.23417488 0.17917259
-0.50118488 0.03481813 0.13813706
-0.21335351 0.42903751 0.08246944
-0.10856671 0.28533193 0.21249279
-0.59748167 0.02548163 0.09263439
-0.39100167 0.34954277 0.03110974
-0.07676039 0.57453972 0.07780747
-0.05770277 0.72511292 0.00899168
-0.06444964 0.25259483 0.25270647
-0.40605700 0.18049315 0.11168815
-0.62081891 0.11429664 0.03394999
-0.55566716 0.05733772 0.09784525
-0.09409128 0.50173777 0.10683277
-0.00760323 0.75253421 0.02085810
-0.27651358 0.34602308 0.09285823
-0.51797122 0.12597947 0.08165276
-0.44577554 0.18748167 0.08724833
-0.17274550 0.13628040 0.25690269
-0.28365549 0.44652954 0.03653056
-0.12824178 0.35599986 0.16522098
-0.05939463 0.68639070 0.02836803
-0.01479742 0.72303855 0.03252736
-0.62793213 0.16025403 0.00618046
-0.70166451 0.07144625 0.01406863
-0.50147378 0.15162972 0.07686353
-0.26305503 0.30012071 0.12391921
-0.19960955 0.11105456 0.25604564
-0.12224684 0.31904015 0.18769693
-0.56103653 0.21213371 0.01403779
-0.23893438 0.37300155 0.09840520
-0.42068711 0.23509151 0.07546391
-0.30043197 0.25517407 0.12788004
-0.54115760 0.19399413 0.03393121
-0.45961332 0.22541197 0.06016034
-0.16968039 0.41151384 0.11449079
-0.16887882 0.56542850 0.03437377
-0.38532850 0.20986688 0.10716451
-0.38236973 0.34178594 0.03968528
-0.26675224 0.11236424 0.22022828
-0.23997000 0.14170109 0.21889147
-0.16812010 0.19784056 0.22711161
-0.46747339 0.14585808 0.09767454
-0.14352423 0.28256139 0.19565114
-0.44840413 0.17313299 0.09338092
-0.44779590 0.33022624 0.01149921
-0.11590903 0.08654136 0.31266800
-0.35891867 0.06967863 0.19433790
-0.28386426 0.47979996 0.01901238
-0.14142191 0.08819476 0.29845339
-0.11303592 0.54523802 0.07415862
-0.37906712 0.39381108 0.01419092
-0.12672161 0.41098347 0.13724627
-0.24743380 0.52949005 0.01207426
-0.12690713 0.46138433 0.11077695
-0.45693874 0.27459687 0.03582354
-0.16830818 0.38739312 0.12782992
-0.58787239 0.10027618 0.05852582
-0.19156572 0.38416955 0.11734729
-0.17519335 0.10801611 0.27041116
-0.62777507 0.09590554 0.03993337
-0.62363529 0.11752936 0.03078477
-0.12569478 0.07921336 0.31138203
-0.20794600 0.25688383 0.17537858
-0.19476554 0.24421486 0.18890420
-0.39846674 0.30763620 0.04913144
-0.27645120 0.51174867 0.00617396
-0.04830372 0.51316273 0.12481277
-0.30661249 0.18763065 0.15998852
-0.34998012 0.20492142 0.12824859
-0.33664629 0.12011478 0.17960113
-0.04616620 0.44852892 0.15975080
-0.59185505 0.08656256 0.06361761
-0.12879638 0.43762290 0.12222156
-0.15784103 0.12913437 0.26844054
-0.06017447 0.25398621 0.25421539
-0.34485734 0.05383003 0.20998821
-0.16309746 0.25308263 0.20083430
-0.19177611 0.25684199 0.18386126
-0.43323341 0.23816633 0.06729004
-0.10299629 0.48813295 0.10929199
-0.15958045 0.24380821 0.20752738
-0.10729077 0.59638298 0.05040308
-0.13472088 0.08671439 0.30273426
-0.14636879 0.44968215 0.10671690
-0.65748000 0.03341993 0.05708601
-0.33108863 0.19522516 0.14320731
-0.73090744 0.02678877 0.02213434
-0.04429312 0.70083934 0.02870962
-0.59952068 0.12083963 0.04167082
-0.61661309 0.03427104 0.07802459
-0.05127192 0.39531884 0.18492140
-0.37676099 0.11207358 0.16281846
-0.23575529 0.30587551 0.13519263
-0.07914526 0.17176589 0.28731075
-0.08057794 0.59265852 0.06632932
-0.13303535 0.28816205 0.19820885
-0.10776178 0.51849878 0.09090956
-0.47291985 0.11694660 0.10995273
-0.05660229 0.38803884 0.18594158
-0.47736228 0.26830208 0.02843054
-0.59184670 0.07985940 0.06712944
-0.07752334 0.51266205 0.10978574
-0.69920933 0.08147183 0.01010736
-0.43801326 0.07456884 0.15039231
-0.44047880 0.31272727 0.02448436
-0.26071337 0.11859943 0.22012554
-0.30560794 0.23724851 0.13455132
-0.53135186 0.25994962 0.00455055
-0.05597853 0.49965954 0.12786248
-0.27113104 0.22745687 0.15771496
-0.29048684 0.10221484 0.21311995
-0.15545748 0.19821915 0.23353915
-0.14603154 0.07169559 0.30467460
-0.25584650 0.24701963 0.15547630
-0.65108722 0.02730378 0.06363139
-0.34169757 0.23596832 0.11633700
-0.21460074 0.25486189 0.17295448
-0.06877933 0.69645351 0.01819201
-0.15411435 0.27688274 0.19308127
-0.10989906 0.65557742 0.01806443
-0.42780972 0.06849800 0.15890799
-0.21402518 0.58152276 0.00232916
-0.35992491 0.09535521 0.18037605
-0.21476986 0.32893798 0.13410573
-0.31196657 0.08413627 0.21134038
-0.17818710 0.60890746 0.00675251
-0.04839290 0.56558323 0.09733712
-0.13706009 0.13420478 0.27666098
-0.03492164 0.66162997 0.05412947
-0.19169170 0.58278275 0.01335603
-0.26142594 0.26855162 0.14129031
-0.27669531 0.35982397 0.08554174
-0.12507354 0.37940416 0.15463245
-0.23036300 0.44147405 0.06706160
-0.31146699 0.23125479 0.13462177
-0.33262148 0.35089326 0.06095097
-0.30586895 0.10445243 0.20390053
-0.45543456 0.27138045 0.03829362
-0.08146416 0.22641744 0.25750104
-0.27163690 0.38825402 0.07331241
-0.18312600 0.28671104 0.17275842
-0.39057297 0.31666639 0.04853681
-0.65196109 0.03711970 0.05803790
-0.23521826 0.33722055 0.11907230
-0.30004469 0.11495454 0.20145282
-0.55502713 0.12846348 0.06096320
-0.65137273 0.03286064 0.06057435
-0.60794544 0.06401567 0.06699595
-0.40081611 0.12960528 0.14105786
