ply
format ascii 1.0
element vertex 1296
property float x
property float y
property float z
end_header
-0.30899182 0.05401379 0.26613611
-0.09912305 -0.55413276 0.00000002
-0.34681115 -0.03729073 0.28844258
-0.36273083 -0.70533544 -0.00000195
-0.48035294 -0.29657653 -0.03863224
-0.13705087 0.57097703 -0.06236953
-0.34101802 -0.63095087 -0.00000164
-0.47399813 -0.35977203 -0.00000176
-0.19836855 -0.05743163 0.00000066
-0.23467645 0.33107537 -0.05978785
-0.11593393 -0.52073652 -0.00000000
-0.28595400 -0.47441351 -0.00000091
-0.37872273 0.16069002 -0.16841438
-0.59475034 -0.63586706 0.11692963
-0.12381277 0.45743573 0.00000089
-0.05105208 -0.45848539 0.00000055
-0.45558757 -0.65411007 -0.00000238
-0.32892445 -0.23470311 -0.00000057
-0.06505859 0.31284362 -0.00000378
-0.45484853 0.12523904 -0.25925699
-0.36805639 -0.04484532 -0.02676739
-0.40656990 -0.70480520 -0.00000222
-0.11762863 -0.40967000 0.00000027
-0.22392616 -0.12162774 0.00000034
-0.38631761 -0.23392200 -0.00000092
-0.20996471 0.42688125 -0.08192553
-0.17646758 0.37396166 0.13817091
-0.06397377 0.34584510 -0.00000315
-0.16388495 0.40433690 0.15708347
-0.20585963 0.09539962 -0.00000388
-0.46020129 -0.18411788 -0.07771088
-0.38800681 -0.13675217 0.35070267
-0.08726895 0.65625030 -0.04098983
-0.32240629 0.23126464 -0.12837130
-0.55811065 -0.49711615 -0.03078200
-0.01117746 -0.29907161 0.00000118
-0.51766288 -0.50570166 -0.00000239
-0.13914335 0.54103929 -0.04712847
-0.01755226 -0.44221643 0.00000079
-0.17844446 0.36918899 0.13986082
-0.22067522 -0.30288383 -0.00000009
-0.54319203 -0.66352946 -0.00000294
-0.02312026 0.50991321 -0.00000110
-0.59771341 -0.64302039 0.12039823
-0.17729436 0.51572025 -0.08802949
-0.12353291 0.20605154 -0.00000415
-0.37035859 -0.09414425 0.35984632
-0.56291395 -0.27660015 -0.17293502
-0.60232323 -0.75925672 -0.00000353
-0.10873608 -0.58176118 -0.00000011
-0.39055589 -0.09787419 -0.02755686
-0.57886910 -0.19324963 -0.24757168
-0.43831125 -0.24992727 -0.00504210
-0.36640364 -0.59619409 -0.00000170
-0.01328607 -0.61223549 0.00000039
-0.61620384 -0.68765914 0.18778367
-0.16717917 0.39638335 0.16596675
-0.30523580 0.06308530 0.21880542
-0.28224042 -0.02702542 0.00000023
-0.05651774 -0.13133845 0.00000133
-0.41628644 -0.20502189 0.26555571
-0.65404612 -0.40975842 -0.22612585
-0.43218011 -0.24339327 0.27795705
-0.01612919 0.17676999 -0.00000798
-0.64091533 -0.36705458 -0.23286486
-0.44351885 -0.12920129 -0.08667817
-0.26913491 -0.76459646 -0.00000154
-0.50966191 -0.01391298 -0.25507870
-0.41452369 0.00032928 -0.12313687
-0.30137050 0.12497452 -0.03217381
-0.06958208 -0.52808440 0.00000026
-0.51500523 -0.44334832 0.20035554
-0.27719772 -0.50235552 -0.00000093
-0.12188899 0.61941749 -0.06961884
-0.37054014 0.03639167 -0.08019186
-0.39305753 -0.26903704 -0.00000104
-0.36478367 -0.41107526 -0.00000123
-0.56505632 -0.70518112 -0.00000317
-0.60016143 -0.23866308 -0.25124028
-0.14950576 0.11752198 -0.00000514
-0.34300643 0.13334562 -0.09886032
-0.00159765 -0.23457056 0.00000140
-0.34955075 -0.04390381 0.27825025
-0.65356660 -0.52310079 -0.15600228
-0.00257839 0.40558803 -0.00000381
-0.07373131 0.06927676 -0.00000839
-0.47927701 -0.63648593 -0.00000248
-0.60177827 -0.35717639 -0.18104941
-0.20751698 0.42227009 -0.07548250
-0.34719607 -0.53256309 -0.00000143
-0.35419604 -0.05512299 0.33572486
-0.38994125 0.07376316 -0.13176440
-0.64758444 -0.66645527 -0.05936251
-0.51649702 -0.69698632 -0.00000286
-0.24470027 -0.75746167 -0.00000137
-0.31664187 0.15564039 -0.07353367
-0.45884460 -0.49608958 -0.00000201
-0.17861524 0.36877283 0.18833841
-0.63094866 -0.72325540 0.10639233
-0.09861345 -0.40721086 0.00000039
-0.19776855 0.38150197 -0.03610147
-0.59309590 -0.63187295 0.12510379
-0.36989927 0.11415185 -0.12686718
-0.24912740 -0.75039029 -0.00000138
-0.21832086 -0.06341031 0.00000052
-0.60158473 -0.27998993 -0.22803472
-0.02274409 0.39296800 -0.00000345
-0.44894391 -0.28386688 0.32546261
-0.09866750 -0.46750718 0.00000024
-0.46160433 0.08678846 -0.24569722
-0.06719578 0.63776946 0.06591819
-0.38817087 -0.20910393 -0.00000087
-0.51925153 -0.27466074 -0.10956678
-0.08792951 -0.04016808 0.00000137
-0.02730853 -0.34931260 0.00000096
-0.51957899 -0.77094275 -0.00000306
-0.03960034 -0.21400267 0.00000123
-0.41473058 -0.20126447 0.23636350
-0.46363637 -0.79142934 -0.00000278
-0.10964353 0.49762893 0.00000126
-0.13304961 0.47878277 0.11073799
-0.14134428 -0.12023300 0.00000085
-0.60867429 -0.58321011 -0.05281488
-0.44376650 -0.56872922 -0.00000210
-0.31215805 -0.03866289 0.00000002
-0.24557129 0.31651926 -0.06698148
-0.53963673 -0.02394998 -0.29325026
-0.04979161 -0.12511846 0.00000139
-0.33158764 0.15954982 -0.09802566
-0.57179666 -0.59879273 -0.00000295
-0.05612591 -0.31650513 0.00000087
-0.24724327 -0.43881264 -0.00000059
-0.29949263 0.29036391 -0.13068718
-0.20382035 -0.28057581 0.00000007
-0.50038350 -0.25297743 -0.09494945
-0.11412507 -0.67585909 -0.00000038
-0.64259768 -0.36607838 -0.23595011
-0.27036828 -0.47061181 -0.00000081
-0.48964506 -0.07839756 -0.18599084
-0.10378059 -0.63585174 -0.00000022
-0.61165470 -0.69950891 -0.00000344
-0.36513126 -0.40131319 -0.00000121
-0.33118618 0.00043161 0.27754381
-0.33963424 0.20635004 -0.13858476
-0.29057691 -0.79550958 -0.00000174
-0.52780783 -0.45996344 -0.00873204
-0.60381275 -0.46537349 -0.11779400
-0.14276709 0.45532310 0.10949244
-0.00112760 0.03456943 -0.00001127
-0.06293517 -0.62038749 0.00000007
-0.15973257 0.56589657 -0.09279356
-0.16553514 -0.34164694 0.00000015
-0.48919663 -0.38104421 0.28663248
-0.58732253 -0.49750027 -0.07373729
-0.17891926 -0.70817924 -0.00000085
-0.38346428 -0.36841768 -0.00000124
-0.00063082 0.77105147 0.00000344
-0.53169030 -0.48363036 0.23470449
-0.13880949 0.33131370 -0.00000118
-0.62071097 -0.21119325 -0.29844669
-0.21472611 -0.33954525 -0.00000014
-0.35328364 -0.03442630 -0.01130642
-0.51329261 -0.10790579 -0.20288254
-0.04998097 0.17027873 -0.00000709
-0.41299728 -0.59358346 -0.00000198
-0.64864206 -0.57920963 -0.11435832
-0.09182145 -0.61051208 -0.00000008
-0.31390524 0.02723135 -0.00000198
-0.51805043 0.01951896 -0.28795621
-0.64318341 -0.68776250 -0.03980622
-0.00141183 -0.49961194 0.00000074
-0.43203741 0.15081146 -0.24119157
-0.20635125 -0.73600310 -0.00000109
-0.23653474 0.22894682 0.16008043
-0.21884724 0.27164638 0.17645988
-0.57442898 -0.23888052 -0.21306105
-0.12117368 0.50745499 0.09073368
-0.37949038 -0.11618897 0.28839627
-0.16721918 0.36971980 0.00000044
-0.57278699 -0.51759517 -0.03993932
-0.22937782 0.33640486 -0.05521764
-0.13852301 -0.29026496 0.00000044
-0.48347309 -0.16865720 -0.12158748
-0.62054563 -0.69814086 0.11167357
-0.33698395 -0.01356081 0.22272874
-0.46392769 0.01319061 -0.20405865
-0.59731919 -0.44771180 -0.11900968
-0.31326228 -0.56310242 -0.00000130
-0.48627642 0.08388083 -0.28039479
-0.22902299 0.24707618 0.22750556
-0.48791969 -0.31586298 -0.03800824
-0.29164970 -0.41387337 -0.00000079
-0.23168457 -0.12918922 0.00000028
-0.48312211 -0.36637732 0.24679682
-0.43172589 -0.24230105 0.39698657
-0.08268954 0.24719071 -0.00000456
-0.15165181 -0.37133771 0.00000016
-0.65517980 -0.52230310 -0.15887596
-0.41370150 -0.24124460 -0.00000110
-0.72939175 -0.78940588 -0.10501804
-0.32122636 -0.52080566 -0.00000124
-0.58008194 -0.47752431 -0.07526579
-0.54570562 -0.02317624 -0.30269718
-0.06911972 -0.46763736 0.00000041
-0.01813997 0.19414613 -0.00000757
-0.19915967 -0.40204626 -0.00000021
-0.51141143 -0.43467367 0.23901612
-0.20745276 0.14599122 -0.00000282
-0.20417552 -0.32272077 -0.00000004
-0.39561170 -0.26027763 -0.00000104
-0.15123846 -0.72242171 -0.00000072
-0.44917366 -0.14557602 -0.08501055
-0.42739120 -0.23183255 0.29649985
-0.50459033 -0.18740326 -0.14132915
-0.34269527 -0.68108690 -0.00000177
-0.60034865 -0.09408666 -0.34006044
-0.32261962 0.30159140 -0.17175709
-0.18715869 -0.30116078 0.00000012
-0.39718151 -0.25206453 -0.00000103
-0.36581185 -0.03146542 -0.03164304
-0.29696077 -0.21381789 -0.00000033
-0.46804526 -0.15665603 -0.10612693
-0.34521550 -0.03344387 0.35479331
-0.19124562 -0.70943630 -0.00000093
-0.72488564 -0.72400844 -0.13840719
-0.48543680 -0.32571110 -0.02830591
-0.01483255 0.33004126 -0.00000495
-0.54023081 -0.50424862 0.26352102
-0.31550139 -0.10387898 -0.00000016
-0.59159243 -0.65382409 -0.00000321
-0.16177566 0.40943354 0.10208578
-0.10156265 -0.27387345 0.00000070
-0.17036542 0.20759329 -0.00000271
-0.33159587 -0.47709635 -0.00000119
-0.34122881 0.19116890 -0.13164493
-0.30821860 0.05588100 0.25959474
-0.56069839 -0.55366045 0.22668006
-0.55854350 -0.23946574 -0.18921553
-0.51736015 -0.15532619 -0.17985468
-0.36385530 -0.00456260 -0.04522642
-0.02061106 -0.66825938 0.00000020
-0.22895773 -0.30488437 -0.00000014
-0.09663853 0.46394220 0.00000020
-0.47292045 0.12098980 -0.28337440
-0.03179913 -0.39595041 0.00000082
-0.41297904 -0.02208772 -0.10712414
-0.03633392 -0.73821414 -0.00000006
-0.42620930 -0.22897866 0.28456122
-0.13699967 0.23454216 -0.00000317
-0.05615437 0.25687698 -0.00000517
-0.28196836 -0.76645631 -0.00000162
-0.37784943 0.01094471 -0.07541428
-0.07287647 0.42509255 -0.00000130
-0.10892385 -0.17239647 0.00000091
-0.22689486 -0.49020997 -0.00000059
-0.16546462 -0.48157442 -0.00000020
-0.18079948 0.52354956 -0.09800683
-0.08497759 -0.58702791 0.00000002
-0.43859178 -0.25887305 0.29194525
-0.18011458 -0.16012226 0.00000051
-0.24574278 0.31856975 -0.06849085
-0.23877864 0.31832820 -0.05804622
-0.59775817 -0.11600790 -0.32280505
-0.35926917 0.12654410 -0.11873974
-0.60164851 -0.53377628 -0.07270197
-0.28416288 0.38792881 -0.16777368
-0.34707764 0.24282387 -0.17192777
-0.18813790 0.52191097 -0.10785336
-0.60049862 -0.39377478 -0.15674335
-0.47299358 -0.65694761 -0.00000250
-0.38632751 0.15761194 -0.17777313
-0.07733119 0.61330092 0.06396601
-0.04740528 -0.67941999 0.00000002
-0.24943823 -0.55793583 -0.00000090
-0.32766706 0.31354424 -0.18654020
-0.24017873 0.11495363 -0.00000245
-0.03578977 0.28269938 -0.00000527
-0.46351212 -0.05881268 -0.15934704
-0.15522444 0.21335262 -0.00000305
-0.38440788 -0.08271714 -0.02774954
-0.36423847 -0.50817049 -0.00000147
-0.69246507 -0.65525585 -0.13257875
-0.47654784 -0.01135603 -0.20768471
-0.43942299 -0.01638597 -0.14971414
-0.32163218 0.02349282 0.32651663
-0.53442228 -0.23442397 -0.15663941
-0.11260012 -0.23284502 0.00000074
-0.33419478 -0.41541496 -0.00000106
-0.16005316 -0.14817841 0.00000066
-0.29508334 0.08758779 0.31148252
-0.40707219 -0.18277662 0.26526880
-0.14347631 0.07659933 -0.00000614
-0.12244306 -0.38437510 0.00000030
-0.08136160 0.54678512 0.00000139
-0.50596553 -0.16543292 -0.15681778
-0.51111466 -0.07568975 -0.21939252
-0.22009176 0.31906769 -0.03087011
-0.00116126 -0.12859234 0.00000167
-0.22682476 0.35143244 -0.06064625
-0.43388897 0.16617344 -0.25333732
-0.00807760 0.78049612 0.00856785
-0.02786549 -0.78091335 -0.00000012
-0.44189492 -0.08499847 -0.11134843
-0.08250250 -0.08181037 0.00000130
-0.32207626 -0.75734842 -0.00000184
-0.09518755 -0.66971606 -0.00000025
-0.22749925 0.36044642 -0.06716395
-0.28265113 -0.40432012 -0.00000072
-0.54648662 -0.51935107 0.23873883
-0.38997316 -0.28805032 -0.00000107
-0.44620046 -0.02202513 -0.15628122
-0.07811289 -0.63514960 -0.00000006
-0.07126273 -0.04923410 0.00000145
-0.34999576 0.28490114 -0.20201176
-0.45779461 -0.20358542 -0.06222997
-0.27522957 -0.00763590 0.00000032
-0.01667831 0.75973171 0.01659910
-0.37486437 -0.10501810 0.31092015
-0.40306905 0.02711753 -0.12260690
-0.28110394 0.36100686 -0.14676307
-0.00284980 -0.15431499 0.00000164
-0.34057793 -0.02224828 0.35885009
-0.06096419 0.49828619 -0.00000019
-0.07524485 -0.16945384 0.00000112
-0.58260453 -0.25317270 -0.21639578
-0.21292099 -0.45065653 -0.00000041
-0.56721634 -0.01453759 -0.33979186
-0.23795055 -0.69491702 -0.00000117
-0.29777509 0.08108982 0.30572951
-0.17364730 0.18223017 -0.00000312
-0.48712459 -0.72858679 -0.00000276
-0.09170901 -0.53859371 0.00000010
-0.59999818 -0.16318762 -0.29722252
-0.28315637 0.02168494 -0.00000302
-0.06740644 0.35740274 -0.00000282
-0.31809181 0.11265362 -0.04935096
-0.14248605 -0.11046901 0.00000086
-0.39526293 0.21308649 -0.22495881
-0.12534899 0.27192387 -0.00000278
-0.62154502 -0.45126295 -0.15265334
-0.40816557 0.14357981 -0.20146751
-0.29128945 0.30048725 -0.12475844
-0.04627834 0.21915463 -0.00000622
-0.07452428 -0.74385267 -0.00000031
-0.52619082 -0.38701776 -0.05101556
-0.20388301 -0.73752624 -0.00000107
-0.14599656 0.38701889 0.00000015
-0.17899089 -0.17084926 0.00000049
-0.28922942 0.10172107 0.30020875
-0.17387436 -0.54014277 -0.00000040
-0.68888569 -0.59358305 -0.16505697
-0.21125466 -0.07165122 0.00000055
-0.42363897 -0.22277223 0.25764805
-0.15702131 -0.14631608 0.00000069
-0.34224403 -0.74478745 -0.00000193
-0.17015469 0.38920411 0.11370975
-0.43747738 -0.29087338 -0.00000137
-0.26319003 0.16458635 0.28261641
-0.08247356 0.60088700 0.05507864
-0.67363667 -0.73218185 -0.05762834
-0.37184429 -0.10014402 -0.00000049
-0.17858662 0.51387423 -0.08880960
-0.40529847 -0.10903038 -0.04252172
-0.42336920 -0.54128093 -0.00000191
-0.17163409 -0.48400924 -0.00000025
-0.39198503 0.15527603 -0.18470731
-0.33398643 0.01584433 -0.01356238
-0.13983379 -0.15948074 0.00000076
-0.26887569 -0.47927603 -0.00000082
-0.49266893 0.03855119 -0.26208493
-0.52740389 -0.77529925 -0.00000312
-0.25750804 0.29741779 -0.07293191
-0.12845033 0.33769876 -0.00000137
-0.12493567 -0.22489318 0.00000068
-0.58845168 -0.26337835 -0.21879070
-0.52904779 0.00322128 -0.29423484
-0.51260841 -0.48868814 -0.00000232
-0.24648590 -0.00377703 0.00000050
-0.24470589 -0.60335779 -0.00000099
-0.48266354 -0.28835604 -0.04708307
-0.67701232 -0.56770527 -0.16335025
-0.43209425 -0.24318980 0.36760467
-0.15936261 0.56996572 -0.09473864
-0.51416540 -0.44090858 -0.00023116
-0.21474682 0.28154445 0.19024719
-0.38535902 -0.04534515 -0.05204364
-0.52465475 -0.59751469 -0.00000266
-0.28968751 0.09552759 -0.00000135
-0.13874139 0.49023232 -0.01541831
-0.27848431 0.28569824 -0.09676842
-0.19965306 0.17552827 -0.00000246
-0.54891884 -0.34413916 -0.11087979
-0.49707809 -0.04082821 -0.21998948
-0.25886822 -0.00232486 0.00000043
-0.31664875 0.03552830 0.26920262
-0.17300691 0.22354820 -0.00000231
-0.15095165 -0.66534984 -0.00000057
-0.42445540 -0.59811187 -0.00000206
-0.19725302 0.34742418 -0.01446887
-0.62247694 -0.36186919 -0.20877884
-0.50732869 -0.28929287 -0.08297735
-0.43489090 -0.24993505 0.21485324
-0.56020838 -0.58475721 -0.00000284
-0.26596361 -0.40807691 -0.00000063
-0.00474679 -0.15759963 0.00000158
-0.54251730 -0.50976843 0.27816382
-0.38240686 -0.12323099 0.31102166
-0.63691145 -0.65046453 -0.05337547
-0.02580174 0.51367223 -0.00000095
-0.64039540 -0.74606127 0.10604914
-0.04765897 -0.28625065 0.00000100
-0.25988010 -0.13775899 0.00000009
-0.62312490 -0.21898106 -0.29724628
-0.56716394 -0.05751953 -0.31339085
-0.34527430 -0.21666531 -0.00000063
-0.56219304 -0.55726868 0.23867562
-0.08785541 0.58789212 0.08144689
-0.01234597 0.65674782 0.00000151
-0.00248437 -0.05493442 0.00000188
-0.04241790 -0.65870374 0.00000010
-0.04691938 -0.56725174 0.00000030
-0.30919322 0.05353188 0.21206355
-0.68189800 -0.66751927 -0.10944445
-0.10424611 0.64089566 -0.05668732
-0.47129211 -0.52709079 -0.00000216
-0.51837242 -0.45147908 0.27526283
-0.03383497 -0.60625261 0.00000028
-0.42830217 0.10733526 -0.20904265
-0.07051288 0.36603713 -0.00000255
-0.58161128 -0.60414726 0.15543887
-0.05413926 0.12704495 -0.00000783
-0.29179716 0.24865970 -0.09376822
-0.05888756 0.18569686 -0.00000651
-0.22089288 -0.77688587 -0.00000128
-0.61219120 -0.10852571 -0.34872696
-0.05204790 -0.43578142 0.00000060
-0.03877041 -0.77605867 -0.00000017
-0.39526248 -0.37654072 -0.00000133
-0.64237702 -0.39987472 -0.21492586
-0.48833883 -0.74817902 -0.00000282
-0.24712548 -0.20486404 -0.00000000
-0.40832135 -0.34542754 -0.00000133
-0.60755110 -0.54848891 -0.07241864
-0.48002023 -0.29350021 -0.04002437
-0.50906688 -0.02121149 -0.24972914
-0.03433488 0.59944487 0.00000103
-0.33036202 -0.68163514 -0.00000170
-0.61869931 -0.69368351 0.16408087
-0.45142061 0.10390671 -0.24112412
-0.00143404 -0.41603386 0.00000095
-0.25781164 0.17757870 0.18274067
-0.38521326 -0.25559640 -0.00000096
-0.49856839 -0.14686543 -0.15725227
-0.44884181 -0.28612804 -0.00000142
-0.59631324 -0.79825938 -0.00000359
-0.51979989 -0.73631394 -0.00000298
-0.48022366 -0.34517962 -0.00867498
-0.31496999 0.16102315 -0.07435836
-0.00716694 -0.60370034 0.00000045
-0.05723081 0.43675125 -0.00000154
-0.65404588 -0.77901560 0.13690621
-0.39945662 -0.47261363 -0.00000159
-0.04304060 -0.78945655 -0.00000023
-0.32596934 0.01302252 0.32140070
-0.39501926 -0.41046163 -0.00000141
-0.49974525 -0.40098655 -0.00336020
-0.40417773 -0.42488855 -0.00000150
-0.10142489 0.27995288 -0.00000334
-0.26166737 -0.52126014 -0.00000088
-0.07325804 0.14300548 -0.00000693
-0.00442524 -0.56645101 0.00000062
-0.49371266 -0.39194354 0.20766176
-0.11411237 0.38459024 -0.00000086
-0.02960609 0.46902084 -0.00000173
-0.09184513 -0.16133100 0.00000104
-0.38499171 -0.37285474 -0.00000126
-0.04918824 -0.50992185 0.00000043
-0.27149084 -0.05801524 0.00000022
-0.47593653 -0.79482651 -0.00000286
-0.21891016 0.30924302 -0.02310612
-0.25290963 0.18941247 0.19035687
-0.22517958 -0.52303410 -0.00000067
-0.04896015 0.70997477 -0.01725190
-0.25193036 0.38903493 -0.12079453
-0.50852638 -0.09215317 -0.20548294
-0.54930598 -0.09181029 -0.26598665
-0.53015703 -0.17186797 -0.18864450
-0.51835418 -0.45143500 0.26985610
-0.54813170 -0.10944233 -0.25345197
-0.10804528 -0.45531631 0.00000021
-0.05500734 0.36863807 -0.00000297
-0.27527422 -0.76401973 -0.00000157
-0.14943106 0.28528997 -0.00000178
-0.01283968 -0.17566592 0.00000148
-0.48873833 -0.37993419 0.20244555
-0.51214898 -0.33642742 -0.06123754
-0.42989868 -0.23788621 0.29711074
-0.13540703 -0.67797339 -0.00000051
-0.19857295 -0.76059711 -0.00000110
-0.40814012 -0.62565744 -0.00000203
-0.09143513 -0.12282600 0.00000114
-0.23281355 0.23792639 0.21107309
-0.11902991 0.55454528 -0.02566175
-0.43142962 0.01124906 -0.15482035
-0.35554236 0.27016562 -0.20118806
-0.34435090 -0.05949361 -0.00000023
-0.30803493 -0.37681821 -0.00000080
-0.43270630 -0.15804331 -0.05302776
-0.62006819 -0.23923498 -0.28032267
-0.65810341 -0.78881103 0.13221939
-0.37273985 -0.09989256 0.35338315
-0.01790506 0.37815857 -0.00000390
-0.36108539 -0.07175042 0.27685073
-0.52275974 -0.46206853 0.17898513
-0.13356715 -0.13703530 0.00000085
-0.53776121 -0.49828660 0.21114357
-0.40925914 -0.18805543 0.24301378
-0.33403707 0.23123911 -0.14555207
-0.17424461 0.54926413 -0.10406375
-0.39884555 -0.46168894 -0.00000156
-0.57262278 -0.36581093 -0.13265416
-0.60181779 -0.65292901 0.19567417
-0.61358571 -0.68133855 0.17666897
-0.00353052 -0.34911010 0.00000115
-0.02751338 -0.61916238 0.00000029
-0.12310630 0.24580099 -0.00000337
-0.46204498 -0.06316108 -0.15451474
-0.59627986 -0.63955951 0.12227370
-0.68993640 -0.58479440 -0.17199293
-0.40022200 0.17395379 -0.20832478
-0.10416610 0.59552574 -0.02878299
-0.59677559 -0.41179061 -0.14020528
-0.55276209 -0.53450096 0.19822803
-0.45182377 -0.30059800 -0.00000148
-0.33488274 -0.22543523 -0.00000058
-0.43005711 -0.03283696 -0.12579134
-0.43725169 -0.25564122 0.38676733
-0.33446741 -0.64432156 -0.00000163
-0.39120677 -0.77214098 -0.00000229
-0.56907862 -0.20854542 -0.22372861
-0.43773308 0.16657069 -0.25926423
-0.54908484 -0.55501324 -0.00000270
-0.08644137 -0.37193730 0.00000055
-0.01973533 0.10007445 -0.00000940
-0.47982708 0.08977081 -0.27446651
-0.43502840 0.14513044 -0.24213456
-0.08344446 0.59854037 0.08874883
-0.10993150 -0.57536775 -0.00000010
-0.09522258 -0.55825460 0.00000003
-0.00752355 0.74267930 0.00000308
-0.64048213 -0.49340904 -0.15484072
-0.56580621 -0.56599152 0.18820679
-0.20864774 -0.32317612 -0.00000007
-0.41426635 -0.10055624 -0.06097077
-0.59088272 -0.36614230 -0.15944904
-0.40598029 0.02974787 -0.12852214
-0.29355636 -0.63629013 -0.00000136
-0.58148748 -0.39793274 -0.12608843
-0.18724880 -0.38622582 -0.00000010
-0.05127240 -0.13855779 0.00000134
-0.11300414 -0.29775941 0.00000057
-0.46499464 0.05088921 -0.22872399
-0.08092901 0.46609578 -0.00000024
-0.04443509 0.73265213 -0.02444985
-0.62250483 -0.17575359 -0.32280344
-0.35060316 0.10737939 -0.09418970
-0.22811320 -0.46289048 -0.00000053
-0.56877571 -0.57315999 0.14769955
-0.34951198 -0.65711600 -0.00000175
-0.15638371 0.12169644 -0.00000485
-0.59477365 -0.63592333 0.17756428
-0.18142474 0.36281455 -0.00049192
-0.19905517 0.40551934 -0.05271277
-0.55926138 -0.55018973 0.13533729
-0.47974002 -0.07400365 -0.17403695
-0.59707987 -0.71811175 -0.00000340
-0.71008748 -0.78849483 -0.07703404
-0.02387104 -0.71246475 0.00000007
-0.11040966 -0.78617799 -0.00000063
-0.09692412 0.35418209 -0.00000199
-0.08396883 -0.56996578 0.00000007
-0.36402330 -0.05243634 -0.01615537
-0.28839472 -0.06891787 0.00000009
-0.24029019 -0.64058530 -0.00000105
-0.20361193 -0.15977079 0.00000037
-0.00895683 0.28398249 -0.00000605
-0.28593257 0.10967962 0.30827236
-0.40219963 -0.27661201 -0.00000112
-0.24267095 -0.68282551 -0.00000117
-0.33169606 -0.03444998 -0.00000009
-0.48846206 -0.09599002 -0.17346755
-0.44490746 0.15387081 -0.26209390
-0.03858529 0.11471973 -0.00000854
-0.68922776 -0.68915051 -0.10703409
-0.08987316 -0.19162409 0.00000098
-0.21051838 0.37364957 -0.05014334
-0.38759825 -0.61734086 -0.00000188
-0.08825444 0.35211483 -0.00000229
-0.35452554 0.26867014 -0.19876876
-0.42381689 -0.22157557 -0.00097531
-0.59674203 -0.62495679 -0.00960572
-0.30554053 -0.66297221 -0.00000150
-0.01953291 -0.53310657 0.00000055
-0.57792962 -0.74356019 -0.00000335
-0.19847365 0.32083288 0.16489628
-0.10303847 -0.33312431 0.00000055
-0.44901589 -0.28404173 0.36893854
-0.04488078 0.39594489 -0.00000273
-0.34797424 -0.11747338 -0.00000039
-0.40738407 -0.50180864 -0.00000171
-0.03642343 -0.64608085 0.00000016
-0.28544131 -0.43785590 -0.00000082
-0.43073830 -0.23991053 0.23302811
-0.37023926 -0.10268454 -0.00000049
-0.07453850 0.64438599 -0.01490146
-0.29665273 -0.33171129 -0.00000062
-0.66308910 -0.80084729 0.09673769
-0.48325005 -0.36668694 0.26551124
-0.57350981 -0.03070624 -0.33919477
-0.54937065 -0.79528511 -0.00000330
-0.20133510 -0.18753019 0.00000032
-0.26295316 -0.09957753 0.00000016
-0.29367182 0.17337273 -0.05043177
-0.47352442 -0.34320670 0.25487947
-0.42746419 -0.21099953 -0.01284505
-0.32812810 0.00781017 0.33000883
-0.52166337 -0.36664400 -0.05679917
-0.34859276 -0.05745958 -0.00000025
-0.33693561 -0.49202716 -0.00000126
-0.38602796 -0.32322064 -0.00000114
-0.14410517 -0.26805121 0.00000046
-0.14909332 0.46770179 -0.01692546
-0.48990288 -0.54039794 -0.00000231
-0.21462728 -0.43144867 -0.00000037
-0.34589592 0.09622904 -0.08040109
-0.48367238 -0.06168622 -0.18739463
-0.44112614 -0.02941218 -0.14425462
-0.46492803 -0.32245481 0.29583636
-0.42451912 -0.22490107 0.35178357
-0.56039053 -0.43710509 -0.07090564
-0.15001087 0.19967663 -0.00000348
-0.44211453 -0.26737687 0.27000219
-0.48608735 -0.36416149 -0.00571952
-0.21554697 0.44330704 -0.10023873
-0.41772765 -0.20850600 0.37594533
-0.58468592 -0.48026511 -0.08039439
-0.25097707 -0.76680440 -0.00000143
-0.60576159 -0.64059061 -0.01336671
-0.43796700 -0.47801533 -0.00000184
-0.57454479 -0.05220720 -0.32755706
-0.65592599 -0.61217749 -0.10493718
-0.05328146 0.02249719 -0.00000994
-0.47591832 -0.34898344 0.19352128
-0.01951224 0.35320553 -0.00000435
-0.13662532 -0.23620860 0.00000058
-0.40907586 -0.18761303 0.24325785
-0.59118497 -0.73508286 -0.00000341
-0.08640667 -0.07338802 0.00000130
-0.31653118 -0.75655389 -0.00000180
-0.02577674 0.26979375 -0.00000583
-0.23314708 -0.77180982 -0.00000134
-0.12180026 -0.26751667 0.00000060
-0.19469193 0.19165184 -0.00000229
-0.16706744 -0.51495212 -0.00000030
-0.35213831 0.09940347 -0.09157474
-0.11224521 -0.35039255 0.00000045
-0.26894307 0.39921176 -0.15218087
-0.30261672 -0.22184803 -0.00000038
-0.28975350 -0.48598951 -0.00000096
-0.17933354 -0.02966618 0.00000084
-0.26702586 0.22210719 -0.04088159
-0.20460953 0.30266598 0.00000023
-0.29876342 0.23397896 -0.09507706
-0.41467553 -0.06289001 -0.08464382
-0.45291823 0.05942402 -0.21609575
-0.10711402 0.14664713 -0.00000583
-0.20485909 0.47902492 -0.10631126
-0.19491446 -0.35000256 -0.00000005
-0.12990478 -0.65161771 -0.00000041
-0.40205348 -0.38449621 -0.00000139
-0.30800784 0.22851998 -0.10540191
-0.36983156 -0.09286829 0.23847406
-0.36890227 -0.26055491 -0.00000088
-0.30273953 -0.20057002 -0.00000033
-0.13110833 -0.18335371 0.00000075
-0.70973504 -0.77002305 -0.08782571
-0.40373960 -0.26344714 -0.00000110
-0.11839382 -0.09655372 0.00000104
-0.28651413 0.10827565 0.30783576
-0.31870660 -0.38554755 -0.00000089
-0.22658677 -0.62783343 -0.00000094
-0.24828538 -0.60093880 -0.00000100
-0.54825729 -0.77173239 -0.00000324
-0.27403483 0.13841192 0.19578864
-0.68552160 -0.61546171 -0.14668383
-0.60208994 -0.35248196 -0.18438524
-0.38024977 -0.52684855 -0.00000161
-0.10586409 0.43012574 -0.00000020
-0.53390139 -0.06268503 -0.26104784
-0.53500134 -0.40626034 -0.05225738
-0.36037365 0.25818869 -0.20099618
-0.10669041 -0.61610514 -0.00000018
-0.46249938 -0.65007848 -0.00000242
-0.66491008 -0.46876892 -0.20604858
-0.63692576 -0.66785473 -0.04274627
-0.37508821 -0.10555664 0.28713381
-0.48738647 -0.26624498 -0.06760755
-0.17508663 -0.59371787 -0.00000054
-0.24035279 0.23686883 -0.01048530
-0.52413201 -0.46538353 0.26314157
-0.59129798 -0.25263852 -0.22957644
-0.06457866 0.40121469 -0.00000203
-0.39338174 -0.04541273 -0.06386406
-0.37799913 -0.36769843 -0.00000120
-0.03741345 0.35776067 -0.00000372
-0.14478016 0.07998919 -0.00000603
-0.32094625 0.11998149 -0.05805913
-0.48217198 -0.36408281 0.23180717
-0.36083829 0.06706175 -0.08463076
-0.69929683 -0.78717309 -0.06188924
-0.04153831 -0.74502569 -0.00000011
-0.30060935 0.12565589 -0.03146569
-0.45544979 -0.11183098 -0.11495654
-0.51851827 -0.05248797 -0.24454847
-0.51392967 -0.54203969 -0.00000246
-0.62921053 -0.71905923 0.17879769
-0.18909621 -0.44719663 -0.00000026
-0.37876251 0.16116589 -0.16876464
-0.49201983 -0.58263516 -0.00000243
-0.58662212 -0.59944195 -0.01026927
-0.36374727 0.11073803 -0.11568053
-0.43165466 0.13996238 -0.23398133
-0.12872757 -0.49139550 -0.00000001
-0.14435378 -0.19288930 0.00000065
-0.17844240 -0.48708650 -0.00000029
-0.17109865 -0.39991352 -0.00000003
-0.04893665 -0.00511988 0.00000169
-0.00051812 0.16130847 -0.00000876
-0.20263845 0.50588304 -0.11947676
-0.33107942 0.31190845 -0.19058368
-0.59333283 -0.63244492 0.19186443
-0.00966410 -0.16547357 0.00000153
-0.59120488 -0.11033002 -0.31659317
-0.37653625 -0.72205561 -0.00000208
-0.36152327 -0.04613950 -0.01631540
-0.08497652 -0.67902076 -0.00000021
-0.45181343 -0.04143224 -0.15269455
-0.01378465 0.17637312 -0.00000806
-0.42830092 -0.72933871 -0.00000241
-0.46821168 -0.33037853 0.20733953
-0.45257124 0.06730432 -0.22040886
-0.42119923 -0.68173087 -0.00000225
-0.63586277 -0.45421186 -0.17201647
-0.13890073 -0.79616368 -0.00000083
-0.49441734 -0.74355298 -0.00000284
-0.55987036 -0.32316706 -0.13991588
-0.46386290 -0.22437760 -0.05846832
-0.21210125 -0.10127444 0.00000047
-0.32227203 -0.26408324 -0.00000061
-0.56263697 -0.37599999 -0.11164980
-0.17244977 0.12585524 -0.00000428
-0.09004347 0.40513849 -0.00000118
-0.70198834 -0.77201420 -0.07515253
-0.61913002 -0.64396191 -0.03106755
-0.46761367 -0.32893595 0.23422161
-0.28629714 0.10880573 0.23078336
-0.27252167 0.14206322 0.21762593
-0.19356899 -0.29263213 0.00000010
-0.44786954 -0.55913508 -0.00000210
-0.18136390 -0.02870825 0.00000083
-0.18767871 0.43241155 -0.05236207
-0.57029134 -0.16959076 -0.24937873
-0.22283114 -0.26029199 0.00000000
-0.26476446 -0.39138278 -0.00000058
-0.01371710 0.01604829 -0.00001127
-0.22830562 -0.28941563 -0.00000010
-0.26622906 -0.28411680 -0.00000032
-0.48278049 -0.19415067 -0.10495042
-0.72328144 -0.73173314 -0.13130444
-0.55989039 -0.53730154 -0.00880253
-0.26656419 0.13620262 -0.00000123
-0.20172973 0.20962317 -0.00000172
-0.51305783 -0.27554950 -0.09986492
-0.19277012 0.50460958 -0.10410629
-0.49328062 -0.39090130 0.22595584
-0.26862240 0.33113417 -0.11001381
-0.68005788 -0.60189646 -0.14691336
-0.48743552 -0.12824947 -0.15219302
-0.04172601 0.70492017 -0.00346043
-0.41371360 -0.19881113 0.28137442
-0.42188251 -0.21853375 0.30650532
-0.17672643 -0.77878869 -0.00000101
-0.32478377 -0.53952152 -0.00000131
-0.58464259 -0.37502989 -0.14477979
-0.52114254 -0.09853653 -0.22022690
-0.40939885 -0.22267982 -0.00000103
-0.26192179 -0.23172246 -0.00000016
-0.47870007 -0.35569957 0.20195904
-0.06582769 0.32494017 -0.00000351
-0.32553273 -0.26640403 -0.00000063
-0.66476041 -0.66515601 -0.08555335
-0.23338673 0.23654214 0.21767209
-0.56180978 -0.04340099 -0.31412128
-0.14912423 -0.72580624 -0.00000071
-0.58040959 -0.60124630 0.23274560
-0.69449359 -0.68958473 -0.11455381
-0.63334537 -0.45134625 -0.17004943
-0.43641654 -0.58354723 -0.00000209
-0.21700019 -0.65860695 -0.00000096
-0.42994249 -0.24021780 -0.00000120
-0.34679314 -0.15881027 -0.00000049
-0.54485315 -0.51540750 0.22840165
-0.37199575 -0.09093518 -0.00436487
-0.14434707 0.02874379 -0.00000707
-0.37800634 -0.04589541 -0.04083553
-0.57801074 -0.05528982 -0.33079368
-0.34216681 0.14720081 -0.10610427
-0.38936687 0.13515106 -0.16851111
-0.19873954 -0.72459286 -0.00000101
-0.18636408 -0.14903529 0.00000050
-0.50951505 -0.43009597 0.27509165
-0.25579569 -0.39512673 -0.00000053
-0.58820218 -0.58905745 -0.01896523
-0.61481678 -0.49467707 -0.11611725
-0.29208353 -0.55067712 -0.00000114
-0.52869987 -0.19319040 -0.17343150
-0.43730003 0.09280309 -0.21344624
-0.01148208 0.20788755 -0.00000750
-0.35106605 -0.57615620 -0.00000156
-0.48068193 -0.36048841 0.31219649
-0.26325476 -0.44680661 -0.00000071
-0.46442008 -0.11893935 -0.12386592
-0.54457062 -0.51472557 0.22058125
-0.16052938 0.41244039 0.12564716
-0.45994592 -0.29107139 -0.01183150
-0.21433207 -0.56097454 -0.00000070
-0.59993702 -0.46145278 -0.11446480
-0.36006469 -0.27102816 -0.00000085
-0.42799684 -0.23329718 0.35539165
-0.02090152 0.64879155 0.00000161
-0.40463474 -0.17689687 0.37848625
-0.22327448 0.26095772 0.18292411
-0.10570289 -0.37464550 0.00000043
-0.09495394 -0.54617709 0.00000006
-0.26887134 -0.73519862 -0.00000146
-0.44968069 -0.28564426 0.29375482
-0.57651323 -0.59183991 0.15967789
-0.49999827 -0.40711877 0.21558057
-0.10377620 -0.14341788 0.00000102
-0.36753401 0.12971424 -0.13290101
-0.27006984 0.00817903 -0.00000369
-0.68604326 -0.73086655 -0.07677740
-0.60451335 -0.45916793 -0.12263033
-0.38900974 0.20252927 -0.20924771
-0.59314573 -0.25212154 -0.23262495
-0.64305145 -0.37920704 -0.22858061
-0.19506706 -0.03935223 0.00000072
-0.11118670 0.57664567 -0.02760037
-0.56850648 -0.33191755 -0.14732552
-0.55941242 -0.55055588 0.23652484
-0.13564415 0.01929855 -0.00000752
-0.17589270 0.46651989 -0.05582520
-0.07871659 0.15525228 -0.00000652
-0.01344531 0.14057533 -0.00000878
-0.27938399 -0.17055286 -0.00000011
-0.64318573 -0.55150741 -0.12325674
-0.37905034 0.10998792 -0.13784716
-0.11571823 0.26469785 -0.00000321
-0.17012870 -0.38469732 0.00000001
-0.03928816 -0.08649197 0.00000155
-0.20504622 0.39990494 -0.05813226
-0.31654581 0.33328393 -0.18218637
-0.35045838 -0.04609786 0.31386107
-0.00864445 -0.22511071 0.00000139
-0.00292788 -0.30084175 0.00000127
-0.14745677 -0.59399915 -0.00000037
-0.43109819 0.17633937 -0.25543702
-0.26901710 -0.74135441 -0.00000148
-0.14182538 0.39931372 0.00000027
-0.02421709 0.39194271 -0.00000343
-0.41699955 0.09857733 -0.18696781
-0.61719716 -0.69005716 0.13824438
-0.01813025 0.13598034 -0.00000873
-0.14028095 -0.34923670 0.00000028
-0.03060548 0.20835564 -0.00000691
-0.63809776 -0.25805730 -0.29545254
-0.11791454 -0.11122999 0.00000101
-0.44190720 -0.07115262 -0.11984621
-0.50066638 -0.52010727 -0.00000232
-0.22710618 0.44917905 -0.12092557
-0.45187986 0.01354865 -0.18646488
-0.30065104 0.21366937 -0.08542967
-0.10979974 -0.10155596 0.00000108
-0.56242281 -0.55782348 0.22959578
-0.00825103 -0.70753670 0.00000018
-0.48915997 -0.38095340 0.23250087
-0.20786791 0.29815522 0.14257902
-0.47714722 0.00227672 -0.21692003
-0.00111849 -0.62831950 0.00000044
-0.17406879 -0.40356201 -0.00000006
-0.51605701 -0.54944688 -0.00000249
-0.37824392 -0.46939406 -0.00000146
-0.04226686 0.54829037 0.00000024
-0.56997371 -0.20897441 -0.22478928
-0.09188454 -0.62204611 -0.00000011
-0.00523963 0.78957844 -0.00136189
-0.33918220 -0.08127209 -0.00000025
-0.11652671 -0.76049453 -0.00000060
-0.23422749 0.44536629 -0.12911953
-0.57972294 -0.13694534 -0.28331670
-0.40090781 -0.16789593 0.30004480
-0.49614543 -0.39781746 0.22228312
-0.49585515 -0.29402405 -0.06311590
-0.46068269 -0.31220722 0.34029734
-0.49694651 -0.23655988 -0.09992245
-0.26491195 -0.52994877 -0.00000092
-0.38808557 0.23186122 -0.22584514
-0.18666127 -0.17972621 0.00000042
-0.59145844 -0.10766523 -0.31860006
-0.23058930 0.35418504 -0.06789800
-0.20282654 0.31032401 0.16689581
-0.43681127 -0.25457588 0.32461223
-0.64094520 -0.74738848 0.14003357
-0.22530271 -0.06072920 0.00000049
-0.16440868 -0.46590230 -0.00000016
-0.57917935 -0.59827632 0.15920556
-0.39657038 -0.66792405 -0.00000206
-0.65591979 -0.50475627 -0.17071636
-0.54007268 -0.50386673 0.24665426
-0.20564958 -0.66353589 -0.00000090
-0.53932554 -0.50206131 0.16217107
-0.42130205 -0.75194073 -0.00000242
-0.56213158 -0.28125465 -0.16892768
-0.30631453 -0.69936991 -0.00000160
-0.62703735 -0.71381283 0.15755022
-0.08459571 0.59576321 0.06226985
-0.06241949 0.61307001 0.00000215
-0.45359209 -0.32010025 -0.00000154
-0.09403558 0.57297081 0.09692881
-0.10912657 0.58937937 -0.03235295
-0.55083221 -0.29329139 -0.14484960
-0.20486243 0.36905554 -0.03896735
-0.10955174 -0.78848726 -0.00000063
-0.49055532 -0.34126410 -0.02634861
-0.11193394 0.54796791 -0.01114199
-0.52994591 -0.22112148 -0.15816791
-0.25403237 0.18670271 0.18061386
-0.59855723 -0.76694709 -0.00000353
-0.34821630 0.22956555 -0.16549148
-0.02156929 0.76878864 -0.01277336
-0.31397733 0.13749288 -0.05847998
-0.18024656 -0.61139679 -0.00000062
-0.64650571 -0.66813773 -0.05673719
-0.40597984 -0.18014559 0.40986890
-0.49542695 -0.34619346 -0.03053254
-0.33866075 0.23199652 -0.15285216
-0.48401052 -0.56700051 -0.00000234
-0.42278227 -0.38903281 -0.00000152
-0.07110345 0.01831181 -0.00000949
-0.03563733 0.46207154 -0.00000168
-0.55397791 -0.29359898 -0.14931218
-0.63747108 -0.69338733 -0.02791556
-0.45393023 -0.23333463 -0.03829701
-0.52691364 -0.43438697 -0.02307382
-0.43104467 0.13520201 -0.23016402
-0.27383977 -0.73948908 -0.00000150
-0.61329889 -0.68064606 0.18202843
-0.05357898 0.04396640 -0.00000950
-0.60557663 -0.77590925 -0.00000359
-0.41824549 -0.28134808 -0.00000123
-0.28012463 -0.55351472 -0.00000107
-0.34054291 0.21583767 -0.14573877
-0.08385628 0.55472261 0.00000163
-0.23225801 0.40667075 -0.10250919
-0.37754199 -0.11148309 0.24102566
-0.55766094 -0.17906693 -0.22490084
-0.23062557 0.21872993 -0.00000067
-0.53597069 -0.02184730 -0.28911766
-0.49855277 -0.40363139 0.28669921
-0.18633448 0.37869465 -0.01747660
-0.15047669 0.31233451 -0.00000121
-0.55737793 -0.08592791 -0.28152379
-0.09528101 -0.33094957 0.00000060
-0.32977051 0.19550143 -0.11735691
-0.43894097 -0.64451838 -0.00000226
-0.37518227 -0.10578684 0.25488213
-0.64648962 -0.44063115 -0.19604591
-0.64046675 -0.74623346 0.16676094
-0.39255241 -0.14772747 0.37917516
-0.23929276 -0.66090459 -0.00000110
-0.26086265 -0.47773546 -0.00000077
-0.31589597 0.08122878 -0.02685874
-0.61911601 -0.69468957 0.15616401
-0.19190192 0.03049808 -0.00000560
-0.22542433 0.21380800 -0.00000092
-0.37681693 -0.02846950 -0.04974912
-0.59104645 -0.13110267 -0.30363703
-0.36149317 -0.28181309 -0.00000089
-0.13977814 -0.35227209 0.00000028
-0.24780734 -0.40980291 -0.00000052
-0.42164654 0.08619732 -0.18625654
-0.62339884 -0.44821602 -0.15726033
-0.06368747 -0.71036786 -0.00000016
-0.40356791 -0.49333748 -0.00000167
-0.18895641 -0.68800515 -0.00000086
-0.51039648 -0.30552122 -0.07757439
-0.02521802 -0.43149239 0.00000077
-0.51074499 -0.22057392 -0.13011420
-0.11174677 0.62070107 -0.05540941
-0.05194258 0.08204172 -0.00000879
-0.18992458 0.07673914 -0.00000473
-0.05654009 0.66349483 0.05850608
-0.07417220 -0.38254139 0.00000060
-0.26715848 -0.41899547 -0.00000066
-0.32987550 0.00359676 0.26631522
-0.66701317 -0.81032062 0.13345215
-0.48717383 -0.01127907 -0.22344264
-0.42005211 -0.21411201 0.24083228
-0.58215868 -0.36930245 -0.14461491
-0.46482816 -0.26527119 -0.03485088
-0.44629005 -0.27746111 0.35523722
-0.05455082 -0.40628120 0.00000066
-0.14650992 0.26839912 -0.00000221
-0.52992964 -0.21514548 -0.16180374
-0.00934377 0.16808894 -0.00000836
-0.40853941 -0.18632285 0.35991725
-0.41306621 -0.75261611 -0.00000237
-0.05561579 0.55540282 0.00000079
-0.17199454 -0.08938999 0.00000074
-0.05034188 -0.25793037 0.00000105
-0.47576353 -0.15616171 -0.11784134
-0.23368260 0.23582718 0.22568621
-0.49599808 -0.71160370 -0.00000277
-0.04923187 -0.28861234 0.00000098
-0.67844123 -0.78831172 -0.03035624
-0.48133123 0.07983927 -0.27060804
-0.26469317 0.16096558 0.18084605
-0.50375706 -0.75791234 -0.00000294
-0.27274033 -0.79650742 -0.00000164
-0.44582388 -0.27633375 0.31075916
-0.58654934 -0.61606854 0.18937720
-0.19445834 -0.54605770 -0.00000054
-0.27350283 0.24845351 -0.06659331
-0.66557062 -0.54979545 -0.15740192
-0.35802799 -0.40888071 -0.00000118
-0.00566174 -0.41561314 0.00000093
-0.13455130 -0.35650209 0.00000030
-0.47771284 -0.19432808 -0.09734911
-0.37998462 -0.31515414 -0.00000108
-0.39000863 -0.27398026 -0.00000104
-0.10616168 -0.31556481 0.00000057
-0.33583605 -0.01079032 0.23160186
-0.13170575 0.29581270 -0.00000211
-0.57442462 -0.53187162 -0.03361724
-0.21378087 0.04658127 -0.00000462
-0.45216081 -0.21378483 -0.04765382
-0.02795708 0.01965047 -0.00001076
-0.25678155 0.26501742 -0.05201472
-0.24073450 -0.62798470 -0.00000102
-0.23801400 0.22537614 0.15391073
-0.03269629 -0.78175050 -0.00000015
-0.58523190 -0.42738679 -0.11358602
-0.42778915 0.09680387 -0.20183437
-0.47588325 -0.34890243 0.27830613
-0.64226991 -0.61172557 -0.08502310
-0.53470731 -0.13186044 -0.21987414
-0.28609249 0.10929462 0.29496980
-0.29552045 -0.10631139 -0.00000005
-0.31824973 0.12503363 -0.05716637
-0.59434533 -0.34947786 -0.17477442
-0.18885857 0.00668792 -0.00000617
-0.24528240 0.20782617 0.18812300
-0.37345141 -0.10160425 0.27658749
-0.58372331 -0.60924602 0.14184858
-0.16365533 0.49221823 -0.05347043
-0.64788628 -0.69859523 -0.04012520
-0.54036987 -0.73986393 -0.00000311
-0.18725064 -0.12333305 0.00000056
-0.28185245 0.11953725 0.21528618
-0.33156434 -0.27616447 -0.00000069
-0.46360305 -0.26375550 -0.03396780
-0.48896587 -0.07875563 -0.18476734
-0.28288275 0.11704916 0.22407916
-0.24288133 0.25455058 -0.02505268
-0.54563463 -0.66618186 -0.00000296
-0.39309135 -0.22613224 -0.00000094
-0.50326937 -0.41501793 0.29793057
-0.23195884 0.43677598 -0.12050430
-0.08788818 0.58781505 0.05590362
-0.10997257 0.60360801 -0.04231785
-0.08763161 -0.43396589 0.00000039
-0.27773735 0.13861193 -0.00558359
-0.64667630 -0.43328553 -0.20082057
-0.29911238 -0.37264806 -0.00000074
-0.45789692 -0.30548194 0.35368705
-0.01117364 -0.29709566 0.00000119
-0.12122049 -0.56207842 -0.00000014
-0.35227662 0.13049093 -0.11081823
-0.14447570 0.45119533 0.14537112
-0.18012267 0.39358452 -0.01741132
-0.44939619 -0.28495747 0.29465422
-0.27332750 0.36927089 -0.14032656
-0.42885271 -0.54367822 -0.00000195
-0.46744800 0.01119886 -0.20804371
-0.49922621 -0.40525714 0.29282257
-0.14046770 -0.26846924 0.00000048
-0.07793415 0.65753734 -0.02797631
-0.26057589 0.17350832 -0.00158161
-0.57156944 -0.45381075 -0.07720281
-0.35144290 -0.23459041 -0.00000071
-0.58165020 -0.60424137 0.20200033
-0.63664508 -0.66841054 -0.04199090
-0.11875952 0.44749838 0.00000053
-0.68428451 -0.52349728 -0.20117684
-0.42294264 -0.43142292 -0.00000163
-0.20921895 0.40266559 -0.06599245
-0.44708624 -0.27938318 0.35322964
-0.43650529 -0.17742734 -0.04677324
-0.19937964 -0.66581339 -0.00000087
-0.16497426 0.34436253 -0.00000013
-0.04421537 0.00970418 -0.00001047
-0.31670108 0.00357489 -0.00000237
-0.17774884 -0.09538401 0.00000069
-0.56743526 -0.56992424 0.17926334
-0.12671688 0.57766479 -0.05118629
-0.46493554 -0.31380025 -0.00528890
-0.48369285 -0.36775565 0.25803325
-0.26962078 0.21698284 -0.04157992
-0.17472699 0.04953523 -0.00000574
-0.67444819 -0.79958653 -0.01754736
-0.56496006 -0.38759348 -0.10798432
-0.39621815 -0.15657368 0.29122940
-0.26207951 -0.42399737 -0.00000064
-0.12490196 0.49845326 0.10337208
-0.13540693 -0.71024859 -0.00000059
-0.39271790 -0.60260564 -0.00000188
-0.27401224 -0.24095388 -0.00000026
-0.27936998 -0.52848995 -0.00000101
-0.18119936 -0.78970569 -0.00000107
-0.37655318 -0.10910083 0.38061371
-0.21304852 0.19160809 -0.00000174
-0.52929801 -0.21295340 -0.16221233
-0.11301872 -0.00186459 0.00000131
-0.22231391 -0.36195931 -0.00000025
-0.36848065 -0.29892495 -0.00000097
-0.36635223 0.20430237 -0.17683391
-0.25811934 -0.77988821 -0.00000151
-0.18374643 0.47016516 -0.06966961
-0.46804222 -0.31650648 -0.00822479
-0.55339575 -0.09996007 -0.26704228
-0.05999842 -0.62032104 0.00000009
-0.17520855 -0.13689651 0.00000060
-0.44475585 -0.27375519 0.30738801
-0.23992206 -0.06693802 0.00000038
-0.00941573 -0.52207774 0.00000064
-0.45386201 0.07748007 -0.22854924
-0.47104955 -0.25057870 -0.05304753
-0.05624278 0.01133719 -0.00001008
-0.04404018 0.12255064 -0.00000822
-0.43538973 0.02408753 -0.16853817
-0.38597053 -0.13183568 0.34034368
-0.09547190 0.32066727 -0.00000271
-0.44993171 0.14126131 -0.26179990
-0.55314946 -0.09733632 -0.26828504
-0.25811362 0.40095907 -0.13723934
-0.14647999 -0.11508340 0.00000083
-0.10979574 -0.73724967 -0.00000051
-0.09573671 -0.59500420 -0.00000007
-0.18430927 0.44104058 -0.05266495
-0.20467113 -0.10586425 0.00000050
-0.38551739 -0.50822324 -0.00000160
-0.02644267 0.68832225 0.00000256
-0.11993948 -0.06119309 0.00000112
-0.08861840 -0.68400627 -0.00000024
-0.22104824 -0.71168345 -0.00000111
-0.61122441 -0.36790025 -0.18844809
-0.16973989 0.33856359 -0.00000011
-0.32764056 -0.10031684 -0.00000023
-0.22466719 0.18899888 -0.00000144
-0.56590563 -0.56623155 0.21373612
-0.68220508 -0.56656116 -0.17172857
-0.52266997 -0.46185076 0.15476264
-0.17522904 -0.27609199 0.00000025
-0.03898535 0.51391935 -0.00000055
-0.05317622 0.17475218 -0.00000690
-0.29929134 -0.58568811 -0.00000127
-0.07920849 -0.39759031 0.00000053
-0.24447866 0.20976374 0.22312939
-0.59966850 -0.32203907 -0.19944932
-0.18526866 0.07711237 -0.00000487
-0.51526445 0.02103913 -0.28476802
-0.30392787 -0.73121578 -0.00000166
-0.16640222 0.39826295 0.11739814
-0.02510044 -0.09483223 0.00000161
-0.53780371 -0.03167315 -0.28581020
-0.59593230 -0.15191200 -0.29811662
-0.45222741 -0.72913659 -0.00000255
-0.01826567 0.22514045 -0.00000695
-0.09087113 0.62993205 -0.03019759
-0.44241062 -0.26808989 0.22709057
-0.65046585 -0.57651323 -0.11870621
-0.53313982 -0.48712975 0.22543308
-0.65834957 -0.36028102 -0.26279026
-0.09480951 0.13473932 -0.00000644
-0.14770526 0.31187579 -0.00000131
-0.34519044 -0.21608287 -0.00000062
-0.24192528 0.36147451 -0.08912286
-0.42044446 -0.21506594 0.39837283
-0.51551872 -0.10044059 -0.21074586
-0.18565975 -0.04989457 0.00000075
-0.25752553 0.10741094 -0.00000208
-0.57444620 -0.60145026 -0.00000297
-0.01861384 -0.33962527 0.00000104
-0.25221097 -0.49914989 -0.00000077
-0.56082231 -0.68074840 -0.00000309
-0.48794347 -0.62025040 -0.00000250
-0.17538357 0.37658072 0.11240127
-0.44858176 -0.00799445 -0.16839486
-0.15954776 -0.57095653 -0.00000039
-0.35971805 0.18355691 -0.15431993
-0.39237499 -0.14729796 0.35111034
-0.23104139 0.44428807 -0.12374845
-0.60446483 -0.79051524 -0.00000362
-0.14725265 0.55419821 -0.06717723
-0.23409925 -0.12404308 0.00000028
-0.61131215 -0.53568345 -0.08582190
-0.10313251 0.59225452 -0.02525141
-0.42547899 -0.22721560 0.28604895
-0.01399490 -0.28484860 0.00000120
-0.54911804 -0.34657007 -0.10968558
-0.43228024 0.05539150 -0.18311226
-0.63054425 -0.62638003 -0.05871152
-0.59049416 -0.62559187 0.15693700
-0.12961145 -0.44513661 0.00000010
-0.22792166 0.43412960 -0.11291449
-0.02727370 -0.49086913 0.00000061
-0.34839788 -0.35517120 -0.00000099
-0.46488369 -0.07246730 -0.15301241
-0.22193320 0.34094205 -0.04698930
-0.68469399 -0.60983956 -0.14890338
-0.08339482 0.16298109 -0.00000622
-0.05627470 -0.70427686 -0.00000010
-0.54026502 -0.50433111 0.20295843
-0.35663125 0.28733206 -0.21331128
-0.21362209 -0.05978059 0.00000056
-0.08220074 0.41029733 -0.00000131
-0.67129505 -0.69628602 -0.07614996
-0.13876744 -0.19824472 0.00000067
-0.33169305 0.03772513 -0.02357206
-0.22755721 -0.00824475 0.00000061
-0.31396374 0.04200712 0.31031993
-0.51629317 -0.44645944 0.26968932
-0.62315208 -0.74592561 -0.00000363
-0.62050527 -0.37825248 -0.19583005
-0.13059133 0.44624478 0.00000087
-0.18667777 0.49796337 -0.09102823
-0.36016235 -0.05859040 -0.00667791
-0.39587533 -0.44307804 -0.00000150
-0.43144056 -0.24160983 0.32389244
-0.56881171 -0.79812926 -0.00000343
-0.41653270 -0.32110599 -0.00000132
-0.64200163 -0.66892487 -0.04959572
-0.01112979 -0.49762973 0.00000069
-0.26152828 -0.34254208 -0.00000043
-0.33808479 -0.01622911 0.35592887
-0.32329732 0.24814878 -0.14002910
-0.18692943 0.35174757 -0.00185298
-0.52537823 -0.30290353 -0.10132845
-0.47760773 -0.02867548 -0.19864479
-0.46773136 -0.14950036 -0.11004522
-0.37439871 0.26055536 -0.22318201
-0.36361977 0.02552899 -0.06330723
-0.61984241 -0.79826683 -0.00000374
-0.06669804 0.11762525 -0.00000763
-0.41137460 -0.56876868 -0.00000190
-0.57170868 -0.73036069 -0.00000328
-0.57305574 -0.58349299 0.15795767
-0.58406359 -0.61006761 0.15535329
-0.59792417 -0.22244440 -0.25786531
-0.50049144 -0.10670537 -0.18469086
-0.03378180 0.35516787 -0.00000388
-0.46258491 -0.19806136 -0.07269569
-0.58691019 -0.37482640 -0.14825709
-0.62145555 -0.46924749 -0.14150673
-0.29091933 -0.17217496 -0.00000019
-0.43003792 -0.17143929 -0.04087834
-0.39745748 0.21578743 -0.22985762
-0.39673880 -0.15783198 0.32355016
-0.36409760 0.17074306 -0.15294756
-0.39845064 -0.16196449 0.31799015
-0.24441984 0.20990638 0.21518391
-0.59699863 -0.52485168 -0.07129273
-0.39360479 -0.15026832 0.38348448
-0.22599308 0.25439334 0.19760929
-0.32916591 0.08361410 -0.04793954
-0.16825533 -0.41594547 -0.00000006
