ply
format ascii 1.0
element vertex 1384
property float x
property float y
property float z
end_header
0.31949449 -0.70362651 0.00000000
-0.73522377 -0.59743840 -0.00000025
0.05798133 -0.67725706 0.00000000
-0.03050960 -0.76380593 0.00000000
-0.33500510 0.13192777 -0.00000012
-0.38339123 0.14443114 -0.00000024
-0.25794977 -0.29954651 0.00000000
-0.04551654 -0.10688795 0.00000000
-0.21459328 -0.14785378 0.00000000
0.63304210 -0.32055357 -0.00000072
0.11734969 0.08459402 0.00000000
-0.62107843 -0.48601282 -0.00000019
0.63216555 0.03867436 -0.00000135
0.27021420 -0.45623311 0.00000000
-0.06973641 0.62618375 0.00000000
0.06474809 0.43498200 0.00000000
-0.06714337 0.57794738 0.00000000
-0.71548754 -0.74894840 -0.00000006
-0.09242334 -0.73103362 0.00000000
0.13541155 -0.56041473 0.00000000
-0.00894441 -0.59224260 0.00000000
-0.11317551 -0.13573313 0.00000000
0.49916688 -0.54495013 0.00000000
0.24911937 0.06100038 0.00000000
0.39975691 -0.29068109 0.00000000
-0.42322665 -0.51006883 0.00000000
-0.60400319 -0.19363499 -0.00000041
-0.11658850 -0.23029920 0.00000000
0.27997050 -0.71686232 0.00000000
-0.48086748 -0.31621641 -0.00000004
0.32935902 -0.32399958 0.00000000
-0.19408868 -0.38519049 0.00000000
0.23285776 0.07593672 0.00000000
-0.27744183 -0.36841717 0.00000000
0.13301957 -0.42404655 0.00000000
-0.01607671 -0.41813526 0.00000000
0.27020180 -0.70257813 0.00000000
0.40306550 -0.72909153 0.00000000
-0.13302401 0.37661198 0.00000000
0.71255350 -0.22754247 -0.00000122
-0.65730304 -0.29355749 -0.00000044
-0.09785048 -0.30414772 0.00000000
0.55853289 0.00998958 -0.00000099
-0.52117050 -0.74311554 0.00000000
-0.47967455 0.18349804 -0.00000048
0.17713702 -0.19426392 0.00000000
-0.37669045 0.40223253 -0.00000045
-0.28847450 -0.00863028 0.00000000
-0.15160763 -0.63736612 0.00000000
-0.33455059 -0.13802437 0.00000000
0.70275307 -0.26417482 -0.00000112
0.08725947 0.06826741 0.00000000
0.51203048 -0.45455176 0.00000000
-0.45314738 0.11652036 -0.00000036
-0.03655814 -0.49759349 0.00000000
-0.25699577 0.15263721 0.00000000
-0.22054978 -0.42401037 0.00000000
0.23473427 -0.17547552 0.00000000
-0.50742924 0.03336854 -0.00000041
0.15125348 0.34948045 0.00000000
-0.31101379 -0.19494490 0.00000000
-0.59739381 -0.15656446 -0.00000043
-0.18426567 -0.18455344 0.00000000
0.21706018 0.32419914 -0.00000009
-0.18256651 0.03096203 0.00000000
0.37446633 -0.03369730 -0.00000012
0.21469212 -0.33715254 0.00000000
-0.41056097 0.24917381 -0.00000039
-0.28359082 -0.41635209 0.00000000
0.21159461 -0.73362499 0.00000000
-0.02615035 0.48282084 0.00000000
-0.75540006 -0.15444759 -0.00000077
0.53405136 -0.71173352 0.00000000
0.20937201 -0.75128978 0.00000000
0.67402577 -0.75889868 -0.00000010
-0.74931562 -0.32802433 -0.00000059
-0.33774018 0.28426364 -0.00000026
0.51600718 -0.03523599 -0.00000073
0.27430108 -0.40679291 0.00000000
-0.31564531 -0.03452683 0.00000000
0.52244055 0.07539604 -0.00000095
0.26969650 -0.62011063 0.00000000
0.26974311 -0.07736901 0.00000000
0.68911207 -0.10215579 -0.00000135
0.24527945 -0.45841441 0.00000000
0.73873407 -0.77192867 -0.00000007
-0.06660537 -0.63946056 0.00000000
0.09400683 0.40039292 0.00000000
-0.27065802 -0.38897926 0.00000000
-0.19006895 0.30584356 0.00000000
-0.78188586 -0.21599309 -0.00000073
-0.54516309 -0.17987801 -0.00000030
0.55005127 0.05591181 -0.00000103
-0.61134827 -0.48988128 -0.00000016
0.22217198 -0.77953249 0.00000000
0.61332601 -0.07530121 -0.00000107
-0.19154613 -0.17516230 0.00000000
-0.12315370 -0.11459485 0.00000000
0.46468678 -0.15607016 -0.00000029
-0.26899627 -0.76021779 0.00000000
0.13634025 -0.08514551 0.00000000
0.00079853 -0.34664032 0.00000000
0.60819161 -0.78002083 0.00000000
-0.28676769 0.24028528 -0.00000012
-0.09930731 -0.56400669 0.00000000
0.55148375 -0.62917960 0.00000000
-0.14222975 -0.58677042 0.00000000
-0.04260107 -0.18186341 0.00000000
-0.40368891 -0.58180720 0.00000000
0.69833684 -0.44177958 -0.00000079
-0.09592589 -0.23162279 0.00000000
-0.65602636 0.08297177 -0.00000077
-0.06300775 0.02736060 0.00000000
0.18985127 0.33530343 0.00000000
0.22860374 -0.33953309 0.00000000
0.42766488 -0.69941163 0.00000000
-0.75473285 -0.42849326 -0.00000046
-0.73766202 -0.33446047 -0.00000057
-0.00630560 0.78483504 -0.00000000
0.75914621 -0.55998278 -0.00000060
-0.03350136 -0.01658773 0.00000000
0.68578821 -0.54626870 -0.00000055
0.53064716 -0.65854388 0.00000000
-0.65473253 -0.60664976 -0.00000015
-0.75321293 -0.78758949 -0.00000002
-0.15571323 0.17179333 0.00000000
0.49255437 -0.45435879 0.00000000
0.00573793 -0.38847518 0.00000000
0.16381392 0.01757356 0.00000000
0.68171924 -0.34228787 -0.00000089
0.66596705 0.05680950 -0.00000153
0.14752299 -0.35144377 0.00000000
-0.78782505 -0.23936594 -0.00000070
0.05494830 0.00141960 0.00000000
0.00914041 -0.65549105 0.00000000
-0.13012299 0.01179204 0.00000000
-0.07307921 -0.69265163 0.00000000
0.30121580 -0.62991631 0.00000000
-0.28545848 -0.03636765 0.00000000
0.27075747 0.38490763 -0.00000042
0.02212483 -0.18888000 0.00000000
0.03230370 0.42467317 0.00000000
-0.69132614 -0.34255996 -0.00000047
-0.18334463 -0.50501633 0.00000000
0.30676907 -0.45890993 0.00000000
-0.46975496 -0.37768015 0.00000000
0.69814098 -0.24845146 -0.00000113
-0.10729622 0.28618780 0.00000000
0.15604930 0.06057825 0.00000000
0.53623253 0.23203532 -0.00000128
-0.52619779 0.08077087 -0.00000049
0.76842552 -0.69133347 -0.00000027
-0.39286005 -0.37198496 0.00000000
0.13719364 -0.63478076 0.00000000
-0.72008795 -0.51514548 -0.00000036
0.53236693 0.26001692 -0.00000132
-0.18353145 0.25418422 0.00000000
-0.17966229 -0.79781014 0.00000000
0.44181526 -0.16071093 -0.00000019
0.55404061 0.13897242 -0.00000120
0.48939061 0.13464265 -0.00000091
-0.59957105 -0.50687271 -0.00000012
-0.21878770 -0.49484265 0.00000000
0.01830456 0.08210797 0.00000000
-0.67886025 -0.62629175 -0.00000019
-0.49039620 0.16031818 -0.00000048
0.35927033 -0.12442388 0.00000000
-0.39490923 0.26058844 -0.00000037
-0.24877562 -0.13735993 0.00000000
0.74367696 -0.38860461 -0.00000103
0.16168213 -0.53328812 0.00000000
0.42205626 0.37696144 -0.00000105
-0.00595475 0.37801090 0.00000000
-0.50177437 -0.13721630 -0.00000024
-0.19756354 -0.77848530 0.00000000
0.56017876 -0.48300079 -0.00000012
-0.42228857 0.10076757 -0.00000028
0.12383361 -0.19545804 0.00000000
-0.12980883 -0.31345209 0.00000000
-0.36460635 -0.75587523 0.00000000
-0.13500594 0.57222551 -0.00000009
-0.47158644 0.01978960 -0.00000032
-0.76783228 -0.01222825 -0.00000092
0.02366713 0.23396596 0.00000000
0.53194183 0.26620999 -0.00000130
0.57434541 -0.74002397 0.00000000
-0.04712275 -0.60681278 0.00000000
0.01477655 0.33171785 0.00000000
-0.28925219 -0.38748622 0.00000000
0.02356830 -0.68852448 0.00000000
0.51220930 -0.45866153 0.00000000
-0.03089373 -0.31409955 0.00000000
-0.47282323 -0.75205141 0.00000000
-0.46002182 -0.06691627 -0.00000022
-0.72707444 -0.65984786 -0.00000018
0.09984375 -0.53360945 0.00000000
-0.71359354 -0.01180425 -0.00000081
0.71526146 0.05036510 -0.00000173
0.17396550 0.17499308 0.00000000
-0.15306737 0.24850649 0.00000000
-0.27462494 -0.11692949 0.00000000
-0.51315188 0.11084530 -0.00000049
-0.31407002 -0.73883617 0.00000000
0.20804337 -0.79264694 0.00000000
0.62588066 -0.42104602 -0.00000051
-0.16419861 -0.56127560 0.00000000
-0.25805536 0.17557214 0.00000000
0.23997733 -0.48873371 0.00000000
0.47684035 0.00773728 -0.00000063
0.52402258 -0.61537778 0.00000000
-0.31491277 0.08767642 -0.00000004
0.40520746 0.08374838 -0.00000046
0.14640708 0.32859671 0.00000000
-0.31868067 -0.41722777 0.00000000
-0.64362758 -0.30274636 -0.00000040
0.53093368 -0.02096159 -0.00000081
0.36286983 -0.53430164 0.00000000
0.59438086 -0.49608287 -0.00000025
-0.13562874 0.53569710 -0.00000006
0.11000097 -0.23959899 0.00000000
-0.37936017 0.11804920 -0.00000021
0.67762989 -0.59282458 -0.00000043
-0.11883189 0.47328365 0.00000000
-0.30575863 -0.02803944 0.00000000
0.29178497 -0.68964845 0.00000000
0.05116226 -0.51179808 0.00000000
0.39249694 0.31467193 -0.00000082
-0.25886953 -0.23272759 0.00000000
-0.18910526 -0.72703445 0.00000000
0.23600760 -0.59999073 0.00000000
0.57408345 0.03429648 -0.00000110
0.51489311 -0.26812401 -0.00000031
-0.70804060 0.08611587 -0.00000088
0.23812634 0.16678922 0.00000000
-0.23233701 -0.34671766 0.00000000
0.78915185 -0.17373656 -0.00000157
-0.25537619 0.06796109 0.00000000
-0.15161668 0.45273480 -0.00000002
0.02248334 -0.14100479 0.00000000
0.03221020 0.21683864 0.00000000
-0.42563277 -0.39606482 0.00000000
-0.02567881 -0.19665518 0.00000000
0.65968090 -0.57730693 -0.00000038
-0.39019772 -0.69195056 0.00000000
0.41498423 0.05679126 -0.00000046
0.22049157 -0.75553745 0.00000000
-0.04960446 -0.19499458 0.00000000
0.25138116 -0.19408414 0.00000000
0.35077021 -0.57362562 0.00000000
-0.49891090 -0.62891656 0.00000000
0.28772974 -0.57488650 0.00000000
-0.35276824 -0.01517726 -0.00000003
0.27080709 0.14430591 0.00000000
0.17464493 0.34616321 0.00000000
-0.35672224 0.27005365 -0.00000029
0.20832558 0.11619402 0.00000000
0.66497749 -0.00105514 -0.00000142
-0.16648202 0.48249072 -0.00000007
-0.38022628 0.04861967 -0.00000015
0.38594279 -0.23826297 0.00000000
-0.09023592 0.20967121 0.00000000
-0.45143098 -0.22650829 -0.00000006
-0.53499949 -0.38171801 -0.00000010
0.19294906 -0.70317966 0.00000000
0.04625047 -0.11839900 0.00000000
0.36857483 0.43063280 -0.00000091
0.20839821 0.50886923 -0.00000037
0.31084406 -0.06428046 0.00000000
-0.04920403 0.24032964 0.00000000
0.00834562 -0.18975519 0.00000000
-0.11115273 0.51711357 0.00000000
-0.17539211 -0.54283148 0.00000000
0.77961367 -0.44734019 -0.00000088
0.10927192 0.49694839 0.00000000
-0.01661871 -0.07375049 0.00000000
-0.42892510 0.22448508 -0.00000041
0.61919028 -0.63019991 -0.00000011
-0.38519022 -0.08885014 -0.00000004
0.01641280 0.15753147 0.00000000
0.04248496 -0.25251037 0.00000000
0.73591739 -0.77013129 -0.00000007
0.59354728 -0.31272843 -0.00000057
0.62452441 -0.72930861 0.00000000
0.04805555 0.10542759 0.00000000
-0.22679330 -0.63717568 0.00000000
-0.39907277 0.31190717 -0.00000042
-0.01581446 -0.55747503 0.00000000
0.36692896 -0.23404536 0.00000000
-0.43124062 -0.20493431 -0.00000003
-0.22811583 -0.19510773 0.00000000
-0.64647686 -0.06886568 -0.00000061
-0.44827452 0.06119098 -0.00000030
-0.34078795 -0.10797875 0.00000000
0.18677317 -0.15358098 0.00000000
0.02988532 -0.64960498 0.00000000
0.38440612 -0.37454349 0.00000000
0.21039081 0.19262277 0.00000000
-0.41886285 0.09075008 -0.00000027
0.60124147 -0.38847372 -0.00000047
-0.30858678 -0.65483069 0.00000000
-0.60809284 -0.06871109 -0.00000053
-0.12717319 0.20037913 0.00000000
-0.49890229 -0.32620266 -0.00000007
-0.48692712 -0.74834728 0.00000000
-0.17452022 0.21957859 0.00000000
0.38289571 -0.25249001 0.00000000
0.32006124 -0.05011446 0.00000000
-0.21136025 0.24388815 0.00000000
-0.02921193 0.45342526 0.00000000
-0.34799966 -0.77992219 0.00000000
0.25603819 0.04905574 0.00000000
0.43690255 -0.28611609 0.00000000
-0.70565599 -0.30167112 -0.00000053
0.65412158 -0.30089530 -0.00000085
0.29116133 -0.43516400 0.00000000
-0.53625870 -0.66885197 0.00000000
0.45000836 0.10777430 -0.00000070
-0.31500098 0.30045334 -0.00000023
-0.75804394 -0.04500563 -0.00000087
0.45605475 -0.14064375 -0.00000028
-0.40350217 -0.62712598 0.00000000
-0.26032376 0.24919552 -0.00000007
-0.25559470 0.02406334 0.00000000
0.51190501 -0.61207741 0.00000000
0.15569162 -0.11799141 0.00000000
0.22961184 0.38766024 -0.00000025
-0.02349697 -0.11219826 0.00000000
0.13860077 0.07189215 0.00000000
-0.31787184 0.03877533 -0.00000001
0.68683326 -0.61313218 -0.00000043
0.42159337 -0.36450565 0.00000000
0.50356942 0.20388900 -0.00000110
-0.05926542 -0.10671546 0.00000000
0.26012343 -0.62707937 0.00000000
0.11784687 0.51073641 0.00000000
-0.46460569 -0.72372407 0.00000000
-0.38328853 -0.05713452 -0.00000006
0.49143457 -0.54613066 0.00000000
-0.57532698 -0.05007494 -0.00000048
-0.42608595 -0.63874853 0.00000000
0.33163086 0.15400386 -0.00000027
0.69777513 0.06627318 -0.00000168
0.79856449 -0.57448757 -0.00000056
-0.05649922 -0.71034157 0.00000000
0.06134194 -0.11031752 0.00000000
-0.32294437 0.22135623 -0.00000018
0.41843182 -0.65445524 0.00000000
-0.50618351 -0.22775108 -0.00000017
-0.77036375 -0.51884460 -0.00000035
-0.34921125 -0.68006968 0.00000000
-0.13812406 -0.61591595 0.00000000
0.22673498 0.29343057 -0.00000007
0.12048872 -0.42979616 0.00000000
-0.16110013 0.07781147 0.00000000
0.12450854 0.29426330 0.00000000
-0.12647881 -0.65749025 0.00000000
0.62307310 -0.48892042 -0.00000038
0.58142167 -0.38508812 -0.00000039
0.09356268 -0.55584669 0.00000000
0.32921478 -0.47846502 0.00000000
0.75655407 -0.36755857 -0.00000108
-0.69869137 -0.11941479 -0.00000068
-0.53973305 -0.43703285 -0.00000006
0.23699330 -0.64488620 0.00000000
0.48440471 -0.79483622 0.00000000
0.63265276 -0.16786452 -0.00000099
-0.24405248 -0.61359543 0.00000000
0.06009224 -0.37534755 0.00000000
0.29875919 -0.11687942 0.00000000
-0.10423081 -0.51375198 0.00000000
0.47005352 0.13016035 -0.00000082
-0.74470568 0.03429196 -0.00000091
-0.49261829 -0.75941664 0.00000000
0.33759728 0.24037151 -0.00000045
0.36810276 -0.39225942 0.00000000
0.12261871 -0.31888160 0.00000000
0.43082976 -0.23612610 -0.00000001
0.18779993 -0.09117756 0.00000000
0.02256069 -0.55896610 0.00000000
0.18423651 -0.72457761 0.00000000
-0.78496802 -0.50279862 -0.00000037
-0.02176521 0.36122698 0.00000000
-0.05040382 -0.28723928 0.00000000
0.40201122 -0.23339428 0.00000000
-0.21040501 0.38539642 -0.00000008
-0.16004510 -0.19245706 0.00000000
0.38224205 0.00822366 -0.00000023
-0.60359102 -0.78600448 0.00000000
-0.16095817 0.53037626 -0.00000011
0.73254269 0.02579273 -0.00000176
0.55070555 -0.58257806 0.00000000
-0.20081706 -0.31325305 0.00000000
-0.65734291 -0.51512057 -0.00000024
0.19377065 0.34545019 -0.00000002
0.18320467 -0.42885000 0.00000000
0.08005205 0.22214869 0.00000000
0.11836494 0.35060066 0.00000000
0.37796143 0.36104169 -0.00000084
0.61581689 -0.74905246 0.00000000
0.32927883 -0.19940691 0.00000000
0.15341918 0.62426025 -0.00000034
-0.07770730 -0.24779987 0.00000000
0.33719468 0.09338484 -0.00000019
-0.61650002 -0.28011492 -0.00000036
-0.60708201 0.02108416 -0.00000061
0.21198702 -0.31423318 0.00000000
-0.01433436 0.04815646 0.00000000
-0.44437689 -0.14927620 -0.00000011
-0.24224412 0.16660087 0.00000000
-0.60286009 -0.28721529 -0.00000033
-0.56978703 0.17816865 -0.00000067
0.14429064 -0.31267405 0.00000000
0.48666981 0.10033594 -0.00000084
0.68814009 -0.41103935 -0.00000080
0.38420346 -0.66347015 0.00000000
-0.42228374 -0.51843798 0.00000000
-0.36784613 -0.45822775 0.00000000
-0.55405653 -0.33902293 -0.00000018
-0.37268028 0.16230361 -0.00000023
0.50927848 -0.11403114 -0.00000056
0.21108267 -0.15742403 0.00000000
-0.11457819 0.30355504 0.00000000
0.20469221 -0.66673493 0.00000000
0.03865678 -0.52228218 0.00000000
-0.52106392 -0.67123169 0.00000000
-0.54555190 -0.67435831 0.00000000
0.37538317 -0.05961425 -0.00000008
-0.05457572 0.70577455 -0.00000003
-0.32643530 -0.08395206 0.00000000
0.66593897 -0.34597024 -0.00000082
0.02781276 -0.37129256 0.00000000
-0.61385351 -0.21296138 -0.00000041
-0.47974724 -0.73449051 0.00000000
0.37268493 0.36444893 -0.00000082
-0.05111286 -0.06244698 0.00000000
-0.58117211 -0.40533286 -0.00000017
-0.46280321 0.19773920 -0.00000046
0.74061304 -0.46990791 -0.00000083
-0.09908464 -0.52024066 0.00000000
0.44887736 0.22948422 -0.00000091
0.21247430 0.26346600 0.00000000
-0.10117088 -0.76213872 0.00000000
-0.48421735 -0.71337056 0.00000000
-0.21121681 -0.22253837 0.00000000
-0.42884520 -0.14219794 -0.00000008
-0.19860458 0.24132881 0.00000000
-0.03313279 0.57764858 0.00000000
-0.36505777 -0.17395075 0.00000000
0.19999923 -0.14002813 0.00000000
0.79598260 -0.71118671 -0.00000022
-0.59984493 0.03582671 -0.00000060
0.21575931 -0.71712887 0.00000000
-0.67764956 -0.43004879 -0.00000036
-0.26293698 -0.70875704 0.00000000
0.73568767 -0.19988924 -0.00000137
0.16722937 -0.35745674 0.00000000
0.75046223 -0.30522558 -0.00000124
-0.43441713 0.05466807 -0.00000027
0.16763921 0.05125949 0.00000000
0.40634200 0.22198717 -0.00000071
-0.13522100 -0.47473758 0.00000000
0.34211376 0.08255177 -0.00000019
0.30896685 -0.68889147 0.00000000
0.72698653 -0.08784546 -0.00000153
0.32573694 -0.74941552 0.00000000
0.42305216 -0.77870470 0.00000000
-0.46909386 -0.35494775 0.00000000
0.19744064 0.04904657 0.00000000
-0.10001292 0.10755495 0.00000000
-0.02732856 0.31516787 0.00000000
-0.19268377 -0.21850340 0.00000000
-0.03742070 -0.21352910 0.00000000
0.17067909 0.10568664 0.00000000
0.17458723 0.36220935 0.00000000
0.45758143 -0.06658874 -0.00000042
-0.78973430 -0.01242972 -0.00000097
-0.21873595 -0.75865203 0.00000000
-0.41336972 -0.79551393 0.00000000
0.12996612 0.45865810 0.00000000
0.33454436 -0.38135600 0.00000000
-0.05390982 -0.33372512 0.00000000
-0.39273807 -0.09190280 -0.00000005
-0.68824345 -0.32696849 -0.00000047
-0.28683794 -0.42975578 0.00000000
-0.46293664 -0.01724218 -0.00000027
-0.27215195 0.29538077 -0.00000013
0.17993522 0.53268439 -0.00000030
0.15046109 0.08405913 0.00000000
-0.41816521 0.01388172 -0.00000020
-0.29236919 -0.76518917 0.00000000
0.62918609 -0.32938167 -0.00000069
0.22778209 0.35006621 -0.00000018
-0.51754332 -0.49410924 0.00000000
0.35708454 0.42226025 -0.00000086
-0.03796919 -0.25378755 0.00000000
-0.01107980 0.60854030 0.00000000
0.14374267 -0.10874787 0.00000000
0.16180915 -0.41233650 0.00000000
-0.68020648 -0.62106961 -0.00000020
0.10547672 -0.22315778 0.00000000
0.35488027 -0.04727267 -0.00000002
0.50349122 -0.53639293 0.00000000
-0.16326389 0.10585391 0.00000000
0.01481145 -0.75431430 0.00000000
0.38691273 -0.16273528 0.00000000
0.08531136 -0.06947620 0.00000000
-0.13032427 -0.58154833 0.00000000
-0.49733707 -0.11324786 -0.00000025
-0.13483538 0.30126005 0.00000000
0.13145286 -0.71539748 0.00000000
-0.24602789 0.53346992 -0.00000029
0.65521049 -0.07578510 -0.00000125
-0.04926793 0.41879514 0.00000000
-0.46708286 -0.30302951 -0.00000002
-0.15359309 0.19872238 0.00000000
0.54312551 -0.48314786 -0.00000005
0.20292421 -0.13303114 0.00000000
0.71788114 -0.23955782 -0.00000123
0.37612569 -0.59716141 0.00000000
-0.02828361 0.53895426 0.00000000
0.23202386 0.16500939 0.00000000
-0.00407827 -0.63152617 0.00000000
0.04646764 -0.67747492 0.00000000
-0.29438677 -0.56258744 0.00000000
0.73317635 -0.57146281 -0.00000057
0.52801293 -0.17215921 -0.00000053
-0.15603581 0.26014766 0.00000000
-0.52196252 0.27296108 -0.00000065
0.22581875 0.11353128 0.00000000
-0.17417409 -0.78188497 0.00000000
-0.05125589 -0.52405542 0.00000000
0.14257966 -0.72013885 0.00000000
0.32331830 -0.01557888 0.00000000
0.00919915 0.24563757 0.00000000
0.26843357 -0.27169609 0.00000000
-0.49601448 0.16072996 -0.00000049
-0.73688453 0.03018539 -0.00000089
-0.48684901 -0.53207099 0.00000000
-0.00062238 0.26123598 0.00000000
-0.00869336 -0.46450084 0.00000000
0.33938435 -0.17738378 0.00000000
0.42309842 -0.18381004 -0.00000007
0.23360714 -0.69592667 0.00000000
-0.02115513 0.19317415 0.00000000
-0.75553268 -0.04088688 -0.00000087
0.13571388 -0.74338889 0.00000000
0.74531579 -0.00934093 -0.00000175
-0.28600669 0.15063447 -0.00000004
-0.27113977 -0.00136875 0.00000000
0.17450155 0.37086993 0.00000000
0.70595199 -0.57063824 -0.00000057
0.09360736 -0.53036571 0.00000000
-0.32076907 -0.66600555 0.00000000
-0.26578885 0.16139580 -0.00000000
-0.73432434 -0.38645327 -0.00000052
-0.66850132 -0.43844017 -0.00000033
-0.53566754 0.15370902 -0.00000057
0.13411269 0.38009128 0.00000000
-0.38959333 -0.54206347 0.00000000
0.34597391 0.21528994 -0.00000044
-0.31248295 -0.46708566 0.00000000
-0.01841103 -0.72257847 0.00000000
0.75229222 -0.48038432 -0.00000080
-0.39856693 -0.75038326 0.00000000
-0.41779181 -0.55321783 0.00000000
0.55454558 -0.51184893 -0.00000005
0.40120721 -0.18307377 0.00000000
-0.42310768 0.30250570 -0.00000046
0.60635471 -0.48056695 -0.00000032
-0.14014880 0.34873149 0.00000000
0.03481413 0.58672279 0.00000000
0.27603441 0.21736826 -0.00000015
0.05361229 -0.75189525 0.00000000
0.59080660 0.12309388 -0.00000132
0.29266077 0.44892994 -0.00000063
0.57561845 -0.14263666 -0.00000079
0.32656425 -0.32047489 0.00000000
0.27138409 0.41917092 -0.00000048
0.53504771 -0.79708147 0.00000000
-0.07327664 -0.00954562 0.00000000
0.38036302 -0.30984095 0.00000000
-0.07409202 0.47549823 0.00000000
0.18195365 -0.22031537 0.00000000
-0.73950738 -0.71675551 -0.00000010
-0.54684800 -0.77702671 0.00000000
0.77821791 -0.19596483 -0.00000151
-0.16763522 0.59859550 -0.00000018
0.39332202 0.21516071 -0.00000064
0.43448094 0.18025523 -0.00000076
0.18239248 -0.67255884 0.00000000
0.74025196 -0.09900012 -0.00000157
-0.45586115 -0.33244506 0.00000000
-0.59077746 -0.09459203 -0.00000047
0.01724659 -0.13578206 0.00000000
0.28498623 -0.79057956 0.00000000
0.01862365 -0.02897741 0.00000000
-0.22888874 -0.28063917 0.00000000
-0.57162428 0.16728695 -0.00000066
0.13122673 -0.74255699 0.00000000
-0.31455475 -0.38085583 0.00000000
-0.47349402 -0.16409817 -0.00000016
-0.05403325 0.43394452 0.00000000
-0.31695265 -0.65370917 0.00000000
0.69999456 -0.01259489 -0.00000155
0.46149668 0.08803468 -0.00000071
-0.47440413 -0.23890179 -0.00000009
0.06458979 0.20826231 0.00000000
0.17401499 0.19226964 0.00000000
-0.21227235 -0.28656209 0.00000000
0.08170560 -0.44309556 0.00000000
-0.54198360 -0.73641837 0.00000000
-0.33444428 0.21580608 -0.00000020
0.58682978 0.16874903 -0.00000139
-0.47544375 -0.49718884 0.00000000
0.27851692 -0.73908925 0.00000000
-0.70908839 -0.41039932 -0.00000044
0.53477359 -0.55733484 0.00000000
0.41171834 -0.21707819 0.00000000
-0.59935367 -0.65845871 0.00000000
0.28689846 -0.19993281 0.00000000
0.26185501 0.17089455 -0.00000001
-0.02754163 -0.35128373 0.00000000
-0.55185580 -0.01847763 -0.00000045
-0.32720336 -0.46333164 0.00000000
-0.28204700 0.15918209 -0.00000004
-0.03028261 -0.28322259 0.00000000
0.56889796 -0.69509596 0.00000000
-0.49966845 -0.52273691 0.00000000
0.30559382 0.09250897 -0.00000005
0.30817366 -0.58864045 0.00000000
0.56192368 0.18713281 -0.00000131
0.43909812 0.13232368 -0.00000069
-0.19184321 0.03890254 0.00000000
0.68303055 -0.48369855 -0.00000065
0.36581102 0.03692729 -0.00000021
0.11316422 -0.05634741 0.00000000
-0.62298930 -0.79890394 0.00000000
0.24327204 0.51755983 -0.00000054
-0.77214032 -0.12728111 -0.00000083
0.77636731 -0.05804607 -0.00000180
0.44930837 -0.67657542 0.00000000
-0.63858551 -0.28297430 -0.00000041
-0.73478371 -0.29567981 -0.00000060
0.63139915 0.07280357 -0.00000141
0.19480452 -0.46422306 0.00000000
0.41321433 0.22765677 -0.00000075
0.69771606 -0.37288731 -0.00000090
-0.22480945 -0.17850371 0.00000000
-0.09440493 0.63506353 -0.00000006
-0.68802029 0.00540679 -0.00000077
0.21707655 -0.29275146 0.00000000
0.16564885 -0.67779726 0.00000000
-0.64787817 -0.11129266 -0.00000058
0.52806956 -0.05666919 -0.00000074
0.78460813 0.00760398 -0.00000195
0.07177806 -0.65526748 0.00000000
-0.18798506 0.59064823 -0.00000022
0.13742976 0.03490575 0.00000000
-0.07155766 0.55143422 0.00000000
-0.04241190 -0.61191529 0.00000000
-0.15871608 -0.00391110 0.00000000
0.55737472 -0.39337406 -0.00000027
0.19859526 -0.28718600 0.00000000
-0.23173136 0.47122955 -0.00000020
0.35350803 0.40063724 -0.00000080
0.30821562 0.26195800 -0.00000036
-0.71131551 -0.10967595 -0.00000071
0.01441077 -0.39019001 0.00000000
0.46413210 -0.26701203 -0.00000009
0.42955983 0.11993575 -0.00000063
-0.66903955 -0.64209473 -0.00000015
-0.21654920 -0.04430771 0.00000000
0.79469740 -0.59195071 -0.00000052
0.72013539 -0.05704485 -0.00000156
-0.55730063 -0.38757113 -0.00000014
0.44640154 0.04514621 -0.00000057
0.09824999 -0.32730046 0.00000000
-0.61147398 -0.74384063 0.00000000
0.61962759 -0.76716965 0.00000000
0.56466955 -0.23578320 -0.00000058
0.37241089 -0.63488704 0.00000000
0.48822576 0.06570738 -0.00000079
-0.77279115 -0.33082974 -0.00000059
0.34733370 -0.71077883 0.00000000
-0.15176873 -0.16943026 0.00000000
0.52205706 -0.47075936 0.00000000
-0.53325284 0.01568368 -0.00000044
0.74733776 -0.62824196 -0.00000043
-0.56658685 0.07933559 -0.00000057
-0.00410311 0.05192845 0.00000000
0.09487087 0.10534806 0.00000000
0.17071830 0.24334987 0.00000000
0.51232594 -0.01461154 -0.00000075
0.76584458 -0.08336172 -0.00000171
-0.36621302 -0.64435589 0.00000000
0.65752661 -0.26966435 -0.00000092
0.69380790 0.07459308 -0.00000168
0.09378130 -0.56876308 0.00000000
-0.52711600 -0.04202500 -0.00000038
0.19965482 0.13355868 0.00000000
-0.17025626 0.47655159 -0.00000008
0.36064339 -0.21760663 0.00000000
-0.25090146 -0.20722991 0.00000000
0.00279615 -0.43609306 0.00000000
-0.78259194 -0.11695563 -0.00000085
0.00122760 -0.60612500 0.00000000
0.55522740 -0.34724709 -0.00000034
-0.61101514 -0.55677223 -0.00000010
-0.03724238 -0.62365109 0.00000000
-0.36655074 0.07190091 -0.00000014
0.09174224 0.39817348 0.00000000
0.08962118 -0.02999689 0.00000000
-0.43934593 -0.12043436 -0.00000012
0.02171245 0.17114955 0.00000000
-0.27397487 -0.27448225 0.00000000
-0.42933890 0.31768128 -0.00000049
-0.08269315 0.32166454 0.00000000
-0.25499144 0.23392057 -0.00000004
-0.29487813 -0.42187563 0.00000000
-0.79497194 -0.60855895 -0.00000024
-0.67189795 0.08637520 -0.00000080
-0.26476371 -0.13801633 0.00000000
0.18601912 0.01043933 0.00000000
0.16396666 0.58805901 -0.00000033
0.41568279 -0.66868186 0.00000000
0.05020564 -0.66069740 0.00000000
0.48920554 -0.27862895 -0.00000018
0.16375235 -0.04411534 0.00000000
0.06592318 0.20797102 0.00000000
0.60995364 0.15733716 -0.00000147
0.15049578 0.26209182 0.00000000
-0.07827447 0.37168309 0.00000000
0.40918770 0.30499908 -0.00000087
-0.62358409 -0.21839431 -0.00000043
0.45961362 0.04800276 -0.00000063
0.15952829 0.02333556 0.00000000
0.36045271 0.43610013 -0.00000084
-0.22058374 -0.36256957 0.00000000
0.72611856 -0.62320435 -0.00000044
-0.01378704 0.26632518 0.00000000
-0.21072946 -0.47117192 0.00000000
0.27221611 -0.11513881 0.00000000
0.36288217 -0.24638593 0.00000000
-0.32186258 -0.14259271 0.00000000
0.72013211 -0.54833287 -0.00000063
0.37629163 0.01719852 -0.00000022
-0.26360455 0.52507776 -0.00000032
0.72416419 -0.38349622 -0.00000100
0.19002888 0.13481627 0.00000000
0.39307082 -0.15082097 0.00000000
0.16227540 0.09746121 0.00000000
0.10810930 -0.68337804 0.00000000
-0.71874291 -0.38170284 -0.00000049
-0.69653958 0.03292062 -0.00000081
0.53358120 0.04845317 -0.00000095
-0.28837591 0.24124651 -0.00000012
0.14597714 0.40924323 0.00000000
0.75833905 -0.19284368 -0.00000148
-0.16574782 0.03876465 0.00000000
0.26000029 0.00347017 0.00000000
0.06447725 -0.15163437 0.00000000
0.18213385 -0.23595716 0.00000000
0.10331246 -0.73878896 0.00000000
0.64027500 -0.38954335 -0.00000063
0.16251943 -0.21294229 0.00000000
-0.67147642 -0.00338315 -0.00000072
0.05170538 0.35902107 0.00000000
-0.61936927 -0.36784804 -0.00000029
-0.11027184 0.12648612 0.00000000
-0.73975164 0.03918883 -0.00000091
-0.33082280 -0.56514776 0.00000000
-0.19475722 -0.44273743 0.00000000
-0.71525753 -0.47261912 -0.00000040
-0.70644367 -0.00144308 -0.00000080
-0.14521226 0.28190762 0.00000000
-0.00056827 -0.55299246 0.00000000
-0.36875248 -0.55946952 0.00000000
-0.24391924 -0.33328554 0.00000000
0.15007424 0.13562770 0.00000000
0.46129528 -0.33523679 0.00000000
0.22279499 -0.75176823 0.00000000
-0.18533948 0.39527750 -0.00000004
0.46505681 0.22789246 -0.00000097
-0.17692533 0.12350726 0.00000000
0.22390172 -0.64980435 0.00000000
0.08308572 0.58592457 0.00000000
0.44610819 -0.45646200 0.00000000
-0.23644353 -0.13501723 0.00000000
-0.32303128 -0.64495683 0.00000000
0.45578465 -0.23062368 -0.00000012
-0.78992003 -0.79510617 -0.00000001
0.76640528 -0.10611937 -0.00000167
0.28796622 -0.63638407 0.00000000
0.07202407 0.35935786 0.00000000
0.34394923 -0.51894796 0.00000000
-0.73305714 -0.25441065 -0.00000063
-0.33665264 -0.24941871 0.00000000
0.20779131 0.24423635 0.00000000
0.07869409 0.45453048 0.00000000
0.41815138 -0.25628021 0.00000000
0.02174758 0.58834571 0.00000000
0.41337693 -0.76548904 0.00000000
-0.33533764 -0.78766108 0.00000000
0.20227997 0.16906089 0.00000000
-0.38893601 0.11171586 -0.00000022
-0.33572811 0.05915658 -0.00000006
0.64007622 -0.66988003 -0.00000013
0.01991900 -0.70664066 0.00000000
0.57274932 -0.66830134 0.00000000
-0.15069301 0.14335683 0.00000000
-0.42430681 0.14754327 -0.00000033
-0.00499864 0.51972526 0.00000000
-0.13404293 -0.77476656 0.00000000
0.37474042 0.35599214 -0.00000081
0.67493403 -0.47451502 -0.00000063
0.20840649 0.03560335 0.00000000
-0.67190868 -0.78616029 -0.00000002
0.24260089 0.15284152 0.00000000
0.46710315 -0.11850420 -0.00000037
0.58516270 -0.31414884 -0.00000053
-0.46055591 -0.24171436 -0.00000006
-0.14139107 -0.07057613 0.00000000
0.49015900 0.15039349 -0.00000094
-0.26960874 -0.56730390 0.00000000
-0.48646432 -0.54995275 0.00000000
-0.57312530 -0.76330090 0.00000000
-0.64614815 -0.12309562 -0.00000056
0.39142859 -0.07372581 -0.00000013
0.42695200 -0.34031656 0.00000000
0.36529201 -0.16957936 0.00000000
0.08178086 -0.19320153 0.00000000
-0.61921465 0.06518245 -0.00000067
0.20734905 0.19934282 0.00000000
0.05998841 0.03144062 0.00000000
-0.74432701 -0.31911588 -0.00000060
-0.04364248 -0.32352689 0.00000000
-0.09321246 -0.38252944 0.00000000
0.46634382 0.30970204 -0.00000112
0.70624292 -0.27730152 -0.00000111
0.00838894 -0.43619165 0.00000000
0.75700516 -0.35412410 -0.00000111
-0.53420788 -0.23538579 -0.00000022
0.76862895 -0.33373752 -0.00000117
-0.13924360 0.16947892 0.00000000
-0.11413723 -0.31660023 0.00000000
0.00897531 0.52934128 0.00000000
-0.69518286 -0.19698492 -0.00000060
0.52934420 -0.03236577 -0.00000079
-0.06118774 -0.47487086 0.00000000
0.19819108 -0.38628516 0.00000000
-0.44618228 0.24308877 -0.00000046
-0.16614555 0.49850255 -0.00000009
-0.27277023 0.20836917 -0.00000006
-0.71430665 -0.14818873 -0.00000069
-0.23462261 -0.36401013 0.00000000
-0.53176850 -0.69371879 0.00000000
0.69022888 -0.27213401 -0.00000105
-0.13377389 -0.55841917 0.00000000
0.54852808 -0.08543755 -0.00000078
0.09383630 0.14864250 0.00000000
0.03439886 0.43687549 0.00000000
0.62045872 0.08568432 -0.00000139
-0.42740473 -0.37239504 0.00000000
0.03642270 -0.69654930 0.00000000
-0.00065144 0.07247343 0.00000000
0.30733722 0.45598182 -0.00000070
0.20641381 -0.39017320 0.00000000
0.07040015 0.29660198 0.00000000
0.21704823 0.42195782 -0.00000026
0.59173441 0.20104398 -0.00000147
0.22513229 -0.76056439 0.00000000
0.20237863 -0.42100814 0.00000000
0.02719329 -0.57867140 0.00000000
0.35403198 -0.44305587 0.00000000
0.32494202 -0.11489194 0.00000000
-0.56649280 -0.48914844 -0.00000007
0.32480800 0.13174856 -0.00000020
0.18035889 -0.74419671 0.00000000
0.60859424 0.13434979 -0.00000142
-0.00998112 0.23360454 0.00000000
0.51069033 -0.01339828 -0.00000074
-0.16767201 -0.49680755 0.00000000
-0.75090683 -0.44745880 -0.00000044
0.61791909 0.05841675 -0.00000133
0.20583755 0.58927429 -0.00000051
-0.15164003 -0.35054660 0.00000000
-0.51224554 -0.20346415 -0.00000021
0.42190996 -0.40941381 0.00000000
-0.22297890 -0.71379727 0.00000000
-0.57272583 -0.10908820 -0.00000042
0.48870295 -0.17045303 -0.00000037
0.69962597 -0.26273629 -0.00000111
-0.19178253 -0.41292307 0.00000000
-0.09223071 -0.64852631 0.00000000
0.02119205 -0.31231448 0.00000000
0.48528695 -0.10204708 -0.00000048
-0.14642072 -0.28955173 0.00000000
0.17473564 -0.59740579 0.00000000
-0.05861387 0.16619238 0.00000000
-0.76113093 -0.26343012 -0.00000067
0.44352159 -0.51742119 0.00000000
-0.17848755 0.17345260 0.00000000
0.07470258 0.05324983 0.00000000
0.02607864 -0.01464838 0.00000000
0.27709311 0.18414901 -0.00000009
0.12640139 0.09663757 0.00000000
-0.22467411 -0.10857086 0.00000000
0.22375444 -0.15620178 0.00000000
0.56050122 -0.37112880 -0.00000032
0.20889995 -0.54481393 0.00000000
0.79620564 -0.61695617 -0.00000046
-0.37025467 0.23834711 -0.00000029
-0.00408577 0.64096189 0.00000000
-0.26614669 0.50100398 -0.00000030
0.01522887 -0.55617708 0.00000000
0.44964811 -0.21582431 -0.00000012
-0.21034582 -0.11439635 0.00000000
-0.51502430 -0.72285992 0.00000000
0.54100019 -0.79724360 0.00000000
0.39763534 -0.14108600 -0.00000003
0.09018857 0.30524361 0.00000000
-0.38985884 -0.51421857 0.00000000
-0.44854075 0.08930748 -0.00000033
-0.45364380 -0.03627830 -0.00000023
-0.17404091 0.38458189 -0.00000000
0.14927173 -0.69743145 0.00000000
-0.20148075 -0.22938871 0.00000000
-0.11910691 0.57802451 -0.00000006
0.79927653 -0.45423681 -0.00000086
-0.51946580 -0.54550236 0.00000000
0.00752621 -0.29657683 0.00000000
0.35683137 -0.00260236 -0.00000010
-0.03689212 -0.35479578 0.00000000
0.68788767 -0.41341558 -0.00000079
0.37370259 0.28190327 -0.00000068
-0.32289645 -0.69963855 0.00000000
-0.57329476 -0.07063005 -0.00000045
0.01498379 0.26493335 0.00000000
-0.61666238 -0.61974478 -0.00000006
0.49032176 -0.51377380 0.00000000
-0.08674630 -0.74774307 0.00000000
-0.68168670 -0.29277399 -0.00000049
0.65845746 0.00263852 -0.00000140
-0.09137028 0.41543773 0.00000000
-0.00481910 -0.19719769 0.00000000
0.41010594 -0.25199109 0.00000000
0.65987754 -0.74211180 -0.00000009
0.64380413 -0.53330386 -0.00000039
-0.22029124 0.09158122 0.00000000
0.23520058 0.44739503 -0.00000038
0.52460510 -0.75559610 0.00000000
-0.10442081 -0.67853719 0.00000000
0.47758496 -0.20728111 -0.00000026
0.37152058 0.10362391 -0.00000035
-0.77115053 -0.74851662 -0.00000006
-0.55438286 0.14006081 -0.00000060
-0.08169541 0.60329098 -0.00000000
-0.65543097 -0.17118572 -0.00000054
-0.06999328 0.12773506 0.00000000
-0.46629027 -0.61401808 0.00000000
-0.68992311 -0.06676499 -0.00000071
-0.46767372 0.32967672 -0.00000058
-0.57525158 -0.42908037 -0.00000014
0.70808268 -0.07430525 -0.00000148
0.25651926 -0.00415588 0.00000000
0.15232527 -0.75151420 0.00000000
-0.74891096 -0.42925671 -0.00000046
0.34778568 -0.47131887 0.00000000
-0.20310210 0.10634230 0.00000000
-0.04103162 0.63847607 0.00000000
0.32711494 0.41832149 -0.00000072
-0.26234630 -0.64253557 0.00000000
-0.14489786 0.33456609 0.00000000
-0.66393536 -0.69923234 -0.00000009
0.09921749 -0.26402277 0.00000000
0.40882656 0.32373056 -0.00000090
0.37591216 -0.03321302 -0.00000013
-0.01591912 -0.30506602 0.00000000
0.17915642 -0.54367614 0.00000000
0.51303625 -0.12793402 -0.00000055
0.15188742 0.41497883 0.00000000
0.47159097 -0.27348754 -0.00000011
-0.23459923 -0.75047028 0.00000000
-0.28424221 0.15114799 -0.00000003
-0.50245678 0.02702202 -0.00000039
-0.68743038 -0.44365218 -0.00000037
0.27882996 0.44133243 -0.00000056
0.23452199 0.43936405 -0.00000036
0.08442639 0.57852709 0.00000000
0.66820723 0.07210090 -0.00000156
-0.68172890 -0.65049493 -0.00000017
0.63183397 -0.04709726 -0.00000120
0.00762507 0.62097824 0.00000000
0.25352785 0.13855797 0.00000000
0.21347232 -0.02884525 0.00000000
-0.10656487 -0.10243668 0.00000000
-0.39792779 0.10860152 -0.00000024
0.34905452 -0.20007212 0.00000000
-0.44005892 -0.46608022 0.00000000
0.14494079 0.33216339 0.00000000
0.20846698 0.22609653 0.00000000
-0.78275579 -0.43916509 -0.00000045
0.04644649 -0.21832557 0.00000000
0.34947819 -0.32459149 0.00000000
0.55743694 -0.72034866 0.00000000
-0.09401511 0.05126466 0.00000000
-0.53354442 -0.11614826 -0.00000033
0.35859749 -0.73830003 0.00000000
0.10539762 -0.50682873 0.00000000
-0.43204626 -0.14271981 -0.00000009
0.46247616 0.06929599 -0.00000068
0.64028841 -0.56036443 -0.00000033
-0.06483361 -0.01879009 0.00000000
-0.37983707 -0.40190056 0.00000000
0.58995581 -0.49967393 -0.00000022
-0.71423751 -0.17770489 -0.00000066
-0.53454280 0.01019709 -0.00000044
-0.05768904 0.07882183 0.00000000
-0.74018753 -0.54698157 -0.00000032
0.45153731 0.02920841 -0.00000056
-0.00427829 -0.54015493 0.00000000
-0.08412084 -0.60437924 0.00000000
0.50635809 -0.02954889 -0.00000069
-0.30507323 0.19637746 -0.00000012
-0.22649270 0.03429062 0.00000000
-0.54467559 -0.57854795 0.00000000
-0.26780868 -0.18444581 0.00000000
-0.40780491 0.35572803 -0.00000048
-0.07483714 -0.09397647 0.00000000
-0.74135572 -0.43131530 -0.00000046
0.31439230 -0.64655024 0.00000000
0.51862150 -0.21513428 -0.00000042
0.36973384 -0.02806972 -0.00000011
0.05639411 -0.09423453 0.00000000
0.73376870 -0.21241926 -0.00000134
0.37497440 0.36138305 -0.00000082
-0.76753610 -0.49460179 -0.00000038
0.03600025 -0.59978831 0.00000000
0.73898214 -0.77622432 -0.00000006
0.79070157 -0.21100515 -0.00000147
0.52754289 -0.18952791 -0.00000050
0.60510892 -0.47720867 -0.00000032
0.66965282 -0.51159793 -0.00000054
-0.28109318 0.08453464 0.00000000
0.77836782 -0.35611472 -0.00000111
-0.63448972 -0.30366305 -0.00000038
0.53157049 -0.48588651 0.00000000
-0.16205746 -0.59694880 0.00000000
-0.08722083 0.69734031 -0.00000010
-0.32444274 -0.16269748 0.00000000
0.42151058 0.14791261 -0.00000065
0.22330806 -0.02389867 0.00000000
-0.19971804 0.50813651 -0.00000017
0.22513486 -0.37130785 0.00000000
-0.76882309 -0.18753728 -0.00000077
-0.56786114 -0.18467253 -0.00000034
0.62159407 -0.63483655 -0.00000012
0.03159269 -0.07335093 0.00000000
0.41442952 -0.28394839 0.00000000
-0.27422339 0.46338612 -0.00000029
0.15984590 -0.16012844 0.00000000
-0.70185310 -0.43425396 -0.00000041
0.48422617 -0.58497685 0.00000000
-0.28916126 -0.07663057 0.00000000
-0.73002368 -0.07864081 -0.00000078
0.62954861 0.03167121 -0.00000133
0.76337719 -0.26859149 -0.00000133
-0.24396409 0.06612957 0.00000000
0.25823990 -0.50124580 0.00000000
-0.72282422 -0.02415801 -0.00000081
0.17985746 0.05783465 0.00000000
-0.31088349 -0.37549269 0.00000000
-0.62611043 -0.10879193 -0.00000053
0.33194217 -0.33214512 0.00000000
0.17768334 -0.47504014 0.00000000
-0.36700612 0.17456686 -0.00000023
-0.13168348 -0.18680693 0.00000000
0.52591115 -0.75301182 0.00000000
-0.55103236 -0.68387270 0.00000000
0.04292605 0.09561927 0.00000000
-0.40086260 -0.48406470 0.00000000
-0.06788185 0.01505365 0.00000000
0.00141385 0.48727196 0.00000000
-0.03927607 -0.69728303 0.00000000
0.09589250 0.23745055 0.00000000
-0.72353095 -0.76683968 -0.00000004
-0.23494171 -0.31269553 0.00000000
0.67992043 -0.49106756 -0.00000062
0.13829881 0.62755388 -0.00000029
0.76778251 -0.04359468 -0.00000179
-0.68217504 -0.71884072 -0.00000010
-0.79536587 -0.56837487 -0.00000029
0.63603419 -0.73037839 -0.00000001
0.63031602 -0.11148867 -0.00000108
0.17295484 -0.71252215 0.00000000
-0.13410157 -0.58884043 0.00000000
0.13648857 -0.01786987 0.00000000
0.25252724 -0.74536341 0.00000000
-0.77521920 -0.60291404 -0.00000025
-0.37214467 -0.10722444 0.00000000
-0.69352937 -0.65916723 -0.00000018
0.55363578 -0.01209603 -0.00000093
-0.02473062 -0.01910502 0.00000000
0.58715582 -0.79110599 0.00000000
0.14296906 -0.78955656 0.00000000
0.59483206 -0.66688657 0.00000000
0.52868170 0.07205425 -0.00000097
-0.11224877 0.54186487 -0.00000001
-0.11504150 -0.22608797 0.00000000
-0.51824665 -0.73140669 0.00000000
0.12270142 -0.65376639 0.00000000
0.74062741 -0.03640077 -0.00000168
-0.70410460 -0.76379371 -0.00000005
-0.21679695 0.45513114 -0.00000016
-0.21077850 -0.73505354 0.00000000
-0.62301064 -0.20544578 -0.00000044
0.05117782 0.16962574 0.00000000
-0.36419907 0.37124768 -0.00000040
-0.58868539 -0.42637441 -0.00000017
-0.63697612 -0.44845054 -0.00000026
0.08639704 0.43659401 0.00000000
-0.47862953 -0.02945853 -0.00000029
0.38071060 -0.10607009 -0.00000002
0.12928011 0.45377347 0.00000000
0.12468913 -0.57064015 0.00000000
-0.27215233 0.25199309 -0.00000010
0.64475864 -0.30621174 -0.00000080
-0.51917326 -0.11444574 -0.00000030
-0.17819984 -0.68168384 0.00000000
0.29083157 -0.06317841 0.00000000
0.27057070 0.40887916 -0.00000046
0.68399930 -0.09747960 -0.00000133
0.59772915 -0.11488571 -0.00000093
0.29484037 -0.58211416 0.00000000
0.53365624 -0.57681692 0.00000000
-0.03418849 -0.50016898 0.00000000
0.33607346 0.21117501 -0.00000039
0.26815310 -0.18320522 0.00000000
0.16927156 0.49624163 -0.00000019
-0.36261290 -0.50676644 0.00000000
0.46525961 0.22534180 -0.00000097
0.18970017 0.41424301 -0.00000013
0.67442310 -0.71195656 -0.00000021
-0.58326381 0.15362501 -0.00000067
-0.16241212 0.45401955 -0.00000004
0.01499020 -0.65702641 0.00000000
-0.35031518 0.12049827 -0.00000015
-0.39980036 -0.04899840 -0.00000010
0.77624726 -0.29359281 -0.00000127
-0.02070095 -0.57852626 0.00000000
0.07844264 0.32736284 0.00000000
-0.10034396 -0.48559824 0.00000000
-0.21239819 -0.15975736 0.00000000
0.14193714 0.01633325 0.00000000
0.17420247 -0.42330086 0.00000000
-0.06765996 0.51700312 0.00000000
-0.14237499 -0.44617164 0.00000000
-0.41704494 -0.29750815 0.00000000
-0.24136788 -0.04977366 0.00000000
-0.76510912 -0.04647291 -0.00000088
-0.56888348 -0.03499286 -0.00000048
-0.40291259 0.11614358 -0.00000026
-0.45064899 -0.13749173 -0.00000013
-0.79831213 -0.26056001 -0.00000067
-0.53365684 -0.31878293 -0.00000015
0.04011566 0.71361321 -0.00000002
-0.54539335 0.11948136 -0.00000056
0.12643558 0.30869263 0.00000000
0.10633232 -0.45978609 0.00000000
-0.02318502 -0.79863501 0.00000000
-0.76173198 -0.47458473 -0.00000041
0.74713802 -0.00483462 -0.00000177
0.45548174 0.34341988 -0.00000114
-0.57581538 0.01105824 -0.00000053
0.13370351 0.35908747 0.00000000
0.09036841 -0.20291629 0.00000000
-0.04628174 0.08324030 0.00000000
0.44138730 -0.68933541 0.00000000
-0.28200197 -0.49085185 0.00000000
-0.69152647 -0.13876496 -0.00000065
-0.70428854 -0.63529915 -0.00000021
-0.23248567 0.37550083 -0.00000012
-0.64116293 -0.11309200 -0.00000056
0.68941492 -0.17166133 -0.00000122
0.04683222 0.42051071 0.00000000
-0.39496911 0.11815832 -0.00000024
-0.63014555 -0.21183154 -0.00000045
-0.70434237 -0.74846965 -0.00000006
0.03181866 -0.21487606 0.00000000
-0.70576644 0.01412847 -0.00000081
0.70656073 -0.77006990 -0.00000007
-0.39243394 0.21815684 -0.00000032
-0.75159657 -0.34920314 -0.00000056
-0.02847485 -0.01393060 0.00000000
0.29847935 -0.39399183 0.00000000
0.13821112 -0.24551055 0.00000000
-0.35010487 -0.42720914 0.00000000
0.48312655 0.27779549 -0.00000114
0.38416415 -0.32004631 0.00000000
-0.26315296 -0.74429744 0.00000000
-0.37105456 -0.29850438 0.00000000
-0.76256233 -0.02914449 -0.00000089
-0.37957752 -0.22424364 0.00000000
-0.00478683 0.07912661 0.00000000
-0.59024167 0.10369127 -0.00000064
-0.32521337 -0.22808820 0.00000000
-0.56611210 -0.20068789 -0.00000032
0.60121983 -0.46442959 -0.00000033
-0.33929342 -0.12966488 0.00000000
0.14584683 0.40636769 0.00000000
0.58203775 -0.58870113 -0.00000003
0.79480511 -0.38199088 -0.00000105
-0.55394959 -0.00170821 -0.00000047
-0.46115503 -0.20265225 -0.00000010
0.37736627 0.01749425 -0.00000023
-0.40762472 -0.68300879 0.00000000
0.05210721 -0.74766552 0.00000000
-0.77663857 -0.44134742 -0.00000045
-0.14207608 0.29367459 0.00000000
0.68981099 -0.57416761 -0.00000051
-0.49689814 -0.26588330 -0.00000012
-0.78594750 -0.08981842 -0.00000089
-0.34492889 -0.73885721 0.00000000
0.00892856 -0.03911683 0.00000000
-0.04716425 -0.12908117 0.00000000
-0.72390580 -0.33042276 -0.00000055
-0.37751490 0.36434755 -0.00000042
0.59570897 0.19137017 -0.00000147
-0.64089561 -0.46266976 -0.00000025
0.52683324 -0.71789098 0.00000000
-0.03608025 -0.32335567 0.00000000
0.03997649 -0.43157506 0.00000000
-0.00579903 0.73667634 0.00000000
0.76559180 -0.38418242 -0.00000104
-0.12704468 -0.39949229 0.00000000
0.35180292 -0.78950220 0.00000000
-0.06092649 -0.45753261 0.00000000
0.65932041 -0.44774473 -0.00000061
-0.58177477 -0.17643520 -0.00000038
0.65233058 -0.39081052 -0.00000068
-0.74293506 0.01516660 -0.00000089
0.10692844 0.06936525 0.00000000
0.26880160 0.18019865 -0.00000005
-0.65802824 -0.76340270 -0.00000002
0.45012021 0.28110969 -0.00000100
0.37869632 -0.51306474 0.00000000
0.19143204 -0.58180970 0.00000000
0.40252328 0.35749075 -0.00000094
-0.59635431 -0.54640818 -0.00000008
0.45044923 0.18569931 -0.00000084
-0.16574097 0.37963733 0.00000000
-0.11425594 -0.31930986 0.00000000
0.08965142 0.29303598 0.00000000
-0.39712319 -0.46241537 0.00000000
0.66855597 -0.09300242 -0.00000127
0.02939641 -0.27748534 0.00000000
-0.17685954 -0.34267974 0.00000000
0.73245740 -0.10837766 -0.00000152
0.61027443 -0.32323402 -0.00000062
-0.06299418 0.48040971 0.00000000
-0.71915370 -0.23520926 -0.00000062
0.64197218 -0.12383671 -0.00000111
-0.43898147 0.03482614 -0.00000026
-0.08077961 0.45189890 0.00000000
0.30215478 -0.26454419 0.00000000
0.71518642 -0.15795958 -0.00000136
0.02033494 0.55475950 0.00000000
-0.28618169 0.04914521 0.00000000
0.16428702 0.40196547 0.00000000
0.34361649 0.31647864 -0.00000061
0.71016496 -0.56555045 -0.00000059
-0.34694919 0.01514257 -0.00000005
-0.02604254 -0.01173388 0.00000000
-0.18951730 0.12397394 0.00000000
0.37582770 -0.54790300 0.00000000
0.41954768 0.00271451 -0.00000038
-0.67560554 -0.21731015 -0.00000054
0.63865936 -0.49431640 -0.00000044
0.44416654 -0.09389193 -0.00000032
-0.65311646 -0.19934794 -0.00000051
-0.69317746 -0.06843994 -0.00000071
-0.43547863 -0.37927815 0.00000000
0.54950380 -0.00443818 -0.00000092
-0.37528020 -0.00141512 -0.00000009
-0.40557727 -0.25208196 0.00000000
-0.12266089 0.36267251 0.00000000
-0.06370748 0.73323405 -0.00000008
-0.36209932 0.18159275 -0.00000023
0.15122642 -0.14021705 0.00000000
-0.07397571 0.57976067 0.00000000
-0.51885098 -0.26398796 -0.00000017
0.22405235 0.31025845 -0.00000009
0.53622586 -0.72699010 0.00000000
-0.21111070 -0.06675400 0.00000000
-0.34508854 0.10718057 -0.00000012
0.46567830 -0.42051488 0.00000000
0.49209648 -0.20687012 -0.00000032
0.06216052 -0.54652488 0.00000000
0.75839490 -0.58594120 -0.00000054
0.59541827 -0.61876851 -0.00000003
0.42213300 0.36682168 -0.00000104
0.32907504 -0.12962405 0.00000000
-0.61582750 -0.61785990 -0.00000006
-0.45669612 -0.51720858 0.00000000
0.33266571 0.35455433 -0.00000063
-0.67743534 -0.41289145 -0.00000037
-0.34181324 -0.16696268 0.00000000
-0.59659690 -0.57446527 -0.00000006
-0.42161319 -0.08206629 -0.00000012
0.47048637 0.22058648 -0.00000098
-0.10700021 0.30310792 0.00000000
0.75700414 -0.22298852 -0.00000142
0.63931119 -0.04741523 -0.00000123
-0.09440439 -0.55207163 0.00000000
-0.16480184 -0.28845474 0.00000000
0.20842481 -0.09898701 0.00000000
0.10865533 0.57706511 -0.00000007
-0.23438083 -0.53636515 0.00000000
0.11095980 0.37921917 0.00000000
-0.57364410 0.21987902 -0.00000071
-0.26821142 -0.39726415 0.00000000
-0.12224283 0.23030156 0.00000000
0.43401623 -0.61442149 0.00000000
-0.39092547 0.05280930 -0.00000017
0.55418503 0.16777159 -0.00000125
-0.39019087 -0.18509682 0.00000000
-0.28102058 0.45912501 -0.00000030
0.44569027 -0.56153375 0.00000000
-0.45045733 0.07267983 -0.00000032
-0.38221276 0.30139327 -0.00000037
0.49908385 -0.23008664 -0.00000031
0.42748755 0.18993405 -0.00000075
0.17649387 0.04833796 0.00000000
-0.60425943 -0.65432149 -0.00000000
0.74870569 -0.34481406 -0.00000114
-0.36559659 -0.73672128 0.00000000
0.12193143 0.47233704 0.00000000
-0.35398263 0.01770009 -0.00000006
-0.39372116 -0.45297483 0.00000000
0.05176779 0.68917680 -0.00000003
-0.31360167 -0.08676969 0.00000000
0.28215829 -0.10439664 0.00000000
-0.26639450 -0.10720880 0.00000000
-0.53264087 -0.24376877 -0.00000021
-0.11995499 0.46330595 0.00000000
-0.13432103 -0.13146256 0.00000000
-0.33767661 -0.67484659 0.00000000
0.11632130 0.04448700 0.00000000
-0.70076489 -0.59433192 -0.00000026
0.05176398 0.49362221 0.00000000
0.26536447 0.16146041 -0.00000000
0.50123799 -0.27698648 -0.00000024
0.51967651 -0.65645498 0.00000000
0.33517510 -0.68623477 0.00000000
-0.08625048 0.67011023 -0.00000007
-0.67989045 -0.19528686 -0.00000057
-0.77744901 -0.72424316 -0.00000009
-0.49693200 -0.74978441 0.00000000
0.64313090 -0.53916192 -0.00000038
-0.69426996 -0.62934774 -0.00000021
-0.08182807 -0.47642189 0.00000000
0.37159818 0.39430651 -0.00000087
-0.75246501 -0.34250316 -0.00000057
0.04922830 -0.33438921 0.00000000
-0.22206175 -0.25924936 0.00000000
0.34763530 -0.72189033 0.00000000
-0.31668970 0.24487820 -0.00000019
0.18756579 -0.62865978 0.00000000
-0.05215571 -0.56809437 0.00000000
0.58782744 -0.05552750 -0.00000100
-0.06519753 0.27222332 0.00000000
0.11852212 -0.69445127 0.00000000
-0.77677119 -0.77371305 -0.00000003
0.02506117 0.23041691 0.00000000
-0.05382855 -0.32232660 0.00000000
-0.28630865 0.28475720 -0.00000016
0.20834294 -0.76917905 0.00000000
-0.06557650 -0.32095265 0.00000000
-0.11856076 0.39681134 0.00000000
0.05057404 -0.04368585 0.00000000
-0.38998193 -0.26672235 0.00000000
0.37859353 0.29987180 -0.00000073
-0.39224243 -0.27876407 0.00000000
0.10573704 -0.04195306 0.00000000
