ply
format ascii 1.0
element vertex 399
property float x
property float y
property float z
end_header
0.32128960 0.46878350 0.26816916
0.14755221 0.64463055 0.21117172
0.16447006 0.62674326 0.23736306
0.23264866 0.56514257 0.05964740
0.45499563 0.33410361 0.29448199
0.54682791 0.24365315 0.25714928
0.39965600 0.38147739 0.50969249
0.49490848 0.29439637 0.28892797
0.45734292 0.33030874 0.33359098
0.11729360 0.67653096 0.16681512
0.52319545 0.27046621 0.17121875
0.30055130 0.49754283 0.05146495
0.33093807 0.46383202 0.14127135
0.18803547 0.61154431 0.01132549
0.64012265 0.15785225 0.05468550
0.45348516 0.33657616 0.26849014
0.64148813 0.15543067 0.08321755
0.16925336 0.62837142 0.06414462
0.38453314 0.40560475 0.26641983
0.45671135 0.33053523 0.34453478
0.41004470 0.37831891 0.31435552
0.41424906 0.37996158 0.15638569
0.40186691 0.39431641 0.10308970
0.47569409 0.30800533 0.44036737
0.19755700 0.59601605 0.17361082
0.42256245 0.36160493 0.42772403
0.63000685 0.16797578 0.05447758
0.38199079 0.41504872 0.07995744
0.36385420 0.41952524 0.44901115
0.39051422 0.39609233 0.36182553
0.30237824 0.48225546 0.41512406
0.28108990 0.51095051 0.21501938
0.52725095 0.27110946 0.04426991
0.37972552 0.40169725 0.50187325
0.38637966 0.39728427 0.44132531
0.31507441 0.46976253 0.40963358
0.42495993 0.37055829 0.12105885
0.44859141 0.33778155 0.36813718
0.56647319 0.22296409 0.28534907
0.60502267 0.18695439 0.21673138
0.50051439 0.28594190 0.36588642
0.40029171 0.39006484 0.26051265
0.36063653 0.42671952 0.34157601
0.30456206 0.48868567 0.18240145
0.28516400 0.50898749 0.15798444
0.45497322 0.34057000 0.12038300
0.37301558 0.40735388 0.53033018
0.56931537 0.22541095 0.14245296
0.33803943 0.45019525 0.31783828
0.31098777 0.47277349 0.43869409
0.28515565 0.51272577 0.05721128
0.47650227 0.32022488 0.08839706
0.42347005 0.36896607 0.20432974
0.70875621 0.08713135 0.11107977
0.08150117 0.71689570 0.04328640
0.15177795 0.64363295 0.12395703
0.23211257 0.56559247 0.06197765
0.53400761 0.26293081 0.08268828
0.30376956 0.48043510 0.42671585
0.21554682 0.58183205 0.07078995
0.47850421 0.31775489 0.10104186
0.46656153 0.32007480 0.36102244
0.11883990 0.67584312 0.14362159
0.57375544 0.21648353 0.26368928
0.44209218 0.35478079 0.08445692
0.52300823 0.26658747 0.28106967
0.21282907 0.58615971 0.02729407
0.24312270 0.55672359 0.00412509
0.22957861 0.56702405 0.09175987
0.27427274 0.51444989 0.30465397
0.60933840 0.18581800 0.13083379
0.43103275 0.36411944 0.13094789
0.59654129 0.19408709 0.25316867
0.08614211 0.70944369 0.11923103
0.51670152 0.27426425 0.24405383
0.20957008 0.58068091 0.26336154
0.44469038 0.34628546 0.24378155
0.58906472 0.20964894 0.03472675
0.47133237 0.31917062 0.25655717
0.44879827 0.33692965 0.38556382
0.38757461 0.40059209 0.31967482
0.27468917 0.51644927 0.23938636
0.27705988 0.51064265 0.33221483
0.14474463 0.65515625 0.00265081
0.66267294 0.13162492 0.15403034
0.58820355 0.20688125 0.13276853
0.44366682 0.34360573 0.34383264
0.47515479 0.31837708 0.17472470
0.34869388 0.43957180 0.31700057
0.34850240 0.43531495 0.43717974
0.56072271 0.22775503 0.31127387
0.32823795 0.46162209 0.27392614
0.68186301 0.11421342 0.10597760
0.25405890 0.53425741 0.31563067
0.29481605 0.48966148 0.41934270
0.24813062 0.54403317 0.21168599
0.35016477 0.44539878 0.11983456
0.75041962 0.04854645 0.02790707
0.56655627 0.22890005 0.12273067
0.26432189 0.52531070 0.28007019
0.26397118 0.53509516 0.02519813
0.43019328 0.35538545 0.38959470
0.52530634 0.27432355 0.00997145
0.32619891 0.46055794 0.35776421
0.36300260 0.42704117 0.26896283
0.71667606 0.08255718 0.02068808
0.30783212 0.48008072 0.32653305
0.13536628 0.66256589 0.05584096
0.51764327 0.27860543 0.10132370
0.01310664 0.78671235 0.00486313
0.50064343 0.29825947 0.02961299
0.12511227 0.66899520 0.15917175
0.36017251 0.42601275 0.37320727
0.36199793 0.42182577 0.43700799
0.32954511 0.46422794 0.16820882
0.45674470 0.33660477 0.17965280
0.39861423 0.38895509 0.33581451
0.51633501 0.27078342 0.34799826
0.38958237 0.39759511 0.34640056
0.65618914 0.14242867 0.03731620
0.38996232 0.39575085 0.38596159
0.60412943 0.19230762 0.09623331
0.28295705 0.50205749 0.40483430
0.57940185 0.21095408 0.26052979
0.26680744 0.51954317 0.36873895
0.56471401 0.22602531 0.25017202
0.24331926 0.54517853 0.31072748
0.20055945 0.58947003 0.26934659
0.53074968 0.26842490 0.02227292
0.69524044 0.10390683 0.02301183
0.54520822 0.24460907 0.27508214
0.21661656 0.57244080 0.29561010
0.41123229 0.37418216 0.39403248
0.46723425 0.32246390 0.27830163
0.22279304 0.57565635 0.04186684
0.17511322 0.62122488 0.09890771
0.76336288 0.03483958 0.04853700
0.38435274 0.41240332 0.08761578
0.52423245 0.27418005 0.04286271
0.33980331 0.44514105 0.40673167
0.29486227 0.49818048 0.18793914
0.47908974 0.30627531 0.39536828
0.49822018 0.29988784 0.05108944
0.24666849 0.54074329 0.34006879
0.37572730 0.40691429 0.46894559
0.37447488 0.41308129 0.33616930
0.39212981 0.38826534 0.52963692
0.37021279 0.42311981 0.18010791
0.13528515 0.66316843 0.04175360
0.66961193 0.12864712 0.04700882
0.42137498 0.36544880 0.35595676
0.45302209 0.34587994 0.02963649
0.43205422 0.36548740 0.06639139
0.60799992 0.18731529 0.12654290
0.17722473 0.61578321 0.18887842
0.45747083 0.32725930 0.41252092
0.50046849 0.29452315 0.13528530
0.26406434 0.52531773 0.28683802
0.13206926 0.66386878 0.10971602
0.43412951 0.36206976 0.10265814
0.39054415 0.38923344 0.54632086
0.59567297 0.20407864 0.00668318
0.42610720 0.37263304 0.03400860
0.48274943 0.30724409 0.27032229
0.22113174 0.57387847 0.13478477
0.13073957 0.66878688 0.01276655
0.32506910 0.47126508 0.09901411
0.05701824 0.74111533 0.05039875
0.48171061 0.31435007 0.10640276
0.21022180 0.58367854 0.16476822
0.37381434 0.41375276 0.33587375
0.46691880 0.33125499 0.04931191
0.61039287 0.18301307 0.17812707
0.29620758 0.49690297 0.18610828
0.44103196 0.35395411 0.13543651
0.23826286 0.56072873 0.02721742
0.38264164 0.41003567 0.19781277
0.33715728 0.46088016 0.05299622
0.60370463 0.18637073 0.26811060
0.33867145 0.44897845 0.33363688
0.36721158 0.42509383 0.20786072
0.18516836 0.60961568 0.14089374
0.11980146 0.67784595 0.06353376
0.39907360 0.39169100 0.24948891
0.20505960 0.58987468 0.13683544
0.11037336 0.68379390 0.15755635
0.15046868 0.64727181 0.06101819
0.40062982 0.39101842 0.22561596
0.13935603 0.65362519 0.18959869
0.55059344 0.23818934 0.30303317
0.49407592 0.30535358 0.01538600
0.53843343 0.24875604 0.34607905
0.56791610 0.23072243 0.03675560
0.08932546 0.70721680 0.09339139
0.39295241 0.40288225 0.11250945
0.31074587 0.47972426 0.25744340
0.48234123 0.31198880 0.15316056
0.43326256 0.35370213 0.35214964
0.08045097 0.71821940 0.03589591
0.36018434 0.42888260 0.29535386
0.22856084 0.56856257 0.07769042
0.36278704 0.42617899 0.29808012
0.23837167 0.56078482 0.02276259
0.21750180 0.57329404 0.24864240
0.52636397 0.26529884 0.22522126
0.66283822 0.13030832 0.18513487
0.40085736 0.39774385 0.03776427
0.06308306 0.73578781 0.03047941
0.40707210 0.38690162 0.16278774
0.58027405 0.21172500 0.21613824
0.39694849 0.39423940 0.23805328
0.68372267 0.11498903 0.03477955
0.70892876 0.09074144 0.00888251
0.46308300 0.33470842 0.05964318
0.31238228 0.48607782 0.04157670
0.57459021 0.21704265 0.22603133
0.60391265 0.19130673 0.12913242
0.60456830 0.19403014 0.03783908
0.59829032 0.19164725 0.27183232
0.55433816 0.23598483 0.26142040
0.56711465 0.22120038 0.31566951
0.22001049 0.57148695 0.22968751
0.40909702 0.37398496 0.45704758
0.50720876 0.27960056 0.35634941
0.33828291 0.45731211 0.11898370
0.31605530 0.47421542 0.26283067
0.43731248 0.34922141 0.36378926
0.37298763 0.41843164 0.23180157
0.63733345 0.16098884 0.04529904
0.41485754 0.38089249 0.11479581
0.29365838 0.49505138 0.30500278
0.20154485 0.58998144 0.22890787
0.37817210 0.41304451 0.23727663
0.30141106 0.48442131 0.38274008
0.32270294 0.46215492 0.40906823
0.22922388 0.56722730 0.09585318
0.43131095 0.35070762 0.48577830
0.63892800 0.15503189 0.16315988
0.52788299 0.27149221 0.01685292
0.46891081 0.32473859 0.17154938
0.39419991 0.38644341 0.52293211
0.40259501 0.38175359 0.42282766
0.27192423 0.51941425 0.23398237
0.38325009 0.39915994 0.47520137
0.30774274 0.48922738 0.08183219
0.42235664 0.35977107 0.48282960
0.09127101 0.70440483 0.11679895
0.33813986 0.46106598 0.02142843
0.48911777 0.31039116 0.01324069
0.47774407 0.31149554 0.29069018
0.11560341 0.67923445 0.13943899
0.23841457 0.55329335 0.22400180
0.31699756 0.47806561 0.13335349
0.18834335 0.60616875 0.14824055
0.42089465 0.36489901 0.38378787
0.44569182 0.34270030 0.31358618
0.20652138 0.58348918 0.26985827
0.14247528 0.65221882 0.14332277
0.41940066 0.36375943 0.45493761
0.18415087 0.61438793 0.03945182
0.38489458 0.41484237 0.00707986
0.36251947 0.42270446 0.39917865
0.18352501 0.61540341 0.02892356
0.70096940 0.09899800 0.00085283
0.27574968 0.51086873 0.36150336
0.59521073 0.19878323 0.16223928
0.14834210 0.64831918 0.09017651
0.62377405 0.17360166 0.07087379
0.27413315 0.51909554 0.18291605
0.24186347 0.54648030 0.31488901
0.22731289 0.56090206 0.31837034
0.37876433 0.40668684 0.39303988
0.51135886 0.28153968 0.19183628
0.44484255 0.34936884 0.15636632
0.54459429 0.24643478 0.24234435
0.57498652 0.21862626 0.17253795
0.39116964 0.39955235 0.25064066
0.29753831 0.50144261 0.02750550
0.39987329 0.38703683 0.35362476
0.18897618 0.60346627 0.20415495
0.55996823 0.22880745 0.30322456
0.67058253 0.12416927 0.14176443
0.63470620 0.16222754 0.08281494
0.35984138 0.43072709 0.25478637
0.29907861 0.49857554 0.06335220
0.62116134 0.17527853 0.09615744
0.15800515 0.64114481 0.02293911
0.58213097 0.21163052 0.16852082
0.24390560 0.55437225 0.04650052
0.25372380 0.53269589 0.36687249
0.50172079 0.28643823 0.31988510
0.36041591 0.43369943 0.15896036
0.38087553 0.40088588 0.49272490
0.37816101 0.40726832 0.39362964
0.38418227 0.39823869 0.47490644
0.70768887 0.09037337 0.05232600
0.62601012 0.17066158 0.08989427
0.21183592 0.58231097 0.15810736
0.46753532 0.32768181 0.12919307
0.58317643 0.21365008 0.08571215
0.28435087 0.50176942 0.37496039
0.48782000 0.30649692 0.15351434
0.35265130 0.44635436 0.02683783
0.31894803 0.47880265 0.06074311
0.41661027 0.37576500 0.20597337
0.28405407 0.51461917 0.03581839
0.06831998 0.73004401 0.04417450
0.36378157 0.42629415 0.26810026
0.23212202 0.55959177 0.22384270
0.45467436 0.33838454 0.18750346
0.41402629 0.37800875 0.21516483
0.49065831 0.29367906 0.42313281
0.10364653 0.69443488 0.05180787
0.42253897 0.36283782 0.39504924
0.34578174 0.43993366 0.38590032
0.45621890 0.33314076 0.28744659
0.29559532 0.49478796 0.25978968
0.62475127 0.17308773 0.05835737
0.73981309 0.05815484 0.05487353
0.17499100 0.62181407 0.08629181
0.51080191 0.27939847 0.26473278
0.51315796 0.27351737 0.35996890
0.17789291 0.61999696 0.05698287
0.58868039 0.20412166 0.19444285
0.25501820 0.54330742 0.04520973
0.37127957 0.42105749 0.20700553
0.42362627 0.37509227 0.03459460
0.37167215 0.41365090 0.39650109
0.37842864 0.40378037 0.48063195
0.60817838 0.19160961 0.00570171
0.42410541 0.35860857 0.46698987
0.31323624 0.48523718 0.04121713
0.22825404 0.56931138 0.06574880
0.50029939 0.28658307 0.35437208
0.33456799 0.45546824 0.26916599
0.24584465 0.54691690 0.19553539
0.26077309 0.53471309 0.12192554
0.04622670 0.75242114 0.03650484
0.51619071 0.28231385 0.04037587
0.37901041 0.40489429 0.43482009
0.17056064 0.62829733 0.03082780
0.06291167 0.73525435 0.04952177
0.26764363 0.51884341 0.36505222
0.34680024 0.44058293 0.34084368
0.35200518 0.43813068 0.26647472
0.70857269 0.08812507 0.08919120
0.56205291 0.23754770 0.01076291
0.45716685 0.33776876 0.13679931
0.37368065 0.41351548 0.34589672
0.28547683 0.50646943 0.21756308
0.59543103 0.20266554 0.05139861
0.58260947 0.21589504 0.04037708
0.48036006 0.30389208 0.42543510
0.25516251 0.54309648 0.04701059
0.50642216 0.27958345 0.37806281
0.56917226 0.22531264 0.14897646
0.54483485 0.25408176 0.02924224
0.24221252 0.55139124 0.17278115
0.18765987 0.60289133 0.25525022
0.25448602 0.54287934 0.07115352
0.45393726 0.34453377 0.04128185
0.54706770 0.24341753 0.25703603
0.17676832 0.62299699 0.00631425
0.21905203 0.57913589 0.04893035
0.43226793 0.35693097 0.29178897
0.57223737 0.22570905 0.05545512
0.29861119 0.49610913 0.14261582
0.28059408 0.51066631 0.23609322
0.20719723 0.58567297 0.19260003
0.43898243 0.36024907 0.02073530
0.50356132 0.28390509 0.33859625
0.17320433 0.61974055 0.19058143
0.41076112 0.36944202 0.53482419
0.70333916 0.09439161 0.06128139
0.23583850 0.56150067 0.07186228
0.53746784 0.25337788 0.24729772
0.08788452 0.71167636 0.01183753
0.42116141 0.36888334 0.26893663
0.44848207 0.33387211 0.47671100
0.26302794 0.52903348 0.21445125
0.26178977 0.53105265 0.19335096
0.13941862 0.66000825 0.01545755
0.37010160 0.41298631 0.45688730
0.20941222 0.58399969 0.17796502
0.25217816 0.53692126 0.29447475
0.39154536 0.39488295 0.36664107
0.04708661 0.75123978 0.04518908
0.70067972 0.09744107 0.05074349
0.62765789 0.16455057 0.21047883
0.40326196 0.39588878 0.02291798
0.39379877 0.38616052 0.54141158
0.46825102 0.32361633 0.21969549
0.51517975 0.28418183 0.01722123
0.64648974 0.14668854 0.18427789
0.16946909 0.62990189 0.01696817
0.37931883 0.40292162 0.47978237
0.69089842 0.10569368 0.09204531
0.43866307 0.35677591 0.12319982
0.52038950 0.27058318 0.24386755
