ply
format ascii 1.0
element vertex 136
property float x
property float y
property float z
end_header
-0.44152051 0.51600242 0.13041326
-0.43870077 0.37783384 0.01368867
-0.66924328 0.42071554 0.24005806
-0.54809117 0.56370306 0.25813565
-0.48285216 0.32192206 0.00395235
-0.57173377 0.29464579 0.05495586
-0.58188117 0.46858004 0.20735759
-0.49328041 0.44077849 0.11098750
-0.45400596 0.68305492 0.27905402
-0.58634502 0.44217584 0.18919310
-0.70440990 0.43127054 0.27791139
-0.60096818 0.45920888 0.21540143
-0.54974288 0.43739301 0.15493026
-0.73398054 0.27091926 0.16963767
-0.44135520 0.36478591 0.00508386
-0.60919446 0.24397774 0.04402158
-0.26486886 0.60815167 0.06045293
-0.69063163 0.35847643 0.20623764
-0.75519240 0.05385261 0.00748905
-0.43467605 0.57389742 0.17267825
-0.30785388 0.72485286 0.19265825
-0.26497978 0.68525034 0.12437515
-0.43853644 0.41010723 0.04027183
-0.61035341 0.24633096 0.04692932
-0.15903194 0.73177397 0.07517726
-0.38037592 0.57117534 0.12546910
-0.51348996 0.37858903 0.07623230
-0.34370500 0.66276604 0.17093752
-0.47796041 0.65674901 0.27710724
-0.67461014 0.23384379 0.08978969
-0.53519881 0.29147676 0.02208471
-0.68019491 0.23059332 0.09172229
-0.68534952 0.29338458 0.14797486
-0.53366655 0.29322743 0.02226554
-0.66976672 0.18768960 0.04756863
-0.69343048 0.46120679 0.29360589
-0.40735430 0.57989496 0.15502372
-0.32639536 0.53771800 0.05307886
-0.54207170 0.54021859 0.23370910
-0.59985685 0.37045893 0.14100502
-0.20710658 0.63992476 0.03893622
-0.62051994 0.28823140 0.09003573
-0.32728323 0.72095585 0.20551760
-0.23205490 0.69120055 0.10204258
-0.52764988 0.63585830 0.30095002
-0.74216658 0.08319464 0.02099725
-0.52678865 0.40998203 0.11323271
-0.51069194 0.57666743 0.23790580
-0.46262944 0.67634040 0.28063446
-0.06972302 0.76800191 0.03123100
-0.75324953 0.19238245 0.12056974
-0.41751817 0.49230781 0.09092476
-0.17691693 0.72610539 0.08529134
-0.40690255 0.40423623 0.00922134
-0.54647338 0.58141500 0.27146012
-0.64725018 0.43669021 0.23507532
-0.45874673 0.56024867 0.18130668
-0.63430178 0.42571911 0.21527223
-0.31904900 0.69115996 0.17403217
-0.14165418 0.76057881 0.08463782
-0.64825529 0.41890970 0.22118689
-0.60071737 0.25460261 0.04579971
-0.41507840 0.60184842 0.17959403
-0.45485434 0.37416705 0.02402655
-0.23343332 0.69186503 0.10373390
-0.44754615 0.67440248 0.26654246
-0.33254731 0.69638753 0.18953548
-0.60383511 0.47994956 0.23494637
-0.65218174 0.55709320 0.33884081
-0.51719135 0.52676177 0.20196941
-0.47698882 0.44238925 0.09883315
-0.43370676 0.42238900 0.04644143
-0.43125957 0.43222392 0.05255774
-0.40189373 0.41301948 0.01234618
-0.29686442 0.72831774 0.18642856
-0.49096334 0.57079154 0.21670762
-0.54103941 0.27135441 0.01026083
-0.43809223 0.37690896 0.01241914
-0.39498758 0.70594418 0.24914236
-0.44600573 0.56318980 0.17319326
-0.52262807 0.51501608 0.19674619
-0.58812052 0.56281883 0.29054424
-0.33295387 0.47912067 0.00999582
-0.09586802 0.77639544 0.05982576
-0.46868086 0.42588732 0.07829295
-0.68334901 0.25506392 0.11459284
-0.16006178 0.71104133 0.05886516
-0.62892473 0.19614740 0.02075752
-0.33054146 0.68128586 0.17537202
-0.70552456 0.37334782 0.23087965
-0.49977756 0.41173354 0.09232014
-0.26297203 0.64361137 0.08823969
-0.46039319 0.61214465 0.22563487
-0.61457676 0.56411427 0.31352010
-0.54073960 0.58437765 0.26916587
-0.44087493 0.53827840 0.14832112
-0.50965178 0.60822678 0.26317286
-0.43679819 0.61826557 0.21116792
-0.60892701 0.58014977 0.32211855
-0.47623745 0.55258852 0.18944550
-0.64020610 0.34434250 0.15278853
-0.19228591 0.71133018 0.08578294
-0.47722676 0.47765988 0.12823080
-0.28283048 0.63302118 0.09591297
-0.44099110 0.61964619 0.21578231
-0.74387765 0.15538447 0.08217999
-0.37116957 0.57716370 0.12280488
-0.77312303 0.05182650 0.02065651
-0.32302138 0.70899630 0.19208777
-0.66739309 0.58248276 0.37245464
-0.39698175 0.57818055 0.14501683
-0.63088959 0.36192578 0.15963259
-0.62114620 0.32971600 0.12489942
-0.48067728 0.68031818 0.29886967
-0.69311821 0.30578101 0.16466963
-0.70144063 0.44094983 0.28346667
-0.62305641 0.26378369 0.07189537
-0.44238624 0.42079926 0.05231106
-0.73742163 0.07571589 0.01087720
-0.63526183 0.43680990 0.22524916
-0.18023919 0.74749696 0.10575212
-0.38518316 0.58082598 0.13743885
-0.30702502 0.69014233 0.16323490
-0.51487380 0.35506839 0.05790519
-0.68488926 0.14260271 0.02276111
-0.21005136 0.62712741 0.03077926
-0.60290617 0.21675362 0.01627655
-0.38345417 0.50914466 0.07666224
-0.17737347 0.74347448 0.10004932
-0.41447884 0.65786183 0.22547160
-0.50073522 0.48908719 0.15715428
-0.67411602 0.58926207 0.38363326
-0.60937035 0.47131383 0.23237945
-0.55689466 0.27770722 0.02864700
-0.55953956 0.62988931 0.32240999
-0.18500377 0.68997562 0.06207440
