ply
format ascii 1.0
element vertex 139
property float x
property float y
property float z
end_header
-0.19589649 0.31242985 0.05526737
-0.07521579 0.28203860 0.08389312
-0.05108303 0.28082567 0.08869573
-0.03894485 0.25093353 0.09665980
-0.27272853 0.30581298 0.04196245
-0.27295509 0.26278168 0.05007333
-0.32146409 0.11783116 0.06834748
-0.17580853 0.39259523 0.04388367
-0.24705334 0.49391055 0.01118582
-0.39913639 0.13620168 0.05014853
-0.72026014 0.07831807 0.00026744
-0.37801436 0.02669354 0.07490113
-0.09016783 0.59367150 0.02201053
-0.16667898 0.25333184 0.07200175
-0.39838666 0.08092564 0.06076461
-0.03708761 0.48705432 0.05227064
-0.11964544 0.52661091 0.02913188
-0.07669321 0.36298588 0.06827497
-0.18988428 0.32206503 0.05458088
-0.50861108 0.12184754 0.03212426
-0.19915166 0.30254966 0.05652270
-0.53985834 0.18105461 0.01498438
-0.08177420 0.09652287 0.11780264
-0.04445476 0.59892321 0.02967733
-0.33796629 0.05193438 0.07770699
-0.46657124 0.07487393 0.04899114
-0.15954395 0.03091313 0.11549848
-0.13604607 0.42569172 0.04514679
-0.13828126 0.18232854 0.09083665
-0.29799873 0.38445106 0.02227326
-0.41770077 0.32987583 0.00993234
-0.17543386 0.33689070 0.05450978
-0.24493226 0.21431877 0.06456633
-0.19782761 0.23973089 0.06867673
-0.48052570 0.05822169 0.04950229
-0.58321750 0.00740460 0.03967250
-0.41907698 0.19748721 0.03475730
-0.24372545 0.05586111 0.09482017
-0.10615429 0.28533798 0.07740558
-0.45654675 0.25668302 0.01644046
-0.02210398 0.66703773 0.02100585
-0.10215520 0.22146559 0.09026613
-0.68671346 0.07664757 0.00694068
-0.13488954 0.31258768 0.06679732
-0.19574149 0.54155135 0.01188157
-0.15668701 0.61895406 0.00461524
-0.14918476 0.55904269 0.01738917
-0.32794496 0.33331981 0.02628743
-0.47184965 0.07214028 0.04850893
-0.52119571 0.12798531 0.02857660
-0.41576505 0.31490162 0.01313653
-0.16937147 0.05100096 0.10983000
-0.19827114 0.19129179 0.07777112
-0.00833499 0.33260819 0.08698386
-0.59192502 0.11029426 0.01852642
-0.40042174 0.15094315 0.04711168
-0.32803455 0.31208017 0.03029506
-0.29002425 0.36399931 0.02765964
-0.27579018 0.07950072 0.08426508
-0.24942112 0.45319748 0.01845169
-0.20621648 0.48851323 0.01994664
-0.69770736 0.01736546 0.01609057
-0.10783637 0.05899940 0.11997436
-0.08474786 0.36273092 0.06679705
-0.01303395 0.22006077 0.10741940
-0.41439053 0.17644542 0.03963244
-0.36423865 0.23639292 0.03777645
-0.55445802 0.07272025 0.03274571
-0.16837588 0.57348102 0.01101682
-0.46903741 0.25005126 0.01533025
-0.16205345 0.49752811 0.02660683
-0.43547934 0.30940038 0.01044331
-0.48532134 0.30951655 0.00097682
-0.43250844 0.18908225 0.03380481
-0.05149029 0.15525240 0.11241267
-0.07730347 0.48140517 0.04572079
-0.30468416 0.35989761 0.02565897
-0.26772219 0.33503944 0.03737310
-0.23832226 0.05611290 0.09579628
-0.23057626 0.51391393 0.01051768
-0.14845952 0.51880932 0.02515024
-0.41704080 0.27383661 0.02067602
-0.08117981 0.43627116 0.05353845
-0.20008515 0.06092497 0.10212980
-0.16847695 0.04716521 0.11072631
-0.56158459 0.08304585 0.02943876
-0.14668228 0.29819465 0.06729003
-0.52902693 0.17231268 0.01869328
-0.19657446 0.14020912 0.08777195
-0.69647592 0.01358678 0.01703992
-0.26979607 0.23897775 0.05518243
-0.03730475 0.73857504 0.00457033
-0.46929264 0.24488790 0.01626027
-0.35693851 0.19295180 0.04739121
-0.15482736 0.41281736 0.04402751
-0.26439184 0.01555201 0.09854214
-0.20165129 0.35690629 0.04574931
-0.59357911 0.18713048 0.00365363
-0.40358737 0.21538202 0.03430159
-0.43341145 0.36066332 0.00112156
-0.34253559 0.26535469 0.03640109
-0.11554811 0.19186395 0.09333742
-0.04700064 0.06751154 0.12988886
-0.29509690 0.38585851 0.02255643
-0.16482201 0.44532409 0.03597413
-0.67303348 0.06738030 0.01128889
-0.17449431 0.33178520 0.05565522
-0.15940018 0.18189709 0.08691670
-0.48925957 0.05915852 0.04766981
-0.45133448 0.12843600 0.04172909
-0.37019166 0.41425982 0.00294521
-0.28788003 0.22623856 0.05416962
-0.09556482 0.59449273 0.02083225
-0.38508773 0.03512470 0.07196322
-0.23924813 0.38882101 0.03257777
-0.07668852 0.35445371 0.06989256
-0.30042675 0.04538335 0.08606153
0.07217301 0.21406540 0.00000770
-0.11246851 0.58851331 0.01876221
-0.21868931 0.36124164 0.04169932
-0.32722309 0.03652673 0.08266223
-0.13668610 0.41227987 0.04756684
-0.37822720 0.33046752 0.01730000
-0.47351983 0.28507817 0.00784379
-0.28008440 0.03337564 0.09219135
-0.02295407 0.44842982 0.06226744
-0.26360968 0.14963892 0.07328304
-0.37711248 0.17557158 0.04686178
-0.38447213 0.22120740 0.03681988
-0.05793726 0.70299810 0.00740203
-0.33215797 0.29915324 0.03196319
-0.19357924 0.56580818 0.00769497
-0.03959166 0.44987187 0.05884164
-0.54139853 0.16631626 0.01748524
-0.06340535 0.30113068 0.08251337
-0.01378971 0.10889066 0.12834114
-0.16808824 0.38259614 0.04724122
-0.13520762 0.25897092 0.07689656
-0.18815649 0.29392299 0.06024073
