ply
format ascii 1.0
element vertex 143
property float x
property float y
property float z
end_header
-0.45966384 0.42713189 0.13161294
-0.68960851 0.22216277 0.16948590
-0.49653727 0.46045443 0.23805524
-0.50191945 0.54795313 0.37889668
-0.38225999 0.48169249 0.09697406
-0.39223713 0.43360242 0.03918138
-0.46023956 0.34539741 0.00854745
-0.52992356 0.38125008 0.16857886
-0.50834799 0.31792244 0.03983533
-0.31017223 0.66884452 0.27145296
-0.63947928 0.25346264 0.14093366
-0.68979329 0.25693169 0.22248812
-0.58625674 0.22163223 0.01196290
-0.42759514 0.42920175 0.08612388
-0.67080802 0.19989724 0.10721513
-0.29265237 0.50808036 0.00111003
-0.38301587 0.54795671 0.19860052
-0.54448384 0.35336000 0.14836621
-0.53028268 0.43608370 0.25227076
-0.47645801 0.46032739 0.20741510
-0.54187161 0.56758255 0.46924424
-0.17419085 0.70680004 0.12280964
-0.69998342 0.16994610 0.10603898
-0.49414411 0.49452823 0.28609470
-0.52929050 0.46558994 0.29550850
-0.43982181 0.58150250 0.33560693
-0.24724390 0.64026165 0.13268834
-0.30204704 0.54796630 0.07583697
-0.31121624 0.61326510 0.18875730
-0.71510923 0.16442850 0.12060851
-0.64003903 0.23321368 0.11107780
-0.69978470 0.22320341 0.18649462
-0.27271053 0.62556064 0.14901301
-0.44770065 0.51759177 0.25064209
-0.64006507 0.27498463 0.17445689
-0.52326882 0.41603306 0.21123122
-0.16039260 0.65519011 0.02362719
-0.49659917 0.44514233 0.21493042
-0.02143358 0.77859545 0.00004158
-0.30108795 0.60581559 0.16210289
-0.33223355 0.52780610 0.09104056
-0.47507197 0.47490597 0.22741978
-0.57296997 0.25496277 0.04235632
-0.52637178 0.41041312 0.20741460
-0.38062453 0.60447431 0.28067577
-0.57911450 0.24265677 0.03301335
-0.38049355 0.47992083 0.09160904
-0.23318732 0.68845725 0.18445559
-0.40347776 0.47016490 0.11166790
-0.54086429 0.38953960 0.19773880
-0.44459784 0.52228439 0.25305280
-0.35977235 0.48381430 0.06609211
-0.48837125 0.52231771 0.31947994
-0.56790251 0.27470800 0.06461298
-0.20530906 0.65123069 0.08573286
-0.51925701 0.39659581 0.17567410
-0.61577779 0.29706472 0.17110990
-0.66366607 0.21202399 0.11477382
-0.61310554 0.34882319 0.24554202
-0.25789496 0.67432398 0.20049027
-0.43771124 0.59768540 0.35694575
-0.34654805 0.55672228 0.15659373
-0.41797909 0.38798806 0.00904789
-0.43311501 0.57724655 0.31898338
-0.15670875 0.72590697 0.12527341
-0.06418785 0.73940134 0.00544029
-0.70025146 0.13790300 0.05785672
-0.40488362 0.43265194 0.05691674
-0.58549923 0.49201775 0.42081586
-0.46743047 0.44464809 0.16995072
-0.38245907 0.48863646 0.10780547
-0.38268128 0.55577791 0.20995298
-0.44402492 0.38373876 0.04209931
-0.15869614 0.69671839 0.08402649
-0.29671758 0.56095809 0.08745575
-0.23356438 0.68231380 0.17571162
-0.47381550 0.54534268 0.33232236
-0.34232399 0.51814079 0.09168528
-0.46690640 0.37403178 0.06207665
-0.46956706 0.41243237 0.12434009
-0.57223791 0.43359980 0.31212381
-0.56961870 0.44000193 0.31786010
-0.58515888 0.25671956 0.06350302
-0.56604111 0.49114010 0.38997936
-0.43461275 0.58927274 0.33949062
-0.44724077 0.55387151 0.30495811
-0.16322115 0.66488773 0.04262133
-0.44205317 0.50571543 0.22406955
-0.46845382 0.51287109 0.27495325
-0.54450101 0.41267559 0.23833576
-0.43060163 0.48768568 0.17936519
-0.32009828 0.63485175 0.23495902
-0.49206349 0.42740369 0.18115461
-0.10361594 0.73497432 0.05851462
-0.14551525 0.72967577 0.11401484
-0.30032551 0.50961614 0.01507406
-0.61588275 0.27647164 0.14004263
-0.62210488 0.29175988 0.17266001
-0.56141400 0.25669819 0.02746482
-0.60852093 0.26157320 0.10628810
-0.48374811 0.43330431 0.17749295
-0.44868967 0.36492148 0.02063906
-0.64086026 0.17296837 0.02096981
-0.50597781 0.34023702 0.07007812
-0.73451179 0.14542529 0.12121417
-0.75918651 0.07675054 0.05449461
-0.53422403 0.50575793 0.36389893
-0.50738388 0.45376194 0.24435443
-0.28109461 0.54671580 0.04216932
-0.43476668 0.43887398 0.11166503
-0.29187417 0.66552240 0.23866883
-0.44770989 0.43828642 0.13040066
-0.47852555 0.47298181 0.22973894
-0.64800215 0.35157120 0.30262488
-0.57463259 0.51929677 0.44570300
-0.51811337 0.43178970 0.22730637
-0.43190405 0.50322646 0.20490555
-0.15650077 0.73581916 0.13998856
-0.02477649 0.78031981 0.00772540
-0.33956400 0.47640899 0.02421988
-0.48410985 0.59359944 0.42110729
-0.30524743 0.62111616 0.19161148
-0.40884367 0.43794885 0.07095360
-0.51197070 0.46015251 0.26100016
-0.53749192 0.53115928 0.40737200
-0.41884238 0.61571366 0.35567105
-0.67158133 0.17697755 0.07363334
-0.59001529 0.30197024 0.13948318
-0.57350421 0.38728598 0.24381539
-0.57947630 0.32164577 0.15333734
-0.60477942 0.20166098 0.00976645
-0.06279700 0.75259525 0.02333789
-0.62726712 0.35258454 0.27271962
-0.75558496 0.06344972 0.02886459
-0.34226251 0.65056568 0.29239622
-0.40879658 0.47627661 0.12900068
-0.22872348 0.69667417 0.19014663
-0.25437766 0.64477515 0.15034989
-0.49759763 0.39247406 0.13658063
-0.14539599 0.71016705 0.08425163
-0.62227893 0.19660389 0.02863368
-0.43399575 0.37236118 0.00963902
-0.30570519 0.64327866 0.22591206
