ply
format ascii 1.0
element vertex 1368
property float x
property float y
property float z
end_header
0.47027931 -0.50857514 -0.00000018
0.62979960 -0.09949229 -0.00000126
-0.23580910 0.22776681 -0.00000064
-0.30227113 0.64988834 0.20234822
0.45735934 0.22946414 -0.00000135
-0.56047970 0.52404469 0.37837490
-0.59040654 0.18365982 -0.00000026
-0.12044749 -0.17651708 -0.00000039
0.54701394 -0.61722505 -0.00000011
0.01862700 0.66275018 -0.00000091
-0.16461536 0.73904699 0.13785392
0.53048456 0.13493340 -0.00000140
0.31901121 -0.18592510 -0.00000038
0.33386567 -0.35336387 -0.00000028
-0.20382357 0.46773109 -0.00000072
-0.61921066 0.34570894 0.21931829
-0.02020114 0.61428034 -0.00000088
0.49885860 -0.59037393 -0.00000013
0.49731204 0.18851551 -0.00000140
-0.45019582 -0.72759324 -0.00000005
0.62693489 -0.71876001 -0.00000005
-0.71193773 0.03757710 -0.00000010
0.20282044 -0.73364782 -0.00000004
0.03953561 -0.63069612 -0.00000011
-0.29758653 0.19766915 -0.00000057
0.36312959 -0.00843113 -0.00000059
0.24325572 0.44760478 -0.00000109
-0.33452410 0.34886155 -0.00000056
-0.51635450 0.33962512 0.07444431
-0.01982991 -0.14891054 -0.00000041
0.63642210 -0.37305349 -0.00000075
-0.18491171 0.08087141 -0.00000055
-0.35688412 -0.10826405 -0.00000043
-0.48372626 -0.51222849 -0.00000018
0.58412588 -0.77992278 -0.00000001
0.57885075 -0.37995881 -0.00000055
-0.32096967 -0.12643172 -0.00000042
0.00264410 0.79732180 -0.00000100
0.22946818 0.41438863 -0.00000098
-0.25607315 -0.48062915 -0.00000020
0.36129999 0.20073298 -0.00000099
0.32531339 -0.59494597 -0.00000013
-0.11743813 -0.66588134 -0.00000008
0.36516628 -0.56444079 -0.00000015
-0.47420156 -0.22129695 -0.00000031
0.40772587 0.19763146 -0.00000113
-0.70534605 -0.05854149 -0.00000009
-0.53252411 0.00499976 -0.00000029
0.31779996 -0.26272148 -0.00000034
0.20154949 -0.66082054 -0.00000009
-0.22732428 -0.54057145 -0.00000016
-0.09993428 -0.44352281 -0.00000022
0.01668147 -0.14354602 -0.00000041
-0.42574462 0.51975071 0.19348614
-0.38282159 0.39595881 -0.00000052
-0.50208277 -0.42820817 -0.00000023
0.35825571 -0.60105401 -0.00000012
0.29564536 -0.75608885 -0.00000003
-0.66236758 -0.32994524 -0.00000009
-0.42762458 -0.10691137 -0.00000038
-0.22266591 0.65233582 0.09973952
-0.68778151 0.17567706 0.08439100
-0.74629921 -0.38025111 0.00000000
-0.69205832 -0.27084121 -0.00000007
-0.12303319 0.11852248 -0.00000057
0.05605752 0.43685579 -0.00000077
-0.33338693 -0.63994312 -0.00000010
0.28724575 -0.21635647 -0.00000036
-0.00522231 -0.79341722 -0.00000000
0.44405532 0.27306423 -0.00000139
0.24802263 0.18636298 -0.00000062
-0.54720026 0.48746735 0.31207260
0.32081944 -0.20295131 -0.00000037
-0.56230992 0.53764850 0.39889997
-0.70600355 0.09535897 0.00181284
-0.63640237 0.41915280 0.33985016
-0.59014922 -0.24124350 -0.00000018
0.03798468 -0.61502218 -0.00000012
0.11921945 -0.37114444 -0.00000027
0.74632412 -0.55176669 -0.00000062
-0.58401245 0.23453833 0.02466998
-0.53186613 0.50057042 0.30910555
-0.18250749 -0.11743168 -0.00000043
0.46548411 0.07501082 -0.00000108
0.64203101 -0.01482974 -0.00000147
-0.74629360 -0.33377615 0.00000000
-0.27179080 -0.72606611 -0.00000005
-0.10748278 0.22741251 -0.00000064
-0.41786259 0.46146682 0.10549554
0.63636851 -0.20771486 -0.00000107
-0.16792826 0.38494802 -0.00000074
0.58654630 -0.04649515 -0.00000123
0.11581200 -0.78598136 -0.00000001
0.42008373 -0.33970469 -0.00000029
0.46366417 -0.74085528 -0.00000004
-0.61996627 -0.48767191 -0.00000010
-0.62311214 0.43129775 0.33832708
0.21921201 -0.39590520 -0.00000025
0.61829102 -0.06502887 -0.00000129
0.09648644 -0.78155494 -0.00000001
0.21630511 0.26740885 -0.00000067
-0.01713975 -0.71583003 -0.00000005
-0.07526346 -0.10002855 -0.00000044
-0.13662285 0.29541707 -0.00000068
0.16074328 -0.45640859 -0.00000021
-0.10939385 -0.56028754 -0.00000015
0.01308121 0.09352828 -0.00000056
0.14603707 -0.57333446 -0.00000014
-0.31593004 0.31556571 -0.00000057
0.20755550 -0.55642480 -0.00000015
-0.53900248 0.47625580 0.28626093
0.42394033 0.08420433 -0.00000096
-0.43566594 -0.55538869 -0.00000015
0.45340142 0.31552002 -0.00000151
-0.15774004 0.08287030 -0.00000055
0.24376957 0.26619950 -0.00000074
0.63655347 -0.00484385 -0.00000147
0.78761131 -0.51018310 -0.00000072
-0.65655553 0.15338425 0.01321905
-0.38299453 0.48970270 0.09667557
-0.64590818 0.22567402 0.09519395
-0.44881707 -0.75523728 -0.00000003
-0.24602047 0.43282381 -0.00000067
-0.53793180 -0.55751479 -0.00000015
0.30987996 0.17733750 -0.00000078
0.35416454 -0.13645355 -0.00000041
-0.22250751 -0.70563334 -0.00000006
-0.15567525 -0.31515807 -0.00000030
-0.35008478 0.14132030 -0.00000051
0.59506577 0.02955631 -0.00000140
0.06744364 -0.36879429 -0.00000027
0.30980620 -0.42300525 -0.00000024
0.35379037 -0.61422980 -0.00000012
0.78843147 -0.69449890 -0.00000026
-0.56968749 -0.79019010 -0.00000001
-0.30484763 0.55800730 0.08358643
-0.19498453 -0.08611412 -0.00000045
0.19735748 -0.53027666 -0.00000017
0.70119518 -0.60463762 -0.00000049
0.46255985 -0.32199591 -0.00000030
-0.60025316 -0.48141605 -0.00000012
0.40386060 -0.28476131 -0.00000032
-0.42361069 -0.41347560 -0.00000024
-0.44926199 0.52702367 0.23443285
-0.25486177 0.20514356 -0.00000062
-0.15118118 0.72728586 0.10434774
0.16901679 0.22504655 -0.00000064
0.78048110 -0.63571268 -0.00000041
-0.40511483 -0.71053421 -0.00000006
-0.14642675 -0.74618030 -0.00000003
0.31040618 0.25473425 -0.00000093
0.61141092 -0.20004836 -0.00000101
0.50709540 0.21195535 -0.00000148
-0.23245974 0.44983116 -0.00000069
0.29193377 -0.17579256 -0.00000039
-0.02214345 -0.48610109 -0.00000020
-0.40812215 -0.14947107 -0.00000039
0.53193647 0.23633759 -0.00000160
0.05400152 0.46897653 -0.00000079
0.05427999 -0.11040338 -0.00000043
-0.01222289 -0.56453639 -0.00000015
0.18236597 -0.17930833 -0.00000039
-0.05124807 0.75499094 0.00829485
-0.45708850 0.00864292 -0.00000037
0.21237943 -0.31037128 -0.00000031
-0.26542425 -0.14865069 -0.00000041
0.00251103 0.31128666 -0.00000069
-0.54014188 -0.77107412 -0.00000002
-0.51682913 -0.57805598 -0.00000014
-0.21381019 0.65548527 0.09215097
0.25717330 0.37303936 -0.00000099
-0.57030493 0.50078219 0.36050534
-0.31076580 -0.27598548 -0.00000033
-0.67580938 0.31095392 0.24836729
-0.54677838 -0.62046111 -0.00000011
-0.59032911 -0.62650126 -0.00000011
0.78349447 -0.26550013 -0.00000134
-0.06323716 -0.04149957 -0.00000047
0.31504998 0.06255324 -0.00000057
0.63185298 -0.00834094 -0.00000145
-0.13536929 -0.55002242 -0.00000016
0.12891430 -0.10550875 -0.00000043
-0.27264610 0.07756122 -0.00000055
0.17441364 0.27118748 -0.00000067
0.40263358 -0.68541092 -0.00000007
0.41148925 0.22656383 -0.00000120
-0.72414780 -0.72670090 0.00000000
0.79853785 -0.00471527 -0.00000199
0.18848494 0.13612667 -0.00000059
-0.63020813 0.25063726 0.10751251
-0.18708844 0.72180140 0.14480571
-0.30971417 -0.59809697 -0.00000013
0.65574819 0.04782178 -0.00000163
0.09683322 -0.36093071 -0.00000027
-0.35951775 0.11198952 -0.00000049
0.21870960 -0.24723606 -0.00000035
-0.65849233 -0.42259142 -0.00000007
-0.43497229 0.35317609 -0.00000045
-0.26489776 -0.49751499 -0.00000019
-0.30455303 -0.25400668 -0.00000034
-0.23185894 0.66103321 0.12353120
-0.14580475 0.14437318 -0.00000059
0.27065212 0.24236791 -0.00000078
0.02564671 -0.18598023 -0.00000038
0.55565655 -0.62801111 -0.00000011
0.11192315 -0.15534085 -0.00000040
0.19626142 0.00616202 -0.00000050
-0.30916584 -0.29266641 -0.00000032
-0.25699767 0.69167900 0.19771659
-0.65175033 0.21347909 0.08674579
-0.07055701 -0.32011864 -0.00000030
0.77885157 -0.58119202 -0.00000055
0.10989822 -0.36025545 -0.00000027
-0.24675673 0.57547963 0.02956969
0.20517439 0.08650182 -0.00000055
-0.34378263 -0.25925341 -0.00000034
0.11073308 -0.69319534 -0.00000007
-0.63132447 0.21053854 0.05567191
0.67649150 -0.60538876 -0.00000042
0.31016177 -0.18133287 -0.00000039
0.18980414 -0.26473209 -0.00000033
-0.51685011 0.50933027 0.30078575
-0.34040537 0.55100155 0.12155642
-0.30713186 0.68178016 0.25122386
0.39811894 -0.25300562 -0.00000034
-0.74270719 -0.14177537 -0.00000004
-0.15875641 0.69732082 0.07457252
-0.06586478 0.35533708 -0.00000072
-0.62501532 -0.22791195 -0.00000014
-0.18851940 0.53800601 -0.00000075
0.15945497 0.62905848 -0.00000118
-0.50204182 -0.29311210 -0.00000026
-0.02883839 -0.59186405 -0.00000013
-0.64012885 -0.16042545 -0.00000014
-0.05417436 0.06769959 -0.00000054
-0.03420353 0.08115663 -0.00000055
-0.20111284 -0.08332087 -0.00000045
-0.22240677 -0.16162345 -0.00000040
-0.75164974 -0.04268526 -0.00000004
0.33663979 -0.50292063 -0.00000019
0.79059851 -0.38642833 -0.00000103
-0.49897337 0.54556680 0.32520157
0.28406635 -0.42877975 -0.00000023
-0.26555106 -0.15284614 -0.00000040
-0.66114885 -0.03666931 -0.00000014
-0.09565203 -0.09428893 -0.00000044
-0.09849730 -0.65939873 -0.00000009
-0.01771249 -0.68227661 -0.00000007
-0.17824525 -0.64785868 -0.00000010
0.66545939 -0.13810714 -0.00000130
-0.10220400 0.01223671 -0.00000051
-0.49755982 0.33172852 0.03894893
0.11341853 -0.21923462 -0.00000036
0.52623552 0.19757970 -0.00000151
-0.61047930 -0.07354982 -0.00000019
-0.55800134 -0.76440501 -0.00000002
0.01610650 -0.28792989 -0.00000032
-0.52455902 -0.74604917 -0.00000003
0.35195544 0.36836416 -0.00000128
0.10585237 -0.57066315 -0.00000014
-0.11426018 0.64482576 -0.00000085
0.73157698 -0.01837720 -0.00000175
-0.34394920 0.42174703 -0.00000056
-0.60686767 -0.42316541 -0.00000013
-0.51469982 -0.00046612 -0.00000030
0.18740691 0.11442376 -0.00000057
0.01822242 -0.74051315 -0.00000004
-0.09418388 -0.11190536 -0.00000043
-0.25370750 0.51484120 -0.00000068
-0.25967762 -0.73968011 -0.00000004
0.28079939 -0.56102288 -0.00000015
0.39214724 -0.37327108 -0.00000027
-0.38146615 -0.63868058 -0.00000010
0.59123880 -0.47245917 -0.00000041
-0.65150589 0.32947132 0.24067256
0.70114070 -0.34190693 -0.00000102
-0.23286381 -0.11129199 -0.00000043
-0.58903176 -0.38447136 -0.00000015
0.54860091 -0.26536003 -0.00000068
-0.69366568 0.25528395 0.19808102
0.58154631 -0.68947303 -0.00000007
0.45691758 -0.43475085 -0.00000023
0.23772746 -0.36376366 -0.00000027
0.17310959 0.62607080 -0.00000121
-0.53047895 -0.29116064 -0.00000023
-0.66863155 0.10682045 -0.00000016
-0.18988186 0.32652909 -0.00000070
0.76225340 -0.27502072 -0.00000131
0.02386710 -0.78333241 -0.00000001
-0.08598934 -0.77194679 -0.00000002
0.42324340 0.32326382 -0.00000142
0.72488040 -0.62911713 -0.00000043
0.49421659 -0.01334085 -0.00000100
0.39091912 -0.68813616 -0.00000007
-0.58166212 0.32234174 0.13830949
-0.01017713 0.79092807 0.00146748
-0.61216652 0.42109269 0.31019971
0.06595431 -0.36538678 -0.00000027
-0.39098382 -0.24464495 -0.00000035
-0.66827399 -0.33643547 -0.00000008
-0.63325799 -0.36307839 -0.00000011
-0.56503248 0.42652765 0.25474587
0.58730787 0.18412778 -0.00000168
-0.52866769 0.51654339 0.32609385
0.15694027 -0.37054217 -0.00000027
-0.12836799 0.30938971 -0.00000069
-0.40517232 0.50564182 0.14736532
-0.60517168 0.38082868 0.24735238
-0.45093539 0.63492483 0.38015115
0.11036011 0.51330215 -0.00000082
-0.10333042 0.46937349 -0.00000079
-0.15152232 -0.32516307 -0.00000030
-0.06460101 -0.35688686 -0.00000028
-0.43828765 -0.13507886 -0.00000036
0.68873549 -0.66083252 -0.00000035
0.26694345 -0.50031555 -0.00000019
0.29906642 -0.61198449 -0.00000012
-0.45932922 0.42277637 0.10918762
-0.03088855 0.70187616 -0.00000094
-0.38782263 0.27413028 -0.00000049
-0.24833028 -0.28736007 -0.00000032
-0.68976730 -0.52945417 -0.00000002
0.25224254 0.51078904 -0.00000124
-0.19974066 -0.49977934 -0.00000019
-0.46846563 0.56951612 0.31647974
0.30196536 -0.51737416 -0.00000018
0.76853305 -0.62460583 -0.00000044
-0.00969980 0.70899624 -0.00000094
0.31211883 0.11596214 -0.00000066
0.14908519 -0.45118091 -0.00000022
0.11539617 -0.71866947 -0.00000005
0.08186577 0.42594627 -0.00000077
-0.25824371 0.08153647 -0.00000055
-0.18141879 -0.48620766 -0.00000020
0.64578879 0.14541256 -0.00000179
0.13675675 -0.62878305 -0.00000011
0.62169701 -0.75115329 -0.00000003
-0.03262092 -0.00899540 -0.00000049
0.51021475 0.14400513 -0.00000135
-0.17881563 -0.58976144 -0.00000013
-0.54584271 -0.73179138 -0.00000004
0.72512394 -0.28774533 -0.00000120
0.18866163 -0.14755601 -0.00000041
0.51285934 -0.04261280 -0.00000100
-0.15137710 -0.60377163 -0.00000012
-0.41777620 0.38466769 0.00324955
-0.53500062 0.47823673 0.28357339
-0.09269180 0.70937842 0.00275116
-0.03408915 0.37990499 -0.00000074
-0.50221276 0.51716572 0.29174018
0.03726723 -0.72917032 -0.00000004
0.59213060 -0.40560606 -0.00000054
0.06515210 0.30903411 -0.00000069
0.56423116 0.20848311 -0.00000165
-0.14334086 -0.79780948 -0.00000000
-0.09374434 0.68377459 -0.00000088
-0.67066568 0.06922578 -0.00000015
-0.20602173 -0.48635152 -0.00000020
0.27808365 -0.20743662 -0.00000037
-0.17554706 0.68756354 0.08392594
-0.33916512 0.58389193 0.16364633
0.25183770 -0.21959811 -0.00000036
-0.37238851 -0.58721703 -0.00000013
0.57164776 -0.20529972 -0.00000087
0.05667799 0.04478640 -0.00000053
0.19470081 -0.55996376 -0.00000015
0.19833113 -0.21290274 -0.00000037
-0.46506292 0.59219337 0.34211215
-0.31403154 0.54267472 0.07540970
0.36584255 -0.66191214 -0.00000009
-0.49525288 -0.60641325 -0.00000012
-0.47109643 0.06076193 -0.00000036
-0.49196446 0.12414102 -0.00000035
-0.19331846 0.42668709 -0.00000073
-0.17160131 0.58326370 -0.00000078
0.51500088 -0.06085584 -0.00000097
0.34482563 -0.58339196 -0.00000014
0.70509869 -0.07905653 -0.00000154
-0.30598459 0.18768889 -0.00000056
-0.19829637 -0.02528823 -0.00000048
-0.13408418 -0.56495094 -0.00000015
0.45478907 -0.26469901 -0.00000038
0.62143517 -0.69372976 -0.00000008
-0.15486732 0.15072949 -0.00000059
-0.40961123 -0.47084692 -0.00000021
-0.22711045 0.17170839 -0.00000061
-0.54579806 0.49046236 0.31419078
-0.33683103 0.66141015 0.26363030
-0.00335890 0.50055403 -0.00000081
0.35106739 0.42143181 -0.00000139
-0.11047808 -0.67232007 -0.00000008
0.11442469 -0.27922806 -0.00000033
-0.58994597 -0.64613104 -0.00000010
-0.29254365 -0.43642056 -0.00000023
-0.26020658 0.17435031 -0.00000061
-0.46846473 0.24126691 -0.00000040
-0.07899265 0.68980920 -0.00000090
-0.76971626 -0.24059772 0.00000000
-0.61456078 -0.41728985 -0.00000012
0.01767450 -0.65681827 -0.00000009
0.51198840 -0.57145977 -0.00000014
0.00458818 0.43750215 -0.00000077
0.11810136 0.23181522 -0.00000064
-0.59057975 -0.25285199 -0.00000018
0.74348199 -0.16272491 -0.00000150
0.36233056 0.43423280 -0.00000139
0.77125257 -0.19157113 -0.00000152
-0.25659797 0.07606841 -0.00000055
-0.75645822 -0.59391761 0.00000000
-0.13053197 0.71951526 0.06655342
-0.10254744 0.50968099 -0.00000082
0.39187038 -0.35352775 -0.00000028
-0.77750564 -0.34959251 0.00000000
0.25071716 -0.07779662 -0.00000045
0.16467759 -0.45045763 -0.00000022
-0.75576484 -0.73635614 0.00000000
-0.29597571 -0.69571984 -0.00000007
-0.03223060 -0.28759602 -0.00000032
-0.33645132 0.19899321 -0.00000053
0.17601313 -0.62442195 -0.00000011
-0.65305388 -0.47256932 -0.00000007
0.06653144 0.24956053 -0.00000066
-0.33760726 0.56598234 0.13775752
0.01812531 0.24311560 -0.00000065
-0.26570985 -0.53048009 -0.00000017
-0.01719236 -0.69048774 -0.00000007
0.24817576 -0.18390305 -0.00000039
-0.51598454 0.46993786 0.24724846
-0.00248390 -0.62874204 -0.00000011
0.61069983 -0.31695971 -0.00000078
-0.02607638 -0.24758567 -0.00000035
0.29354656 -0.39480245 -0.00000025
-0.27533162 0.10805038 -0.00000057
-0.45202717 0.47390670 0.16747247
-0.35934448 -0.04943293 -0.00000046
0.75427711 -0.42012399 -0.00000095
0.03948352 0.05601870 -0.00000054
0.02724164 -0.66843611 -0.00000008
-0.16898613 -0.29590201 -0.00000032
0.12244126 -0.77445227 -0.00000002
0.60864502 0.15838391 -0.00000170
0.49378493 -0.59938079 -0.00000013
-0.67316657 -0.70826757 -0.00000001
-0.21370669 0.34268105 -0.00000069
-0.59037071 -0.05953746 -0.00000021
-0.13907658 0.69225323 0.04166211
-0.68193370 -0.75523919 0.00000000
-0.11160236 -0.04259980 -0.00000047
0.02619081 -0.09030216 -0.00000044
0.03550068 0.26022840 -0.00000066
0.70724547 -0.00384730 -0.00000170
0.71058631 -0.54427254 -0.00000064
0.78477687 -0.40440178 -0.00000099
0.58835542 0.01397627 -0.00000135
0.29745683 0.41204917 -0.00000120
0.69019902 -0.75956869 -0.00000010
-0.44552076 -0.74043775 -0.00000004
0.50055248 -0.64465058 -0.00000010
-0.63474345 -0.48150808 -0.00000009
0.21988577 -0.32447687 -0.00000030
-0.62134922 0.21881075 0.05340706
-0.65619648 -0.44271588 -0.00000007
-0.63693970 0.29179695 0.17120057
0.31113112 0.13919713 -0.00000071
-0.41346666 -0.40625122 -0.00000025
-0.65481955 0.07161859 -0.00000017
0.35705188 -0.26259765 -0.00000034
0.21426046 0.09105034 -0.00000056
0.04700874 0.17964181 -0.00000061
-0.05836415 -0.48881963 -0.00000019
0.08575641 -0.55921775 -0.00000015
-0.50289804 -0.51274925 -0.00000018
-0.17095754 -0.69353491 -0.00000007
0.17809130 -0.50045973 -0.00000019
-0.61891067 -0.42076769 -0.00000012
-0.06990827 -0.17560504 -0.00000039
-0.63512248 -0.08515314 -0.00000016
-0.51588362 -0.42842743 -0.00000022
-0.49685714 -0.12093710 -0.00000030
0.48784059 0.22408527 -0.00000144
-0.49808609 0.54498518 0.32324815
-0.06415534 -0.08027962 -0.00000045
0.09053513 0.46255431 -0.00000079
-0.30447763 0.26602110 -0.00000058
-0.40537027 0.29271618 -0.00000047
0.23743933 0.06769373 -0.00000054
-0.22891752 -0.23443618 -0.00000035
0.03507121 0.62069291 -0.00000089
0.57165438 0.01373387 -0.00000130
0.21375597 -0.05538270 -0.00000047
-0.60419118 0.13759452 -0.00000023
-0.36706671 -0.36604157 -0.00000027
0.13367569 0.52007776 -0.00000088
-0.57391900 -0.26692724 -0.00000019
-0.54498470 -0.61568809 -0.00000012
-0.17804205 -0.50377780 -0.00000019
-0.64272052 -0.61535889 -0.00000006
0.31350151 -0.05464927 -0.00000047
0.66530466 -0.75776643 -0.00000009
-0.49935651 0.20062301 -0.00000036
-0.13355698 0.45844552 -0.00000079
0.33022347 -0.70696455 -0.00000006
0.14577314 -0.18707438 -0.00000038
-0.75784528 0.06775235 0.03404206
0.02612004 -0.04205879 -0.00000047
0.09998256 -0.30016083 -0.00000031
0.49920630 0.13741285 -0.00000131
-0.27458343 -0.73439372 -0.00000004
0.06078490 0.50432360 -0.00000082
0.19926460 0.08164611 -0.00000055
0.67595196 -0.40688911 -0.00000081
-0.42530379 0.38473535 0.01335010
-0.25296631 -0.64641970 -0.00000010
0.56910473 -0.65184706 -0.00000009
0.46145323 0.33234969 -0.00000156
-0.37942508 0.44225037 0.02882443
0.70866543 -0.75497276 -0.00000011
-0.03665595 -0.47546658 -0.00000020
-0.62620872 0.38683084 0.28331050
-0.26596701 0.47713536 -0.00000066
0.52500451 0.19380438 -0.00000150
-0.66759372 0.25176963 0.15873568
-0.15793893 0.22270627 -0.00000064
-0.53584433 -0.12180230 -0.00000026
-0.09570408 0.10514898 -0.00000057
0.04401458 -0.53554171 -0.00000017
0.45787540 0.10108519 -0.00000110
0.13570914 -0.66947716 -0.00000008
-0.75858390 -0.69093621 0.00000000
0.57303452 -0.34422955 -0.00000060
0.74656355 -0.25693136 -0.00000133
-0.01613014 0.15772507 -0.00000060
0.26814786 0.04631775 -0.00000053
0.59174812 -0.50305474 -0.00000035
-0.30085555 -0.21604963 -0.00000036
0.19613270 0.25234547 -0.00000066
0.52724057 0.06345206 -0.00000125
-0.23159747 0.42929918 -0.00000069
-0.72372013 -0.18289594 -0.00000005
-0.39777550 -0.61415595 -0.00000012
0.39900893 -0.59636664 -0.00000013
-0.79948485 -0.41039041 0.00000000
-0.17481773 -0.38749173 -0.00000026
-0.21927077 0.27992025 -0.00000067
0.57916939 -0.30662611 -0.00000069
0.72454762 -0.57248616 -0.00000057
-0.68567014 -0.51348728 -0.00000003
0.13467054 0.25627622 -0.00000066
-0.10770469 -0.02696532 -0.00000048
-0.71515799 -0.39770213 -0.00000002
-0.64465719 -0.20407401 -0.00000013
0.65646553 -0.25274667 -0.00000105
0.31634778 0.19880040 -0.00000084
-0.49807972 -0.34603879 -0.00000026
0.54239005 -0.07216145 -0.00000103
-0.35642728 -0.47494939 -0.00000020
-0.13331424 0.29564482 -0.00000068
-0.33821702 0.20296907 -0.00000053
0.44829339 -0.70999527 -0.00000006
0.05878728 0.56564128 -0.00000085
-0.57021481 -0.32592979 -0.00000019
-0.55923313 0.45284528 0.28203225
0.06417478 -0.30418110 -0.00000031
-0.04514938 -0.12472639 -0.00000042
-0.41927606 0.30009702 -0.00000046
-0.48032284 0.53140229 0.28156227
-0.57872587 -0.33535820 -0.00000017
0.09882047 -0.73018086 -0.00000004
0.43524152 0.23867972 -0.00000130
-0.45664221 -0.79714501 -0.00000000
-0.07987750 0.40004781 -0.00000075
0.61682248 -0.76772636 -0.00000002
0.27247578 0.14865637 -0.00000060
-0.36557248 0.30314109 -0.00000052
-0.46348044 -0.74102330 -0.00000004
0.66454965 -0.14206858 -0.00000129
-0.19367316 -0.38296545 -0.00000026
-0.62575036 -0.69882888 -0.00000006
0.74873817 -0.05950921 -0.00000172
0.21687368 -0.38423505 -0.00000026
0.06906719 -0.19432081 -0.00000038
0.69344169 -0.11894929 -0.00000143
0.71772224 -0.25639853 -0.00000124
-0.16337225 0.03744987 -0.00000052
0.59544766 -0.63413870 -0.00000011
0.70667416 0.02353263 -0.00000175
0.35643962 -0.61893225 -0.00000011
0.59539402 -0.36928916 -0.00000062
-0.56358099 0.58029068 0.45729822
-0.07285111 0.33152896 -0.00000071
0.68733561 -0.71824229 -0.00000020
-0.21544710 -0.00670779 -0.00000050
-0.10832520 0.02998412 -0.00000052
-0.19469568 -0.25481614 -0.00000034
-0.74774545 0.14015184 0.11689102
-0.13952258 0.72864568 0.09065179
0.72746998 -0.27427173 -0.00000123
-0.35955149 -0.31026247 -0.00000031
0.24290788 -0.74764556 -0.00000003
-0.61716449 -0.52824938 -0.00000010
-0.37140414 -0.05530606 -0.00000045
0.07941939 -0.54651487 -0.00000016
0.06504835 -0.69546682 -0.00000007
-0.01113409 -0.74711853 -0.00000003
0.27887952 0.25172588 -0.00000082
0.46045861 -0.45256096 -0.00000022
-0.15574843 0.30131701 -0.00000069
-0.44989353 -0.43872809 -0.00000023
-0.03947878 0.18788074 -0.00000062
0.18368451 -0.13806532 -0.00000041
0.28306898 -0.63088721 -0.00000011
-0.03391329 -0.25810227 -0.00000034
0.10170694 0.40599787 -0.00000075
0.12603898 -0.24292666 -0.00000035
0.72940707 -0.16348904 -0.00000146
-0.58562523 0.40392619 0.25207469
0.35548025 -0.74674124 -0.00000003
-0.16095562 -0.45936644 -0.00000021
-0.35227680 -0.24889491 -0.00000034
-0.04471041 -0.49209240 -0.00000019
0.54417902 -0.74381995 -0.00000004
-0.56228536 0.54650271 0.41064206
0.06839999 -0.48153925 -0.00000020
0.68467802 -0.42756060 -0.00000080
-0.53185087 0.46945941 0.26771212
-0.72590536 0.16691512 0.12343801
-0.61667293 0.27974433 0.12822066
0.53831035 -0.15896966 -0.00000085
-0.08340519 -0.22451846 -0.00000036
0.35041600 -0.20300651 -0.00000037
0.39839822 -0.37700254 -0.00000026
-0.76188481 -0.48563790 0.00000000
0.23106197 0.26324344 -0.00000069
-0.31054002 0.63781548 0.19728956
0.03589783 -0.33099714 -0.00000029
-0.36019456 0.66892219 0.30469039
0.67051798 -0.47432944 -0.00000066
-0.75756097 -0.27212951 0.00000000
-0.74860185 -0.02940961 -0.00000005
0.38357475 -0.49679384 -0.00000019
-0.03904092 0.67092925 -0.00000092
0.17401554 0.47815716 -0.00000093
-0.29824197 -0.12240905 -0.00000042
-0.46544501 0.06750941 -0.00000037
-0.07017531 -0.54715210 -0.00000016
0.11430156 0.39229411 -0.00000075
0.70664674 -0.12603372 -0.00000146
0.65327859 -0.20670404 -0.00000113
-0.31285834 0.32716456 -0.00000058
-0.20807110 0.27458477 -0.00000067
0.61223459 -0.15012971 -0.00000111
0.36990836 0.37903884 -0.00000136
0.13921434 0.58711225 -0.00000103
0.29955095 -0.19801939 -0.00000038
-0.66185838 -0.26174921 -0.00000010
-0.27565032 0.51483130 -0.00000065
-0.04186319 0.78273475 0.03270943
0.64812005 -0.01179005 -0.00000149
-0.17059961 -0.48046288 -0.00000020
0.45691943 0.12181971 -0.00000114
-0.13279267 0.02436551 -0.00000052
-0.09449139 0.74416798 0.05140920
0.23281582 0.21058515 -0.00000063
-0.19752330 -0.17119458 -0.00000039
-0.55271661 0.32608628 0.10479590
-0.13803232 -0.54781747 -0.00000016
0.29961377 -0.75632221 -0.00000003
0.71295387 -0.07108447 -0.00000158
-0.27283826 -0.13058481 -0.00000042
0.59437764 -0.04469872 -0.00000125
-0.38355568 0.29779744 -0.00000050
-0.28773880 0.69397533 0.24165159
-0.67503577 -0.48174313 -0.00000005
0.32908282 -0.46475714 -0.00000021
-0.49703693 -0.59731275 -0.00000013
-0.73884517 0.06406799 0.00387509
-0.41113365 0.44389096 0.07317381
-0.14868760 -0.56913131 -0.00000014
-0.67385411 -0.20441355 -0.00000010
-0.62721527 -0.07411629 -0.00000017
-0.34186488 -0.62711662 -0.00000011
-0.34607965 0.40316370 -0.00000056
0.52767062 0.13390744 -0.00000139
-0.73360026 -0.22151509 -0.00000003
-0.09502803 0.31456956 -0.00000070
-0.53650141 -0.75168544 -0.00000003
0.38285798 -0.61987299 -0.00000011
-0.41206667 0.50866514 0.16055436
-0.67583668 0.22275385 0.13111106
-0.47083384 0.39753336 0.09091771
-0.17219388 -0.50422400 -0.00000018
0.64586347 -0.42485219 -0.00000068
-0.01359702 -0.63788533 -0.00000010
-0.56192464 0.49294937 0.33894420
0.28930724 -0.29066932 -0.00000032
0.73368812 -0.48185921 -0.00000080
0.75463849 -0.68695813 -0.00000028
0.56306618 -0.76920474 -0.00000002
-0.52016169 0.08756991 -0.00000031
-0.52464515 0.36530164 0.11961547
0.18397176 -0.11850823 -0.00000043
-0.47222316 0.37371445 0.06108975
-0.52482897 0.26571104 -0.00000034
0.08383678 -0.13109298 -0.00000042
0.31099716 -0.75369781 -0.00000003
-0.27951401 -0.35985494 -0.00000028
-0.78185236 -0.00871459 -0.00000002
-0.17115247 -0.08483597 -0.00000045
0.17632245 0.19721234 -0.00000062
-0.34732273 -0.74205106 -0.00000004
-0.21083899 0.40562376 -0.00000070
0.79912251 -0.62932748 -0.00000043
0.58223003 -0.17841105 -0.00000095
0.35493737 0.12272299 -0.00000081
0.29802525 -0.33501241 -0.00000029
-0.68072522 0.19442245 0.09993564
-0.50815940 -0.40777341 -0.00000024
0.53091973 -0.22755530 -0.00000069
0.21254300 0.36096454 -0.00000082
-0.18972246 -0.14479665 -0.00000041
0.36104059 0.24295770 -0.00000107
-0.23683402 0.57515633 0.01594405
-0.66950202 -0.49168774 -0.00000005
0.67200440 -0.62975425 -0.00000036
-0.06995120 0.58247501 -0.00000086
-0.42736214 -0.09764087 -0.00000038
0.41635063 -0.33704138 -0.00000029
0.32086262 -0.78521633 -0.00000001
0.17714737 -0.73114038 -0.00000004
-0.36073354 -0.28557402 -0.00000032
-0.70855528 -0.09037575 -0.00000008
-0.32051235 0.56414527 0.11258082
0.49759501 0.03377837 -0.00000110
0.60971844 -0.74062604 -0.00000004
-0.74772424 0.07325703 0.02790298
0.05608786 -0.42401877 -0.00000023
0.57166415 0.22124898 -0.00000170
0.62021244 0.09738278 -0.00000161
-0.57085866 0.32222706 0.12379003
-0.35059127 0.05979065 -0.00000049
0.19815834 0.29307711 -0.00000068
-0.17560276 0.20328009 -0.00000063
-0.15756564 0.20022154 -0.00000063
-0.00196452 0.59980798 -0.00000087
-0.14790334 -0.70725012 -0.00000006
-0.40089470 -0.53752017 -0.00000016
-0.48497340 -0.33273059 -0.00000028
0.31529132 0.19264472 -0.00000082
-0.65975940 -0.75968057 -0.00000001
-0.62835091 0.38686615 0.28620633
-0.40026414 -0.30606711 -0.00000031
-0.31055441 -0.16006251 -0.00000040
0.61104280 -0.11822636 -0.00000116
-0.31971660 0.18061379 -0.00000055
0.04427552 -0.16064405 -0.00000040
-0.06279501 0.56104416 -0.00000085
-0.10735927 0.73197222 0.05230300
0.07274123 0.48217797 -0.00000080
0.63013875 -0.72301543 -0.00000005
-0.18850252 -0.10935477 -0.00000043
-0.59382838 0.10369938 -0.00000024
0.09677303 -0.08632166 -0.00000045
0.05872488 0.42058501 -0.00000076
-0.03471061 0.18387413 -0.00000061
-0.66166568 0.31838459 0.23943987
-0.25520581 0.55062777 0.00775660
-0.03270560 0.42066866 -0.00000076
0.07155221 0.09479212 -0.00000056
-0.55357975 0.42264426 0.23435105
0.06331033 0.30621168 -0.00000069
-0.44818392 0.24452348 -0.00000042
-0.63699710 0.29750136 0.17886290
-0.01567738 0.22136410 -0.00000064
-0.62521911 0.27784112 0.13705480
-0.66561323 -0.05846302 -0.00000013
0.62510014 -0.75599539 -0.00000003
-0.34695637 0.20267022 -0.00000052
-0.38645089 -0.35080236 -0.00000028
-0.54569590 0.47613394 0.29500023
0.35071409 0.40021822 -0.00000134
0.45622626 0.14884318 -0.00000119
0.07085744 -0.09052601 -0.00000044
-0.26893887 -0.77142495 -0.00000002
-0.60498172 -0.56764156 -0.00000010
0.59603590 -0.40467983 -0.00000056
0.46715194 0.31371015 -0.00000155
0.51073343 -0.37773177 -0.00000034
-0.18653680 0.32991529 -0.00000071
0.57710952 0.09161623 -0.00000147
-0.65169722 -0.42519033 -0.00000008
0.29010817 -0.39540523 -0.00000025
0.71764910 -0.46693310 -0.00000083
-0.11370940 0.42493561 -0.00000077
-0.50351298 0.40510422 0.14444420
0.36867595 -0.77347362 -0.00000002
-0.63641489 -0.18200357 -0.00000014
-0.33563191 0.46695256 0.00343613
-0.67676586 0.17311431 0.06633376
0.15697435 -0.28937104 -0.00000032
-0.53449059 0.54187977 0.36753118
-0.17015298 0.48278224 -0.00000076
0.49167159 -0.21102716 -0.00000060
-0.35376221 -0.21502592 -0.00000037
-0.40342432 -0.16322944 -0.00000039
0.10253885 -0.77431732 -0.00000002
-0.19255824 0.02214136 -0.00000051
-0.53451347 -0.54808342 -0.00000016
-0.70612627 -0.69562751 0.00000000
-0.68697059 -0.53381777 -0.00000002
-0.05178809 -0.56165385 -0.00000015
0.60709262 -0.78200483 -0.00000001
0.73892820 -0.28715473 -0.00000124
0.29571384 -0.28987789 -0.00000032
-0.15914673 0.70716399 0.08818160
0.26445869 0.30400848 -0.00000088
-0.34670657 0.61518705 0.21529336
0.53490371 -0.49914405 -0.00000019
-0.23246723 -0.46102354 -0.00000021
-0.20223659 0.21827938 -0.00000064
-0.00026331 0.37404609 -0.00000073
0.01841992 -0.70145142 -0.00000006
0.01594808 0.04916189 -0.00000053
-0.20738348 -0.42806247 -0.00000023
0.08502735 0.05271211 -0.00000053
0.22144747 -0.08762265 -0.00000045
0.72723979 -0.09418489 -0.00000158
-0.62448692 -0.22500502 -0.00000015
-0.32858834 0.48590687 0.01927558
-0.45637971 -0.54184794 -0.00000016
-0.34053195 0.12672196 -0.00000051
0.66546506 -0.10055635 -0.00000137
-0.56186885 -0.46202376 -0.00000017
-0.43026179 -0.28569871 -0.00000032
-0.58175254 -0.67959321 -0.00000008
-0.54611087 -0.08622455 -0.00000026
-0.33690143 0.44834954 -0.00000058
0.00790690 0.28668734 -0.00000068
0.08607671 -0.01483453 -0.00000049
-0.65998513 -0.06727381 -0.00000014
0.35119432 -0.70822120 -0.00000006
-0.62574875 0.37831095 0.27136862
-0.08665852 0.55435687 -0.00000085
-0.28667006 -0.21558315 -0.00000037
-0.64672720 -0.23179626 -0.00000012
-0.08730701 0.01981671 -0.00000051
0.75011647 -0.70551467 -0.00000024
-0.79230744 0.00541505 -0.00000001
-0.65515947 -0.58211178 -0.00000005
0.61867064 -0.59437174 -0.00000026
-0.62126434 0.06884521 -0.00000020
-0.30436701 0.38530055 -0.00000060
0.45556521 -0.47206387 -0.00000020
-0.44673228 0.41204143 0.07815971
-0.51788324 -0.79061013 -0.00000001
0.17603108 -0.79259706 -0.00000000
-0.09144949 0.28644872 -0.00000068
0.67069578 -0.33141539 -0.00000094
-0.78220022 -0.56161660 0.00000000
0.70766562 -0.74785084 -0.00000013
-0.31358171 0.24269687 -0.00000056
0.73768407 -0.44565165 -0.00000089
-0.54483306 -0.18900751 -0.00000024
-0.21882004 -0.01236958 -0.00000049
-0.00361733 0.79855359 0.00288465
0.25299597 0.35939729 -0.00000095
-0.05454168 0.75977862 0.01904169
0.12191010 0.09034069 -0.00000056
-0.00970114 -0.00634656 -0.00000050
0.37016460 0.21578950 -0.00000105
0.24736083 -0.33522883 -0.00000029
0.44755310 0.33528969 -0.00000153
-0.19775750 -0.45403200 -0.00000022
0.07700639 0.65790308 -0.00000097
-0.46536478 -0.71912795 -0.00000005
0.09707623 0.20391145 -0.00000063
-0.49018845 0.33794156 0.03740849
0.64796585 -0.00812347 -0.00000150
0.55724972 -0.54317611 -0.00000016
0.50718659 -0.43455395 -0.00000023
-0.04407173 0.19670382 -0.00000062
-0.64030349 0.36445186 0.27229381
0.06311700 0.56760520 -0.00000085
0.63871503 -0.26371562 -0.00000097
-0.48738381 0.42367041 0.14768498
-0.20189802 -0.49153179 -0.00000019
0.61813956 -0.36969370 -0.00000070
0.48320904 -0.06483342 -0.00000086
0.11709946 -0.22455055 -0.00000036
-0.65670824 0.25182140 0.14432846
-0.01734848 0.45812684 -0.00000079
-0.15423180 -0.10787584 -0.00000043
-0.19987459 -0.16151324 -0.00000040
-0.60276610 0.46928701 0.36178997
-0.55587083 0.25874224 0.01943332
0.66327083 -0.58331805 -0.00000042
0.25659907 0.16374332 -0.00000060
-0.67970246 -0.04931208 -0.00000012
-0.14913321 -0.73023593 -0.00000004
0.21312636 0.42018092 -0.00000094
-0.75352156 -0.68303597 0.00000000
-0.26492971 0.54064900 0.00741773
-0.79097426 -0.53262669 0.00000000
-0.41925102 -0.37560737 -0.00000027
0.08686770 -0.47341210 -0.00000020
-0.18418191 0.57966036 -0.00000076
0.09826422 -0.05378893 -0.00000047
-0.14409660 0.71163929 0.07411857
-0.50227201 0.15050077 -0.00000035
0.08705652 -0.44731945 -0.00000022
0.31363934 -0.69241858 -0.00000007
-0.51122051 -0.07607691 -0.00000029
0.56031829 0.15854426 -0.00000154
0.45351544 -0.34344152 -0.00000029
0.29014331 -0.55019027 -0.00000016
-0.64873189 -0.76191187 -0.00000002
0.03068685 0.11127674 -0.00000057
-0.36885270 0.12336367 -0.00000048
-0.68148625 -0.72335428 0.00000000
-0.56656325 0.10469313 -0.00000027
0.41791990 -0.22660311 -0.00000036
-0.27047259 0.38017717 -0.00000063
0.52445841 0.14031664 -0.00000139
-0.38408437 0.15397829 -0.00000047
0.75777507 -0.76565570 -0.00000009
0.00314603 -0.78178096 -0.00000001
-0.41826379 0.56760800 0.24718101
0.53673941 -0.08463501 -0.00000099
-0.58469296 0.21806762 0.00367142
0.06768300 0.26642522 -0.00000067
-0.55583018 0.29487219 0.06742659
-0.51098454 0.15431920 -0.00000034
0.22820015 0.39583346 -0.00000094
0.23515920 -0.38012272 -0.00000026
-0.74170196 -0.57901996 0.00000000
-0.50762981 -0.17546713 -0.00000028
-0.34861693 0.18687101 -0.00000052
-0.05333396 -0.28545165 -0.00000032
-0.26933330 0.02091203 -0.00000051
-0.20670721 -0.16796640 -0.00000040
0.71759838 -0.78381759 -0.00000004
0.36043021 -0.53470385 -0.00000017
-0.65669227 0.29928383 0.20742492
-0.24318734 0.70708013 0.19983204
-0.09153918 0.46301407 -0.00000079
-0.33414939 -0.60167813 -0.00000012
0.00671861 -0.66525000 -0.00000008
-0.57217181 0.35037303 0.16296610
-0.35373095 -0.41399357 -0.00000024
-0.15500297 -0.72822905 -0.00000004
0.43106538 -0.34585416 -0.00000028
0.65485698 -0.43888816 -0.00000068
0.01089495 0.47239882 -0.00000080
-0.27533174 0.47580531 -0.00000065
-0.49224448 -0.02656302 -0.00000032
-0.04069354 -0.77337587 -0.00000002
0.47118503 -0.38009480 -0.00000026
-0.43248433 0.41085035 0.05762811
0.71191609 -0.52695751 -0.00000068
0.77856576 -0.71966010 -0.00000020
-0.52793747 -0.36879501 -0.00000022
0.38960823 -0.51715481 -0.00000018
-0.58684039 0.49281564 0.37190077
0.69179028 -0.35674486 -0.00000096
-0.59997135 -0.63426614 -0.00000010
-0.12048585 0.16457827 -0.00000060
-0.31558731 0.01215510 -0.00000051
-0.40876287 0.30770549 -0.00000047
0.41892490 -0.32184547 -0.00000030
-0.58284998 -0.72913891 -0.00000004
-0.50158030 0.21705654 -0.00000036
0.17971934 -0.79723877 -0.00000000
0.39902383 -0.32198039 -0.00000030
-0.29624522 0.28410912 -0.00000059
0.49922311 0.27513418 -0.00000157
-0.20479096 0.10993209 -0.00000057
-0.50789154 -0.02803972 -0.00000031
-0.05547066 -0.14222285 -0.00000041
-0.14581779 -0.02516047 -0.00000048
-0.07318621 0.60542423 -0.00000088
-0.56682217 0.00223292 -0.00000025
0.06657355 0.64319181 -0.00000091
0.78348869 0.01373179 -0.00000197
-0.46119663 0.15891930 -0.00000039
-0.01238942 0.50681460 -0.00000082
-0.53182173 0.24794070 -0.00000033
-0.53341788 -0.28332147 -0.00000023
-0.50188130 0.18721817 -0.00000035
0.37861192 0.12165805 -0.00000089
0.05812321 -0.07852322 -0.00000045
-0.57913530 0.45334131 0.30915892
0.28289905 0.22361249 -0.00000078
0.35256267 -0.23554526 -0.00000035
-0.05126421 0.44202295 -0.00000078
0.77320057 -0.35907048 -0.00000110
0.69994646 -0.38683736 -0.00000093
-0.55328166 0.40172425 0.20613432
0.31115705 -0.10612196 -0.00000043
-0.09812756 0.53601813 -0.00000084
-0.59696347 0.23303767 0.03989732
-0.06268150 0.35614830 -0.00000072
-0.51879853 0.49467206 0.28388354
0.31252494 -0.11107015 -0.00000043
0.18279935 -0.62217653 -0.00000011
0.78579199 -0.25540480 -0.00000136
-0.48164541 -0.22499126 -0.00000030
-0.76217365 -0.07840403 -0.00000003
0.35132387 -0.64162052 -0.00000010
-0.02423219 0.10748079 -0.00000057
0.30000022 0.36637825 -0.00000111
-0.28405750 -0.65521479 -0.00000009
-0.77033156 0.05082892 0.02814135
0.08923795 -0.07178027 -0.00000046
0.49179780 -0.37187183 -0.00000029
0.50400299 -0.75906497 -0.00000003
-0.54505140 -0.38220990 -0.00000020
0.62160259 -0.69286472 -0.00000008
0.01377693 -0.70201594 -0.00000006
-0.62367296 -0.38198197 -0.00000012
0.57999748 -0.08254107 -0.00000113
0.39582703 -0.77932471 -0.00000001
0.49375075 -0.56641376 -0.00000015
-0.29208499 -0.02885270 -0.00000048
-0.41447282 0.54395050 0.21067846
-0.45017061 -0.51982874 -0.00000018
-0.27707431 0.34155968 -0.00000062
-0.65133363 -0.51342183 -0.00000006
-0.14306854 -0.56634855 -0.00000015
-0.34085166 0.49216631 0.04390803
-0.25245956 -0.43815073 -0.00000023
0.39961272 -0.72814894 -0.00000004
-0.38137093 0.64680815 0.30344349
0.35288870 -0.77372348 -0.00000002
-0.17939883 0.09216017 -0.00000056
0.39508468 -0.65459812 -0.00000009
-0.00269885 -0.17025129 -0.00000039
-0.42411649 0.47410834 0.13062355
0.26684928 -0.31078628 -0.00000031
-0.28580058 0.68144572 0.22241154
-0.15732902 0.48731002 -0.00000077
-0.70199215 0.09978605 0.00236558
-0.62813246 -0.18550585 -0.00000015
-0.77650595 -0.01714659 -0.00000002
-0.08757820 -0.24719219 -0.00000035
-0.23095582 -0.00129845 -0.00000050
0.44778931 0.19878139 -0.00000126
0.23583817 -0.11656330 -0.00000043
-0.69051021 -0.54836696 -0.00000002
0.72034973 -0.41525325 -0.00000093
0.05991657 0.10095935 -0.00000056
0.48242912 -0.12976140 -0.00000073
-0.16085757 -0.30661365 -0.00000031
-0.76223099 0.06598252 0.03752081
-0.17851038 0.69304961 0.09516242
-0.42732945 -0.71007431 -0.00000006
-0.33532968 -0.39741355 -0.00000025
-0.68456769 -0.32588506 -0.00000006
0.57032740 -0.46258125 -0.00000036
0.07477979 -0.06328695 -0.00000046
-0.05810572 0.46338964 -0.00000079
-0.04332391 -0.78667521 -0.00000001
-0.69366932 -0.66731328 0.00000000
0.65670770 -0.75751311 -0.00000006
-0.22411475 -0.05260426 -0.00000047
-0.00258802 0.13317387 -0.00000058
-0.03006841 -0.69133872 -0.00000007
0.36391523 -0.18399906 -0.00000039
-0.52613676 -0.42742264 -0.00000021
0.28696832 -0.12579378 -0.00000042
0.38584173 0.15428367 -0.00000098
-0.59091431 0.46153170 0.33571538
-0.52830410 0.32992640 0.07743770
0.35357103 0.01651115 -0.00000060
-0.21566878 0.66372705 0.10558298
0.27015030 -0.16812433 -0.00000039
-0.48424894 0.26241699 -0.00000038
-0.15830708 0.60678476 -0.00000080
-0.51386750 0.30318817 0.02268145
-0.10537558 -0.59930015 -0.00000013
0.21020231 0.35936493 -0.00000081
-0.52419287 0.42873415 0.20336951
-0.01619828 0.35140723 -0.00000072
0.10929366 0.25921181 -0.00000066
-0.33073550 0.43542033 -0.00000058
-0.44805303 0.18017808 -0.00000041
-0.29656228 0.50465000 0.00161114
-0.72605008 -0.13502969 -0.00000005
0.14123996 -0.22039828 -0.00000036
-0.12223455 -0.40352461 -0.00000025
0.64882892 -0.53513438 -0.00000047
0.53298569 -0.36578313 -0.00000043
-0.61663938 0.31671491 0.17734125
0.18882784 0.55838013 -0.00000113
-0.49096760 -0.68982202 -0.00000007
0.53897995 -0.60332704 -0.00000012
0.47367164 -0.22279420 -0.00000052
0.08171696 -0.69569492 -0.00000007
-0.68533289 -0.58115792 -0.00000002
-0.46836528 -0.15531591 -0.00000033
0.77263367 -0.73363340 -0.00000017
0.27473339 -0.12137347 -0.00000042
-0.52220041 0.38432911 0.14166798
-0.29554030 -0.40974429 -0.00000024
-0.28004941 0.53379279 0.01840697
-0.50535709 0.21350516 -0.00000035
-0.51271087 -0.69614500 -0.00000006
0.69803220 -0.20255794 -0.00000128
0.70912904 -0.38713175 -0.00000095
-0.40020368 -0.59522343 -0.00000013
0.38501966 -0.42849815 -0.00000023
-0.52012724 0.36220109 0.10948409
-0.77503592 -0.12879759 -0.00000000
-0.51353133 -0.34381554 -0.00000024
-0.07261373 -0.17407218 -0.00000039
0.72823578 -0.08955953 -0.00000160
-0.55537993 -0.79827744 -0.00000000
-0.27931124 -0.27411637 -0.00000033
-0.00052276 0.09122061 -0.00000056
0.77986366 -0.17584148 -0.00000156
-0.53353530 0.37395573 0.14294669
-0.21117975 0.47550115 -0.00000072
0.62166005 -0.22709890 -0.00000099
0.52610046 -0.72361130 -0.00000005
-0.62581575 -0.35755149 -0.00000012
-0.09295879 -0.21429001 -0.00000037
0.28897628 -0.34250745 -0.00000029
0.03859706 0.58484858 -0.00000087
-0.29241195 -0.54486847 -0.00000016
-0.07370527 -0.26501194 -0.00000033
0.29498497 -0.24513341 -0.00000035
-0.55189949 0.38473552 0.18170379
-0.44748253 0.59089386 0.31700456
-0.35856190 -0.36557204 -0.00000027
-0.19439422 0.61831295 0.01689714
0.60924035 -0.26460612 -0.00000087
0.52062851 0.04547441 -0.00000119
0.66021705 -0.76247114 -0.00000007
0.29464489 -0.52590746 -0.00000017
-0.20034254 0.21093036 -0.00000063
-0.62638438 0.01780283 -0.00000019
-0.49210140 0.20158139 -0.00000037
-0.66141295 -0.39738458 -0.00000008
-0.21710593 0.04618226 -0.00000053
-0.17076385 -0.46411309 -0.00000021
0.35399562 -0.16501747 -0.00000040
0.12626676 -0.17999963 -0.00000039
-0.03581338 -0.62444562 -0.00000011
-0.16004872 0.69395149 0.07181036
-0.12000100 0.48656133 -0.00000080
-0.21555194 0.44179419 -0.00000070
0.52062470 -0.52808279 -0.00000017
-0.47207910 -0.47651422 -0.00000020
-0.25728792 -0.50318533 -0.00000019
0.52168381 -0.29449770 -0.00000053
-0.40247896 -0.20636660 -0.00000037
-0.35879043 0.39725274 -0.00000054
-0.47068483 -0.34424329 -0.00000028
-0.57218587 -0.66369390 -0.00000009
0.34005710 -0.75020319 -0.00000003
0.01596768 0.64152086 -0.00000090
-0.75204432 0.13167278 0.11133202
0.30892423 -0.63671720 -0.00000010
-0.08129039 -0.28432041 -0.00000032
-0.16444138 0.66773087 0.04278258
-0.53048408 0.03558011 -0.00000029
-0.42783207 0.23341580 -0.00000044
-0.29002106 -0.75909591 -0.00000003
-0.00633828 -0.43207347 -0.00000023
0.06603598 0.52148467 -0.00000083
-0.54816657 0.15203026 -0.00000030
-0.21976613 -0.51430690 -0.00000018
0.54287595 -0.28230900 -0.00000063
-0.17949124 0.65339214 0.04372828
0.00547195 -0.21563850 -0.00000037
-0.56103480 -0.08637647 -0.00000024
-0.21768510 0.54325044 -0.00000072
-0.69876403 -0.10126711 -0.00000009
-0.06092488 -0.21698195 -0.00000036
-0.08765463 -0.05567327 -0.00000047
-0.55082822 0.17796035 -0.00000030
0.27467528 -0.39994416 -0.00000025
-0.78422958 -0.49188909 0.00000000
0.24906155 -0.11199816 -0.00000043
0.37650177 0.12165600 -0.00000088
-0.68105388 -0.25830477 -0.00000008
0.51786917 -0.67581463 -0.00000008
-0.04804069 -0.46375102 -0.00000021
0.73665428 -0.22091423 -0.00000137
0.61053544 -0.22312185 -0.00000096
0.13061816 0.23441596 -0.00000065
-0.20404750 0.59306377 -0.00000074
0.16842692 0.25468129 -0.00000066
0.55414009 -0.61168969 -0.00000012
0.00067951 -0.22912189 -0.00000036
0.30064824 0.48243508 -0.00000134
-0.63742983 -0.24087644 -0.00000013
-0.52760506 -0.79543197 -0.00000000
0.37512255 0.34228155 -0.00000131
-0.02200179 -0.22492494 -0.00000036
0.32255372 -0.70529735 -0.00000006
-0.59880745 -0.52609551 -0.00000012
0.53539681 -0.77469313 -0.00000002
-0.31269354 0.57129377 0.11168929
0.62489522 -0.58471435 -0.00000030
0.11571980 0.35979033 -0.00000072
0.44091594 0.31996855 -0.00000147
0.06623323 0.23201932 -0.00000065
-0.45207158 0.58438551 0.31445214
-0.25383797 -0.08617258 -0.00000045
-0.43561393 0.06438501 -0.00000040
-0.20115490 0.59595144 -0.00000075
-0.21328172 -0.15824836 -0.00000040
-0.33280316 0.66087908 0.25756758
-0.58930302 -0.76318359 -0.00000002
0.09451904 -0.78855085 -0.00000001
-0.79931968 -0.39699519 0.00000000
-0.09688103 0.46168911 -0.00000079
-0.00772945 0.14621785 -0.00000059
-0.29550499 0.05245108 -0.00000053
-0.45939526 0.31003565 -0.00000042
-0.61003137 0.51742953 0.43547434
0.73355103 -0.51835948 -0.00000070
-0.10395848 0.48724049 -0.00000080
-0.19060425 -0.54759300 -0.00000016
0.20280069 0.12505555 -0.00000058
0.29332459 -0.34071651 -0.00000029
0.56963283 -0.05632133 -0.00000115
-0.22893140 0.38122210 -0.00000068
0.60419685 -0.05613909 -0.00000126
0.47459871 0.04162055 -0.00000104
-0.35727030 -0.10852033 -0.00000043
0.44509426 -0.09387659 -0.00000068
-0.66430008 -0.27714908 -0.00000009
-0.36705488 -0.42920440 -0.00000023
-0.01431560 -0.29835135 -0.00000031
-0.60339493 -0.54331887 -0.00000011
-0.02366329 0.55799103 -0.00000085
-0.73447710 -0.74427968 0.00000000
0.41550282 -0.62434506 -0.00000011
0.31156501 0.07983553 -0.00000059
-0.13856633 -0.37504816 -0.00000027
-0.66354388 0.15790482 0.02852419
-0.31101051 0.01555699 -0.00000051
-0.21763232 -0.03511067 -0.00000048
0.32796907 -0.61663693 -0.00000011
0.00054365 0.00218848 -0.00000050
-0.38511008 -0.34979168 -0.00000028
-0.63268924 -0.35212460 -0.00000011
0.64471292 -0.59511089 -0.00000034
0.78338665 -0.76441622 -0.00000009
-0.51072419 0.01420330 -0.00000031
0.29464769 -0.77113968 -0.00000002
0.30324945 -0.13724539 -0.00000041
-0.50621182 0.33046949 0.04878049
-0.75663412 -0.03093321 -0.00000004
-0.72465867 -0.12533993 -0.00000006
-0.39067540 0.46238387 0.07056013
-0.05490908 0.74804324 0.00392405
-0.51235282 -0.79345697 -0.00000000
-0.32705125 -0.59468037 -0.00000013
0.76010060 0.03541731 -0.00000187
0.24516109 -0.03852563 -0.00000048
-0.00014965 -0.33615756 -0.00000029
-0.34313554 -0.40267095 -0.00000025
-0.14972962 -0.51068783 -0.00000018
0.46631098 0.03752119 -0.00000101
-0.06352484 -0.49744651 -0.00000019
-0.04817074 0.31449959 -0.00000070
0.32905787 0.19639871 -0.00000088
-0.06948157 0.28735608 -0.00000068
-0.76220429 -0.62306571 0.00000000
-0.36095697 0.19162762 -0.00000050
-0.65577000 -0.13932037 -0.00000013
-0.53653151 -0.52212673 -0.00000017
-0.18843587 0.18044269 -0.00000061
-0.59219295 0.48944616 0.37453794
0.08367201 0.09421614 -0.00000056
-0.24502212 -0.31926247 -0.00000030
-0.14622056 -0.01102178 -0.00000049
0.07294890 0.49287552 -0.00000081
0.30205655 -0.05904178 -0.00000046
0.36523440 -0.05791923 -0.00000050
0.16433620 -0.42304793 -0.00000024
0.22455361 -0.72882760 -0.00000004
-0.10103772 -0.21131521 -0.00000037
-0.06375863 -0.12691250 -0.00000042
0.04346673 -0.58089650 -0.00000014
0.06926331 -0.17217274 -0.00000039
0.27660918 -0.07556222 -0.00000045
-0.75470895 -0.62366724 0.00000000
0.05203952 0.19894423 -0.00000062
-0.59847474 0.29664880 0.12650011
0.19349083 -0.75868160 -0.00000003
-0.39368886 -0.24045275 -0.00000035
-0.13243298 0.07130616 -0.00000054
-0.51990658 0.01920354 -0.00000030
-0.58704400 0.51425493 0.40068269
-0.15020975 -0.16065989 -0.00000040
0.67702276 -0.61859202 -0.00000040
0.34121877 0.17848754 -0.00000088
0.18104044 -0.62686974 -0.00000011
-0.32030088 -0.55246359 -0.00000015
-0.56795186 -0.57829499 -0.00000014
-0.43596363 0.63020438 0.35396335
-0.14361259 0.52992535 -0.00000080
0.20011418 -0.50681657 -0.00000018
-0.45894325 -0.31131214 -0.00000031
-0.14125642 0.61936855 -0.00000082
0.18365030 0.40055114 -0.00000081
-0.32743567 -0.43484721 -0.00000023
0.26236933 0.20307572 -0.00000068
0.04333111 -0.63202298 -0.00000010
-0.78371149 -0.64378196 0.00000000
-0.25268552 0.37853014 -0.00000065
-0.69211054 -0.28269297 -0.00000006
-0.03816501 0.77495706 0.01744818
-0.32348734 -0.59919727 -0.00000013
0.36061081 -0.14136437 -0.00000041
-0.61013436 0.34240288 0.20285159
-0.11601132 0.59249437 -0.00000084
-0.63648027 0.17582645 0.01636662
0.37582886 0.35793057 -0.00000134
-0.04722950 -0.31182799 -0.00000031
-0.25129095 -0.45153227 -0.00000022
0.28714520 -0.76161969 -0.00000002
0.46872899 -0.09375205 -0.00000076
-0.10295043 -0.33081204 -0.00000029
-0.76379788 0.02798011 -0.00000004
0.55985177 -0.39632347 -0.00000046
0.05348624 -0.03867766 -0.00000048
0.73369902 -0.46440223 -0.00000084
0.74160165 -0.34101054 -0.00000115
0.25406122 -0.78042507 -0.00000001
0.70656669 -0.74805373 -0.00000013
0.76619565 -0.44843364 -0.00000088
-0.17275666 0.45269462 -0.00000075
-0.29646012 0.68152547 0.23669325
-0.08954012 0.41530338 -0.00000076
-0.78440738 -0.14130080 0.00000000
-0.65855193 -0.73519683 -0.00000002
0.39274463 -0.17972524 -0.00000039
-0.29526350 0.07413188 -0.00000055
0.26801673 -0.43786946 -0.00000023
-0.37682354 -0.62323415 -0.00000011
0.65396446 -0.12133283 -0.00000130
-0.63629502 -0.29418096 -0.00000012
-0.27594763 -0.71211982 -0.00000005
-0.03352687 0.76955783 0.00409999
0.38577175 -0.20059580 -0.00000037
-0.23463503 0.63901460 0.09794142
0.33128420 0.04619382 -0.00000059
-0.15689497 -0.01094839 -0.00000049
-0.08115017 -0.38379288 -0.00000026
-0.58096230 -0.19522659 -0.00000020
-0.40315843 -0.41369301 -0.00000024
-0.44675231 -0.26525462 -0.00000033
0.49100259 0.10452366 -0.00000121
-0.05050294 -0.26057169 -0.00000034
0.38075757 -0.25381720 -0.00000034
0.60353208 -0.11786449 -0.00000114
0.04049400 -0.58046931 -0.00000014
-0.05659943 0.56808394 -0.00000086
0.14976588 -0.24472012 -0.00000035
-0.27380413 0.06462328 -0.00000054
-0.34186506 -0.59775978 -0.00000013
-0.10918142 0.07287335 -0.00000055
-0.55839396 0.25926438 0.02348307
-0.06039421 -0.48970690 -0.00000019
0.30249724 -0.00823495 -0.00000049
