ply
format ascii 1.0
element vertex 1179
property float x
property float y
property float z
end_header
-0.03313093 -0.33476433 0.00000145
-0.38304040 -0.02378002 0.00000202
-0.40505996 0.01934455 0.00000178
-0.48965493 0.27520490 0.00000075
-0.55905509 0.02781469 0.00000029
-0.45575038 0.04037884 0.00000127
-0.29120260 0.49065322 0.00000247
-0.40897128 0.29821426 0.00000150
-0.16275977 -0.37944764 0.00000131
-0.76258272 -0.66543478 -0.00000034
-0.00186616 -0.34015512 0.00000144
-0.58726525 0.13381615 -0.00000007
-0.26972914 -0.76686448 0.00000010
-0.68164355 -0.31432796 -0.00000060
-0.29918090 -0.52696657 0.00000085
-0.76806980 -0.20571312 -0.00000149
-0.28723431 -0.44527155 0.00000111
-0.43361461 -0.40960714 0.00000122
-0.15434285 -0.66730940 0.00000041
-0.19528580 0.48612872 0.00000339
-0.30282336 0.02423487 -0.00000326
-0.22524986 0.34119201 0.00000323
-0.50449222 -0.17243968 0.00000098
-0.20707230 0.49502552 0.00000327
-0.14651857 -0.58940679 0.00000066
-0.31094083 0.21693431 0.00000251
-0.08273663 -0.05165631 0.00000234
-0.31081173 -0.31720760 0.00000151
-0.43200016 0.25328201 0.00000132
-0.72647959 -0.61179632 -0.00000047
-0.20206688 0.13922235 -0.00000355
-0.49792132 -0.17237830 0.00000105
-0.79262400 -0.49843854 -0.00000075
-0.64867002 -0.14161678 -0.00000043
-0.32669982 -0.02103149 0.00000243
-0.55208486 -0.23975427 0.00000058
-0.44271776 -0.29879543 0.00000157
-0.02059110 0.66871774 0.00000277
-0.46910852 -0.08956899 0.00000125
-0.71872371 -0.51366544 -0.00000072
-0.65584701 -0.57380986 -0.00000013
-0.11469571 -0.33872291 0.00000144
-0.25725102 -0.47945878 0.00000100
-0.31957108 -0.42230698 0.00000118
-0.61058724 0.08744164 -0.00000026
-0.56067169 -0.57622218 0.00000070
-0.10496866 0.14948238 -0.00000597
-0.59526026 -0.46323800 0.00000036
-0.02085828 -0.57556570 0.00000076
-0.64268011 -0.28040290 -0.00000025
-0.07910798 -0.00722068 0.00000248
-0.01753934 -0.69846433 0.00000032
-0.03741270 0.69639587 0.00000381
-0.59233075 0.15437809 -0.00000014
-0.25780058 -0.21288919 0.00000183
-0.28170535 -0.50445741 0.00000092
-0.33450603 -0.21286283 0.00000183
-0.18008193 -0.38892964 0.00000128
-0.25973231 -0.24940461 0.00000172
-0.79392952 -0.05180911 -0.00000187
-0.66985613 -0.29874668 -0.00000050
-0.14609084 -0.07282757 0.00000227
-0.11161294 -0.52100074 0.00000087
-0.17610510 -0.06309607 0.00000230
-0.27005675 -0.06819345 0.00000229
-0.29641563 -0.14214385 0.00000206
-0.67921311 -0.77215576 -0.00000007
-0.64538151 -0.36111972 -0.00000021
-0.49103895 -0.70080763 0.00000031
-0.08092273 0.66108435 0.00000434
-0.01151757 -0.56997079 0.00000072
-0.02120129 -0.37353250 0.00000140
-0.35367590 -0.79102266 0.00000003
-0.15182941 0.29161924 -0.00000168
-0.27924052 -0.10223416 0.00000218
-0.39143497 -0.33777305 0.00000144
-0.27583233 -0.66419905 0.00000042
-0.34811804 0.06388333 0.00000228
-0.73348606 -0.12223582 -0.00000126
-0.05826641 -0.66046441 0.00000044
-0.20767803 -0.14443547 0.00000205
-0.08749771 -0.68507642 0.00000036
-0.26213843 0.11084630 -0.00000252
-0.08493973 -0.57935947 0.00000069
-0.01451433 -0.73568881 0.00000024
-0.72821265 -0.36674395 -0.00000100
-0.31222266 0.06950373 0.00000262
-0.03196520 -0.06155440 0.00000231
-0.17883481 -0.35645562 0.00000139
-0.03233428 0.33711538 -0.00000396
-0.02908934 0.60150272 0.00000157
-0.16617329 -0.07601486 0.00000226
-0.12475622 -0.69288224 0.00000033
-0.02380205 -0.23929322 0.00000175
-0.08589881 -0.72502214 0.00000023
-0.16395870 -0.64674330 0.00000048
-0.21456821 -0.04889253 0.00000235
-0.14568093 -0.48275211 0.00000099
-0.49704021 -0.28093988 0.00000115
-0.19387078 -0.59482157 0.00000064
-0.41152719 -0.37639037 0.00000132
-0.57447922 0.11971738 0.00000006
-0.08106709 0.69279808 0.00000431
-0.14025515 0.23047273 -0.00000329
-0.50723881 0.28105360 0.00000057
-0.10866452 0.68650633 0.00000405
-0.32746834 -0.23034744 0.00000178
-0.15058330 0.42112479 0.00000104
-0.21781357 -0.72356135 0.00000024
-0.22506982 -0.59463876 0.00000064
-0.49579459 0.16897668 0.00000078
-0.47373128 0.32020494 0.00000086
-0.53753519 0.24836966 0.00000031
-0.26360890 0.41792879 0.00000279
-0.00530837 -0.63805073 0.00000051
-0.20575210 -0.31733119 0.00000151
-0.39659312 0.32003984 0.00000160
-0.68773419 -0.25460234 -0.00000070
-0.21668877 0.17575672 -0.00000238
-0.39284462 -0.26236877 0.00000168
-0.60027838 -0.31283441 0.00000018
-0.11488496 0.34409657 -0.00000157
-0.19600409 -0.15582108 0.00000201
-0.43404931 -0.44461611 0.00000111
-0.45701420 -0.04744689 0.00000133
-0.38461524 0.16270015 0.00000185
-0.14428048 -0.01905763 0.00000244
-0.43246323 -0.40012464 0.00000125
-0.25437203 0.00117422 -0.00000507
-0.25008169 -0.11568525 0.00000214
-0.21593998 0.09020544 -0.00000422
-0.15652084 -0.56872869 0.00000072
-0.10821784 -0.77745581 0.00000007
-0.00872728 -0.20415285 0.00000186
-0.30387381 -0.40980420 0.00000122
-0.46487120 -0.30478963 0.00000148
-0.18860154 -0.38291901 0.00000130
-0.25124356 -0.44694331 0.00000110
-0.49640462 -0.69257498 0.00000034
-0.04418932 0.10066873 -0.00000866
-0.48007959 0.26261953 0.00000085
-0.08036452 -0.02210455 0.00000243
-0.32882294 -0.67684126 0.00000038
-0.11492275 0.58498991 0.00000408
-0.22110900 0.32336786 0.00000328
-0.00992810 0.17478941 -0.00000802
-0.67491311 -0.73426491 -0.00000016
-0.24826868 0.08417065 -0.00000347
-0.31020883 -0.28413185 0.00000161
-0.36302793 0.11847168 0.00000210
-0.00758441 0.18754138 -0.00000781
-0.05012999 0.34950271 -0.00000321
-0.15028572 -0.77762961 0.00000007
-0.37654603 -0.25732353 0.00000170
-0.04648676 -0.01968906 0.00000244
-0.36716300 -0.27596989 0.00000164
-0.39976016 -0.12400922 0.00000195
-0.09116678 -0.11563126 0.00000214
-0.22254384 0.04958432 -0.00000490
-0.77638561 -0.69306082 -0.00000027
-0.57691807 -0.42138344 0.00000050
-0.64738369 -0.64648366 0.00000002
-0.01687208 -0.67592967 0.00000044
-0.78057683 -0.42684835 -0.00000093
-0.00944812 -0.49602631 0.00000098
-0.05687244 -0.16141421 0.00000200
-0.26603389 0.40402257 0.00000278
-0.56467086 -0.25615454 0.00000048
-0.32014251 -0.45882958 0.00000107
-0.63694602 -0.67654836 0.00000014
-0.31738737 -0.79964298 0.00000000
-0.52708393 -0.20537831 0.00000080
-0.01089306 -0.71791720 0.00000026
-0.04255059 0.74943054 0.00000471
-0.13932313 -0.10822261 0.00000216
-0.47274911 0.29866791 0.00000089
-0.11570801 0.62149179 0.00000404
-0.29531375 -0.19669540 0.00000189
-0.32866099 0.25087139 0.00000231
-0.12104723 0.01128720 -0.00000847
-0.42656633 -0.55763495 0.00000076
-0.50199378 -0.52392060 0.00000086
-0.43155676 0.30050889 0.00000128
-0.17490959 0.25678936 -0.00000179
-0.11627455 0.35287505 -0.00000134
-0.01627505 -0.47702667 0.00000101
-0.00893421 -0.17540455 0.00000195
-0.51524097 -0.14964496 0.00000086
-0.02549548 -0.12256190 0.00000212
-0.12101498 0.49181896 0.00000174
-0.50124705 -0.38221678 0.00000119
-0.37844706 0.06906756 0.00000199
-0.52148694 -0.16057712 0.00000081
-0.46963513 0.09056935 0.00000110
-0.13292265 0.41653293 0.00000046
-0.23765662 -0.50048745 0.00000094
-0.41161844 -0.30722219 0.00000154
-0.59830487 -0.74010074 0.00000019
-0.52306324 -0.53747702 0.00000082
-0.07763962 -0.77425504 0.00000008
-0.05784088 -0.01157270 0.00000246
-0.39033294 -0.23807286 0.00000176
-0.15382290 -0.59605414 0.00000064
-0.39387009 -0.19715321 0.00000188
-0.42512652 -0.30487791 0.00000155
-0.55534494 -0.40339044 0.00000069
-0.51022077 -0.51992565 0.00000088
-0.12818402 -0.12223490 0.00000212
-0.27894881 -0.51333803 0.00000090
-0.26618657 -0.57986975 0.00000069
-0.04651570 -0.79185700 0.00000003
-0.21337847 0.08065667 -0.00000449
-0.44948307 -0.33419335 0.00000146
-0.39185348 0.31310877 0.00000165
-0.06401823 -0.77854711 0.00000007
-0.03583256 0.06719312 -0.00000960
-0.15126224 0.03216383 -0.00000721
-0.00090424 0.17898172 -0.00000817
-0.01301467 -0.33694783 0.00000145
-0.27028567 -0.28374207 0.00000161
-0.27913269 0.31272247 0.00000274
-0.01620865 0.13757209 -0.00000864
-0.20983510 -0.57158262 0.00000071
-0.33513653 0.07122543 0.00000240
-0.07245424 -0.31908429 0.00000150
-0.29838976 -0.21150833 0.00000184
-0.29336169 0.20414406 0.00000269
-0.68189657 -0.09744198 -0.00000078
-0.06878322 0.50453889 0.00000059
-0.60132247 -0.72199607 0.00000024
-0.12142234 0.04865873 -0.00000767
-0.28115171 -0.71875691 0.00000025
-0.20908742 0.32028958 0.00000340
-0.67323291 -0.41382530 -0.00000043
-0.34162244 0.08239752 0.00000233
-0.53603369 -0.78986162 0.00000003
-0.76693553 -0.15059754 -0.00000155
-0.39642182 -0.42668349 0.00000117
-0.76239467 -0.55324185 -0.00000062
-0.67958397 -0.79224789 -0.00000002
-0.31357145 0.04945109 0.00000263
-0.32129350 -0.54466063 0.00000080
-0.28905904 -0.67809492 0.00000038
-0.01757120 -0.40975702 0.00000122
-0.02582060 -0.14267252 0.00000205
-0.53679579 0.04162457 0.00000049
-0.66751552 -0.57051682 -0.00000024
-0.58113998 -0.47463879 0.00000051
-0.22101989 -0.26588869 0.00000167
-0.75397050 -0.55507439 -0.00000061
-0.53323233 0.17879923 0.00000041
-0.04380138 -0.72175390 0.00000024
-0.28172234 0.15473273 0.00000284
-0.10491942 -0.28638536 0.00000161
-0.47797972 -0.74703699 0.00000017
-0.16784289 -0.26613235 0.00000167
-0.67775524 -0.19513275 -0.00000066
-0.04340644 -0.69859105 0.00000032
-0.68130994 -0.04542870 -0.00000082
-0.30896655 0.48607779 0.00000235
-0.66113192 -0.71642774 -0.00000006
-0.01745686 -0.42098746 0.00000118
-0.61529148 -0.62532395 0.00000031
-0.62632871 -0.12413619 -0.00000023
-0.46641856 -0.12572612 0.00000131
-0.58689880 -0.74969465 0.00000016
-0.03783866 0.37695846 -0.00000296
-0.26073757 0.03565577 -0.00000416
-0.44989175 -0.09985177 0.00000145
-0.36324143 -0.71661299 0.00000026
-0.10582042 0.46341351 0.00000072
-0.05216523 -0.55961275 0.00000075
-0.35816446 0.23788203 0.00000204
-0.31317848 0.25330836 0.00000246
-0.09522247 0.58689654 0.00000427
-0.09243968 -0.13655718 0.00000207
-0.11616324 -0.60847783 0.00000060
-0.29527685 -0.04649319 0.00000235
-0.04456589 0.41830018 -0.00000190
-0.09276686 0.37831408 -0.00000144
-0.02537894 -0.09883136 0.00000227
-0.29893604 -0.69511920 0.00000033
-0.40762958 0.12745994 0.00000166
-0.18641993 0.45073161 0.00000351
-0.40031698 0.25074577 0.00000162
-0.49745873 0.22570847 0.00000071
-0.22110321 0.41704071 0.00000320
-0.69965017 -0.33598158 -0.00000075
-0.14889608 -0.15710291 0.00000201
-0.55898207 -0.34182897 0.00000061
-0.60224825 0.19436732 -0.00000027
-0.27943605 -0.17747739 0.00000195
-0.65833867 -0.67815405 -0.00000006
-0.11218778 -0.23002484 0.00000178
-0.47391039 0.21002463 0.00000095
-0.13125959 0.56995273 0.00000394
-0.30700007 -0.38343897 0.00000130
-0.11049987 -0.35175076 0.00000140
-0.71906382 -0.71268874 -0.00000022
-0.68821973 -0.25716159 -0.00000071
-0.41785365 -0.22588874 0.00000179
-0.04758619 0.58550322 0.00000173
-0.25907162 -0.03263703 0.00000240
-0.21448720 -0.60259205 0.00000062
-0.00825592 -0.33099270 0.00000149
-0.01698453 -0.79270422 0.00000002
-0.16084506 -0.26579013 0.00000167
-0.72833449 -0.62919754 -0.00000043
-0.09442913 0.12125438 -0.00000686
-0.28268379 -0.50731713 0.00000091
-0.32347608 -0.55544019 0.00000076
-0.22961637 -0.69456100 0.00000033
-0.61037070 -0.52366769 0.00000027
-0.57963681 -0.64367998 0.00000049
-0.21173501 -0.78952831 0.00000003
-0.37481132 0.39000419 0.00000175
-0.05987258 0.60449952 0.00000247
-0.53753370 0.21149170 0.00000034
-0.19111569 -0.08472051 0.00000224
-0.57164901 -0.24586397 0.00000040
-0.29730320 0.18413478 0.00000267
-0.54302168 -0.26571512 0.00000069
-0.18312354 -0.40135780 0.00000125
-0.12111207 -0.20789832 0.00000185
-0.37407026 -0.70760030 0.00000029
-0.72888410 -0.68463397 -0.00000029
-0.44953242 -0.76951385 0.00000010
-0.32512528 -0.19628592 0.00000189
-0.47288105 -0.64073199 0.00000050
-0.01896939 -0.41827384 0.00000119
-0.18289895 -0.09187731 0.00000221
-0.66452503 -0.37468469 -0.00000038
-0.03446688 -0.24531206 0.00000173
-0.33335638 -0.74934816 0.00000016
-0.52263027 0.09193767 0.00000059
-0.46624336 0.11129499 0.00000111
-0.68822789 0.02686515 -0.00000095
-0.69901764 -0.74178255 -0.00000015
-0.16247331 0.34359300 -0.00000029
-0.45658493 0.01696697 0.00000128
-0.25016636 0.29524663 0.00000303
-0.34899202 0.12774418 0.00000222
-0.27332300 0.05505291 -0.00000341
-0.74472284 -0.38615462 -0.00000103
-0.46253681 -0.08933010 0.00000132
-0.44232991 -0.52869767 0.00000085
-0.33587012 -0.44789052 0.00000110
-0.47407532 0.26169413 0.00000091
-0.10728073 0.45140812 0.00000051
-0.11011670 -0.66658133 0.00000042
-0.56155771 -0.07087625 0.00000035
-0.27068779 -0.47304681 0.00000102
-0.54449201 0.06814105 0.00000040
-0.38036829 -0.26460132 0.00000167
-0.39314505 0.05204372 0.00000186
-0.16901989 0.16766232 -0.00000385
-0.74640065 -0.59531307 -0.00000051
-0.70696098 -0.77091914 -0.00000007
-0.35184693 -0.61657882 0.00000057
-0.28589332 0.29750797 0.00000268
-0.13879882 -0.52895808 0.00000085
-0.62494522 -0.65265429 0.00000024
-0.38635066 -0.03736522 0.00000200
-0.05792679 0.48685807 -0.00000008
-0.58431852 -0.34792030 0.00000037
-0.46760899 0.24772190 0.00000098
-0.59596634 -0.11107516 0.00000005
-0.13930026 -0.03981928 0.00000238
-0.30360484 -0.34488481 0.00000142
-0.23883232 -0.46983144 0.00000103
-0.39323744 -0.34528422 0.00000142
-0.54154909 -0.29260388 0.00000073
-0.48205391 -0.44338503 0.00000111
-0.52335340 -0.55995971 0.00000075
-0.14027195 0.59351593 0.00000383
-0.28181067 -0.17628081 0.00000195
-0.26641485 -0.62540060 0.00000055
-0.75610298 -0.16495702 -0.00000144
-0.22396342 0.06158978 -0.00000461
-0.79810899 -0.16573489 -0.00000159
-0.13436010 0.61795574 0.00000386
-0.43268362 0.07016390 0.00000147
-0.74111199 -0.23295344 -0.00000124
-0.02831076 0.49995446 -0.00000061
-0.58511311 -0.15976447 0.00000020
-0.16682048 0.27320147 -0.00000166
-0.25581318 0.51050323 0.00000279
-0.67472732 -0.56600732 -0.00000031
-0.72071964 -0.22490019 -0.00000105
-0.08437372 0.65373236 0.00000431
-0.36809340 0.09912884 0.00000206
-0.26547134 -0.09039485 0.00000222
-0.24213010 -0.57524818 0.00000070
-0.35809740 -0.20269261 0.00000187
-0.78681856 -0.66123605 -0.00000035
-0.10653252 0.59193438 0.00000415
-0.22147587 -0.33555529 0.00000145
-0.39481753 0.00370879 0.00000189
-0.60051894 -0.23787770 0.00000012
-0.76789647 -0.53152961 -0.00000067
-0.34472659 0.10223579 0.00000228
-0.54308665 -0.52954274 0.00000085
-0.58016229 -0.48151001 0.00000052
-0.46196142 -0.38978210 0.00000128
-0.72550040 0.04870748 -0.00000133
-0.70853591 -0.41519654 -0.00000077
-0.03686725 0.20306472 -0.00000668
-0.74142343 -0.41630304 -0.00000096
-0.74387687 -0.63801253 -0.00000040
-0.66343248 -0.78884411 -0.00000002
-0.47619894 -0.37351784 0.00000133
-0.65330559 -0.61857420 -0.00000006
-0.60034174 -0.43437725 0.00000029
-0.21143025 -0.50767380 0.00000091
-0.52667451 -0.06559408 0.00000068
-0.01752644 -0.18036509 0.00000199
-0.34029904 0.06162012 0.00000236
-0.41312671 -0.48693469 0.00000098
-0.06122370 0.30382001 -0.00000388
-0.32437807 -0.34198943 0.00000143
-0.32710180 -0.70594341 0.00000029
-0.40439451 -0.55766940 0.00000076
-0.26338980 -0.54398543 0.00000080
-0.44295517 -0.29630506 0.00000157
-0.31686246 -0.50570941 0.00000092
-0.75474775 -0.79034406 -0.00000002
-0.10869991 -0.20908763 0.00000185
-0.37172601 -0.13144793 0.00000209
-0.19180369 0.42354912 0.00000348
-0.17696905 -0.39670148 0.00000126
-0.03785024 0.27196074 -0.00000519
-0.62465030 0.12433672 -0.00000042
-0.32549435 0.07787427 0.00000249
-0.33419666 -0.22955993 0.00000178
-0.33443558 -0.16154380 0.00000200
-0.23898259 -0.57981998 0.00000069
-0.06864613 -0.56235468 0.00000074
-0.64102012 -0.59287733 0.00000003
-0.55794877 -0.43441036 0.00000069
-0.11765692 -0.04392811 0.00000236
-0.47018552 0.22214678 0.00000098
-0.09870649 -0.46159130 0.00000106
-0.56816870 -0.11428798 0.00000032
-0.69295579 -0.46418616 -0.00000058
-0.06926905 -0.70473886 0.00000030
-0.44765583 -0.51511681 0.00000089
-0.22776370 -0.30172738 0.00000156
-0.44459578 -0.48527148 0.00000098
-0.55608582 0.16710681 0.00000020
-0.43289357 -0.64366990 0.00000049
-0.25484022 -0.11055224 0.00000215
-0.12102555 0.54019117 0.00000406
-0.13961224 0.35151204 -0.00000074
-0.37820181 0.39944148 0.00000171
-0.48159373 -0.53919053 0.00000082
-0.07432169 -0.34305933 0.00000143
-0.33686000 0.40316838 0.00000210
-0.17784381 0.11703606 -0.00000468
-0.46637431 -0.59065872 0.00000065
-0.66997576 -0.66450274 -0.00000018
-0.06002991 0.27846196 -0.00000445
-0.09373565 0.49480581 0.00000106
-0.65926319 -0.24231514 -0.00000044
-0.02700421 0.42315570 -0.00000227
-0.66333330 -0.28329876 -0.00000045
-0.58066654 0.21104215 -0.00000007
-0.76060164 -0.40622351 -0.00000098
-0.61854321 -0.44772243 0.00000012
-0.31817749 0.08307003 0.00000256
-0.29662600 -0.13717648 0.00000207
-0.74372351 -0.14387727 -0.00000134
-0.03974523 0.26980400 -0.00000519
-0.29524612 0.07056842 -0.00000248
-0.14220671 0.07277815 -0.00000659
-0.43211964 -0.46779299 0.00000104
-0.15073431 0.04403250 -0.00000697
-0.68274534 -0.22073609 -0.00000069
-0.12189599 -0.46146077 0.00000106
-0.11483636 0.44584635 0.00000059
-0.78608805 -0.69824833 -0.00000025
-0.35505870 -0.39535955 0.00000126
-0.73374176 0.01924800 -0.00000138
-0.06566894 0.40709895 -0.00000157
-0.36875513 0.41048992 0.00000179
-0.76323062 -0.69099665 -0.00000027
-0.28956205 -0.13725716 0.00000207
-0.65316761 -0.64995790 -0.00000004
-0.56023401 -0.41695938 0.00000066
-0.08366582 -0.42503345 0.00000117
-0.04936891 0.28315350 -0.00000464
-0.33301714 -0.45582077 0.00000108
-0.45769939 0.29201257 0.00000104
-0.29404438 0.41557920 0.00000250
-0.05507665 -0.43189615 0.00000115
-0.71268237 -0.12853646 -0.00000105
-0.32912984 -0.43485352 0.00000114
-0.02431199 0.27894896 -0.00000541
-0.05139640 0.06871545 -0.00000914
-0.69403917 -0.10876036 -0.00000089
-0.50743574 0.27322826 0.00000058
-0.20927177 0.04200802 -0.00000542
-0.34128594 -0.37059015 0.00000134
-0.19240175 -0.55181277 0.00000078
-0.44610432 -0.62809759 0.00000054
-0.02711748 0.11517418 -0.00000882
-0.19810928 -0.67437673 0.00000039
-0.14255533 -0.36823016 0.00000135
-0.08680102 -0.12822041 0.00000210
-0.56321323 -0.05664860 0.00000032
-0.38949689 -0.33080852 0.00000147
-0.32584625 0.18632741 0.00000239
-0.20907629 -0.31201684 0.00000152
-0.55191785 -0.21720646 0.00000057
-0.22857715 0.36104649 0.00000318
-0.27876708 -0.39104885 0.00000128
-0.43814865 0.00634136 0.00000147
-0.15984163 0.16975410 -0.00000405
-0.48192784 -0.54336751 0.00000080
-0.17237312 -0.67816472 0.00000038
-0.29106259 0.18747002 0.00000273
-0.60331911 -0.64252931 0.00000044
-0.01296001 -0.02588392 0.00000242
-0.42221671 -0.46620396 0.00000104
-0.10315222 -0.35226229 0.00000140
-0.15644763 0.05446301 -0.00000659
-0.26267019 -0.09522242 0.00000220
-0.58050555 -0.39611426 0.00000045
-0.50786144 0.08353192 0.00000073
-0.12410771 -0.10703064 0.00000217
-0.78048849 -0.78132147 -0.00000005
-0.04930456 0.10698139 -0.00000839
-0.05564915 -0.69697100 0.00000032
-0.12307053 0.39797753 -0.00000020
-0.15490262 0.40472168 0.00000081
-0.65905130 -0.57635754 -0.00000016
-0.60178214 -0.41809118 0.00000026
-0.15680799 -0.07025804 0.00000228
-0.71288073 -0.59002036 -0.00000052
-0.78838444 -0.14941777 -0.00000163
-0.19089688 -0.71083611 0.00000028
-0.26010072 -0.58877474 0.00000066
-0.36697599 0.02070243 0.00000214
-0.10813782 -0.31752709 0.00000151
-0.44194141 -0.51320422 0.00000090
-0.79292601 -0.76496983 -0.00000009
-0.28198358 0.34390461 0.00000268
-0.57833707 -0.30238047 0.00000039
-0.01860461 0.32073888 -0.00000468
-0.04169794 -0.24215677 0.00000174
-0.13686419 -0.72453344 0.00000024
-0.39774662 0.28396031 0.00000162
-0.28963274 0.43430787 0.00000253
-0.15150295 0.02378167 -0.00000738
-0.69345999 -0.26663041 -0.00000075
-0.25366139 -0.14956953 0.00000203
-0.69072920 -0.11438519 -0.00000085
-0.17205663 -0.28795382 0.00000160
-0.40079305 0.34282577 0.00000154
-0.29014263 -0.19049995 0.00000190
-0.03685077 -0.56845349 0.00000072
-0.67956465 0.07271690 -0.00000091
-0.59984976 0.12132336 -0.00000018
-0.04311456 0.04333930 -0.00000991
-0.01434519 0.74783558 0.00000428
-0.69898391 -0.80634594 0.04275171
-0.03156407 0.45496500 -0.00000147
-0.31976476 -0.43929723 0.00000113
-0.29308966 -0.38402525 0.00000130
-0.13568294 0.65878153 0.00000382
-0.70188057 -0.80217230 0.04863373
-0.04903139 -0.31417611 0.00000152
-0.74056804 -0.32003495 -0.00000116
-0.33906698 -0.56304961 0.00000074
-0.31344840 -0.19593666 0.00000189
-0.60976702 -0.39720079 0.00000017
-0.57767844 -0.27483115 0.00000037
-0.39877149 0.06663780 0.00000180
-0.68391877 -0.70700037 -0.00000023
-0.09536583 0.02097583 -0.00000896
-0.39751574 -0.20009626 0.00000187
-0.45796093 -0.33410332 0.00000146
-0.74158919 -0.37787873 -0.00000106
-0.11367325 -0.20626988 0.00000186
-0.14007264 0.23786931 -0.00000314
-0.03177899 0.39254972 -0.00000280
-0.26892456 -0.49379742 0.00000096
-0.20304981 -0.40440339 0.00000124
-0.11702417 0.16110842 -0.00000540
-0.58961606 -0.59404975 0.00000053
-0.17323498 0.46636945 0.00000362
-0.29812583 0.13839225 0.00000270
-0.65043050 -0.45599201 -0.00000018
-0.44140890 -0.34810165 0.00000141
-0.06709157 0.39748999 -0.00000173
-0.47052205 -0.03665124 0.00000120
-0.28644949 -0.50659931 0.00000092
-0.16481926 -0.16059537 0.00000200
-0.79000396 -0.61130536 -0.00000047
-0.18492322 -0.51833355 0.00000088
-0.34987399 -0.42078224 0.00000119
-0.19815630 0.25254190 -0.00000125
-0.79302728 -0.16351359 -0.00000159
-0.37142807 0.35938525 0.00000181
-0.69452834 -0.07385115 -0.00000092
-0.50594687 -0.17317131 0.00000097
-0.08747464 -0.78297448 0.00000005
-0.40556332 -0.07301154 0.00000185
-0.44041419 -0.11997570 0.00000156
-0.01862651 0.62577581 0.00000180
-0.70690435 0.03120061 -0.00000113
-0.60256523 -0.20568749 0.00000007
-0.76088887 -0.59411699 -0.00000051
-0.39721662 0.24350172 0.00000166
-0.61761010 0.18203236 -0.00000040
-0.70326120 -0.46832207 -0.00000067
-0.64400798 0.03290724 -0.00000053
-0.51373303 -0.12145453 0.00000085
-0.36648399 -0.22782707 0.00000179
-0.67877609 -0.75970191 -0.00000010
-0.63760036 -0.12223742 -0.00000034
-0.10723357 -0.65342373 0.00000046
-0.05783838 0.63714653 0.00000311
-0.10118968 0.42339295 -0.00000025
-0.18641946 0.34904033 0.00000048
-0.05609616 0.06355795 -0.00000913
-0.76443404 -0.22794868 -0.00000143
-0.49418411 -0.26967937 0.00000117
-0.07954240 0.53797358 0.00000159
-0.59907311 -0.60530806 0.00000045
-0.34684429 0.39690337 0.00000201
-0.15251940 -0.05824949 0.00000232
-0.70324272 -0.34747007 -0.00000077
-0.48068252 -0.14710972 0.00000119
-0.70752209 -0.48361513 -0.00000070
-0.06864517 0.08287492 -0.00000837
-0.69024181 -0.14620411 -0.00000082
-0.00080609 0.53450429 -0.00000062
-0.18224151 0.15852994 -0.00000368
-0.47810355 -0.56485522 0.00000073
-0.10005064 0.00441209 -0.00000919
-0.24237461 0.39181224 0.00000302
-0.10360620 0.40043721 -0.00000068
-0.75924766 -0.15257511 -0.00000148
-0.08130279 0.37846798 -0.00000175
-0.46722728 -0.70681715 0.00000029
-0.47723487 0.02472379 0.00000108
-0.11066251 0.42977747 0.00000014
-0.41817969 0.27986798 0.00000143
-0.12060453 -0.30328345 0.00000155
-0.60866368 -0.06764764 -0.00000011
-0.56748879 -0.60725015 0.00000060
-0.39210263 -0.43391213 0.00000114
-0.21772863 0.29765818 0.00000334
-0.39448106 -0.08232742 0.00000196
-0.36992452 0.26497582 0.00000190
-0.09454837 -0.70445436 0.00000030
-0.30507430 0.41341957 0.00000240
-0.41626564 -0.65979564 0.00000044
-0.53138882 -0.43354765 0.00000095
-0.01039067 -0.30299297 0.00000158
-0.36430398 0.35734281 0.00000188
-0.34773844 -0.73224342 0.00000021
-0.32020983 0.10312529 0.00000252
-0.19935541 0.42255613 0.00000341
-0.16047543 -0.27009466 0.00000166
-0.37836787 0.30782390 0.00000179
-0.15476641 0.60082430 0.00000368
-0.08308464 0.07111348 -0.00000823
-0.38394666 -0.58778727 0.00000066
-0.71350360 0.05685437 -0.00000122
-0.43819058 -0.31225905 0.00000152
-0.76528859 -0.18872949 -0.00000151
-0.61535668 -0.57724988 0.00000027
-0.42340583 -0.61255783 0.00000059
-0.33364758 -0.54619229 0.00000079
-0.04115597 -0.45948151 0.00000106
-0.38360631 -0.45093006 0.00000109
-0.06506202 -0.37244427 0.00000134
-0.39086050 -0.24894227 0.00000172
-0.23240107 -0.37834045 0.00000132
-0.15827881 0.31007716 -0.00000111
-0.43120942 0.12958002 0.00000143
-0.66600096 -0.66590190 -0.00000015
-0.14961728 -0.24904586 0.00000172
-0.52703983 -0.02894205 0.00000065
-0.49919426 0.27475736 0.00000065
-0.54346997 -0.34945789 0.00000076
-0.29937798 -0.26260614 0.00000168
-0.20748407 0.49627873 0.00000327
-0.03009838 -0.77398217 0.00000017
-0.29793519 0.27653438 0.00000259
-0.08545141 0.57166296 0.00000247
-0.02398618 -0.12598191 0.00000218
-0.58952308 -0.25584516 0.00000024
-0.65493190 -0.51090997 -0.00000017
-0.01661564 -0.58286279 0.00000073
-0.10285768 0.37038127 -0.00000134
-0.04213381 -0.63490874 0.00000052
-0.42145199 0.21383417 0.00000145
-0.23866910 0.07837245 -0.00000385
-0.42779419 0.25099880 0.00000136
-0.07956106 -0.56208026 0.00000074
-0.09223767 0.51554346 0.00000146
-0.41460150 0.27476618 0.00000147
-0.25677574 -0.29267445 0.00000159
-0.13572541 -0.43268988 0.00000115
-0.02242166 -0.01492721 0.00000245
-0.34909213 -0.45221969 0.00000109
-0.24807034 -0.38534811 0.00000130
-0.45373771 -0.31660169 0.00000151
-0.11892997 -0.11077041 0.00000215
-0.34847373 -0.23082010 0.00000178
-0.58237940 0.15107363 -0.00000004
-0.64286441 -0.10168507 -0.00000040
-0.47048953 -0.31693959 0.00000143
-0.47485590 0.23973785 0.00000092
-0.62599587 -0.77497041 0.00000008
-0.47674239 -0.32143015 0.00000138
-0.02457206 -0.74233651 0.00000025
-0.30254209 0.11334666 0.00000268
-0.02382652 -0.22275184 0.00000188
-0.35251489 -0.02060580 0.00000231
-0.53387743 -0.43897668 0.00000093
-0.03220004 -0.44573864 0.00000111
-0.14073388 -0.72417754 0.00000024
-0.52692270 0.25125206 0.00000041
-0.49896252 -0.70658600 0.00000029
-0.70159227 -0.30140361 -0.00000080
-0.00192370 -0.05621115 0.00000233
-0.11714747 0.21355055 -0.00000428
-0.40681791 -0.18077636 0.00000193
-0.50912923 -0.36466789 0.00000110
-0.38732821 -0.04138797 0.00000200
-0.50663239 -0.55497473 0.00000077
-0.19623962 0.17695311 -0.00000291
-0.05589842 0.31703103 -0.00000374
-0.15972018 -0.44426650 0.00000111
-0.16802125 -0.62205327 0.00000056
-0.46526340 -0.23068324 0.00000141
-0.71980345 -0.34327343 -0.00000094
-0.00509509 0.46506923 -0.00000198
-0.08816924 -0.48906073 0.00000097
-0.00620484 0.67831630 0.00000258
-0.45586732 -0.36241543 0.00000137
-0.01510188 -0.18653193 0.00000196
-0.01758023 -0.73404622 0.00000021
-0.47079980 -0.37991977 0.00000131
-0.26420262 0.29279262 0.00000290
-0.44280386 -0.04065209 0.00000146
-0.73754478 -0.79604566 -0.00000001
-0.13083956 -0.67767251 0.00000038
-0.34120205 0.02205913 0.00000239
-0.00467606 0.29379857 -0.00000563
-0.24743859 -0.25611606 0.00000170
-0.13732132 0.64481401 0.00000381
-0.65333307 -0.61266446 -0.00000007
-0.34246641 0.03747591 0.00000236
-0.39305896 -0.73598623 0.00000020
-0.56256849 -0.24533527 0.00000049
-0.37113085 -0.15926126 0.00000200
-0.02863078 -0.28875402 0.00000168
-0.28979859 0.20573741 0.00000272
-0.06215740 0.37593901 -0.00000232
-0.13305666 -0.54758155 0.00000079
-0.33689094 0.17117786 0.00000230
-0.30961967 0.04979788 -0.00000253
-0.26058960 -0.09796815 0.00000219
-0.31398961 -0.66737562 0.00000041
-0.60459512 -0.46118820 0.00000027
-0.57731128 -0.01674673 0.00000015
-0.46371990 -0.62105340 0.00000056
-0.21134716 -0.08111798 0.00000225
-0.51048529 -0.31916672 0.00000105
-0.29644763 -0.61953849 0.00000056
-0.55641353 -0.53769827 0.00000080
-0.72353542 -0.37377357 -0.00000095
-0.10820230 -0.44594300 0.00000111
-0.12853727 0.19306329 -0.00000441
-0.61092353 -0.25664157 0.00000003
-0.62905079 -0.18005817 -0.00000020
-0.50965846 0.04925482 0.00000075
-0.71654570 -0.24018292 -0.00000099
-0.62080473 -0.58740634 0.00000022
-0.67836481 -0.16268617 -0.00000069
-0.16771056 -0.35330048 0.00000140
-0.49568301 -0.78448945 0.00000005
-0.50900328 0.21934824 0.00000061
-0.23611721 -0.69278139 0.00000034
-0.61454302 0.17738020 -0.00000029
-0.67944098 -0.10446375 -0.00000075
-0.46239293 -0.42698410 0.00000117
-0.25502127 -0.72900194 0.00000022
-0.71788752 -0.35042748 -0.00000091
-0.32865936 -0.65926105 0.00000044
-0.18563175 0.22469573 -0.00000218
-0.01960394 0.06833946 -0.00001002
-0.12674648 0.34418869 -0.00000124
-0.70644295 -0.38669956 -0.00000077
-0.64817077 -0.03867480 -0.00000051
-0.12308868 0.16009401 -0.00000525
-0.16169703 0.09500506 -0.00000559
-0.52656853 -0.47527996 0.00000101
-0.34688184 0.24498375 0.00000214
-0.37031180 -0.04658694 0.00000217
-0.70980674 -0.41625106 -0.00000078
-0.47748610 -0.28570193 0.00000134
-0.22333132 0.14750209 -0.00000280
-0.65512168 -0.53471082 -0.00000015
-0.16740526 0.57080477 0.00000359
-0.40296671 -0.20941608 0.00000185
-0.05374076 -0.50018257 0.00000094
-0.60079187 0.04773915 -0.00000013
-0.30489838 0.12347935 0.00000265
-0.04368236 -0.29478315 0.00000158
-0.30221182 -0.06628492 0.00000229
-0.06604404 -0.22381377 0.00000180
-0.75298107 -0.57851237 -0.00000055
-0.68622673 -0.27099341 -0.00000068
-0.07799223 -0.29209226 0.00000159
-0.35391742 0.12629583 0.00000218
-0.06498574 0.72702897 0.00000451
-0.54238683 -0.16294976 0.00000061
-0.38033432 -0.62931299 0.00000053
-0.02165701 -0.59741056 0.00000070
-0.07326238 0.49319839 0.00000047
-0.05064722 0.44007650 -0.00000127
-0.22118852 0.03117610 -0.00000533
-0.69278115 -0.15941039 -0.00000083
-0.00730155 0.06166028 -0.00001049
-0.55147362 -0.33066285 0.00000067
-0.10260285 0.33062896 -0.00000219
-0.15120061 0.36004612 -0.00000024
-0.06994696 -0.66525829 0.00000042
-0.79164803 -0.65334123 -0.00000037
-0.36669189 -0.74465942 0.00000017
-0.09568488 -0.18090093 0.00000193
-0.19340102 -0.09545156 0.00000220
-0.00196028 0.41593286 -0.00000311
-0.67601377 -0.16832621 -0.00000067
-0.27479920 -0.20397075 0.00000186
-0.69583291 -0.68873727 -0.00000028
-0.28384423 -0.54561806 0.00000079
-0.29236329 0.13063408 0.00000276
-0.67501569 -0.05001769 -0.00000076
-0.75906301 -0.69532537 -0.00000026
-0.29146796 -0.27264518 0.00000165
-0.38274455 0.15774722 0.00000187
-0.44260111 0.18362197 0.00000128
-0.43516195 -0.56137657 0.00000075
-0.41255391 -0.07798743 0.00000179
-0.19519490 -0.01091541 0.00000247
-0.11867906 0.02983874 -0.00000814
-0.45104942 -0.35184535 0.00000140
-0.43256292 -0.49762410 0.00000094
-0.69919491 -0.23325761 -0.00000083
-0.70150143 -0.47823989 -0.00000065
-0.17163187 0.24561496 -0.00000212
-0.53041869 -0.62931997 0.00000053
-0.00917351 -0.78451413 0.00000005
-0.74564278 -0.30182493 -0.00000122
-0.13523296 -0.16014241 0.00000200
-0.19951753 0.33301091 0.00000348
-0.00510445 -0.36690837 0.00000135
-0.52473682 -0.24901235 0.00000086
-0.01480003 0.61465788 0.00000146
-0.15558971 -0.59419423 0.00000064
-0.58324444 -0.04325710 0.00000012
-0.07886199 -0.64751083 0.00000048
-0.04040470 0.62372780 0.00000235
-0.20103052 -0.37250468 0.00000134
-0.10084398 -0.54555297 0.00000080
-0.68597424 -0.03929612 -0.00000087
-0.78193390 -0.16611239 -0.00000158
-0.16681908 -0.38286874 0.00000130
-0.05501220 0.27663139 -0.00000463
-0.21805587 -0.50935501 0.00000091
-0.74013096 -0.04730207 -0.00000138
-0.29025990 -0.05748415 0.00000232
-0.45427585 0.01444534 0.00000131
-0.51242298 -0.19864908 0.00000093
-0.39989576 -0.35505527 0.00000139
-0.49437714 -0.37338084 0.00000125
-0.68704975 -0.14224093 -0.00000079
-0.72102910 -0.11416380 -0.00000114
-0.22434928 -0.40235841 0.00000124
-0.74224293 -0.31870896 -0.00000117
-0.11022379 -0.71160585 0.00000028
-0.49317843 -0.77334064 0.00000008
-0.00343500 -0.03772417 0.00000239
-0.65334302 -0.17620057 -0.00000044
-0.42537159 -0.14076380 0.00000172
-0.33434334 -0.64355975 0.00000049
-0.25592637 0.16659833 -0.00000151
-0.14461021 -0.15845600 0.00000200
-0.54849768 -0.76657319 0.00000010
-0.56235462 -0.05560907 0.00000033
-0.06796192 0.67541099 0.00000445
-0.06592211 -0.72738886 0.00000023
-0.16141085 -0.44171029 0.00000112
-0.60878843 -0.05854030 -0.00000011
-0.74572068 -0.31826654 -0.00000120
-0.14680120 -0.71640170 0.00000026
-0.23847182 -0.12213492 0.00000212
-0.56379539 -0.05899118 0.00000032
-0.31790015 -0.26547748 0.00000167
-0.28830633 0.01731094 -0.00000380
-0.49043313 -0.56290799 0.00000074
-0.00472157 0.56842023 0.00000021
-0.02443274 -0.12807162 0.00000210
-0.15721679 0.37726781 0.00000029
-0.20422307 -0.38807905 0.00000129
-0.58866477 0.07423005 -0.00000003
-0.30479726 -0.44487599 0.00000111
-0.58998966 -0.27610984 0.00000025
-0.63810861 -0.56159449 0.00000003
-0.30086187 -0.59161496 0.00000065
-0.67853355 -0.73006880 -0.00000017
-0.71226424 -0.66630703 -0.00000033
-0.10763307 0.33349171 -0.00000199
-0.62972182 0.12729207 -0.00000047
-0.71717638 0.00760593 -0.00000121
-0.14181647 0.05945317 -0.00000688
-0.26505432 -0.54465210 0.00000080
-0.57011288 0.15776715 0.00000007
-0.35781476 0.15378086 0.00000211
-0.08033232 -0.63924772 0.00000050
-0.06474552 0.67324567 0.00000449
-0.53483260 -0.70073867 0.00000031
-0.64327788 -0.37626341 -0.00000017
-0.14912763 0.50241393 0.00000382
-0.54993188 -0.10053124 0.00000049
-0.73813194 -0.30981305 -0.00000114
-0.30977312 -0.76372552 0.00000011
-0.05214310 0.08964058 -0.00000868
-0.21620888 -0.18808927 0.00000191
-0.27638644 -0.19667876 0.00000189
-0.23851506 -0.77986091 0.00000006
-0.07374557 0.11739157 -0.00000750
-0.68800753 0.10258792 -0.00000092
-0.47553700 -0.16103593 0.00000125
-0.15143022 0.04023877 -0.00000703
-0.25690514 -0.45839739 0.00000107
-0.37504020 -0.18254475 0.00000193
-0.71653855 -0.36701483 -0.00000089
-0.72217160 0.00192782 -0.00000125
-0.08082941 -0.59392172 0.00000064
-0.34559536 -0.19355361 0.00000190
-0.74287683 -0.46013132 -0.00000085
-0.46793309 0.03427606 0.00000116
-0.22952606 -0.06183026 0.00000231
-0.06654653 -0.54596514 0.00000079
-0.14760409 0.11658781 -0.00000551
-0.45667675 -0.01954967 0.00000131
-0.25615156 0.48777995 0.00000281
-0.51935643 -0.57691723 0.00000070
-0.61581802 0.12091586 -0.00000033
-0.30944398 -0.54428935 0.00000080
-0.62521327 -0.55419499 0.00000015
-0.00466146 -0.12409202 0.00000213
-0.59238839 -0.20484696 0.00000017
-0.18456367 -0.75668305 0.00000014
-0.59462243 -0.43384445 0.00000034
-0.14434455 -0.10286947 0.00000218
-0.42399153 -0.16907693 0.00000175
-0.78139037 -0.38620093 -0.00000103
-0.08127636 0.08367865 -0.00000801
-0.40928826 0.19405673 0.00000159
-0.25963607 0.17395161 0.00000304
-0.15672097 -0.60933286 0.00000060
-0.65617394 -0.00553085 -0.00000061
-0.05201349 0.05972039 -0.00000932
-0.19392525 0.47389403 0.00000342
-0.67044693 -0.14288116 -0.00000063
-0.57744837 -0.33944854 0.00000043
-0.75898135 -0.51007533 -0.00000072
-0.10585127 -0.16796596 0.00000198
-0.13029367 0.28328857 -0.00000244
-0.01233376 -0.29433778 0.00000162
-0.08262619 -0.57823527 0.00000069
-0.39805880 0.09842272 0.00000178
-0.01538609 0.60019326 0.00000117
-0.47310424 -0.21845926 0.00000133
-0.02282755 -0.38180515 0.00000138
-0.14888723 -0.75919527 0.00000013
-0.21407080 -0.24703993 0.00000173
-0.07054181 0.53230333 0.00000123
-0.05915234 0.55630034 0.00000143
-0.35696602 0.19910201 0.00000208
-0.30047941 0.15832525 0.00000266
-0.33362651 -0.05720182 0.00000232
-0.63649470 0.03187236 -0.00000046
-0.09372273 -0.66513205 0.00000042
-0.01449488 -0.53969157 0.00000086
-0.27535868 0.52126259 0.00000263
-0.66274059 -0.27223569 -0.00000045
-0.61603934 -0.16132133 -0.00000010
-0.65650707 -0.14538126 -0.00000050
-0.11930886 -0.15273423 0.00000202
-0.57269120 -0.15724578 0.00000032
-0.64964348 -0.49750328 -0.00000013
-0.48535439 -0.43645325 0.00000114
-0.28715679 -0.20467864 0.00000186
-0.31147435 0.18284389 0.00000254
-0.54629129 -0.44040677 0.00000081
-0.34601620 -0.32670847 0.00000148
-0.36092097 0.31531280 0.00000195
-0.25609705 -0.14748853 0.00000204
-0.31697488 -0.74538994 0.00000017
-0.47172570 0.25557449 0.00000093
-0.12344756 0.07153789 -0.00000713
-0.21441060 0.57706553 0.00000321
-0.40329695 -0.21842170 0.00000182
-0.78729010 -0.06474258 -0.00000182
-0.06901615 -0.12550263 0.00000211
-0.37595415 -0.72038001 0.00000025
-0.02917255 0.32182977 -0.00000437
-0.57772070 -0.01177753 0.00000014
-0.46938491 -0.59000009 0.00000066
-0.55108052 -0.06434103 0.00000045
-0.71025360 -0.31024382 -0.00000087
-0.23273619 -0.35380870 0.00000139
-0.11083496 0.20437138 -0.00000465
-0.32657495 0.20406824 0.00000237
-0.21783736 -0.00284386 0.00000249
-0.78123194 -0.46982422 -0.00000083
-0.46470979 -0.01225040 0.00000123
-0.46724269 0.09301622 0.00000112
-0.49276033 -0.04156750 0.00000099
-0.25793335 0.12309661 -0.00000238
-0.32741851 -0.08778760 0.00000223
-0.64553046 -0.51581925 -0.00000008
-0.35353696 0.36039889 0.00000198
-0.09495516 -0.33737579 0.00000145
-0.09530300 0.58373618 0.00000427
-0.17569779 0.39786386 0.00000366
-0.31681243 -0.43900993 0.00000113
-0.20870373 0.22994865 -0.00000145
-0.48155132 0.31163409 0.00000086
-0.01234259 -0.44131160 0.00000112
-0.01472740 0.48015460 -0.00000140
-0.25667354 -0.19210698 0.00000190
-0.62425280 -0.21351561 -0.00000013
-0.18783203 0.23925596 -0.00000181
-0.00164076 -0.43855301 0.00000113
-0.51055634 -0.70282930 0.00000030
-0.11534176 0.47771841 0.00000128
-0.50397402 -0.50216204 0.00000093
-0.23849392 -0.29631498 0.00000157
-0.39330456 0.28822672 0.00000166
-0.09809759 -0.19644310 0.00000189
-0.08903452 0.26630911 -0.00000392
-0.46207076 0.06855104 0.00000119
-0.55572283 -0.79070336 0.00000003
-0.30166158 -0.37938699 0.00000131
-0.34556702 -0.22385778 0.00000180
-0.16993548 -0.65435201 0.00000046
-0.18867095 -0.79142714 0.00000003
-0.30339274 -0.59172440 0.00000065
-0.47764146 -0.65471011 0.00000045
-0.00136856 0.66583484 0.00000219
-0.55933243 -0.64011943 0.00000050
-0.08337293 0.69536823 0.00000429
-0.01325011 -0.65507972 0.00000045
-0.32074666 -0.19779731 0.00000188
-0.02002149 -0.52636617 0.00000092
-0.38169026 0.21270819 0.00000184
-0.24714579 -0.49631959 0.00000095
-0.71633595 -0.49195290 -0.00000077
-0.72554016 -0.13410760 -0.00000117
-0.02565382 -0.35320446 0.00000147
-0.59589154 -0.78049487 0.00000006
-0.61616236 -0.14652757 -0.00000011
-0.27997655 -0.13744745 0.00000207
-0.31470880 0.43479976 0.00000229
-0.05566609 -0.00146109 0.00000250
-0.48881465 -0.59798205 0.00000063
-0.25687030 -0.72412056 0.00000024
-0.61871070 -0.57208031 0.00000023
-0.04315461 -0.44391656 0.00000111
-0.50546187 -0.18085988 0.00000098
-0.18660520 -0.49682137 0.00000095
-0.49124870 0.27156055 0.00000073
-0.03352726 0.69224232 0.00000362
-0.65758795 -0.75274926 0.00000001
-0.45555493 -0.04175978 0.00000134
-0.00494666 -0.49677601 0.00000096
-0.49952596 0.02019978 0.00000087
-0.42791167 0.19179758 0.00000141
-0.68561047 -0.62864453 -0.00000037
-0.39456797 0.16874705 0.00000175
-0.62265539 -0.30931658 -0.00000003
-0.45293537 -0.46300489 0.00000105
-0.00927118 -0.76482540 0.00000011
-0.01184171 -0.64782768 0.00000051
-0.23696636 -0.65719771 0.00000045
-0.69384694 -0.35750127 -0.00000068
-0.03820876 0.45529443 -0.00000129
-0.28015110 -0.02462095 0.00000242
-0.46256256 -0.07021717 0.00000130
-0.46066409 -0.56685549 0.00000073
-0.18043244 0.56487131 0.00000347
-0.22494669 0.02851289 -0.00000528
-0.79725999 -0.04222837 -0.00000189
-0.77452040 -0.63429600 -0.00000041
-0.24928050 -0.09170447 0.00000221
-0.02803699 -0.19816315 0.00000188
-0.14453876 0.41561434 0.00000076
-0.71283007 -0.62302822 -0.00000044
-0.25455976 -0.19789588 0.00000188
-0.04892890 0.43833610 -0.00000136
-0.29081139 0.22464232 0.00000270
-0.09387220 -0.41671261 0.00000120
-0.27113560 0.48819125 0.00000266
-0.69010198 0.03068672 -0.00000097
-0.09708290 -0.42055967 0.00000119
-0.09018620 -0.37868336 0.00000132
-0.53195274 -0.40830466 0.00000092
-0.49491817 -0.08032903 0.00000100
-0.74000812 -0.26697025 -0.00000120
-0.13638929 0.45784763 0.00000143
-0.24511474 -0.33294734 0.00000146
-0.58533865 -0.00155634 0.00000006
-0.10553611 -0.33748949 0.00000145
-0.18345918 -0.73563814 0.00000020
-0.75412017 -0.17221367 -0.00000141
-0.16205233 0.42451203 0.00000376
-0.32446262 -0.68562597 0.00000036
-0.56432086 -0.46646658 0.00000066
-0.45292953 -0.67825305 0.00000038
-0.02021132 -0.65062380 0.00000053
-0.22564916 0.49722588 0.00000309
-0.00909580 -0.16311650 0.00000199
-0.11353809 -0.27059829 0.00000165
-0.77630734 -0.37846065 -0.00000105
-0.12178186 0.39856958 -0.00000022
-0.54797459 0.05616778 0.00000037
-0.76606584 -0.55833524 -0.00000060
-0.27005884 -0.72741723 0.00000023
-0.25706190 0.20822541 0.00000304
-0.47520837 -0.50446314 0.00000092
-0.22203265 0.43278775 0.00000318
-0.26297063 -0.70137340 0.00000031
-0.66276526 -0.07987222 -0.00000061
-0.43891621 0.20367920 0.00000129
-0.06819005 -0.71333271 0.00000027
-0.78112513 -0.11238726 -0.00000172
-0.14894097 0.03361471 -0.00000724
-0.19714148 -0.23705360 0.00000176
-0.46474075 -0.33342969 0.00000146
-0.04754657 0.33102804 -0.00000367
-0.07195091 -0.09255818 0.00000221
-0.46138814 -0.43059993 0.00000115
-0.60210425 -0.21931943 0.00000009
-0.34080285 0.17531157 0.00000226
-0.31505930 0.43142313 0.00000229
-0.58168191 0.06801301 0.00000004
-0.69603157 -0.44605064 -0.00000062
-0.46437430 -0.31936434 0.00000150
-0.41079235 -0.37045345 0.00000134
-0.49701774 -0.53726345 0.00000082
-0.14046940 0.23142785 -0.00000327
-0.74880183 -0.09177093 -0.00000143
-0.34037289 -0.59108913 0.00000065
-0.36196795 -0.75285935 0.00000015
-0.09423255 -0.30654463 0.00000154
-0.54860628 0.16946447 0.00000027
-0.32658634 -0.56021625 0.00000075
-0.01950527 -0.72770578 0.00000028
-0.18881300 -0.60224450 0.00000062
-0.50292587 -0.10659536 0.00000094
-0.15298478 0.16720368 -0.00000429
-0.09534699 -0.11245981 0.00000215
-0.25840989 -0.61452937 0.00000058
-0.01614049 -0.03049617 0.00000240
-0.66223705 -0.34008238 -0.00000039
-0.66356319 -0.41544455 -0.00000034
-0.69009775 -0.17667390 -0.00000079
-0.48764163 -0.54699826 0.00000079
-0.23196143 -0.55986333 0.00000075
