ply
format ascii 1.0
element vertex 1406
property float x
property float y
property float z
end_header
-0.79655457 -0.39497179 0.00000000
0.66352665 0.27069747 0.26801354
0.48303974 -0.11594961 0.00000000
-0.72100210 0.25408411 0.00000000
0.24015129 -0.25744262 0.00000000
-0.49326289 0.76041913 0.00000000
-0.58946216 -0.49931479 0.00000000
0.46898448 0.42093709 0.17955257
-0.74938786 -0.18619733 0.00000000
0.44867250 -0.34944022 0.00000000
0.59065688 -0.64897174 0.00000000
-0.70404738 0.58566391 0.00000000
-0.02808328 -0.18226188 0.00000000
-0.31525633 0.01120805 0.00000000
-0.33713058 0.23935381 0.00000000
0.31613952 -0.55266339 0.00000000
-0.51637274 0.64167094 0.00000000
0.48923329 -0.20541012 0.00000000
-0.76537824 0.18972211 0.00000000
-0.62746304 -0.25569928 0.00000000
-0.63834506 -0.55534691 0.00000000
-0.18267471 0.06975835 0.00000000
0.55973899 -0.33587661 0.00000000
-0.59470379 0.44567478 0.00000000
-0.51045305 -0.14591941 0.00000000
0.14083205 -0.62571013 0.00000000
-0.73375976 -0.70853841 0.00000000
-0.30675149 -0.58080721 0.00000000
-0.40246502 0.37205663 0.00000000
0.73322183 -0.55961531 0.00000000
-0.21248706 0.79126596 0.00000000
-0.54432690 -0.14020041 0.00000000
-0.47836122 0.06496948 0.00000000
-0.64568359 -0.71877444 0.00000000
-0.68155867 0.14637332 0.00000000
0.05844287 -0.10297432 0.00000000
-0.08045715 -0.05998599 0.00000000
0.33154741 -0.00534994 0.00000000
0.17139094 0.47597513 0.00000000
-0.50823265 0.00125512 0.00000000
-0.65964371 -0.12839092 0.00000000
0.35672602 -0.75143594 0.00000000
0.00388220 0.59670877 0.00000000
0.34438831 0.47734690 0.04340166
0.00475131 0.64756495 0.00000000
-0.75405157 0.20455715 0.00000000
0.45063573 -0.49120513 0.00000000
0.52667230 0.48704639 0.42674521
0.12741090 -0.79844218 0.00000000
-0.34933490 0.76586419 0.00000000
-0.74364662 -0.15764277 0.00000000
-0.67484111 0.15931945 0.00000000
0.12336814 0.48061168 0.00000000
-0.60236341 0.41909999 0.00000000
0.38903260 0.58688289 0.35126176
-0.73001373 -0.26976416 0.00000000
0.14267105 0.60600239 0.00000000
0.42180213 -0.45162773 0.00000000
-0.24133822 -0.51623195 0.00000000
0.33537367 -0.30606148 0.00000000
0.54971665 0.41221091 0.32333070
0.13472429 0.71288818 0.09507222
-0.44540998 0.27327910 0.00000000
0.15145759 -0.20171531 0.00000000
-0.01985160 0.06116368 0.00000000
0.22482531 -0.08753175 0.00000000
-0.11540907 0.54999548 0.00000000
0.37356117 -0.77677882 0.00000000
0.18144302 -0.48158109 0.00000000
-0.73803860 0.04216701 0.00000000
-0.73257595 0.11167450 0.00000000
-0.55923033 -0.23873790 0.00000000
0.22397368 0.59522647 0.03833979
-0.26657316 -0.79083085 0.00000000
-0.70279139 0.06350491 0.00000000
0.78085029 -0.00496959 0.00000000
0.53371644 -0.21746860 0.00000000
-0.78700697 -0.17000923 0.00000000
-0.00292794 0.44500676 0.00000000
0.23579662 -0.59225035 0.00000000
-0.43361774 -0.07078690 0.00000000
-0.65535688 0.35011798 0.00000000
0.20490009 0.00577340 0.00000000
0.10497272 -0.76814181 0.00000000
0.35800001 0.49466613 0.10516292
-0.72581893 0.29160741 0.00000000
-0.32466367 0.56636870 0.00000000
-0.14248613 -0.41306448 0.00000000
-0.11546033 0.46989378 0.00000000
-0.74912149 0.22422212 0.00000000
-0.41247326 0.12867065 0.00000000
0.04471822 -0.66723520 0.00000000
0.45299897 -0.28441930 0.00000000
-0.09282064 -0.23223232 0.00000000
-0.46804821 0.60549182 0.00000000
-0.60345268 -0.07623615 0.00000000
0.76362211 -0.09895942 0.00000000
-0.00484882 0.65704638 0.00000000
-0.12336991 0.67526281 0.00000000
-0.11837710 -0.16212493 0.00000000
0.63286728 0.15414470 0.00000000
0.57381761 -0.01064307 0.00000000
0.05801237 -0.26588914 0.00000000
-0.72664440 -0.01973113 0.00000000
-0.54685795 0.49948689 0.00000000
-0.66268957 0.32826459 0.00000000
-0.39520213 0.67439568 0.00000000
-0.29174858 -0.41352585 0.00000000
-0.31905839 0.45300129 0.00000000
0.45307055 0.45021752 0.20624208
0.25690061 -0.76887512 0.00000000
-0.40804118 -0.59839272 0.00000000
0.02318788 0.23021333 0.00000000
0.36338356 -0.16607429 0.00000000
-0.55274868 -0.00472833 0.00000000
-0.26842675 0.75935400 0.00000000
-0.33012870 -0.77811337 0.00000000
0.13587844 0.35425967 0.00000000
-0.58055443 -0.73765755 0.00000000
0.23391359 0.47726712 0.00000000
-0.58890224 0.41620687 0.00000000
-0.25578114 0.21348204 0.00000000
-0.36117426 -0.51176250 0.00000000
-0.39274800 -0.31729576 0.00000000
-0.76199555 0.44302234 0.00000000
0.53977299 0.29719529 0.07381829
-0.02266003 -0.60635775 0.00000000
-0.10697089 -0.48478508 0.00000000
-0.42413893 -0.51781404 0.00000000
-0.64222389 -0.72617888 0.00000000
-0.59351039 -0.70902872 0.00000000
0.49736300 0.41979319 0.23393317
0.44878739 -0.14795280 0.00000000
-0.74872881 0.68242443 0.00000000
0.38437653 -0.46831223 0.00000000
-0.43747306 0.12931953 0.00000000
-0.72096825 -0.70149535 0.00000000
-0.37249744 0.19233510 0.00000000
-0.01301567 0.62330317 0.00000000
0.07222313 -0.51447517 0.00000000
0.78176314 -0.49556571 0.00000000
-0.51590109 0.06853680 0.00000000
-0.79575682 0.19079527 0.00000000
0.40135926 0.51640737 0.23515239
-0.23836289 -0.12815142 0.00000000
-0.10057495 -0.20312284 0.00000000
0.23036329 0.37307370 0.00000000
-0.36843377 0.10778514 0.00000000
0.23716138 0.29488084 0.00000000
0.33859125 -0.33381274 0.00000000
-0.04899227 0.48923939 0.00000000
-0.29007798 -0.12870152 0.00000000
0.58611774 -0.27163899 0.00000000
0.32824287 0.56888068 0.19393335
-0.25304845 0.75830805 0.00000000
0.62109131 0.30987489 0.26150826
-0.50452185 -0.60741943 0.00000000
0.05056039 0.42318067 0.00000000
-0.36902910 -0.18458037 0.00000000
0.46822095 -0.60775828 0.00000000
-0.14307506 0.59334153 0.00000000
0.31745559 0.49308315 0.02104518
-0.74547029 0.62963921 0.00000000
0.32260269 0.62935036 0.30341467
-0.79110509 -0.03747333 0.00000000
-0.43163112 -0.38665059 0.00000000
0.47487107 -0.39468378 0.00000000
-0.11184430 0.52514595 0.00000000
-0.22097246 0.01412800 0.00000000
-0.71015823 0.70838261 0.00000000
-0.23601770 -0.53764957 0.00000000
-0.53364682 0.61049730 0.00000000
0.00760452 -0.17041816 0.00000000
-0.34772915 0.52215308 0.00000000
-0.46831039 0.13852587 0.00000000
-0.39936018 0.32838497 0.00000000
-0.03792781 0.79149234 0.00000000
-0.78155041 -0.24153939 0.00000000
-0.33459076 0.44061807 0.00000000
-0.43011576 0.49224529 0.00000000
-0.28610027 -0.39644814 0.00000000
-0.05200591 0.13073982 0.00000000
0.60593832 -0.00863600 0.00000000
0.16903192 -0.26117823 0.00000000
-0.44220081 -0.32831252 0.00000000
-0.02895473 -0.20319816 0.00000000
0.35954359 -0.62736535 0.00000000
0.12294649 0.60984617 0.00000000
0.12295846 0.08157348 0.00000000
-0.75862193 0.79239351 0.00000000
-0.33733019 0.51936728 0.00000000
0.31259599 -0.17717583 0.00000000
-0.77938396 -0.23052683 0.00000000
0.47710344 0.43759549 0.22902668
-0.40877885 -0.37150180 0.00000000
0.05539610 0.43702048 0.00000000
0.00421661 -0.27332678 0.00000000
0.35291228 0.02026012 0.00000000
-0.23708114 0.25559002 0.00000000
-0.60651249 0.79992539 0.00000000
-0.72721821 -0.06522240 0.00000000
0.46120903 0.39848149 0.11918885
0.43655708 -0.51557469 0.00000000
-0.00990975 0.42859372 0.00000000
-0.13646162 -0.71938801 0.00000000
0.52463418 -0.78983915 0.00000000
-0.09397646 0.51597571 0.00000000
-0.04205196 -0.54330063 0.00000000
-0.41122693 -0.63085383 0.00000000
0.07650324 -0.12513988 0.00000000
0.05854710 -0.54777431 0.00000000
-0.28845167 -0.74097157 0.00000000
-0.61041516 -0.01598733 0.00000000
-0.51522219 0.70330781 0.00000000
-0.41754305 0.36075628 0.00000000
0.48447728 0.28799883 0.00000000
-0.49976680 -0.62147760 0.00000000
-0.38632339 0.05773992 0.00000000
0.30662501 0.53415745 0.08143420
0.41325709 -0.62941605 0.00000000
-0.44263282 -0.31258735 0.00000000
0.26291785 -0.39951280 0.00000000
0.05609033 -0.45034426 0.00000000
0.09155953 -0.03591360 0.00000000
0.06996759 -0.22137363 0.00000000
-0.17987496 0.53798956 0.00000000
-0.73537898 -0.31152874 0.00000000
-0.12336382 0.05640148 0.00000000
0.18987146 -0.65951204 0.00000000
0.19136938 0.69804078 0.17853202
-0.28724331 0.12437373 0.00000000
-0.37903744 -0.21550418 0.00000000
-0.59356022 -0.40700305 0.00000000
0.43005103 -0.55911267 0.00000000
0.12678929 0.47124806 0.00000000
0.32987162 0.08207661 0.00000000
0.58628953 0.31275037 0.19775955
-0.26900876 0.53923273 0.00000000
-0.40236393 -0.38374123 0.00000000
0.25265571 0.29446232 0.00000000
-0.45440349 0.54767728 0.00000000
0.02485205 -0.53960741 0.00000000
0.60493016 0.25040582 0.11049390
-0.02046519 -0.04054166 0.00000000
0.03273901 0.04230444 0.00000000
-0.01655705 -0.69561487 0.00000000
-0.45222345 -0.34077114 0.00000000
-0.37560424 -0.75774109 0.00000000
-0.47312409 -0.63975388 0.00000000
0.66328889 0.12315772 0.00000000
-0.33573928 0.12869015 0.00000000
0.29539365 -0.02251010 0.00000000
-0.07167325 0.18475497 0.00000000
-0.73515171 0.42920548 0.00000000
-0.25269049 0.03049941 0.00000000
-0.76934028 -0.70410663 0.00000000
0.58049369 0.26657796 0.09399211
0.23550709 0.26937196 0.00000000
-0.11040171 0.12506209 0.00000000
-0.37823650 0.41564837 0.00000000
-0.72996080 -0.40742564 0.00000000
-0.35947677 -0.75914448 0.00000000
-0.61605096 -0.35763317 0.00000000
0.77494246 -0.07329511 0.00000000
-0.42304307 -0.45826864 0.00000000
-0.21017608 -0.21850567 0.00000000
-0.37815285 0.30122134 0.00000000
-0.67944723 -0.78498358 0.00000000
0.66606307 0.11983396 0.00000000
-0.08992981 -0.32851624 0.00000000
-0.39550319 0.57286745 0.00000000
-0.58644003 0.22112586 0.00000000
-0.29636341 0.61033827 0.00000000
0.51200396 0.52586687 0.47497126
-0.58677953 -0.43636835 0.00000000
0.68694240 -0.07262000 0.00000000
0.70974720 -0.28108996 0.00000000
-0.41472909 -0.74246609 0.00000000
0.49321300 -0.55902421 0.00000000
0.62790805 -0.79131365 0.00000000
0.29550290 0.62366909 0.23795888
-0.40463331 0.56653255 0.00000000
0.56442964 0.34962821 0.22774664
-0.58581179 0.40227607 0.00000000
-0.67119455 0.75691617 0.00000000
-0.32816446 0.02878282 0.00000000
-0.46024245 -0.75397021 0.00000000
-0.26470822 -0.22196789 0.00000000
-0.49621922 -0.21884306 0.00000000
0.23621762 -0.06611872 0.00000000
0.06889312 0.07817118 0.00000000
-0.64210308 0.78096253 0.00000000
-0.07005002 -0.03730573 0.00000000
0.23503584 0.48997709 0.00000000
-0.01082122 0.60171837 0.00000000
-0.24234655 0.17452350 0.00000000
0.20122598 -0.69023585 0.00000000
0.68157870 -0.41911098 0.00000000
0.30674767 -0.29139590 0.00000000
-0.26711994 0.57887650 0.00000000
-0.23606651 0.79763490 0.00000000
-0.04784745 -0.07333865 0.00000000
0.62032801 -0.36321250 0.00000000
-0.02348703 -0.07614764 0.00000000
-0.74279523 -0.15014462 0.00000000
0.70432091 -0.40521884 0.00000000
0.69532585 -0.49126089 0.00000000
-0.77402252 -0.72547156 0.00000000
-0.74755788 0.34437260 0.00000000
-0.23728609 0.16528213 0.00000000
0.42075115 0.44989401 0.14106244
-0.36707270 -0.26545909 0.00000000
0.36778876 -0.12080105 0.00000000
0.41850519 0.42750350 0.09186968
-0.13325761 0.57571822 0.00000000
0.65151459 0.06774946 0.00000000
-0.32323933 -0.20817026 0.00000000
-0.30755749 0.66228855 0.00000000
0.02066205 0.17642047 0.00000000
0.58252990 0.05332267 0.00000000
-0.55274582 -0.68343955 0.00000000
-0.10876699 -0.60347474 0.00000000
-0.24639232 0.76414245 0.00000000
-0.38300055 0.68352014 0.00000000
-0.30043268 0.67887235 0.00000000
-0.57248974 0.31299096 0.00000000
-0.12184648 -0.69595832 0.00000000
0.18955830 -0.49707779 0.00000000
0.17916287 -0.09298144 0.00000000
-0.49856278 -0.34282699 0.00000000
0.42320231 0.22144993 0.00000000
0.38968882 -0.69701940 0.00000000
0.46255806 0.22776762 0.00000000
-0.60680300 -0.18507785 0.00000000
0.22823919 0.59474194 0.04588949
0.54223967 -0.10553574 0.00000000
0.20457685 0.22151077 0.00000000
0.39390594 -0.14141755 0.00000000
0.36207366 0.58873707 0.30113360
-0.07046835 -0.41544843 0.00000000
-0.46510223 -0.63984632 0.00000000
-0.34739950 0.09264925 0.00000000
-0.50365347 -0.60221618 0.00000000
-0.38752857 0.09799529 0.00000000
0.07875187 -0.25344652 0.00000000
0.53973544 0.34520042 0.16959740
0.01666674 -0.30365694 0.00000000
0.56107342 0.04430321 0.00000000
-0.10260947 0.30764413 0.00000000
-0.62911463 0.64507496 0.00000000
0.56980914 -0.02811135 0.00000000
0.40199089 0.48611355 0.17592424
0.39656314 -0.55145848 0.00000000
-0.74768013 0.39416283 0.00000000
0.04811946 -0.05700930 0.00000000
0.07002166 -0.46934181 0.00000000
0.27546111 -0.48516124 0.00000000
0.57407755 0.24627838 0.04064763
0.64401448 -0.21847203 0.00000000
-0.00194999 0.18668377 0.00000000
0.36616501 -0.34656531 0.00000000
-0.37783676 -0.11302379 0.00000000
-0.23022386 0.10812390 0.00000000
0.31856075 0.52989423 0.09675427
0.07087618 -0.62694931 0.00000000
-0.51451796 -0.63857019 0.00000000
-0.71686107 0.05672662 0.00000000
0.13398322 -0.35459745 0.00000000
0.00970431 -0.59560359 0.00000000
0.51274508 0.43680811 0.29862213
-0.70371318 -0.21743238 0.00000000
0.59573275 -0.76910996 0.00000000
-0.36334649 0.74271321 0.00000000
-0.29634318 0.27824056 0.00000000
-0.20526887 -0.00936030 0.00000000
-0.05123342 -0.17020793 0.00000000
-0.68557876 0.43125880 0.00000000
0.07680183 -0.66842788 0.00000000
-0.65990222 -0.70432961 0.00000000
0.01158934 -0.31964874 0.00000000
-0.46864924 -0.41603008 0.00000000
0.52980286 0.48726922 0.43344107
0.40565175 0.59305638 0.39677307
-0.59620541 0.41294724 0.00000000
-0.38297522 0.67265391 0.00000000
0.21014681 -0.33957753 0.00000000
-0.48937976 0.18081124 0.00000000
0.49057865 0.50555825 0.39163870
-0.62981528 -0.33968127 0.00000000
0.58812428 -0.70384979 0.00000000
-0.60332191 0.38845107 0.00000000
-0.34298417 0.22508843 0.00000000
0.71108478 0.16359793 0.14912444
-0.16669554 0.76248908 0.00000000
-0.79761648 0.54132879 0.00000000
0.35575914 0.49304149 0.09744446
0.04774350 -0.26085904 0.00000000
0.20514007 0.32448503 0.00000000
-0.19902639 0.75432336 0.00000000
0.74538469 -0.60760427 0.00000000
-0.26158413 -0.01422762 0.00000000
0.38691992 0.48867276 0.15094140
0.05234067 0.50853693 0.00000000
0.00830840 0.13510838 0.00000000
0.24225666 -0.68442512 0.00000000
-0.44611245 0.18804958 0.00000000
0.23724698 0.64255494 0.15934646
-0.21875741 0.20137097 0.00000000
0.53215653 0.52742648 0.51832521
0.00489114 -0.79513216 0.00000000
-0.49506590 0.54724145 0.00000000
0.08872301 -0.19565088 0.00000000
-0.47284949 0.13926882 0.00000000
0.10111027 -0.35236624 0.00000000
0.37555963 0.11314028 0.00000000
-0.39986879 -0.51135999 0.00000000
0.70274639 0.12498931 0.05538314
-0.34456363 0.10611366 0.00000000
-0.78863126 0.39704663 0.00000000
-0.47307205 -0.59504783 0.00000000
-0.79454380 0.00797569 0.00000000
-0.26330119 0.26558560 0.00000000
0.47342053 -0.19700022 0.00000000
-0.35460937 -0.37691557 0.00000000
0.20078056 0.28877756 0.00000000
0.58566374 0.32814825 0.22725566
-0.71367925 0.14646176 0.00000000
0.26107821 0.63891143 0.19965640
0.07896131 -0.71110481 0.00000000
-0.78872758 0.38280997 0.00000000
0.48117799 -0.52712643 0.00000000
-0.30232882 0.09802585 0.00000000
-0.08884991 -0.69647557 0.00000000
-0.29460564 -0.35132879 0.00000000
0.12839977 -0.69901067 0.00000000
0.44624311 0.56758708 0.42696807
0.35036725 -0.28458223 0.00000000
0.32198423 -0.67693996 0.00000000
0.48271009 -0.35366061 0.00000000
-0.08895325 -0.36311415 0.00000000
0.25557724 0.11473095 0.00000000
0.56538403 -0.42620087 0.00000000
0.08638351 -0.78786767 0.00000000
-0.73096746 -0.13168997 0.00000000
-0.03780974 -0.79841155 0.00000000
-0.66822356 -0.01870722 0.00000000
-0.57668096 0.41555378 0.00000000
0.20901027 -0.77433240 0.00000000
0.34173664 0.46427238 0.01200046
0.33838925 0.31703123 0.00000000
-0.11077663 0.71857238 0.00000000
-0.11776864 0.05079359 0.00000000
-0.44712088 -0.71404183 0.00000000
-0.08943665 0.06915412 0.00000000
-0.18353206 -0.40256509 0.00000000
0.19149785 -0.36521029 0.00000000
0.22706927 -0.43652830 0.00000000
-0.02790784 0.64383560 0.00000000
-0.53820622 0.79898179 0.00000000
-0.57246625 -0.48200276 0.00000000
-0.61266530 0.24985832 0.00000000
-0.77283043 -0.65653402 0.00000000
0.49612951 -0.64828515 0.00000000
0.29291779 -0.38038102 0.00000000
-0.79402012 0.63438332 0.00000000
-0.71197027 -0.55032498 0.00000000
0.58273232 -0.70671457 0.00000000
0.05256279 0.23629889 0.00000000
-0.09395603 -0.13882530 0.00000000
-0.41951302 -0.65638977 0.00000000
-0.25070071 0.53115213 0.00000000
-0.27605417 -0.12362273 0.00000000
0.01452730 0.02288837 0.00000000
-0.06682915 -0.34853488 0.00000000
0.02612428 0.43622443 0.00000000
0.39866889 0.51090485 0.21879309
0.27885517 -0.56765717 0.00000000
0.53275609 0.28457353 0.03460484
-0.33757675 0.30702212 0.00000000
0.59619927 -0.29802567 0.00000000
-0.49634588 -0.62372202 0.00000000
-0.58189040 -0.60023922 0.00000000
-0.49400151 0.77642322 0.00000000
0.67256808 -0.08678119 0.00000000
0.01897816 0.18255116 0.00000000
-0.62275988 -0.31491065 0.00000000
-0.06721812 0.77523524 0.00000000
0.66535705 0.23507538 0.20054014
-0.70430350 -0.38091487 0.00000000
0.14059997 0.06285085 0.00000000
-0.49994445 -0.39180550 0.00000000
0.06018247 -0.62835503 0.00000000
-0.65407783 -0.19807695 0.00000000
0.35033640 0.03305943 0.00000000
-0.60779834 -0.28533906 0.00000000
-0.43418902 0.35829207 0.00000000
-0.03697933 0.33489025 0.00000000
0.51781023 -0.35183421 0.00000000
-0.64078897 -0.47623900 0.00000000
-0.60005212 -0.78953534 0.00000000
0.35046729 0.02869386 0.00000000
-0.02532682 -0.07894548 0.00000000
0.63784766 0.02508093 0.00000000
0.10623325 0.00355400 0.00000000
0.18659075 -0.71878594 0.00000000
-0.16999748 -0.50558668 0.00000000
0.28068733 -0.32578960 0.00000000
0.64041531 0.23225407 0.14510429
0.29392162 -0.00582988 0.00000000
-0.71578944 0.53138971 0.00000000
-0.39561874 0.51601803 0.00000000
-0.74560136 -0.34382218 0.00000000
0.33451521 0.10418828 0.00000000
0.56476921 0.46565127 0.46009454
-0.05156752 -0.05104116 0.00000000
-0.47538593 -0.05952406 0.00000000
-0.34620342 -0.71291625 0.00000000
-0.22474328 -0.54176134 0.00000000
0.23922971 -0.34021401 0.00000000
-0.22409508 -0.49867368 0.00000000
-0.78127491 -0.37522134 0.00000000
-0.09791350 -0.60349232 0.00000000
0.57424515 0.38520133 0.31837648
-0.59264356 -0.15190598 0.00000000
0.15462974 -0.68755126 0.00000000
0.32707214 0.50746489 0.06896367
-0.29809824 0.46953300 0.00000000
0.74078423 -0.74004203 0.00000000
-0.28319776 0.15437268 0.00000000
0.57042915 -0.37487257 0.00000000
-0.18420482 0.29890707 0.00000000
0.58079648 -0.77960122 0.00000000
-0.19484359 -0.67310280 0.00000000
0.29859436 0.58024383 0.15742192
-0.52367264 -0.13534327 0.00000000
0.44194096 -0.65315706 0.00000000
0.06575723 0.66893357 0.00000000
-0.33680561 0.33010817 0.00000000
0.51265407 -0.73491317 0.00000000
0.29381046 -0.62823802 0.00000000
-0.61650437 -0.40158865 0.00000000
-0.74618530 0.06095980 0.00000000
-0.15246451 -0.76831436 0.00000000
0.22386409 0.66239756 0.17224512
-0.76176351 0.31037191 0.00000000
-0.13127935 0.43488991 0.00000000
-0.42412651 -0.58034664 0.00000000
-0.22865914 -0.47043177 0.00000000
0.03189098 0.77796245 0.01967681
-0.55070782 -0.52660167 0.00000000
0.47658083 -0.16863327 0.00000000
0.20165931 -0.27598590 0.00000000
0.56770998 0.25626293 0.04786977
0.45535964 -0.29534593 0.00000000
0.29410911 0.32150996 0.00000000
-0.05370891 -0.33391717 0.00000000
-0.23349456 0.78085792 0.00000000
-0.63356942 0.43424383 0.00000000
-0.67575824 -0.45437640 0.00000000
-0.30695057 -0.77784753 0.00000000
-0.06235097 -0.77089292 0.00000000
0.27196959 -0.32560995 0.00000000
0.27531752 0.30928332 0.00000000
0.43966392 -0.22547384 0.00000000
0.18716323 -0.09820694 0.00000000
0.02346523 -0.10670958 0.00000000
-0.10883585 -0.21681812 0.00000000
0.23456261 0.27214846 0.00000000
0.41509661 0.16988847 0.00000000
-0.32708368 0.45881221 0.00000000
0.14986046 0.38175076 0.00000000
-0.28460547 -0.46597067 0.00000000
-0.66775572 -0.45487145 0.00000000
-0.78395742 0.02420192 0.00000000
-0.07253298 0.16761228 0.00000000
0.16690002 -0.30696961 0.00000000
0.51730347 -0.18282174 0.00000000
-0.72975302 -0.40578100 0.00000000
0.03452218 0.52171957 0.00000000
0.54820007 -0.77473718 0.00000000
-0.26009503 -0.31681502 0.00000000
0.03073995 0.14073592 0.00000000
-0.22468291 -0.60774320 0.00000000
-0.19756888 -0.10251660 0.00000000
0.31285587 -0.41387635 0.00000000
0.31144053 0.22951397 0.00000000
-0.27158004 -0.20059636 0.00000000
0.43348122 0.56138140 0.38909444
-0.74782813 0.09110308 0.00000000
0.27859762 -0.52315581 0.00000000
-0.78934842 -0.57792675 0.00000000
0.75399768 -0.01810909 0.00000000
0.75578290 -0.48993278 0.00000000
-0.67956197 0.35086074 0.00000000
0.47222829 -0.38079980 0.00000000
-0.32283044 0.22000994 0.00000000
0.30953208 -0.20826425 0.00000000
0.47071910 0.00007241 0.00000000
-0.62385124 -0.53839052 0.00000000
-0.75604802 0.50201106 0.00000000
-0.24591327 -0.31377798 0.00000000
0.62095666 -0.19086269 0.00000000
-0.66408896 0.51426947 0.00000000
-0.21451059 0.35297933 0.00000000
0.39978331 -0.58659446 0.00000000
-0.60990870 -0.57247192 0.00000000
0.08459169 0.11165862 0.00000000
-0.79727840 -0.05978614 0.00000000
0.47167534 -0.14239837 0.00000000
-0.55241150 0.61714637 0.00000000
0.23365681 0.53924310 0.00000000
-0.64758819 0.79684711 0.00000000
0.07151930 0.09423349 0.00000000
0.12056700 0.57451791 0.00000000
-0.13348998 0.63691360 0.00000000
0.48466644 -0.77254039 0.00000000
0.31548303 0.56709063 0.16488072
0.48432603 -0.33862156 0.00000000
0.75375879 0.01739676 0.00000000
0.08889421 0.41077912 0.00000000
-0.61859798 -0.29886821 0.00000000
-0.31160894 -0.44872263 0.00000000
0.00497853 -0.00918915 0.00000000
-0.16681837 -0.28225192 0.00000000
-0.55515599 0.38814309 0.00000000
-0.72972769 -0.06378916 0.00000000
-0.40454474 -0.46300766 0.00000000
-0.45319745 0.11934083 0.00000000
-0.70777631 0.28472784 0.00000000
-0.24447294 0.34221193 0.00000000
0.13571599 -0.26429084 0.00000000
0.03111545 0.24543837 0.00000000
0.25044221 -0.77227038 0.00000000
0.00829891 -0.42311889 0.00000000
-0.16268945 0.18772465 0.00000000
0.44886172 0.38851124 0.07462633
-0.01254120 -0.41748917 0.00000000
-0.79249960 -0.73219496 0.00000000
0.28779596 -0.28212753 0.00000000
-0.79278898 -0.45022592 0.00000000
0.58349591 0.24334721 0.05360087
-0.52838796 -0.47475082 0.00000000
-0.77985120 0.77618027 0.00000000
0.10323423 -0.71429020 0.00000000
0.44051662 0.18544093 0.00000000
-0.33956492 -0.24946541 0.00000000
-0.17916743 0.50060099 0.00000000
-0.57193959 -0.09552115 0.00000000
0.61664963 0.21922705 0.07163856
0.01351415 -0.43734670 0.00000000
-0.55755615 0.65882969 0.00000000
-0.69854671 -0.33685654 0.00000000
0.31954640 -0.34770623 0.00000000
-0.21528225 0.10642047 0.00000000
0.67018306 0.00333181 0.00000000
-0.16457967 0.08180044 0.00000000
0.26820171 -0.53282785 0.00000000
-0.05761303 0.53469163 0.00000000
0.31187069 -0.76098841 0.00000000
0.31138247 -0.62328613 0.00000000
-0.07569857 0.54004228 0.00000000
0.18126070 0.10916720 0.00000000
0.76473612 -0.54906011 0.00000000
0.63537157 -0.14223252 0.00000000
-0.15056279 0.46313673 0.00000000
-0.52456564 -0.56918478 0.00000000
-0.01308111 0.03202865 0.00000000
-0.60067022 0.32522622 0.00000000
-0.65715677 -0.70116127 0.00000000
0.42406353 0.47605884 0.19992095
-0.67645115 0.14550121 0.00000000
0.14005218 0.02317586 0.00000000
-0.00514826 -0.09847479 0.00000000
0.21382739 -0.33725363 0.00000000
-0.50837368 -0.44430757 0.00000000
0.01349170 0.76355070 0.00000000
-0.54233307 0.00544199 0.00000000
0.12149200 0.38850045 0.00000000
-0.26033401 -0.75942540 0.00000000
-0.26172608 -0.65831447 0.00000000
0.45364460 -0.27144492 0.00000000
0.26997915 -0.06042189 0.00000000
-0.77047044 0.68035042 0.00000000
-0.56928599 0.44839922 0.00000000
-0.03530645 0.16262361 0.00000000
0.46693698 -0.59343064 0.00000000
0.02010858 -0.10594805 0.00000000
0.24142794 -0.65855819 0.00000000
-0.29023767 0.18522859 0.00000000
-0.29914999 0.71161354 0.00000000
-0.08002388 0.63851744 0.00000000
0.01687502 0.09542014 0.00000000
-0.00229186 0.36224911 0.00000000
0.22433472 0.63146061 0.11141109
-0.09279487 0.70856255 0.00000000
0.50233668 0.11392620 0.00000000
0.04159644 0.77063024 0.02441557
0.13877822 0.17669860 0.00000000
-0.09395211 -0.52542073 0.00000000
0.56431806 -0.28183648 0.00000000
0.01657232 -0.66094089 0.00000000
-0.77869439 -0.70562494 0.00000000
-0.17091393 0.39118314 0.00000000
0.33618769 0.43366590 0.00000000
-0.75914937 0.52186483 0.00000000
-0.04956671 -0.27901012 0.00000000
-0.31640089 -0.53567058 0.00000000
-0.19520921 0.64211118 0.00000000
-0.07256695 -0.65124679 0.00000000
0.45254403 0.52522928 0.35497111
0.74919903 -0.20592146 0.00000000
0.21005122 0.61816943 0.05635146
0.02802212 0.03301872 0.00000000
-0.70458722 0.13301481 0.00000000
0.55612808 0.33586934 0.18369754
-0.33322552 -0.76612914 0.00000000
-0.72311312 -0.60846990 0.00000000
-0.50720072 -0.06785911 0.00000000
-0.52874911 0.25554565 0.00000000
0.10832883 0.19313318 0.00000000
0.29350954 -0.25962415 0.00000000
0.52862805 -0.15926217 0.00000000
-0.28584275 -0.58326757 0.00000000
-0.45020264 0.41466483 0.00000000
-0.76069623 0.07362589 0.00000000
0.15513791 -0.16477697 0.00000000
0.59558451 -0.35949105 0.00000000
0.06435425 -0.04729036 0.00000000
0.20795529 -0.54764980 0.00000000
-0.12908012 0.71535909 0.00000000
-0.66811073 0.52934033 0.00000000
0.55339915 0.18657631 0.00000000
0.61448973 0.01014896 0.00000000
0.52870089 -0.27465546 0.00000000
0.17659238 0.22806132 0.00000000
-0.01663351 0.25832370 0.00000000
-0.77859527 0.28697574 0.00000000
-0.55192214 -0.30136603 0.00000000
0.20580134 -0.22672401 0.00000000
0.54915148 -0.78540105 0.00000000
0.35458142 0.08680132 0.00000000
0.03661235 0.71634603 0.00000000
-0.68851602 0.75027281 0.00000000
-0.16913849 -0.72163540 0.00000000
0.70393586 0.10401511 0.01587804
-0.75365579 0.63299423 0.00000000
0.58881223 0.06500134 0.00000000
-0.30394682 -0.51769871 0.00000000
-0.32712004 0.39304098 0.00000000
-0.72185463 0.62647086 0.00000000
-0.48776296 -0.75724834 0.00000000
0.27285996 0.58828485 0.12209267
0.12966289 0.48481691 0.00000000
-0.07816319 0.43150482 0.00000000
0.25210986 0.39948016 0.00000000
-0.58211130 0.19574188 0.00000000
-0.16883600 0.76215386 0.00000000
-0.41012499 0.50842071 0.00000000
-0.76216233 -0.00541394 0.00000000
-0.17414317 0.04673154 0.00000000
0.76201522 -0.51702780 0.00000000
-0.02587082 0.28668731 0.00000000
-0.48295483 -0.21113068 0.00000000
-0.06915028 -0.31638944 0.00000000
0.04348443 -0.61050379 0.00000000
-0.19637148 -0.50501662 0.00000000
0.65392292 -0.42373937 0.00000000
0.23378785 0.00274240 0.00000000
0.18523344 -0.11990632 0.00000000
0.18840966 0.37904084 0.00000000
0.57206351 -0.67958516 0.00000000
-0.06876048 0.54072732 0.00000000
-0.45943278 -0.34265596 0.00000000
-0.20144087 0.71089858 0.00000000
-0.12386110 -0.71467912 0.00000000
0.44716990 -0.58857673 0.00000000
0.03190861 0.55534208 0.00000000
-0.62065393 -0.38584214 0.00000000
0.43293026 0.02587203 0.00000000
0.02806335 -0.16470465 0.00000000
0.59240079 -0.26105610 0.00000000
-0.65894932 -0.01685587 0.00000000
-0.67276680 0.39194852 0.00000000
-0.53098547 0.27381524 0.00000000
-0.79775363 -0.76763344 0.00000000
-0.04557544 -0.75244355 0.00000000
0.36436090 -0.43208298 0.00000000
0.60651118 -0.12018643 0.00000000
0.42684683 0.22481389 0.00000000
-0.12466301 0.30651945 0.00000000
-0.21352890 -0.04169740 0.00000000
-0.69832575 -0.61303514 0.00000000
0.47486535 -0.27130991 0.00000000
-0.05364943 0.04037639 0.00000000
-0.65431321 -0.49716702 0.00000000
0.66129529 -0.39237869 0.00000000
-0.36729351 0.34177005 0.00000000
-0.34501675 -0.70277733 0.00000000
0.36637625 0.50076127 0.13405856
0.23464395 0.36587006 0.00000000
-0.38232890 -0.40263304 0.00000000
-0.20672125 -0.37477818 0.00000000
0.38835990 -0.06151569 0.00000000
-0.49599075 -0.17568187 0.00000000
-0.67200845 0.35802391 0.00000000
-0.77433777 -0.41694263 0.00000000
0.56868953 -0.00030269 0.00000000
-0.26712263 -0.58841735 0.00000000
0.05399657 -0.29527879 0.00000000
0.63015360 -0.18734869 0.00000000
-0.02963484 -0.29862580 0.00000000
0.31035420 -0.10738055 0.00000000
0.01273731 0.20023003 0.00000000
-0.51407176 0.66920215 0.00000000
-0.56757319 0.17751987 0.00000000
0.11497556 -0.30578923 0.00000000
0.09436010 0.60073632 0.00000000
-0.68349445 0.36186206 0.00000000
0.31637922 0.54771870 0.12798929
0.04415349 0.67210287 0.00000000
0.71230918 -0.78644931 0.00000000
0.02060065 0.18205416 0.00000000
0.73095679 -0.12241920 0.00000000
0.18880919 0.36036527 0.00000000
-0.47026029 -0.71038157 0.00000000
-0.10566574 0.37910649 0.00000000
-0.36878300 -0.06608765 0.00000000
0.33231875 0.58887666 0.24199907
0.03634420 -0.07376847 0.00000000
0.62929010 -0.53628862 0.00000000
-0.03613142 0.56413919 0.00000000
-0.32921454 -0.65424883 0.00000000
-0.02387367 0.57154542 0.00000000
-0.61489338 -0.38162059 0.00000000
-0.65640891 -0.33194238 0.00000000
0.60720229 0.20188516 0.01814734
0.45610762 -0.50043452 0.00000000
-0.64850247 0.69135994 0.00000000
0.63347298 0.27042761 0.20746513
-0.36851034 -0.07804626 0.00000000
-0.74627215 -0.35912821 0.00000000
-0.42512330 -0.53833497 0.00000000
-0.45081368 -0.48771599 0.00000000
0.75897402 -0.42553502 0.00000000
0.27634642 0.29485947 0.00000000
0.10332481 0.68572325 0.00000000
-0.30487379 -0.02704762 0.00000000
-0.46958461 -0.13388716 0.00000000
0.58226722 -0.20670779 0.00000000
-0.77071196 -0.77740759 0.00000000
-0.37715060 0.66694111 0.00000000
0.08306207 0.51180106 0.00000000
-0.13423236 -0.66333383 0.00000000
0.54038346 -0.38114414 0.00000000
0.39237237 0.42389241 0.03247862
-0.36952513 -0.79854000 0.00000000
-0.65594947 -0.06372801 0.00000000
0.77620935 -0.62156463 0.00000000
-0.63851237 0.17542011 0.00000000
0.10218736 0.34327173 0.00000000
0.58590674 0.35996008 0.29126111
0.17376173 0.35156164 0.00000000
-0.11208876 -0.69774747 0.00000000
-0.10128358 0.12037253 0.00000000
-0.54497176 0.39537027 0.00000000
-0.45938313 0.77772272 0.00000000
0.16617224 -0.50282824 0.00000000
-0.07264829 0.13144104 0.00000000
0.73335654 -0.61376113 0.00000000
-0.45235729 0.30939648 0.00000000
0.27147618 -0.79176915 0.00000000
0.25692064 -0.77584291 0.00000000
0.13101333 -0.62153423 0.00000000
0.26849881 0.30846599 0.00000000
0.35795107 -0.64501637 0.00000000
0.60309917 -0.47718632 0.00000000
0.58941674 0.15883268 0.00000000
-0.42174745 0.65114313 0.00000000
-0.65739846 0.58644587 0.00000000
0.29289082 0.00912298 0.00000000
0.52067626 0.38147846 0.20397909
0.72746509 0.10457090 0.06396978
0.51511616 -0.37121344 0.00000000
-0.05740017 0.65100163 0.00000000
-0.36564419 0.68150008 0.00000000
-0.29764539 0.15300651 0.00000000
-0.48017511 0.51023847 0.00000000
-0.34669971 -0.15014574 0.00000000
-0.43401098 0.76966023 0.00000000
-0.45206201 0.11290799 0.00000000
-0.40892723 0.23970953 0.00000000
0.07909240 0.03717850 0.00000000
0.53546780 -0.31558841 0.00000000
-0.68864501 -0.66832834 0.00000000
-0.75206202 -0.50571376 0.00000000
0.54034770 -0.48862207 0.00000000
0.21845479 0.67913407 0.19486277
0.77765828 -0.72649413 0.00000000
0.51865864 0.38298264 0.20295386
-0.13144840 -0.11483568 0.00000000
-0.51110601 -0.32596451 0.00000000
0.34186369 0.40001354 0.00000000
-0.05809014 -0.30932036 0.00000000
-0.24678326 0.11424859 0.00000000
0.68593651 -0.41691613 0.00000000
-0.10648140 -0.42748243 0.00000000
-0.77917522 0.22076765 0.00000000
0.64996892 -0.54663247 0.00000000
0.76290804 -0.03301574 0.00000000
-0.14007275 0.49982038 0.00000000
0.54806131 -0.41578078 0.00000000
-0.09083945 0.25336254 0.00000000
-0.41813546 -0.32280529 0.00000000
-0.51785183 -0.01079626 0.00000000
-0.58237749 0.16703498 0.00000000
-0.77087587 0.43713397 0.00000000
-0.26818773 0.16050199 0.00000000
0.60533029 -0.20409079 0.00000000
0.76675242 -0.36806521 0.00000000
0.20156147 0.49041089 0.00000000
0.12797090 0.25908184 0.00000000
-0.45441493 -0.29630727 0.00000000
-0.52729434 0.54391503 0.00000000
-0.02968829 -0.73846060 0.00000000
-0.27291691 0.47090673 0.00000000
0.07878126 0.22293043 0.00000000
0.13527089 0.49351883 0.00000000
-0.59591556 -0.30383834 0.00000000
-0.74176443 0.44783896 0.00000000
-0.60161787 -0.56923801 0.00000000
-0.53032720 0.63657695 0.00000000
0.24807592 0.38097411 0.00000000
0.69749844 -0.32398722 0.00000000
0.48263049 0.44404051 0.25293198
0.71975249 -0.19762591 0.00000000
0.32578957 0.62397695 0.29904872
-0.77716559 0.59953707 0.00000000
-0.66598994 0.59148777 0.00000000
0.65356058 -0.36098135 0.00000000
-0.76990873 0.65469807 0.00000000
0.08964056 0.67344296 0.00000000
-0.31263509 0.76708126 0.00000000
0.68148869 -0.17416626 0.00000000
-0.79279852 -0.48442781 0.00000000
-0.53193915 0.39990175 0.00000000
-0.16319495 0.61846370 0.00000000
-0.59651232 0.39093664 0.00000000
-0.28105199 -0.70936483 0.00000000
-0.49699563 -0.78441483 0.00000000
0.56236315 -0.46540031 0.00000000
-0.10826964 -0.13311061 0.00000000
0.35984421 -0.01814572 0.00000000
-0.09792110 0.08064384 0.00000000
0.08268536 0.49445611 0.00000000
0.39526275 -0.42833227 0.00000000
-0.47257495 0.29964951 0.00000000
0.28043941 0.31935313 0.00000000
-0.34925601 -0.48399436 0.00000000
-0.33413932 0.72657835 0.00000000
-0.56953865 0.70804662 0.00000000
0.06484876 -0.15746456 0.00000000
-0.34215561 0.36539054 0.00000000
0.20462565 0.48716396 0.00000000
-0.01043013 -0.78774345 0.00000000
-0.62730986 0.59975541 0.00000000
0.39491391 -0.43277547 0.00000000
0.71176499 0.00930919 0.00000000
-0.59503955 -0.06196327 0.00000000
0.30221972 0.59597838 0.19607905
0.38196734 0.47055739 0.10488056
-0.19370337 -0.56161588 0.00000000
-0.24438392 0.37980402 0.00000000
-0.17914329 -0.68226141 0.00000000
-0.16171631 -0.01718844 0.00000000
-0.37668639 -0.20131636 0.00000000
-0.18339770 -0.30978116 0.00000000
0.75883156 -0.06675126 0.00000000
-0.49420235 0.31169215 0.00000000
-0.67940593 0.03277881 0.00000000
0.10966910 0.74397999 0.10712599
0.69238591 0.13386999 0.05242832
-0.46646371 0.41337293 0.00000000
-0.60875195 -0.41333532 0.00000000
0.62857497 0.19960193 0.05626407
0.32030863 0.62476403 0.28967619
-0.48547536 -0.23063760 0.00000000
0.14264677 0.14867859 0.00000000
-0.24809822 -0.21787357 0.00000000
0.60180426 -0.25309166 0.00000000
-0.29312068 0.76748341 0.00000000
0.24261534 -0.25744820 0.00000000
-0.68207777 0.39463064 0.00000000
0.48986650 0.34506404 0.06974937
0.46604791 -0.03408577 0.00000000
-0.34961513 -0.23826636 0.00000000
-0.66561830 -0.65104538 0.00000000
0.65802306 -0.41676211 0.00000000
-0.19209339 -0.02724270 0.00000000
0.46306527 -0.20739850 0.00000000
0.37032095 -0.74721944 0.00000000
-0.16099057 -0.31643677 0.00000000
-0.07610970 -0.47418290 0.00000000
-0.50779706 0.42254949 0.00000000
-0.63964891 0.70679021 0.00000000
0.03727211 -0.68969852 0.00000000
-0.75171375 -0.33796206 0.00000000
-0.21612629 0.74785751 0.00000000
-0.02642611 0.17110191 0.00000000
0.58518857 -0.15050770 0.00000000
0.38957551 0.55572498 0.29013094
-0.54356617 -0.51420230 0.00000000
-0.70449960 0.03122120 0.00000000
0.78010184 -0.55775702 0.00000000
0.52808905 -0.09204901 0.00000000
-0.39901733 0.37566224 0.00000000
0.78556329 -0.38647884 0.00000000
0.42549160 0.50313735 0.25684175
-0.01874868 0.21795598 0.00000000
-0.72381836 0.40288520 0.00000000
0.10977908 0.57510835 0.00000000
-0.73927838 -0.03025904 0.00000000
-0.19108158 -0.47312632 0.00000000
-0.21669832 0.62629020 0.00000000
-0.76343530 -0.49629876 0.00000000
-0.01887070 0.50859785 0.00000000
-0.67630166 0.28683901 0.00000000
-0.23364335 0.27483726 0.00000000
-0.29048347 0.17064376 0.00000000
-0.32131901 0.69220006 0.00000000
0.38883939 0.58392906 0.34497789
-0.39546096 0.58453459 0.00000000
-0.74801302 -0.28978190 0.00000000
0.07070244 0.62505728 0.00000000
0.50186354 -0.32035726 0.00000000
0.56430078 -0.34640139 0.00000000
-0.12474545 -0.53359902 0.00000000
0.04337035 -0.01358753 0.00000000
0.75829411 -0.07291733 0.00000000
0.05216287 0.60556239 0.00000000
0.63007545 -0.25140697 0.00000000
-0.64890593 -0.42222929 0.00000000
0.64643818 -0.31744060 0.00000000
-0.33467782 -0.19892921 0.00000000
-0.50610542 0.41192484 0.00000000
-0.50373697 -0.06170861 0.00000000
0.06077392 0.33898956 0.00000000
-0.13034567 0.23947193 0.00000000
0.07573231 -0.11971623 0.00000000
-0.22347640 0.63648403 0.00000000
0.27798912 -0.21594170 0.00000000
0.22747062 -0.28158811 0.00000000
0.17580006 0.19841634 0.00000000
0.28474027 0.08848329 0.00000000
-0.00796213 0.20585689 0.00000000
0.25433114 0.06951972 0.00000000
-0.69026905 0.19769096 0.00000000
-0.60293829 0.07990013 0.00000000
-0.75984186 0.34123752 0.00000000
-0.62100601 -0.29523313 0.00000000
0.21438220 -0.01547897 0.00000000
-0.54334897 -0.42125875 0.00000000
-0.48527718 0.57884318 0.00000000
-0.02532159 0.63889790 0.00000000
-0.41026419 0.54681802 0.00000000
0.47814193 0.09616806 0.00000000
0.29356140 0.38043720 0.00000000
-0.68426359 0.13837282 0.00000000
0.42284742 -0.37775338 0.00000000
-0.52935070 -0.13862610 0.00000000
-0.29440665 -0.26403746 0.00000000
-0.75014663 -0.50360763 0.00000000
0.12623283 -0.63698685 0.00000000
0.25488481 0.33746988 0.00000000
-0.74227208 0.13990043 0.00000000
-0.23843354 0.51316029 0.00000000
-0.77835160 -0.75294018 0.00000000
-0.29330191 0.25248861 0.00000000
0.52780670 -0.48197046 0.00000000
0.10367970 0.70220506 0.01175235
-0.71607137 0.10347802 0.00000000
0.24016456 0.39460614 0.00000000
-0.61291212 0.25863177 0.00000000
-0.09393855 -0.76635176 0.00000000
-0.45593980 -0.44776574 0.00000000
-0.78585684 0.42742011 0.00000000
-0.46813187 -0.23885886 0.00000000
-0.23148680 -0.16011924 0.00000000
-0.07481282 0.31653219 0.00000000
0.13002090 -0.41795003 0.00000000
-0.04212729 0.49661332 0.00000000
0.12328890 0.55786383 0.00000000
0.67143428 -0.43113267 0.00000000
-0.74204755 -0.02620947 0.00000000
0.37606600 -0.33049923 0.00000000
0.65545487 0.15799849 0.02686497
0.04737346 0.26048964 0.00000000
0.28178024 0.45371965 0.00000000
-0.36569059 -0.64198667 0.00000000
0.08500707 0.12638827 0.00000000
0.71925378 -0.37087077 0.00000000
0.17778572 -0.11484454 0.00000000
0.54586393 0.50677252 0.50445455
0.24885666 0.22694810 0.00000000
-0.14448582 -0.08173816 0.00000000
0.74343514 -0.55670732 0.00000000
-0.24788776 -0.50660312 0.00000000
-0.26901132 0.78732264 0.00000000
-0.43682849 0.27583361 0.00000000
0.08443159 -0.72380126 0.00000000
-0.48688206 -0.22224016 0.00000000
-0.34660083 0.35916919 0.00000000
-0.26497117 -0.52794439 0.00000000
-0.73793435 -0.62690330 0.00000000
0.03689271 0.76199520 0.00000000
0.19217488 0.68320137 0.15050967
0.58370346 -0.77749223 0.00000000
-0.66243464 -0.54422826 0.00000000
-0.46602148 -0.19807673 0.00000000
-0.68808514 -0.52824205 0.00000000
-0.18540025 -0.07995655 0.00000000
-0.04661402 -0.10093304 0.00000000
-0.59738618 0.72952700 0.00000000
0.26678753 -0.17521591 0.00000000
-0.26019928 -0.28158855 0.00000000
-0.29795656 0.30050692 0.00000000
0.62099516 -0.09085068 0.00000000
-0.29812905 0.70407832 0.00000000
-0.29293671 0.01736379 0.00000000
0.69861990 0.14015147 0.07741862
-0.55717683 0.53094798 0.00000000
0.56816435 0.21882495 0.00000000
-0.56129289 0.47793806 0.00000000
-0.37436503 0.32036501 0.00000000
-0.04667397 0.56116533 0.00000000
0.58635914 0.33431372 0.24095511
0.09337653 -0.06583883 0.00000000
-0.54118657 0.29505542 0.00000000
0.05520010 -0.44097492 0.00000000
0.21735676 -0.09604714 0.00000000
-0.76858103 -0.26196656 0.00000000
-0.78805923 0.52952236 0.00000000
-0.59280443 0.17872195 0.00000000
0.48142681 0.25017488 0.00000000
0.36220282 -0.22711349 0.00000000
-0.44205657 0.59363329 0.00000000
-0.25987446 0.53760386 0.00000000
0.39825642 0.26258755 0.00000000
-0.22022142 0.43657726 0.00000000
-0.70880520 0.13674974 0.00000000
0.19900966 -0.76150334 0.00000000
0.42305267 -0.04013300 0.00000000
-0.55848306 -0.11875727 0.00000000
0.24199159 -0.44261092 0.00000000
-0.45373139 0.33115610 0.00000000
0.22742100 -0.58520246 0.00000000
0.54147220 -0.36236525 0.00000000
-0.13064538 0.73338717 0.00000000
0.72432089 -0.18154711 0.00000000
-0.00355452 -0.01050150 0.00000000
0.07445130 0.75470757 0.05822497
0.10926798 0.59292954 0.00000000
-0.11077013 0.39799365 0.00000000
-0.69943696 -0.64322466 0.00000000
-0.78940213 -0.24842438 0.00000000
-0.43326074 0.63156676 0.00000000
0.04176830 0.31082770 0.00000000
-0.16051389 0.41406223 0.00000000
0.44501844 0.46164179 0.21297547
-0.35741803 -0.50518119 0.00000000
0.30554754 0.32507789 0.00000000
-0.35787624 -0.64359093 0.00000000
-0.76165861 -0.67568946 0.00000000
-0.48992223 -0.10455198 0.00000000
-0.43963212 0.58480066 0.00000000
-0.59843779 0.61982739 0.00000000
-0.40179107 -0.27162713 0.00000000
-0.51328641 -0.21152860 0.00000000
0.44800997 -0.31018531 0.00000000
-0.29674739 0.30805025 0.00000000
-0.38403055 0.59699321 0.00000000
0.71164060 0.01490919 0.00000000
-0.43642607 -0.07905759 0.00000000
-0.30374423 -0.10379621 0.00000000
-0.44597083 -0.51747715 0.00000000
0.31749347 0.27496880 0.00000000
0.71748823 -0.44014037 0.00000000
0.18844433 -0.15448093 0.00000000
-0.01018339 0.35503820 0.00000000
0.31010035 0.60114521 0.22213161
-0.09876161 0.77634346 0.00000000
0.45698798 0.08422620 0.00000000
-0.31735170 0.16670597 0.00000000
-0.70332754 -0.26817834 0.00000000
-0.66857231 0.02310743 0.00000000
0.06173731 0.00195093 0.00000000
-0.11986415 0.30230489 0.00000000
-0.25693020 0.14931823 0.00000000
0.79269499 -0.53870714 0.00000000
-0.33496010 -0.63397598 0.00000000
0.30436024 0.01902099 0.00000000
-0.70731860 -0.32007805 0.00000000
-0.34417960 -0.13995372 0.00000000
0.68173182 -0.36887470 0.00000000
-0.01646291 0.01086705 0.00000000
0.04854367 0.32054749 0.00000000
0.40681669 -0.13014089 0.00000000
0.42544055 -0.55824530 0.00000000
0.33842105 0.19597527 0.00000000
-0.40438610 0.71784610 0.00000000
0.49277854 0.32263726 0.03078343
0.61447388 -0.18419462 0.00000000
0.06616756 0.60954571 0.00000000
0.59166026 0.37559995 0.33397856
0.69141901 0.20216745 0.18687040
-0.08422674 0.36158350 0.00000000
-0.12573525 0.45861733 0.00000000
-0.13420781 0.31632262 0.00000000
0.19398336 0.41757315 0.00000000
0.23690666 0.01233124 0.00000000
0.23207173 0.59737456 0.05879878
0.54908329 -0.06370870 0.00000000
0.34297845 0.05131507 0.00000000
-0.05551449 0.62395555 0.00000000
0.42950210 -0.05389494 0.00000000
-0.11982087 0.30126736 0.00000000
-0.61085957 0.48493376 0.00000000
0.44557893 -0.72580397 0.00000000
-0.30331138 0.01354863 0.00000000
0.40662512 0.39276215 0.00000000
0.08272088 0.66142535 0.00000000
0.26476130 0.55061972 0.03071398
-0.54842430 -0.15679008 0.00000000
-0.49408308 0.67491901 0.00000000
0.34510326 -0.71490890 0.00000000
0.62799346 -0.33236772 0.00000000
-0.30432457 -0.55217874 0.00000000
-0.01938551 0.57167584 0.00000000
0.57500702 0.15523806 0.00000000
-0.45948565 0.14689571 0.00000000
-0.24500450 -0.09034600 0.00000000
-0.62423408 0.18043822 0.00000000
0.15539275 -0.37706220 0.00000000
-0.44010058 0.37772658 0.00000000
0.00760115 -0.67771274 0.00000000
0.19336049 0.44468665 0.00000000
0.16642629 -0.37150112 0.00000000
-0.15142244 0.19628236 0.00000000
-0.36032072 -0.71650666 0.00000000
-0.16739157 0.09636794 0.00000000
-0.42021471 0.30681264 0.00000000
0.39219281 -0.57837498 0.00000000
0.01012866 -0.14911722 0.00000000
0.54273146 0.33710980 0.15942472
-0.43996143 -0.68296641 0.00000000
-0.78472441 -0.29534352 0.00000000
0.01351831 0.49321088 0.00000000
-0.09100812 -0.20310725 0.00000000
-0.66059595 -0.38907677 0.00000000
0.22584271 0.67793649 0.20722345
-0.06498440 0.29391026 0.00000000
0.39655209 -0.78016651 0.00000000
0.71532983 -0.10022727 0.00000000
0.67275393 -0.42041045 0.00000000
-0.28603667 -0.57121497 0.00000000
-0.21573506 -0.10288127 0.00000000
0.08074949 -0.46451303 0.00000000
-0.14707287 0.00488164 0.00000000
-0.49146923 -0.62170368 0.00000000
-0.23127878 -0.27287915 0.00000000
-0.23703377 -0.28503606 0.00000000
-0.35313052 -0.33283213 0.00000000
-0.36997661 0.51965278 0.00000000
-0.08586782 0.52371192 0.00000000
-0.47653949 -0.12615258 0.00000000
0.45060360 -0.07590531 0.00000000
0.61426985 0.25898743 0.14627822
0.06026698 0.12660672 0.00000000
-0.65787852 -0.09561508 0.00000000
-0.62886727 -0.53672045 0.00000000
0.46219206 -0.09471060 0.00000000
-0.43922028 -0.53068149 0.00000000
0.45504534 0.36453402 0.03909696
-0.67381459 0.20979157 0.00000000
0.59102106 0.30418959 0.19011356
0.54605383 -0.75829554 0.00000000
0.05531918 0.22271834 0.00000000
-0.54518038 0.14725970 0.00000000
0.72520292 0.09677939 0.04389511
0.07950531 -0.47231862 0.00000000
-0.45235682 0.33211082 0.00000000
-0.76538724 -0.49410814 0.00000000
-0.27082393 -0.51798415 0.00000000
-0.41779160 -0.29496008 0.00000000
-0.40788835 -0.02571825 0.00000000
-0.54525077 0.31327280 0.00000000
-0.63872713 -0.64063424 0.00000000
-0.79196507 -0.68129307 0.00000000
0.65767848 -0.16754980 0.00000000
0.18845379 0.23106752 0.00000000
-0.05918865 -0.54708487 0.00000000
-0.10038628 -0.16305791 0.00000000
0.68741548 -0.62539184 0.00000000
-0.11751994 -0.53915805 0.00000000
0.28034684 -0.39071956 0.00000000
0.10397881 -0.40075287 0.00000000
0.38867605 0.10549631 0.00000000
-0.62632883 0.25359547 0.00000000
0.38784045 0.45380285 0.08315309
-0.44298103 -0.60556817 0.00000000
0.74901336 -0.77211827 0.00000000
0.68174881 -0.66505486 0.00000000
0.19084600 -0.15290242 0.00000000
-0.31088081 0.55201441 0.00000000
0.51975906 0.44513074 0.32924566
0.56955725 -0.63883376 0.00000000
-0.11469569 0.21985842 0.00000000
0.03109555 0.63908529 0.00000000
0.35207564 -0.15800048 0.00000000
0.50245941 -0.10878938 0.00000000
-0.18357447 -0.07644347 0.00000000
0.63216722 -0.73124617 0.00000000
0.66964692 -0.20632406 0.00000000
-0.57761121 0.35280505 0.00000000
-0.45065957 -0.71313828 0.00000000
-0.31126508 0.67146236 0.00000000
0.34387979 0.52124131 0.13003230
-0.32699808 -0.24869613 0.00000000
-0.46108758 0.79796261 0.00000000
-0.70228612 -0.67594814 0.00000000
-0.54477596 -0.17981490 0.00000000
0.20291154 -0.03200161 0.00000000
-0.23426323 0.31314147 0.00000000
0.13975409 0.64687979 0.00000000
-0.02077942 -0.72776079 0.00000000
0.77970791 -0.01123757 0.00000000
-0.41461578 0.58493501 0.00000000
0.26741245 -0.15781181 0.00000000
0.53291416 -0.55572653 0.00000000
-0.74218273 0.22087774 0.00000000
0.15236485 0.16711402 0.00000000
-0.48615503 -0.62204236 0.00000000
0.36918527 -0.04082456 0.00000000
0.48964462 0.04209347 0.00000000
0.44251612 -0.79534948 0.00000000
-0.34959570 0.79533809 0.00000000
0.56918347 0.38438612 0.30664176
-0.24226139 -0.56365520 0.00000000
-0.17092007 0.03809390 0.00000000
-0.65113229 -0.18555015 0.00000000
0.24439631 0.66459602 0.21763270
-0.49007100 0.57661521 0.00000000
0.22668199 0.60613960 0.06553839
0.53904647 0.36136112 0.20049052
0.34976241 0.55826682 0.21570931
0.46883866 -0.53331089 0.00000000
-0.19001201 -0.68605483 0.00000000
0.30573741 -0.39065734 0.00000000
0.05037358 0.09244839 0.00000000
-0.58239740 0.09987906 0.00000000
-0.05078655 -0.05228439 0.00000000
0.12560087 -0.25442237 0.00000000
-0.26858637 -0.32057199 0.00000000
0.01337359 -0.62759322 0.00000000
0.06389777 0.16351780 0.00000000
-0.00501356 -0.48216841 0.00000000
-0.14511660 -0.01113010 0.00000000
0.30216852 0.34286687 0.00000000
-0.12046071 0.09796301 0.00000000
-0.46280125 0.67803156 0.00000000
-0.49453166 0.06770411 0.00000000
0.31619883 -0.26981631 0.00000000
-0.65927672 0.26151210 0.00000000
-0.00649163 0.19671550 0.00000000
-0.36275715 -0.05221752 0.00000000
-0.02022190 -0.59682012 0.00000000
-0.63594395 0.18402541 0.00000000
-0.44618925 0.65095085 0.00000000
-0.04653787 0.33808118 0.00000000
0.48915818 -0.19637556 0.00000000
0.03297231 0.76875579 0.00345255
-0.23865177 -0.62445247 0.00000000
0.04408124 0.67041898 0.00000000
0.34902155 0.57127708 0.24020837
-0.01488241 -0.70888776 0.00000000
0.22770362 0.52870941 0.00000000
-0.26699209 -0.73911327 0.00000000
-0.14106859 0.41687101 0.00000000
-0.26194593 0.37052602 0.00000000
0.02527013 0.05533766 0.00000000
-0.61862010 -0.24938311 0.00000000
0.25529805 -0.35321790 0.00000000
0.68543583 -0.74086505 0.00000000
0.46217090 0.39527559 0.11470805
-0.04256346 -0.46833795 0.00000000
0.45651636 -0.04692186 0.00000000
0.62646198 0.30821946 0.26892668
-0.13828892 0.35940680 0.00000000
-0.70802486 0.67288619 0.00000000
-0.48111182 0.57725626 0.00000000
-0.65112442 0.05635152 0.00000000
-0.58479279 0.27182004 0.00000000
0.47185653 -0.52559555 0.00000000
-0.56524831 0.16126239 0.00000000
-0.75062346 0.27855447 0.00000000
-0.65174454 0.02731233 0.00000000
-0.63054669 -0.20638421 0.00000000
