ply
format ascii 1.0
element vertex 1392
property float x
property float y
property float z
end_header
-0.65686882 -0.76689875 0.00000000
0.33748424 -0.61789638 0.00000000
0.61368012 -0.26856402 -0.00000073
-0.77516127 -0.33177269 0.00000000
-0.72721076 -0.31544465 0.00000000
0.07296503 0.11334824 0.00000000
-0.48203596 -0.03569993 0.00000000
-0.30757824 0.03658183 0.00000000
-0.78464198 -0.34213340 0.00000000
0.47142950 -0.08917748 -0.00000044
0.33740404 -0.59294730 0.00000000
-0.50138479 -0.64730948 0.00000000
0.26621786 -0.08706947 0.00000000
-0.34021792 0.11977716 0.00000000
0.21869083 -0.66286844 0.00000000
0.16501626 -0.19296280 0.00000000
0.64669472 -0.08228416 -0.00000120
0.42697963 -0.77899301 0.00000000
-0.73179215 -0.05701647 0.00000000
-0.31128392 -0.22360583 0.00000000
0.36848187 -0.69416440 0.00000000
0.57817346 -0.23517820 -0.00000064
-0.52170426 -0.27494246 0.00000000
-0.46961722 0.19519500 0.00000000
-0.69922709 0.03560287 0.00000000
-0.32795045 -0.40767154 0.00000000
0.62834132 -0.21983744 -0.00000088
-0.19921166 -0.29788497 0.00000000
0.35438001 -0.42401451 0.00000000
0.06800092 0.49736297 0.00000000
0.29540175 -0.48319700 0.00000000
0.03454941 0.49730244 0.00000000
-0.71731126 -0.63700855 0.00000000
-0.01632507 0.59270400 0.00000000
0.28240275 -0.21994703 0.00000000
-0.52337241 -0.31478158 0.00000000
0.43861946 -0.78369927 0.00000000
-0.42852166 0.31061509 0.00000000
-0.42142090 -0.06215028 0.00000000
0.44126230 0.11620557 -0.00000067
-0.75116438 -0.64641690 0.00000000
0.27103978 -0.79685909 0.00000000
0.01653264 -0.53104001 0.00000000
-0.21747053 -0.48681608 0.00000000
-0.69781631 -0.70627618 0.00000000
0.26709670 -0.67539704 0.00000000
0.06749303 0.48897311 0.00000000
0.08008819 -0.33881310 0.00000000
-0.55282265 0.17203949 0.00000000
-0.00847359 0.09679298 0.00000000
-0.03254067 0.40312371 0.00000000
0.06641247 0.70361304 -0.00000011
-0.70510173 -0.26350814 0.00000000
0.03865078 -0.24444810 0.00000000
-0.30434862 -0.67685896 0.00000000
0.03165495 0.73000270 -0.00000001
0.24091449 -0.79580110 0.00000000
-0.48353800 -0.77333248 0.00000000
-0.19700029 0.05082948 0.00000000
0.51438510 -0.62105566 0.00000000
-0.04274508 0.40817246 0.00000000
0.70521635 -0.24952106 -0.00000115
-0.10062071 -0.73320520 0.00000000
0.02259927 -0.58982402 0.00000000
0.77849758 -0.28377041 -0.00000129
0.67234296 -0.09355932 -0.00000129
0.66975582 -0.03222759 -0.00000139
0.57898206 -0.74620146 0.00000000
-0.03600624 -0.53203529 0.00000000
0.50447196 -0.09248237 -0.00000058
-0.14079227 0.11340756 0.00000000
-0.39630023 -0.08814370 0.00000000
0.41095960 -0.09114410 -0.00000018
0.57478929 -0.22415157 -0.00000064
0.32291099 -0.29608098 0.00000000
0.11021278 -0.12043771 0.00000000
-0.56810325 -0.43693835 0.00000000
-0.12791201 0.40053421 0.00000000
0.40589723 -0.22647157 0.00000000
0.04954826 -0.32802889 0.00000000
0.45973521 -0.25913820 -0.00000009
0.44109899 -0.35247126 0.00000000
0.45989290 -0.67675269 0.00000000
0.68209511 -0.51273644 -0.00000059
0.35461938 0.34785077 -0.00000071
0.16280091 -0.57155877 0.00000000
-0.59037423 -0.43087333 0.00000000
-0.33803749 -0.52169091 0.00000000
0.51299685 -0.32855013 -0.00000019
-0.34939772 0.03464183 0.00000000
0.51516390 0.14984705 -0.00000105
-0.38412115 -0.07293499 0.00000000
-0.51264793 -0.05880778 0.00000000
-0.23586413 -0.43350589 0.00000000
0.59660393 -0.55497426 -0.00000015
-0.17407884 0.47739959 0.00000000
0.40561664 0.26161280 -0.00000078
0.04295661 0.08648422 0.00000000
0.39589080 0.39119175 -0.00000097
0.33396181 -0.15876222 0.00000000
-0.09384105 -0.01908307 0.00000000
-0.19601265 -0.66018319 0.00000000
-0.16743913 -0.38593578 0.00000000
-0.69028032 -0.32061902 0.00000000
-0.68395013 -0.70365697 0.00000000
0.59168845 -0.16368818 -0.00000082
-0.46401340 -0.36182767 0.00000000
-0.25346780 0.39216796 0.00000000
-0.04446079 0.52383852 0.00000000
-0.25344843 -0.64976168 0.00000000
-0.03450162 0.64461797 0.00000000
-0.23193957 -0.58528489 0.00000000
-0.49585813 -0.72450733 0.00000000
0.08174572 0.53076386 0.00000000
-0.21488625 0.44740745 0.00000000
0.63890469 -0.39988661 -0.00000061
-0.37510788 0.08459530 0.00000000
-0.50473660 -0.14776538 0.00000000
0.10959177 0.24496888 0.00000000
-0.01056616 0.18033797 0.00000000
0.09539807 -0.10011265 0.00000000
-0.07486924 -0.75653243 0.00000000
-0.33154541 -0.65695339 0.00000000
0.01879596 0.01175855 0.00000000
0.15187597 0.05061262 0.00000000
-0.79793221 -0.23270726 0.00000000
-0.27183324 -0.24070282 0.00000000
-0.17474322 -0.60274106 0.00000000
-0.23105343 0.56834716 0.00000000
0.77914113 -0.10023289 -0.00000173
0.03954800 0.40461588 0.00000000
0.66454422 -0.63924581 -0.00000029
0.10043455 -0.66583216 0.00000000
-0.33226728 0.17613311 0.00000000
-0.44920200 -0.56341827 0.00000000
0.53549844 0.05346362 -0.00000097
0.17594133 0.31924662 0.00000000
-0.43374807 -0.01832488 0.00000000
0.45041370 0.02644861 -0.00000055
0.07337167 -0.74570531 0.00000000
-0.42522731 -0.41010991 0.00000000
0.64903647 0.08168896 -0.00000150
-0.73963827 -0.29459527 0.00000000
0.69165671 -0.34162340 -0.00000093
-0.53452641 -0.66051662 0.00000000
-0.24922536 0.51296532 0.00000000
0.40699628 -0.72224820 0.00000000
-0.76800275 -0.10017141 0.00000000
0.49901807 -0.19921198 -0.00000036
-0.22085115 -0.34800842 0.00000000
0.40932837 -0.58076364 0.00000000
-0.30764675 -0.41507706 0.00000000
0.40910670 -0.11971052 -0.00000012
-0.66580641 -0.11546398 0.00000000
-0.52153122 0.03183248 0.00000000
-0.24177352 -0.74135834 0.00000000
0.07342937 -0.31190586 0.00000000
-0.18373105 0.17522129 0.00000000
-0.58475506 -0.27897638 0.00000000
0.06295301 -0.76266605 0.00000000
0.27265352 0.37448978 -0.00000041
-0.62327307 -0.69744188 0.00000000
-0.64024168 -0.73500276 0.00000000
-0.04185343 -0.56394631 0.00000000
0.23170620 0.44936708 -0.00000037
-0.74676287 -0.41764793 0.00000000
-0.14189325 -0.19110708 0.00000000
0.50999945 0.28977376 -0.00000127
-0.62214160 -0.41447794 0.00000000
-0.17528921 -0.72472847 0.00000000
-0.25244942 -0.53114843 0.00000000
-0.67840236 -0.63270539 0.00000000
0.16073550 0.24381658 0.00000000
-0.04712536 -0.24834919 0.00000000
0.19668435 0.51001513 -0.00000033
-0.46563667 -0.51164633 0.00000000
0.23271459 0.35590455 -0.00000021
-0.08734214 -0.03216159 0.00000000
-0.56032377 -0.21181078 0.00000000
0.28925261 0.43349588 -0.00000059
-0.03736380 0.15862609 0.00000000
0.30482280 -0.51678085 0.00000000
-0.05260137 0.64866173 0.00000000
0.36631206 -0.29823306 0.00000000
0.12057808 -0.13601193 0.00000000
0.48462296 -0.42047119 0.00000000
0.06615477 0.49882868 0.00000000
-0.74519557 -0.52525097 0.00000000
-0.01172951 0.59501696 0.00000000
0.41821563 0.32185581 -0.00000094
0.24365322 0.01405640 0.00000000
-0.28793341 0.23984554 0.00000000
0.03606777 -0.76520336 0.00000000
0.28342763 -0.16113739 0.00000000
0.50478029 -0.37727603 -0.00000007
0.79164571 -0.34099135 -0.00000115
0.09827540 -0.51754147 0.00000000
0.04611822 -0.60182607 0.00000000
-0.11719977 0.01252829 0.00000000
0.47529513 -0.47018772 0.00000000
0.54362905 -0.31353208 -0.00000035
-0.00971364 0.43961465 0.00000000
-0.22645703 0.54933220 0.00000000
-0.15705903 -0.14889143 0.00000000
-0.17021061 -0.08751968 0.00000000
-0.53449935 -0.21581471 0.00000000
-0.29411533 -0.19320276 0.00000000
-0.06154222 0.19328406 0.00000000
-0.35530755 -0.20743085 0.00000000
-0.28825292 0.16988248 0.00000000
0.17626484 -0.21393333 0.00000000
-0.13476121 -0.56924534 0.00000000
0.11341788 0.62154269 -0.00000017
-0.05726132 0.31564000 0.00000000
-0.29959342 -0.02185344 0.00000000
0.73393750 -0.16055307 -0.00000143
-0.73316985 -0.75292510 0.00000000
0.49702656 -0.45433280 0.00000000
-0.43498963 -0.64897698 0.00000000
0.02600856 0.05737171 0.00000000
-0.26829597 -0.54740983 0.00000000
0.07265079 -0.66974300 0.00000000
0.53877693 -0.61729348 0.00000000
0.04944651 -0.58193982 0.00000000
0.13086565 -0.72071218 0.00000000
-0.10905205 0.12227141 0.00000000
-0.39580229 0.35818613 0.00000000
-0.13092028 -0.00741670 0.00000000
0.04174319 -0.07002488 0.00000000
-0.72870845 -0.54665220 0.00000000
-0.41036776 -0.47980663 0.00000000
0.45018435 -0.08185271 -0.00000036
0.78771394 -0.69018972 -0.00000027
-0.34744686 -0.62186843 0.00000000
-0.28963986 -0.29452312 0.00000000
-0.18833312 0.33419687 0.00000000
-0.19725320 0.49279162 0.00000000
-0.14447492 -0.24376859 0.00000000
-0.54421365 -0.65430814 0.00000000
0.02096823 0.65152866 0.00000000
0.77298123 -0.46318263 -0.00000084
0.67663270 -0.38272816 -0.00000080
-0.68935144 -0.54030526 0.00000000
0.74023819 -0.64110017 -0.00000040
0.49538860 0.05809373 -0.00000080
-0.70066774 -0.28384873 0.00000000
-0.34946388 -0.78449619 0.00000000
-0.47731170 -0.71547145 0.00000000
-0.39642879 0.12266062 0.00000000
0.11919653 -0.62633252 0.00000000
0.60808802 -0.01858719 -0.00000115
-0.06348548 -0.49467480 0.00000000
-0.13033862 -0.21421196 0.00000000
-0.02308356 -0.78798282 0.00000000
-0.11644232 0.38077912 0.00000000
-0.28031889 0.06848231 0.00000000
-0.44416216 -0.47642928 0.00000000
-0.70006251 -0.21381243 0.00000000
0.64998639 -0.15392685 -0.00000109
0.14762653 -0.12444611 0.00000000
-0.22774510 -0.08411130 0.00000000
0.01913783 0.63129258 0.00000000
0.17722930 0.33986357 0.00000000
-0.02445808 0.51725298 0.00000000
-0.19451904 -0.64719439 0.00000000
0.15201148 -0.45584124 0.00000000
0.11308884 -0.68494046 0.00000000
-0.46925008 -0.69662601 0.00000000
0.54095918 -0.49369514 -0.00000002
0.12318268 0.20397791 0.00000000
0.66387224 -0.29334280 -0.00000090
0.46592927 -0.42371309 0.00000000
0.32240736 0.00687219 0.00000000
0.16100158 0.54397315 -0.00000023
0.00002225 -0.29197091 0.00000000
-0.40970790 0.01804641 0.00000000
-0.71887606 -0.70184058 0.00000000
-0.35948300 -0.15579516 0.00000000
0.38227379 0.04569150 -0.00000030
0.25068119 -0.15610823 0.00000000
-0.19611669 -0.74171937 0.00000000
-0.79029936 -0.72150278 0.00000000
0.21988231 -0.78495842 0.00000000
-0.01307161 -0.43018880 0.00000000
0.65295076 -0.00469602 -0.00000136
-0.35401428 -0.65323824 0.00000000
-0.27009252 0.19839814 0.00000000
-0.40590388 -0.15214203 0.00000000
0.57964975 -0.15634122 -0.00000078
0.62090659 -0.06194543 -0.00000113
-0.68503708 -0.62672633 0.00000000
-0.03784161 -0.56530559 0.00000000
-0.13444294 0.45202732 0.00000000
0.06923450 -0.65457517 0.00000000
-0.06157869 0.22694018 0.00000000
0.11334425 0.12629452 0.00000000
0.07410414 -0.55148214 0.00000000
-0.45721778 -0.50642985 0.00000000
0.40873414 -0.02996517 -0.00000028
0.20192616 -0.38680589 0.00000000
0.60473770 -0.46356452 -0.00000035
-0.04799002 0.47777590 0.00000000
0.00189732 -0.20094174 0.00000000
-0.21505602 -0.38282898 0.00000000
-0.48144329 0.08312207 0.00000000
-0.37904650 -0.00658059 0.00000000
0.25329694 -0.05990574 0.00000000
0.69156492 -0.00311081 -0.00000153
-0.01505501 -0.67669886 0.00000000
-0.44617727 -0.72924799 0.00000000
0.49667317 0.30009082 -0.00000119
-0.62315762 -0.41587925 0.00000000
0.18094078 -0.12727796 0.00000000
0.27151167 0.07861272 0.00000000
0.14346404 -0.48721805 0.00000000
-0.68381947 -0.35316238 0.00000000
0.72253036 -0.61752331 -0.00000046
-0.22771533 0.25734121 0.00000000
0.31751871 0.01667137 0.00000000
0.08027411 -0.63961166 0.00000000
-0.03218605 0.37023589 0.00000000
-0.31121063 0.34819463 0.00000000
-0.13465862 -0.56386298 0.00000000
0.54903412 -0.02119894 -0.00000089
-0.73718035 -0.20935172 0.00000000
-0.48524386 -0.62115735 0.00000000
0.03255675 -0.45853922 0.00000000
0.43971863 -0.05215213 -0.00000037
-0.33567435 0.10757864 0.00000000
0.53210533 -0.52185476 0.00000000
-0.09340524 0.43409577 0.00000000
-0.16780715 -0.12822524 0.00000000
0.03650022 0.12915128 0.00000000
-0.50973117 -0.30331561 0.00000000
-0.32088038 -0.42599380 0.00000000
0.59823555 -0.79394013 0.00000000
-0.39189327 0.11346971 0.00000000
0.59474629 -0.70852959 0.00000000
0.16391677 -0.54147530 0.00000000
-0.08545442 -0.60720921 0.00000000
0.55295974 0.07019688 -0.00000107
0.18469796 0.03230730 0.00000000
0.06449168 -0.09594777 0.00000000
0.17317945 -0.50385165 0.00000000
-0.13634777 -0.33685350 0.00000000
0.22226223 -0.60635233 0.00000000
-0.29875004 -0.56557715 0.00000000
0.29852080 -0.43114787 0.00000000
-0.39340022 -0.66759169 0.00000000
0.03916684 0.54297948 0.00000000
0.73190057 0.00458796 -0.00000172
0.26664212 -0.08869976 0.00000000
-0.38068438 -0.78586102 0.00000000
-0.67474729 -0.50459743 0.00000000
0.65530097 -0.16381964 -0.00000109
-0.08124730 -0.59196562 0.00000000
0.50827122 -0.44111148 0.00000000
-0.32324964 0.03994887 0.00000000
0.44391766 0.25657150 -0.00000093
0.23764423 0.21785367 0.00000000
-0.21689390 0.39812127 0.00000000
0.12950175 -0.77264327 0.00000000
0.44050631 -0.56343657 0.00000000
0.71720040 -0.31535992 -0.00000109
-0.08136971 -0.44252715 0.00000000
0.66822773 -0.54310900 -0.00000048
0.52080125 -0.74090427 0.00000000
0.30359116 0.18315054 -0.00000021
-0.76226997 -0.79943502 0.00000000
0.08849303 0.38606593 0.00000000
0.37119350 0.36171943 -0.00000081
0.17053112 -0.34550095 0.00000000
-0.28565949 0.01410844 0.00000000
-0.50727224 -0.03136600 0.00000000
-0.67363727 -0.38036609 0.00000000
0.05588888 0.21047418 0.00000000
-0.33236530 0.15426281 0.00000000
0.42506430 -0.76037019 0.00000000
-0.53727549 -0.11364553 0.00000000
0.13957939 0.64137352 -0.00000032
0.55793792 -0.35059044 -0.00000035
0.42585659 -0.56591219 0.00000000
-0.11515694 0.58495337 0.00000000
0.02464474 -0.37243301 0.00000000
-0.27722353 -0.06157599 0.00000000
-0.50209612 -0.55708778 0.00000000
0.03233589 0.18384077 0.00000000
0.71241713 -0.79404187 -0.00000001
-0.33205187 -0.44666436 0.00000000
-0.61877644 -0.62514126 0.00000000
0.46768308 -0.32630944 -0.00000000
-0.50169313 0.03449896 0.00000000
0.24515368 -0.68926793 0.00000000
0.43447116 0.01393045 -0.00000046
-0.11877634 -0.44131947 0.00000000
-0.11497111 0.62188190 0.00000000
-0.24382751 -0.61838603 0.00000000
0.06823043 0.15091641 0.00000000
0.08706487 0.35940492 0.00000000
-0.62101930 -0.74665159 0.00000000
0.67574751 -0.68177003 -0.00000026
-0.08771610 0.10522087 0.00000000
-0.47361961 -0.22516888 0.00000000
0.28417343 0.05760841 0.00000000
0.64443976 -0.71516687 -0.00000007
-0.21591499 0.02283504 0.00000000
-0.48378965 -0.20579280 0.00000000
0.35411641 -0.69154143 0.00000000
-0.41093045 -0.35777968 0.00000000
0.55813724 -0.51655459 -0.00000005
0.44285208 -0.32789046 0.00000000
-0.62388504 -0.40793875 0.00000000
0.32556853 -0.06451694 0.00000000
0.40103385 -0.28893974 0.00000000
-0.50603169 0.29029664 0.00000000
0.39961392 -0.24328852 0.00000000
-0.17900179 -0.04146802 0.00000000
0.37340060 -0.32850420 0.00000000
-0.29316232 0.35502613 0.00000000
-0.39765954 -0.12008925 0.00000000
0.45560479 -0.43038934 0.00000000
0.50370771 -0.24719676 -0.00000030
0.01526379 -0.24948601 0.00000000
0.65862358 -0.34289941 -0.00000079
0.45978928 0.25945488 -0.00000101
-0.65157038 0.13512930 0.00000000
0.23126766 0.10795799 0.00000000
0.32861838 0.25172722 -0.00000043
0.14859761 -0.63038069 0.00000000
-0.79803473 -0.64802724 0.00000000
-0.22763757 0.09777933 0.00000000
0.15935868 -0.14325754 0.00000000
0.00198502 -0.54812282 0.00000000
0.35963070 0.38664258 -0.00000080
0.25133914 0.04826296 0.00000000
0.13553332 0.27358168 0.00000000
-0.10403125 0.53438783 0.00000000
-0.13472509 0.25510725 0.00000000
0.16076162 -0.01794918 0.00000000
-0.40778020 -0.16417529 0.00000000
0.30450583 -0.78837037 0.00000000
0.46782094 -0.09340223 -0.00000042
0.20620608 -0.23289812 0.00000000
0.08882929 -0.50463617 0.00000000
0.51201004 -0.55273700 0.00000000
-0.32995841 0.35758606 0.00000000
-0.44591737 -0.26705718 0.00000000
-0.39061114 0.07570262 0.00000000
-0.37373587 -0.41600445 0.00000000
-0.45021093 0.27804208 0.00000000
0.10943095 0.08467775 0.00000000
-0.18688186 0.12057633 0.00000000
-0.13635392 0.42467457 0.00000000
0.75780362 -0.17000249 -0.00000152
-0.39241773 -0.54976642 0.00000000
-0.76318616 -0.66114086 0.00000000
-0.12076399 0.36518052 0.00000000
-0.18979055 -0.78180534 0.00000000
-0.37883639 -0.05858940 0.00000000
0.46484995 -0.32252613 0.00000000
-0.34130067 -0.64678359 0.00000000
-0.22473848 -0.10825393 0.00000000
0.09868306 -0.63838077 0.00000000
0.09023278 -0.39979535 0.00000000
0.38273582 0.26388764 -0.00000069
-0.40345880 0.35686702 0.00000000
-0.72904098 -0.37381205 0.00000000
0.70505679 -0.53672510 -0.00000065
-0.66661412 -0.45428768 0.00000000
0.12472188 0.03164262 0.00000000
-0.53026730 -0.19004925 0.00000000
-0.09216923 -0.05757618 0.00000000
-0.14512473 -0.44138855 0.00000000
0.11678566 -0.39511064 0.00000000
-0.58410203 -0.28172317 0.00000000
-0.50158232 -0.22591983 0.00000000
-0.00429791 -0.00318793 0.00000000
-0.10659312 -0.59400982 0.00000000
-0.26173818 -0.12955582 0.00000000
-0.49031863 -0.45151684 0.00000000
-0.25182945 0.51179111 0.00000000
0.72474641 -0.15642968 -0.00000140
0.61130184 -0.47920170 -0.00000035
-0.35232031 -0.49658737 0.00000000
-0.69745553 -0.60769635 0.00000000
-0.23965931 -0.27459389 0.00000000
0.02136467 0.35895440 0.00000000
-0.01801438 -0.60228473 0.00000000
0.17271096 -0.68069553 0.00000000
0.49442637 -0.44969788 0.00000000
0.49984077 -0.41337669 0.00000000
-0.00522822 0.43174818 0.00000000
-0.09428903 0.49685407 0.00000000
-0.26784191 -0.37278816 0.00000000
0.26383016 -0.03278576 0.00000000
0.35537019 -0.63512397 0.00000000
-0.33220220 0.06514925 0.00000000
0.05646241 -0.52643895 0.00000000
0.69579518 -0.30571571 -0.00000101
-0.12283435 -0.36728489 0.00000000
0.71425343 -0.27556306 -0.00000115
-0.67810959 -0.31645337 0.00000000
-0.66651863 -0.62361509 0.00000000
0.36457133 -0.69077164 0.00000000
-0.29801181 -0.11950210 0.00000000
-0.64691168 -0.19248976 0.00000000
-0.63495260 -0.71474469 0.00000000
0.00776620 0.59690028 0.00000000
-0.03837244 0.67304319 0.00000000
0.46840766 -0.21694884 -0.00000020
0.13462153 -0.61038744 0.00000000
0.77448285 -0.12640026 -0.00000167
0.29757684 -0.77066743 0.00000000
0.03519424 0.46410322 0.00000000
-0.63608479 -0.77784461 0.00000000
0.28668690 -0.68902355 0.00000000
0.31802788 -0.34852532 0.00000000
-0.17942180 -0.15508194 0.00000000
-0.71091259 0.06607263 0.00000000
-0.21250211 -0.31251407 0.00000000
0.48606685 -0.64777046 0.00000000
-0.02645609 -0.54120058 0.00000000
0.55385327 -0.67357039 0.00000000
0.50950670 0.06359046 -0.00000087
0.09171587 0.60254747 -0.00000004
-0.39089879 0.07715877 0.00000000
-0.24520323 -0.66924596 0.00000000
-0.79399097 -0.18276858 0.00000000
-0.46504766 -0.57628101 0.00000000
-0.41043168 -0.07038170 0.00000000
0.50373620 -0.09259635 -0.00000057
-0.27518231 0.23985672 0.00000000
-0.63463259 -0.15477608 0.00000000
-0.14555889 -0.48753053 0.00000000
-0.28719652 -0.17832679 0.00000000
0.40939426 -0.59414077 0.00000000
-0.08160995 0.13393548 0.00000000
0.39393055 0.02552203 -0.00000031
-0.03079012 -0.02604104 0.00000000
0.65879095 -0.46817854 -0.00000057
-0.17079073 0.20890069 0.00000000
-0.04519452 -0.75129569 0.00000000
-0.44269460 -0.74939638 0.00000000
-0.12875751 -0.59880126 0.00000000
0.09072075 0.52773690 0.00000000
-0.56812531 -0.34777990 0.00000000
-0.55336565 -0.38988647 0.00000000
0.73430461 0.01675343 -0.00000175
-0.19383436 -0.49522141 0.00000000
-0.20062740 -0.32966307 0.00000000
0.47402331 -0.76257759 0.00000000
-0.23853491 -0.64818233 0.00000000
-0.11156172 -0.38779727 0.00000000
0.07600738 -0.21719733 0.00000000
-0.18652003 -0.71777874 0.00000000
0.69210058 0.10477292 -0.00000168
0.02109343 0.04363154 0.00000000
0.43456951 -0.75061834 0.00000000
-0.22304766 0.38369519 0.00000000
-0.42716035 -0.26604271 0.00000000
-0.15246697 -0.44993141 0.00000000
-0.39259559 -0.23279583 0.00000000
0.36673337 0.10096241 -0.00000033
-0.43374911 -0.64018720 0.00000000
-0.43180647 0.26912716 0.00000000
-0.69469589 -0.72161674 0.00000000
0.57074577 -0.22413430 -0.00000063
-0.44525898 -0.19209903 0.00000000
-0.26941103 -0.04701525 0.00000000
0.21264985 0.16320626 0.00000000
0.75140506 -0.72298366 -0.00000019
0.36341542 -0.22829774 0.00000000
0.43918121 0.12218201 -0.00000068
0.43991867 -0.28892559 0.00000000
-0.06438272 0.03066220 0.00000000
-0.58901477 -0.47918278 0.00000000
0.00553674 0.11953945 0.00000000
-0.54361558 -0.13150658 0.00000000
0.25001040 -0.07407663 0.00000000
-0.69824171 -0.75626963 0.00000000
0.26850760 -0.09266362 0.00000000
-0.09644248 -0.07201549 0.00000000
0.67057717 -0.67283773 -0.00000026
-0.46953553 0.14723766 0.00000000
-0.29102445 -0.60442460 0.00000000
-0.26980528 0.30275336 0.00000000
-0.75043875 -0.27925971 0.00000000
-0.57954425 0.13845220 0.00000000
-0.64129519 -0.76093978 0.00000000
0.03863393 0.60367167 0.00000000
0.40244672 -0.25228125 0.00000000
0.22185144 0.23874936 0.00000000
0.00294405 -0.33808729 0.00000000
-0.58959711 -0.75659144 0.00000000
0.69811738 -0.60430419 -0.00000049
0.44001469 0.24526303 -0.00000090
-0.72180939 -0.36274311 0.00000000
0.53959233 -0.62892884 0.00000000
-0.17403987 0.14524695 0.00000000
-0.25954831 0.48252004 0.00000000
-0.66523564 -0.57720703 0.00000000
0.08644711 0.21279702 0.00000000
-0.67849857 -0.15038145 0.00000000
-0.06474545 0.72759807 0.00000000
0.48018160 0.02964041 -0.00000069
-0.53761989 -0.65650439 0.00000000
0.25648442 0.02230589 0.00000000
-0.25932953 -0.51036417 0.00000000
0.14091766 -0.18515213 0.00000000
-0.11208862 0.07515190 0.00000000
0.16484144 -0.05511822 0.00000000
-0.74607992 -0.60008383 0.00000000
0.22627337 0.30860662 -0.00000010
-0.32063803 -0.64963353 0.00000000
-0.09895518 -0.01471322 0.00000000
-0.47057021 -0.17382118 0.00000000
-0.07913777 -0.02126910 0.00000000
0.18316218 -0.14221144 0.00000000
0.01799920 -0.45574531 0.00000000
-0.48394123 -0.07271829 0.00000000
0.65585387 -0.13195944 -0.00000115
-0.61349082 -0.46691185 0.00000000
-0.75339133 -0.30425888 0.00000000
0.75204802 -0.18373407 -0.00000147
-0.05325519 0.23700257 0.00000000
0.43965662 -0.78677666 0.00000000
0.56053841 -0.00328820 -0.00000097
0.15433767 0.38787752 0.00000000
-0.29212213 -0.58909267 0.00000000
0.45675725 0.01625278 -0.00000056
-0.52390552 -0.04947869 0.00000000
-0.59559870 -0.62604988 0.00000000
0.38884068 -0.50032562 0.00000000
0.69558090 -0.63974655 -0.00000040
0.46975270 -0.41098496 0.00000000
-0.01027579 -0.23405290 0.00000000
0.02222997 -0.23342206 0.00000000
-0.74550861 -0.23646094 0.00000000
-0.68202692 -0.05675932 0.00000000
-0.37260249 -0.60804671 0.00000000
-0.26798940 0.43516535 0.00000000
0.42985114 -0.61726254 0.00000000
-0.49328253 -0.21807471 0.00000000
0.21347927 -0.16888027 0.00000000
0.63614762 -0.00056344 -0.00000130
0.03647739 0.40317872 0.00000000
0.12255318 -0.74820995 0.00000000
-0.07508016 -0.64023745 0.00000000
-0.39970052 -0.13245076 0.00000000
-0.07965446 0.68539739 0.00000000
-0.30591020 -0.51139915 0.00000000
0.14324503 -0.74532247 0.00000000
0.11075708 0.67381513 -0.00000025
-0.41619223 -0.76466846 0.00000000
0.48653141 0.06697444 -0.00000078
0.00347227 0.28937238 0.00000000
-0.36374277 -0.04421257 0.00000000
-0.67218167 -0.72547448 0.00000000
0.02245585 -0.38833380 0.00000000
-0.12685516 -0.79269767 0.00000000
-0.19706918 -0.78341806 0.00000000
-0.23324320 0.17564419 0.00000000
-0.23316669 -0.71247131 0.00000000
0.18598391 0.31564745 0.00000000
0.29507822 0.23625827 -0.00000026
-0.34215313 -0.34506646 0.00000000
0.11602767 0.41816339 0.00000000
-0.53327972 -0.50824922 0.00000000
0.61015332 -0.64257652 -0.00000005
0.16772737 0.22562858 0.00000000
-0.00469395 0.18471108 0.00000000
-0.38099840 -0.32921788 0.00000000
-0.01164378 0.29654530 0.00000000
-0.63416570 -0.66714782 0.00000000
-0.14772663 -0.07377102 0.00000000
-0.01964999 -0.71367615 0.00000000
0.69540119 -0.20595250 -0.00000119
0.55814451 -0.11790042 -0.00000076
0.19497314 0.26278430 0.00000000
0.51902896 -0.25275621 -0.00000035
-0.42171392 -0.13312244 0.00000000
0.55794948 0.06442918 -0.00000108
0.25877774 -0.66710979 0.00000000
-0.11421812 0.34957716 0.00000000
0.70454657 -0.04835882 -0.00000151
0.78912532 -0.19792186 -0.00000151
0.68505609 -0.55392432 -0.00000053
-0.41506934 -0.27179191 0.00000000
-0.53376889 -0.31640059 0.00000000
0.18789332 -0.27300912 0.00000000
0.09425605 0.63164240 -0.00000010
-0.25130093 -0.62090707 0.00000000
-0.74718243 -0.04818202 0.00000000
-0.14648509 0.09884969 0.00000000
0.79730010 -0.65193909 -0.00000037
-0.28780806 -0.17668574 0.00000000
0.62743276 -0.46117237 -0.00000045
-0.52171636 -0.43937877 0.00000000
-0.26141372 -0.51140529 0.00000000
0.00863104 0.22997437 0.00000000
-0.11753503 0.31309757 0.00000000
-0.24882396 0.29048717 0.00000000
-0.46070835 -0.40349826 0.00000000
-0.28473508 -0.44486558 0.00000000
-0.62598538 -0.15654778 0.00000000
0.08861924 0.25445819 0.00000000
0.08628685 0.62986320 -0.00000007
-0.39607981 0.22462410 0.00000000
-0.47875315 0.07302968 0.00000000
-0.12016879 0.40022561 0.00000000
0.56064993 -0.45986223 -0.00000017
-0.24350692 0.15390579 0.00000000
0.55002612 -0.78319341 0.00000000
0.13698719 0.40933144 0.00000000
-0.02927046 -0.62987351 0.00000000
0.51229107 -0.21106453 -0.00000040
0.07953833 0.42294082 0.00000000
-0.49796617 0.14755854 0.00000000
0.14790609 -0.01407826 0.00000000
-0.45603976 -0.64493155 0.00000000
-0.41316316 -0.28752238 0.00000000
-0.08937365 -0.46620610 0.00000000
0.35998276 -0.34296089 0.00000000
0.08865864 -0.58963704 0.00000000
0.44508788 -0.06389470 -0.00000037
0.61742312 -0.07648818 -0.00000109
0.13337630 -0.74095905 0.00000000
-0.14347269 -0.13383627 0.00000000
0.53755867 0.04098213 -0.00000095
0.31681734 -0.03232950 0.00000000
-0.04061875 -0.25028992 0.00000000
0.18145759 0.03437867 0.00000000
-0.18234605 -0.24991173 0.00000000
0.50759339 -0.13262515 -0.00000052
0.10616650 0.24268378 0.00000000
-0.32166252 0.44326350 0.00000000
-0.14043199 -0.08195979 0.00000000
-0.07783624 -0.25851232 0.00000000
0.34971067 0.28108218 -0.00000058
0.67294621 -0.72503281 -0.00000018
-0.13897689 0.31905511 0.00000000
0.30871338 -0.47308105 0.00000000
0.54975981 -0.10672345 -0.00000074
0.35434100 0.26958436 -0.00000057
0.23241489 0.35229462 -0.00000020
-0.34471130 -0.22332174 0.00000000
0.39135107 -0.10871014 -0.00000006
-0.37950578 0.03113799 0.00000000
0.51739430 -0.61162639 0.00000000
0.61727798 0.09681484 -0.00000139
-0.37637192 0.01331025 0.00000000
0.01373120 0.72535586 0.00000000
0.35900709 0.05144280 -0.00000021
0.07398952 0.47033939 0.00000000
0.73161852 -0.11568410 -0.00000150
0.23302506 -0.46088925 0.00000000
-0.34998837 -0.57661092 0.00000000
0.62172502 0.13179550 -0.00000147
-0.03153032 -0.56549358 0.00000000
-0.57640642 -0.12505703 0.00000000
0.26071334 -0.75464219 0.00000000
0.33634070 0.26260993 -0.00000049
0.23012540 -0.24187768 0.00000000
0.64475507 -0.55292094 -0.00000036
0.64877737 -0.47156239 -0.00000052
0.75956887 -0.18054274 -0.00000151
0.74578297 -0.16559549 -0.00000148
-0.18439351 0.19955826 0.00000000
-0.66528690 -0.23452350 0.00000000
-0.00259898 0.77898127 0.00000000
-0.15915321 -0.54367393 0.00000000
-0.58799899 -0.05741034 0.00000000
0.17111325 -0.38286856 0.00000000
0.24401407 0.10758312 0.00000000
-0.00394795 -0.44373414 0.00000000
0.00432381 0.71218550 0.00000000
-0.47960630 -0.67608535 0.00000000
0.38286000 -0.60713935 0.00000000
0.48103657 0.03837631 -0.00000071
0.11596398 -0.00906309 0.00000000
0.59728569 0.05209479 -0.00000123
0.19475342 0.54150403 -0.00000037
-0.46318296 -0.67069107 0.00000000
0.10909271 0.09035291 0.00000000
0.16382675 0.34892604 0.00000000
0.15000747 -0.64947510 0.00000000
0.36011851 0.42716980 -0.00000088
-0.43445948 -0.43562961 0.00000000
0.50236261 -0.78254467 0.00000000
0.30455375 -0.30241382 0.00000000
-0.20461088 -0.23257460 0.00000000
-0.48423681 -0.15615994 0.00000000
0.31102952 -0.06047227 0.00000000
0.64858007 -0.68553644 -0.00000014
-0.55847549 -0.33596629 0.00000000
-0.17335171 -0.11198201 0.00000000
-0.53091282 -0.33549240 0.00000000
0.22782569 0.05668389 0.00000000
-0.28781375 -0.00616306 0.00000000
0.00972794 0.63579857 0.00000000
-0.62496287 -0.12333647 0.00000000
-0.76259273 -0.24180765 0.00000000
0.17419700 0.31917179 0.00000000
0.24645881 -0.31553012 0.00000000
-0.69756097 -0.57714736 0.00000000
0.66443276 -0.20586291 -0.00000106
-0.73296380 -0.35646829 0.00000000
-0.26529896 0.04771988 0.00000000
0.11614282 0.39622855 0.00000000
0.53409493 -0.12962840 -0.00000064
-0.22823432 -0.46122202 0.00000000
-0.74301207 -0.74296165 0.00000000
0.38073283 -0.03468429 -0.00000015
-0.49775660 -0.49565050 0.00000000
0.55429804 -0.37907717 -0.00000028
-0.25524917 -0.69304281 0.00000000
-0.10495856 0.10002565 0.00000000
-0.41952413 -0.31792364 0.00000000
0.62532043 -0.35984713 -0.00000062
0.25711456 0.49735510 -0.00000056
0.34037581 -0.06892916 0.00000000
-0.07937479 0.63955748 0.00000000
-0.03705206 0.51814121 0.00000000
0.12855947 0.45391032 0.00000000
0.36616832 0.37301436 -0.00000081
0.47843984 -0.69310832 0.00000000
0.10078625 -0.19017667 0.00000000
0.34099412 0.13988189 -0.00000029
0.18495435 -0.49363187 0.00000000
-0.03489903 -0.55499500 0.00000000
-0.40330249 -0.70429373 0.00000000
0.27799410 0.29768488 -0.00000030
-0.29397771 -0.11552847 0.00000000
-0.52546388 -0.23135056 0.00000000
0.52387077 -0.75460529 0.00000000
0.34241107 0.41284445 -0.00000078
-0.43879947 -0.09508663 0.00000000
-0.33374012 -0.24238110 0.00000000
0.45848116 -0.03283421 -0.00000048
-0.43236250 -0.53314126 0.00000000
-0.36856014 -0.64089966 0.00000000
0.40011403 0.25196379 -0.00000074
-0.49284035 -0.15735494 0.00000000
-0.30858612 -0.14591374 0.00000000
0.31463319 -0.13622487 0.00000000
-0.30108833 -0.02054353 0.00000000
-0.09617014 0.40013105 0.00000000
-0.15524118 -0.46401602 0.00000000
-0.32945094 0.05008321 0.00000000
0.76215869 -0.66827631 -0.00000033
0.01179111 -0.13373701 0.00000000
0.38241997 -0.38108149 0.00000000
0.17709514 -0.13346073 0.00000000
-0.16506945 -0.72683257 0.00000000
0.14823563 -0.02661357 0.00000000
-0.58515781 -0.58157516 0.00000000
0.42725417 -0.20928425 -0.00000004
0.48930851 0.12507752 -0.00000090
0.53805190 -0.42584825 -0.00000013
-0.63286841 -0.65627277 0.00000000
0.56314290 -0.69588536 0.00000000
-0.59901899 -0.55441552 0.00000000
0.21818668 -0.33084047 0.00000000
0.49485078 -0.60902679 0.00000000
0.14038931 0.01760336 0.00000000
-0.75781965 -0.38970909 0.00000000
-0.59027505 0.05417096 0.00000000
-0.31441578 0.24548852 0.00000000
-0.41651654 0.34855667 0.00000000
0.41014493 -0.13947719 -0.00000009
0.12166396 -0.10020754 0.00000000
0.59354025 -0.12761742 -0.00000089
0.51287341 0.11328837 -0.00000097
0.19302732 -0.38518417 0.00000000
0.16154982 -0.03659795 0.00000000
0.53066647 0.22826454 -0.00000125
0.35114485 -0.67966586 0.00000000
-0.42988297 -0.54840159 0.00000000
-0.29135609 -0.04087382 0.00000000
-0.47605035 -0.32483110 0.00000000
-0.18609966 0.17780113 0.00000000
0.39847234 -0.00887630 -0.00000027
-0.38705343 0.18274616 0.00000000
-0.26703167 0.18825015 0.00000000
-0.00539193 0.69126910 0.00000000
0.06623525 0.28771839 0.00000000
-0.75537795 -0.04711452 0.00000000
-0.46922997 0.31253648 0.00000000
-0.04210396 0.40763539 0.00000000
0.18322475 -0.53496426 0.00000000
0.25959119 0.53361040 -0.00000054
-0.34319943 0.15820348 0.00000000
-0.27026844 -0.27409476 0.00000000
0.47338802 -0.36434406 0.00000000
-0.05357402 -0.63762712 0.00000000
-0.01901480 -0.35941094 0.00000000
-0.08602307 0.17224589 0.00000000
0.34013224 -0.12179543 0.00000000
0.73551649 -0.58374393 -0.00000054
0.08454921 0.22047293 0.00000000
0.17303653 -0.60348225 0.00000000
0.68387079 -0.15791991 -0.00000123
-0.71631408 -0.37493333 0.00000000
0.20707881 -0.64174718 0.00000000
-0.15814178 0.51874644 0.00000000
0.07507219 0.30076653 0.00000000
0.62712634 -0.21293892 -0.00000089
0.75655121 -0.73376077 -0.00000017
0.26531881 -0.32472849 0.00000000
-0.17925006 0.13983789 0.00000000
-0.22889894 0.12430704 0.00000000
-0.03088796 0.36812276 0.00000000
0.39714432 -0.03218457 -0.00000022
-0.15186673 -0.16928019 0.00000000
0.09378970 -0.76578510 0.00000000
0.51650822 -0.39800894 -0.00000009
0.20199166 0.08848925 0.00000000
-0.39127386 -0.40364394 0.00000000
0.10978902 -0.36920774 0.00000000
-0.30657938 -0.49740890 0.00000000
0.37959090 -0.66274190 0.00000000
0.07088971 0.60391533 0.00000000
0.23616932 -0.75541246 0.00000000
0.73997253 -0.59140736 -0.00000052
-0.60250270 0.01499825 0.00000000
-0.10546263 0.38099125 0.00000000
0.13836610 -0.35004836 0.00000000
0.27782983 0.47703829 -0.00000061
0.12561886 0.13110076 0.00000000
0.61315191 -0.61715609 -0.00000011
0.45266667 0.28432015 -0.00000102
0.24907807 -0.56823337 0.00000000
-0.67763382 -0.71542138 0.00000000
-0.43507168 0.33982241 0.00000000
0.01412614 0.12618810 0.00000000
-0.40042239 0.18914223 0.00000000
0.67131287 -0.43797696 -0.00000068
0.65552539 -0.12108749 -0.00000117
0.13807286 -0.65877223 0.00000000
-0.02831888 -0.37577942 0.00000000
0.62462872 0.00808932 -0.00000127
0.44607979 0.02785513 -0.00000054
-0.31957638 -0.71127450 0.00000000
0.59532273 -0.22154273 -0.00000073
-0.02245046 -0.39563131 0.00000000
-0.09155211 -0.27882275 0.00000000
-0.67420626 -0.61361772 0.00000000
-0.47145072 0.22054312 0.00000000
-0.12915245 -0.36458293 0.00000000
0.43982738 -0.71640629 0.00000000
-0.36552462 0.23218533 0.00000000
0.24898171 0.52529031 -0.00000058
-0.07702315 -0.07043178 0.00000000
-0.14670810 -0.67195052 0.00000000
0.00490406 0.08082375 0.00000000
0.42901891 -0.30859569 0.00000000
-0.28120402 0.04262216 0.00000000
-0.33386859 0.33808419 0.00000000
-0.66141135 -0.29611123 0.00000000
-0.38567632 -0.73911637 0.00000000
0.69110388 -0.26011786 -0.00000108
-0.21312462 -0.31595254 0.00000000
-0.32037419 0.03284159 0.00000000
0.64638358 0.05467367 -0.00000144
0.07367918 -0.45237744 0.00000000
0.33123791 -0.73081440 0.00000000
0.50847983 -0.12755045 -0.00000053
-0.67134768 -0.04979609 0.00000000
0.08795971 0.42942980 0.00000000
0.45427838 -0.61340582 0.00000000
-0.15539737 -0.56368148 0.00000000
0.35085046 -0.53505367 0.00000000
0.17762177 0.08430240 0.00000000
-0.53934956 -0.54635781 0.00000000
-0.49905369 0.01400827 0.00000000
0.41178840 -0.39207816 0.00000000
0.48048332 -0.37803298 0.00000000
-0.32141444 -0.68562078 0.00000000
-0.29764962 0.27646545 0.00000000
-0.42519373 -0.13581164 0.00000000
0.42617565 0.18902357 -0.00000074
-0.32922786 -0.36610949 0.00000000
0.08035891 0.08033490 0.00000000
0.77682865 -0.47526470 -0.00000081
-0.18415228 0.53565443 0.00000000
-0.00809938 -0.26984990 0.00000000
0.45791677 -0.79878980 0.00000000
0.44215301 0.14592955 -0.00000073
-0.64784700 -0.47603172 0.00000000
0.18413959 -0.46902823 0.00000000
-0.71048981 -0.50663102 0.00000000
0.28888151 -0.53572947 0.00000000
-0.15045907 -0.45544541 0.00000000
0.60673571 0.01262118 -0.00000120
-0.02100648 -0.28828892 0.00000000
-0.05990691 -0.47523153 0.00000000
0.01135765 -0.04454406 0.00000000
0.33545405 0.29855648 -0.00000055
0.38499328 0.08856358 -0.00000039
0.63367462 -0.09312813 -0.00000113
0.02075879 -0.76462471 0.00000000
0.03448183 0.15242673 0.00000000
0.00346588 0.29869938 0.00000000
-0.37975660 -0.74172574 0.00000000
-0.36780789 -0.74775869 0.00000000
0.01222659 0.75987029 0.00000000
0.48884127 0.09586651 -0.00000084
-0.69724566 -0.21846803 0.00000000
0.64980447 -0.45457029 -0.00000056
-0.78884268 -0.04566247 0.00000000
-0.38700965 -0.79044282 0.00000000
-0.38518569 -0.46471635 0.00000000
-0.36775634 0.16692939 0.00000000
0.10356687 0.65665817 -0.00000019
-0.63377190 -0.03249678 0.00000000
0.61522651 -0.65288466 -0.00000006
-0.72584176 -0.10525488 0.00000000
-0.36014077 -0.54914981 0.00000000
-0.40808180 -0.11153912 0.00000000
-0.05308404 -0.25050414 0.00000000
-0.36247277 -0.15411390 0.00000000
-0.69461405 -0.31242764 0.00000000
0.60592413 -0.04585897 -0.00000109
0.75980616 -0.56303585 -0.00000059
0.58292717 -0.79200906 0.00000000
0.76369792 -0.14765859 -0.00000158
0.16333757 -0.26630148 0.00000000
-0.09463841 -0.56272322 0.00000000
-0.29068998 0.11106357 0.00000000
0.42303759 -0.28302810 0.00000000
0.22123651 -0.14422940 0.00000000
-0.04942410 -0.16938901 0.00000000
-0.46612203 -0.42980644 0.00000000
0.11011120 0.23516683 0.00000000
0.35089639 -0.40087864 0.00000000
0.56663465 -0.04753558 -0.00000092
0.66921353 0.00283319 -0.00000145
-0.58102953 -0.33300579 0.00000000
-0.67622387 -0.71516216 0.00000000
0.49613017 -0.64008981 0.00000000
0.52786624 -0.18084542 -0.00000052
-0.41589424 0.22612581 0.00000000
0.04484306 0.74365938 -0.00000009
0.67191714 -0.58784002 -0.00000041
0.73037040 -0.54223460 -0.00000064
0.76686913 -0.36840168 -0.00000108
-0.33397806 0.03399165 0.00000000
-0.12082061 -0.37244293 0.00000000
0.60927022 -0.69024265 0.00000000
0.15108587 -0.37280762 0.00000000
0.68813598 0.04447219 -0.00000160
-0.20035207 -0.33636609 0.00000000
-0.76606715 -0.56303215 0.00000000
-0.60981852 -0.32887420 0.00000000
-0.19637011 -0.51176816 0.00000000
-0.03440645 -0.70779568 0.00000000
0.12675448 -0.00169414 0.00000000
-0.42722112 0.05666954 0.00000000
-0.14094281 -0.37890270 0.00000000
-0.36992306 -0.04088070 0.00000000
-0.37788197 -0.04834083 0.00000000
-0.29172248 -0.27004129 0.00000000
-0.36100644 -0.39182818 0.00000000
-0.22528315 0.30727935 0.00000000
0.31628644 -0.20653304 0.00000000
0.58807057 -0.17309123 -0.00000079
-0.38631672 0.37097043 0.00000000
-0.07561661 0.29296201 0.00000000
0.29364249 -0.37549853 0.00000000
-0.19947821 -0.43034378 0.00000000
0.17506927 0.48800403 -0.00000020
-0.05772037 0.56699228 0.00000000
-0.52894121 -0.04100685 0.00000000
0.29892462 -0.37282282 0.00000000
-0.31761473 0.05498227 0.00000000
-0.46577430 -0.52577233 0.00000000
-0.54212058 -0.59295321 0.00000000
0.37619036 -0.45893365 0.00000000
0.61096501 -0.71337801 0.00000000
-0.09741869 -0.74570143 0.00000000
-0.40402904 0.22768894 0.00000000
0.07059558 -0.49417934 0.00000000
-0.78218949 -0.08565236 0.00000000
-0.77561396 -0.51461995 0.00000000
-0.49157497 -0.14358059 0.00000000
-0.10508619 0.45444301 0.00000000
0.42425147 -0.64589977 0.00000000
0.57046789 0.12050007 -0.00000123
0.67706090 -0.75023037 -0.00000012
0.59155673 -0.58737963 -0.00000007
-0.14700864 0.17750131 0.00000000
-0.06171561 0.23926543 0.00000000
-0.15352647 0.04870808 0.00000000
-0.06733562 -0.09499719 0.00000000
0.12762199 0.09271518 0.00000000
-0.04120579 0.71067363 0.00000000
0.25996488 0.42378488 -0.00000044
0.21131083 0.26194683 0.00000000
0.03674631 0.48007733 0.00000000
0.39187375 0.33978441 -0.00000086
0.23829347 -0.01972559 0.00000000
0.05858060 -0.13565333 0.00000000
-0.71550268 -0.04659251 0.00000000
-0.07560714 0.05181528 0.00000000
0.03885596 0.21155336 0.00000000
0.10794938 0.43900022 0.00000000
0.00697734 -0.08058584 0.00000000
-0.56786257 0.12713312 0.00000000
0.17986494 -0.10025687 0.00000000
0.41420090 -0.10657502 -0.00000017
-0.39285484 -0.36094317 0.00000000
0.04410722 0.33968076 0.00000000
0.48090354 -0.54659653 0.00000000
-0.73284489 0.04887922 0.00000000
0.20534486 0.55881482 -0.00000045
0.06349710 0.72929186 -0.00000015
-0.50856054 0.26977941 0.00000000
0.07834265 0.03568307 0.00000000
0.46346048 -0.16870061 -0.00000027
-0.65154016 -0.60815293 0.00000000
-0.53139853 0.05712817 0.00000000
-0.30234456 0.01767822 0.00000000
-0.26204982 -0.31655136 0.00000000
0.08968879 -0.70363539 0.00000000
-0.06236940 -0.06974091 0.00000000
-0.29369304 -0.59121996 0.00000000
-0.47689584 -0.00615050 0.00000000
-0.69170910 -0.08426523 0.00000000
-0.66469407 -0.79852730 0.00000000
0.09773594 -0.32093889 0.00000000
-0.05786287 -0.00915495 0.00000000
-0.48241466 0.16437903 0.00000000
-0.15698943 0.54645735 0.00000000
0.18139470 -0.32241547 0.00000000
0.42466441 -0.23795693 0.00000000
-0.42337355 -0.25481007 0.00000000
0.72451377 -0.69553542 -0.00000026
0.55977678 0.03479175 -0.00000104
0.38865250 -0.54691541 0.00000000
-0.13935687 0.54839689 0.00000000
-0.71162945 -0.07666168 0.00000000
-0.14301439 -0.11913048 0.00000000
-0.13768050 -0.69851959 0.00000000
0.70162135 -0.48506042 -0.00000072
-0.47336590 -0.33492941 0.00000000
-0.36314732 -0.32700288 0.00000000
0.50869930 0.19273022 -0.00000110
-0.34219369 0.22006354 0.00000000
-0.36366948 0.25716758 0.00000000
-0.30455339 -0.78064954 0.00000000
-0.53242582 -0.20760043 0.00000000
0.14264683 -0.78137577 0.00000000
0.72759330 -0.76546991 -0.00000009
-0.10807983 0.68332100 0.00000000
-0.52781826 -0.79395664 0.00000000
-0.13182959 0.35926488 0.00000000
0.09301772 -0.09904208 0.00000000
-0.55303210 -0.76807296 0.00000000
-0.54081863 -0.30861992 0.00000000
-0.38383138 0.13966341 0.00000000
-0.69929618 -0.31538808 0.00000000
-0.03111240 0.40439311 0.00000000
0.15108003 0.49296695 -0.00000010
0.38411900 0.38881677 -0.00000091
-0.26981130 0.30367783 0.00000000
0.51274359 -0.24895820 -0.00000033
0.19712800 -0.68579113 0.00000000
0.43909407 0.31741902 -0.00000102
0.26373789 -0.61191678 0.00000000
-0.11794786 0.17872746 0.00000000
-0.12928125 -0.02253232 0.00000000
0.79700643 -0.24885026 -0.00000138
-0.05610031 -0.47694248 0.00000000
-0.43814003 -0.36100960 0.00000000
-0.10918871 0.37664911 0.00000000
-0.71702272 -0.06570810 0.00000000
-0.12324249 0.03059733 0.00000000
-0.45701355 -0.12801608 0.00000000
0.29642111 -0.72021019 0.00000000
-0.10975496 0.13563573 0.00000000
0.33382729 -0.17697132 0.00000000
-0.15484352 -0.22013503 0.00000000
0.14350209 -0.20127949 0.00000000
-0.69127834 0.06838433 0.00000000
-0.47475216 0.13027668 0.00000000
0.15708923 -0.45621732 0.00000000
-0.06853370 -0.79401320 0.00000000
0.58223665 -0.07806106 -0.00000093
-0.23548344 -0.15724207 0.00000000
0.06609599 -0.54054433 0.00000000
0.44801176 0.19451368 -0.00000084
-0.53112155 -0.05052308 0.00000000
0.32849380 -0.21183808 0.00000000
-0.01172120 0.36749801 0.00000000
-0.16637500 -0.21143185 0.00000000
-0.71533090 -0.09025712 0.00000000
-0.78448766 -0.07953397 0.00000000
-0.70073766 0.05412647 0.00000000
0.42857575 0.31180707 -0.00000097
-0.53023279 0.21842977 0.00000000
0.51982248 0.21035784 -0.00000118
0.32820317 -0.48773801 0.00000000
-0.29334775 -0.51967561 0.00000000
0.08733933 0.44585392 0.00000000
0.55626667 0.13043021 -0.00000119
0.21183906 0.27145299 0.00000000
-0.19614494 0.44953549 0.00000000
-0.27263278 -0.45808601 0.00000000
0.26867422 -0.43448982 0.00000000
0.00957704 -0.33314314 0.00000000
0.04194370 0.26887301 0.00000000
-0.03361119 -0.69926155 0.00000000
-0.09030138 -0.31270120 0.00000000
0.34861070 0.40739447 -0.00000079
0.29751191 -0.42561805 0.00000000
-0.76097578 -0.17336424 0.00000000
-0.74718279 -0.33626944 0.00000000
-0.01688720 0.44181797 0.00000000
-0.08152787 0.61019576 0.00000000
0.68065834 -0.38062730 -0.00000082
0.09195820 -0.38451719 0.00000000
0.55472594 0.06056531 -0.00000106
-0.15106767 0.39504784 0.00000000
0.66781807 -0.47858411 -0.00000059
0.78224874 -0.33281305 -0.00000117
0.07640253 -0.78049082 0.00000000
0.18300907 -0.54206181 0.00000000
-0.77108383 -0.59541553 0.00000000
-0.74732620 -0.35408291 0.00000000
-0.33985415 -0.35996580 0.00000000
0.56515449 -0.75594586 0.00000000
-0.69276309 0.00810887 0.00000000
0.50050318 0.25810045 -0.00000118
0.78984153 -0.38464823 -0.00000104
0.03317158 0.73865098 -0.00000003
-0.31788766 -0.72758102 0.00000000
0.79551142 -0.64902276 -0.00000038
0.08789776 0.12865119 0.00000000
-0.39092532 -0.78321224 0.00000000
-0.35335609 -0.23581807 0.00000000
0.12537161 0.43716654 0.00000000
0.09997461 0.19429038 0.00000000
-0.20655823 -0.70462072 0.00000000
0.15539157 -0.33825752 0.00000000
-0.51851678 -0.62580526 0.00000000
-0.12184779 -0.03547609 0.00000000
0.46730396 -0.56368446 0.00000000
0.02027677 -0.15753584 0.00000000
0.07212003 0.41639629 0.00000000
0.12456285 0.02596847 0.00000000
0.42256871 -0.68222892 0.00000000
0.08522440 -0.06735372 0.00000000
-0.08365464 0.28968474 0.00000000
-0.52389050 -0.28422251 0.00000000
-0.31052753 -0.49959537 0.00000000
-0.08393422 0.30606017 0.00000000
-0.05967315 0.25636551 0.00000000
-0.74766028 -0.02876183 0.00000000
-0.05260268 0.24878553 0.00000000
-0.05253964 0.05785248 0.00000000
0.25904170 0.32841894 -0.00000027
0.72090971 -0.47932214 -0.00000080
-0.23346385 -0.02333320 0.00000000
0.51842487 0.09994071 -0.00000097
0.00484275 0.60614443 0.00000000
0.25055948 0.27509299 -0.00000014
-0.67898488 -0.15503289 0.00000000
-0.78821921 -0.37334132 0.00000000
-0.14080025 -0.13150916 0.00000000
0.15134241 0.10178779 0.00000000
-0.70087290 -0.59395695 0.00000000
0.00724134 0.38813090 0.00000000
0.16262072 -0.62100840 0.00000000
0.68620008 -0.64807796 -0.00000037
-0.71725667 -0.75497019 0.00000000
-0.07236121 0.70390004 0.00000000
0.05878711 -0.35571906 0.00000000
0.10719728 0.05778516 0.00000000
0.11271249 -0.71383554 0.00000000
-0.52512479 -0.61065179 0.00000000
0.51581961 0.04726847 -0.00000087
0.02723062 0.60594320 0.00000000
0.78634757 -0.04622778 -0.00000186
-0.49351844 -0.33458981 0.00000000
0.33705157 -0.41153666 0.00000000
-0.21798496 0.18348414 0.00000000
-0.35206202 0.09420757 0.00000000
0.56820649 -0.78473401 0.00000000
-0.53321898 -0.23192412 0.00000000
0.63201761 -0.29510611 -0.00000076
0.29696855 0.47141224 -0.00000069
0.05689794 -0.09647059 0.00000000
-0.02186216 -0.24717927 0.00000000
-0.23556133 0.53856725 0.00000000
0.26659563 -0.72034657 0.00000000
-0.65364075 0.07034162 0.00000000
0.29873478 -0.13855246 0.00000000
0.18916322 0.31674933 0.00000000
-0.13216422 -0.72780770 0.00000000
0.21457551 0.07316125 0.00000000
-0.20295249 -0.63232714 0.00000000
-0.76345098 -0.12809071 0.00000000
-0.12931523 -0.51797038 0.00000000
0.67830563 -0.34977525 -0.00000086
-0.12340209 -0.66621178 0.00000000
-0.13804059 -0.66713512 0.00000000
0.59136754 -0.20942535 -0.00000074
-0.23867965 -0.20623565 0.00000000
0.39836591 0.06417496 -0.00000040
-0.42557055 -0.21261251 0.00000000
-0.30364811 0.38545793 0.00000000
-0.61040992 0.12556773 0.00000000
0.32534787 -0.66454971 0.00000000
-0.08574594 0.33735839 0.00000000
-0.21407847 -0.79719001 0.00000000
0.49735260 -0.65320230 0.00000000
0.06041705 -0.78450119 0.00000000
0.09016742 0.13799916 0.00000000
-0.34160796 -0.56591356 0.00000000
-0.51876712 -0.19210158 0.00000000
-0.48093572 -0.60848629 0.00000000
0.46583983 -0.68771315 0.00000000
-0.01726482 -0.39426354 0.00000000
0.14013860 -0.48289722 0.00000000
-0.14348872 -0.47756428 0.00000000
-0.71269935 -0.21585637 0.00000000
0.70497394 -0.03894619 -0.00000153
-0.35839498 -0.25919014 0.00000000
0.21900997 -0.12996465 0.00000000
-0.00293680 -0.50147009 0.00000000
-0.21780433 0.39739987 0.00000000
0.69910604 -0.58352870 -0.00000054
0.04198777 -0.14738189 0.00000000
-0.57910907 -0.75302774 0.00000000
0.15624423 0.19894686 0.00000000
-0.25859421 0.43435556 0.00000000
0.23125342 0.12480505 0.00000000
0.67064422 -0.16166846 -0.00000116
-0.46716437 -0.19591747 0.00000000
-0.10925691 0.55779201 0.00000000
0.20977595 -0.08272835 0.00000000
0.64081764 -0.78522694 0.00000000
-0.45735532 -0.77290654 0.00000000
0.00104150 0.53360707 0.00000000
0.43317968 0.01077584 -0.00000045
0.55823851 -0.24777871 -0.00000053
0.45575082 -0.29046312 -0.00000002
0.48409772 -0.64866751 0.00000000
-0.23776010 -0.53127491 0.00000000
-0.28124204 -0.15953088 0.00000000
0.64821655 -0.34711093 -0.00000074
-0.01465650 -0.50257975 0.00000000
-0.35394460 -0.64976048 0.00000000
0.04382931 -0.11189144 0.00000000
-0.60213751 -0.22413857 0.00000000
0.30476445 -0.42887369 0.00000000
0.64190966 -0.01171653 -0.00000130
-0.11182278 0.01330527 0.00000000
0.48737612 -0.78947568 0.00000000
0.23264338 -0.57848281 0.00000000
-0.05281440 -0.36261153 0.00000000
0.45934024 -0.18596043 -0.00000022
0.07768075 -0.28252107 0.00000000
-0.21762761 -0.47538432 0.00000000
0.32481951 -0.78392339 0.00000000
0.41610143 0.36995411 -0.00000102
0.59793359 -0.38074216 -0.00000046
-0.31522161 -0.23921293 0.00000000
0.22258323 0.07575863 0.00000000
0.04786186 -0.51177084 0.00000000
0.58453745 0.15680294 -0.00000136
0.70858449 -0.54445541 -0.00000064
0.24042258 0.50465572 -0.00000050
-0.54971397 -0.03770430 0.00000000
-0.57947147 -0.28524378 0.00000000
0.71945560 -0.39531377 -0.00000096
0.35886765 0.30070296 -0.00000065
-0.63094676 -0.42266378 0.00000000
0.09689099 0.07962750 0.00000000
-0.54303348 -0.77328295 0.00000000
-0.13587447 -0.64657217 0.00000000
0.16559984 -0.28976709 0.00000000
0.05769098 -0.16795254 0.00000000
0.03540023 -0.60008103 0.00000000
0.61608040 0.12581785 -0.00000144
0.22521867 -0.48747066 0.00000000
-0.68357420 -0.34752694 0.00000000
0.26866135 -0.40133548 0.00000000
0.24623270 0.35808957 -0.00000027
0.64459568 -0.13026214 -0.00000111
0.74074930 -0.03190424 -0.00000169
0.37158653 -0.49389744 0.00000000
