ply
format ascii 1.0
element vertex 1117
property float x
property float y
property float z
end_header
-0.26665342 0.09331353 0.00000000
-0.39724940 -0.55703878 0.00000000
-0.65119082 -0.12011808 -0.00000115
-0.17089161 -0.48235828 0.00000000
-0.31365007 -0.01583879 0.00000000
-0.12157482 0.56890166 -0.00000011
-0.77883506 -0.78149426 -0.00000005
-0.13331369 -0.27785853 0.00000000
-0.58011866 0.02193990 -0.00000110
-0.15437691 -0.06059875 0.00000000
-0.40053499 -0.57096589 0.00000000
-0.10382581 -0.25391671 0.00000000
-0.26250061 0.23877668 -0.00000013
-0.36558461 -0.71046495 0.00000000
-0.14051282 -0.79336685 0.00000000
-0.56983179 0.01604742 -0.00000105
-0.39122117 -0.55641049 0.00000000
-0.79426163 -0.54293150 -0.00000064
-0.31042749 0.44411951 -0.00000070
-0.10537385 -0.16109198 0.00000000
-0.72680014 -0.73057258 -0.00000017
-0.16331789 -0.66924757 0.00000000
-0.27889505 0.10163407 0.00000000
-0.41692883 -0.74530900 0.00000000
-0.26921493 -0.41615251 0.00000000
-0.30366060 0.12281203 -0.00000010
-0.30399892 0.08197406 -0.00000003
-0.25306925 -0.25028506 0.00000000
-0.43597561 -0.18890128 -0.00000011
-0.34139797 -0.05787044 0.00000000
-0.03765299 -0.61385113 0.00000000
-0.39853877 -0.14356194 -0.00000003
-0.45472369 -0.40112317 0.00000000
-0.25539207 0.51412141 -0.00000058
-0.73422629 -0.65079451 -0.00000037
-0.16818199 -0.15729690 0.00000000
-0.21510927 0.10054944 0.00000000
-0.19173612 -0.33959278 0.00000000
-0.34571651 -0.64476389 0.00000000
-0.04463647 0.29051623 0.00000000
-0.57402903 0.19063371 -0.00000137
-0.62982023 0.02953076 -0.00000133
-0.37321240 -0.68725973 0.00000000
-0.32525820 -0.78924274 0.00000000
-0.09526668 -0.25558394 0.00000000
-0.13601527 0.06508075 0.00000000
-0.14039589 0.61502302 -0.00000027
-0.18258269 -0.54075575 0.00000000
-0.22732733 0.23435603 0.00000000
-0.43213299 -0.15819652 -0.00000015
-0.67711884 -0.03976126 -0.00000141
-0.27005923 -0.22148055 0.00000000
-0.24714439 -0.08253730 0.00000000
-0.53355879 -0.47963494 -0.00000002
-0.74285263 -0.50038874 -0.00000075
-0.49426740 -0.29757610 -0.00000017
-0.15796971 0.48876297 -0.00000012
-0.19284628 0.48775798 -0.00000027
-0.35482949 0.28017026 -0.00000060
-0.79907817 -0.69137269 -0.00000027
-0.76623452 -0.07495066 -0.00000172
-0.51297909 -0.53842652 0.00000000
-0.64288133 -0.12478878 -0.00000111
-0.67588830 -0.40375549 -0.00000076
-0.54341954 0.24721602 -0.00000134
-0.48314342 0.20628275 -0.00000101
-0.03739715 -0.71448249 0.00000000
-0.66204393 -0.56667435 -0.00000041
-0.53965366 0.05969575 -0.00000099
-0.23509350 -0.22879227 0.00000000
-0.16014577 -0.27320924 0.00000000
-0.46013391 -0.32732779 0.00000000
-0.17581992 -0.66605198 0.00000000
-0.77897024 -0.35526213 -0.00000111
-0.66939181 -0.47919214 -0.00000060
-0.77455443 -0.37384689 -0.00000107
-0.39100301 0.28192669 -0.00000075
-0.03801911 0.32125965 0.00000000
-0.74794251 -0.74086368 -0.00000015
-0.49176279 0.02821452 -0.00000073
-0.61142808 0.05296603 -0.00000129
-0.08092701 -0.39865577 0.00000000
-0.07404329 0.02985296 0.00000000
-0.78410798 -0.32886773 -0.00000118
-0.67332619 -0.61160618 -0.00000038
-0.28743225 0.06899504 0.00000000
-0.37746844 -0.65927392 0.00000000
-0.74363869 -0.08838002 -0.00000160
-0.53070378 -0.05524771 -0.00000075
-0.59821874 -0.57260281 -0.00000013
-0.69011045 -0.69175059 -0.00000027
-0.07930064 -0.52997071 0.00000000
-0.12638611 -0.62559569 0.00000000
-0.04341426 -0.67163515 0.00000000
-0.24690154 -0.70799458 0.00000000
-0.47485906 0.20057014 -0.00000097
-0.01631527 0.23071332 0.00000000
-0.21657053 -0.10255957 0.00000000
-0.04428017 0.13187128 0.00000000
-0.21312179 -0.21881776 0.00000000
-0.02704710 0.42489511 0.00000000
-0.19372217 -0.67586613 0.00000000
-0.62858802 -0.27103984 -0.00000079
-0.21829814 -0.03205602 0.00000000
-0.21622241 0.32951549 -0.00000009
-0.40450710 -0.06922785 -0.00000019
-0.22739428 0.29203472 -0.00000007
-0.30397841 -0.59328717 0.00000000
-0.03739322 -0.28203332 0.00000000
-0.15723753 0.57068342 -0.00000027
-0.45263609 0.32693622 -0.00000110
-0.07808197 0.35569385 0.00000000
-0.42626029 -0.07263177 -0.00000028
-0.74906933 0.03744417 -0.00000185
-0.12654001 -0.67418420 0.00000000
-0.40748945 -0.70755970 0.00000000
-0.07706940 0.70237637 -0.00000016
-0.53371495 0.13835087 -0.00000111
-0.46771866 -0.55220115 0.00000000
-0.15320857 0.40875664 0.00000000
-0.35604602 -0.74277061 0.00000000
-0.51391095 -0.51309526 0.00000000
-0.15950720 0.29586571 0.00000000
-0.31561044 -0.13984674 0.00000000
-0.04471676 0.29663116 0.00000000
-0.54152727 -0.19088607 -0.00000056
-0.00104943 -0.30567247 0.00000000
-0.21304581 -0.10422431 0.00000000
-0.13694224 -0.72936082 0.00000000
-0.26971266 -0.60283422 0.00000000
-0.65240812 -0.59353042 -0.00000032
-0.59179646 -0.37512857 -0.00000045
-0.03167982 0.73324555 -0.00000002
-0.30309144 -0.04784200 0.00000000
-0.11505296 0.01489486 0.00000000
-0.78856158 -0.72964168 -0.00000018
-0.63313520 -0.75628304 0.00000000
-0.30662465 -0.29394689 0.00000000
-0.27492943 -0.61127144 0.00000000
-0.36831191 0.34274316 -0.00000076
-0.50342977 -0.03327653 -0.00000068
-0.67819738 -0.46271357 -0.00000066
-0.07684025 0.16556711 0.00000000
-0.75473261 -0.05290153 -0.00000171
-0.38249934 0.05626452 -0.00000032
-0.56575555 -0.15351978 -0.00000073
-0.23175073 0.08116695 0.00000000
-0.04930226 -0.40661758 0.00000000
-0.43470743 0.24574119 -0.00000088
-0.61874628 -0.48682114 -0.00000037
-0.37154052 -0.77744013 0.00000000
-0.46151808 0.25895953 -0.00000101
-0.14664707 -0.52281886 0.00000000
-0.30777818 -0.56827134 0.00000000
-0.06922594 -0.02908482 0.00000000
-0.06394568 -0.16473787 0.00000000
-0.09553901 0.26530126 0.00000000
-0.28708938 -0.57816422 0.00000000
-0.31765354 -0.62126005 0.00000000
-0.51535761 -0.08885739 -0.00000063
-0.36771631 -0.54673111 0.00000000
-0.19012377 -0.24985683 0.00000000
-0.23593076 -0.29334900 0.00000000
-0.51327586 -0.21899521 -0.00000039
-0.09062301 0.55112720 0.00000000
-0.59149641 0.18801180 -0.00000144
-0.47924852 0.06022250 -0.00000074
-0.54690313 -0.54954046 0.00000000
-0.04407138 -0.61892521 0.00000000
-0.13278987 0.15092756 0.00000000
-0.22676530 -0.04015806 0.00000000
-0.57594162 -0.13722721 -0.00000080
-0.21155667 -0.06901131 0.00000000
-0.03436656 -0.01220148 0.00000000
-0.29432100 0.49915439 -0.00000072
-0.54123080 0.24345517 -0.00000133
-0.43325800 0.17641905 -0.00000075
-0.37638319 -0.66032702 0.00000000
-0.05034744 -0.55008972 0.00000000
-0.40363145 0.07192975 -0.00000044
-0.46085632 -0.18004532 -0.00000023
-0.39086217 -0.49113545 0.00000000
-0.61110753 -0.29557630 -0.00000067
-0.27515686 -0.79600441 0.00000000
-0.63935947 -0.22283781 -0.00000092
-0.17518324 -0.59934157 0.00000000
-0.46579146 -0.79578990 0.00000000
-0.43647724 -0.33569881 0.00000000
-0.03389367 -0.17130034 0.00000000
-0.22809677 0.21977389 0.00000000
-0.73597175 -0.23838896 -0.00000131
-0.14702074 0.01053346 0.00000000
-0.08928146 0.18060997 0.00000000
-0.24752788 -0.42834851 0.00000000
-0.17783286 0.58614749 -0.00000038
-0.07932475 0.44202870 0.00000000
-0.14243273 0.09110668 0.00000000
-0.17303300 -0.65333790 0.00000000
-0.13069813 -0.34598273 0.00000000
-0.16691810 -0.19526926 0.00000000
-0.45879820 -0.50733495 0.00000000
-0.40081012 0.00896312 -0.00000031
-0.49215195 0.20177542 -0.00000104
-0.02379302 0.13490838 0.00000000
-0.60242558 -0.54674280 -0.00000019
-0.54429281 -0.42777959 -0.00000015
-0.22046170 -0.63894331 0.00000000
-0.32383844 0.36189431 -0.00000061
-0.56928301 -0.43254575 -0.00000025
-0.09972371 -0.17168792 0.00000000
-0.03674929 -0.41554269 0.00000000
-0.68685311 -0.31466180 -0.00000096
-0.66950476 -0.49094671 -0.00000058
-0.17729665 -0.48414788 0.00000000
-0.19654907 -0.55342168 0.00000000
-0.08911012 -0.61434454 0.00000000
-0.12849799 0.62401378 -0.00000024
-0.10030839 -0.51442283 0.00000000
-0.29998732 -0.10571712 0.00000000
-0.11258970 -0.14406833 0.00000000
-0.45469713 -0.03225531 -0.00000047
-0.45262349 -0.39708975 0.00000000
-0.41132292 -0.59914601 0.00000000
-0.03206491 0.26794097 0.00000000
-0.19521993 -0.47968873 0.00000000
-0.34962764 0.42625815 -0.00000083
-0.45584339 -0.18247434 -0.00000021
-0.61074638 -0.78980649 0.00000000
-0.21857275 -0.53530592 0.00000000
-0.17030123 -0.69436538 0.00000000
-0.38385707 -0.27465707 0.00000000
-0.59681815 -0.73817885 0.00000000
-0.27193788 -0.72269696 0.00000000
-0.41732413 -0.72767878 0.00000000
-0.55181259 -0.36088750 -0.00000030
-0.54380393 -0.57478535 0.00000000
-0.56357437 -0.19961222 -0.00000064
-0.35906449 0.28680593 -0.00000063
-0.50479817 -0.04601840 -0.00000066
-0.05722069 -0.52752346 0.00000000
-0.22576399 -0.59233660 0.00000000
-0.44322947 0.28371379 -0.00000098
-0.05539506 -0.08283706 0.00000000
-0.57326174 0.14213286 -0.00000128
-0.15212762 -0.05596691 0.00000000
-0.35677665 0.37157422 -0.00000077
-0.06156180 0.28728032 0.00000000
-0.25756115 0.23238181 -0.00000010
-0.77563983 -0.79630452 -0.00000001
-0.42581275 -0.07686907 -0.00000027
-0.75320107 -0.54050183 -0.00000065
-0.52955961 -0.11297541 -0.00000065
-0.27560893 -0.44010547 0.00000000
-0.38141745 -0.71495116 0.00000000
-0.24761280 -0.38017282 0.00000000
-0.49735433 -0.11360338 -0.00000051
-0.63557982 -0.60849643 -0.00000022
-0.14043331 -0.40066561 0.00000000
-0.34404168 -0.46594706 0.00000000
-0.32003739 0.15098242 -0.00000022
-0.10157519 0.40096897 0.00000000
-0.63095367 -0.26635441 -0.00000081
-0.24879076 -0.59155297 0.00000000
-0.50447893 -0.63246256 0.00000000
-0.20345093 -0.37320426 0.00000000
-0.10017459 -0.39205521 0.00000000
-0.32124817 0.23642647 -0.00000037
-0.72065556 -0.00663611 -0.00000165
-0.33004174 0.26822671 -0.00000047
-0.57855934 -0.48589826 -0.00000020
-0.17880861 -0.41514379 0.00000000
-0.13177820 0.18881781 0.00000000
-0.29115310 0.09367971 0.00000000
-0.67305666 -0.74552298 -0.00000014
-0.28132933 0.24028598 -0.00000021
-0.78774101 -0.40224871 -0.00000099
-0.33794999 -0.58285183 0.00000000
-0.14631920 -0.34697342 0.00000000
-0.58742321 -0.30316389 -0.00000056
-0.60470980 -0.60727686 -0.00000009
-0.17318211 0.16430521 0.00000000
-0.59035778 -0.09289139 -0.00000094
-0.42440256 -0.01871443 -0.00000036
-0.00162017 -0.66636151 0.00000000
-0.34867018 -0.05867106 0.00000000
-0.01625103 0.04979029 0.00000000
-0.19074830 0.08992376 0.00000000
-0.35587892 -0.66339928 0.00000000
-0.41291982 -0.19395570 -0.00000001
-0.64552975 -0.36996102 -0.00000069
-0.70038861 -0.27114856 -0.00000110
-0.76843321 -0.01838024 -0.00000183
-0.09799176 0.32358927 0.00000000
-0.28603923 0.10734771 0.00000000
-0.11169320 -0.06338226 0.00000000
-0.15371627 0.15194070 0.00000000
-0.12713563 -0.12715575 0.00000000
-0.20319824 0.13116020 0.00000000
-0.62963802 -0.66913092 -0.00000009
-0.02256113 0.34453875 0.00000000
-0.34371394 -0.26623520 0.00000000
-0.34970430 -0.73442215 0.00000000
-0.37668851 -0.61907810 0.00000000
-0.23202021 0.39126119 -0.00000027
-0.49570656 0.23897775 -0.00000112
-0.29360586 -0.56373709 0.00000000
-0.68800908 -0.43501353 -0.00000075
-0.20360652 -0.49345472 0.00000000
-0.35881805 0.17089142 -0.00000042
-0.68869907 0.06671884 -0.00000164
-0.72691149 -0.28156185 -0.00000119
-0.65082264 0.13121007 -0.00000160
-0.27434546 -0.39640164 0.00000000
-0.26380968 0.35273710 -0.00000034
-0.29168642 -0.00180077 0.00000000
-0.76366663 0.00754632 -0.00000186
-0.18874967 -0.49210194 0.00000000
-0.50424290 -0.24456593 -0.00000031
-0.37276739 -0.64366269 0.00000000
-0.24218550 -0.66513461 0.00000000
-0.54677814 -0.30637029 -0.00000038
-0.56155187 0.14912274 -0.00000125
-0.38491800 -0.72953969 0.00000000
-0.14901234 0.59818923 -0.00000028
-0.31111366 0.09547249 -0.00000008
-0.21055263 -0.17300756 0.00000000
-0.39947891 -0.41161895 0.00000000
-0.02991178 -0.39758262 0.00000000
-0.06595740 -0.53678930 0.00000000
-0.77650809 -0.10871296 -0.00000171
-0.12879443 -0.62372077 0.00000000
-0.41274196 -0.60369188 0.00000000
-0.14383575 -0.31427604 0.00000000
-0.00843451 -0.47516909 0.00000000
-0.19184488 0.31494397 0.00000000
-0.52769381 -0.23348831 -0.00000043
-0.51501930 -0.79422772 0.00000000
-0.40224275 -0.02637349 -0.00000026
-0.21435419 -0.73088783 0.00000000
-0.60996735 -0.48420793 -0.00000033
-0.19332708 -0.42751038 0.00000000
-0.65200412 -0.68627024 -0.00000016
-0.48082116 -0.17740220 -0.00000032
-0.06403576 -0.79286373 0.00000000
-0.49752396 -0.52749264 0.00000000
-0.25662699 -0.66364872 0.00000000
-0.10671276 0.11940900 0.00000000
-0.02201846 -0.60810649 0.00000000
-0.46505514 -0.46943521 0.00000000
-0.56770539 -0.06546263 -0.00000089
-0.29361302 0.07068867 0.00000000
-0.71795154 -0.22679424 -0.00000125
-0.79974371 -0.27251759 -0.00000132
-0.04170098 -0.73740852 0.00000000
-0.44265473 -0.00621326 -0.00000046
-0.41473114 -0.29448801 0.00000000
-0.32220194 -0.44800979 0.00000000
-0.29959050 -0.58085418 0.00000000
-0.75162464 -0.65611458 -0.00000036
-0.06476607 0.36549935 0.00000000
-0.58575702 -0.72848797 0.00000000
-0.34397009 -0.11542342 0.00000000
-0.08074156 -0.08736627 0.00000000
-0.57039469 -0.29225031 -0.00000050
-0.52387834 -0.05117953 -0.00000073
-0.01897365 -0.50363666 0.00000000
-0.21453913 -0.65296400 0.00000000
-0.01108266 -0.44677633 0.00000000
-0.29615289 -0.66632420 0.00000000
-0.50552511 -0.02351508 -0.00000070
-0.56466722 0.10819335 -0.00000119
-0.38237077 -0.19335553 0.00000000
-0.11403587 -0.10830825 0.00000000
-0.34745073 -0.71377242 0.00000000
-0.28173259 -0.47383556 0.00000000
-0.40303510 -0.57263136 0.00000000
-0.79096460 -0.77662605 -0.00000006
-0.45715716 -0.56903613 0.00000000
-0.54814339 -0.68035245 0.00000000
-0.28832477 -0.47306627 0.00000000
-0.09731284 0.23056012 0.00000000
-0.08496174 -0.78434211 0.00000000
-0.38151547 0.41813648 -0.00000095
-0.06610642 -0.71973211 0.00000000
-0.57600176 -0.26831305 -0.00000057
-0.21007103 -0.05745169 0.00000000
-0.33410543 -0.46169558 0.00000000
-0.02899424 -0.59722185 0.00000000
-0.22687884 -0.62138510 0.00000000
-0.33230379 -0.52465278 0.00000000
-0.66933608 -0.60526854 -0.00000037
-0.03995478 0.30592799 0.00000000
-0.77761215 -0.72198576 -0.00000020
-0.41770828 -0.37070081 0.00000000
-0.40771607 -0.51694989 0.00000000
-0.62449825 -0.78373992 0.00000000
-0.44117808 0.22820821 -0.00000087
-0.30724379 -0.54146594 0.00000000
-0.70444274 -0.41091773 -0.00000087
-0.09368206 -0.24955477 0.00000000
-0.48706582 -0.50301152 0.00000000
-0.50381696 -0.69604737 0.00000000
-0.20465508 -0.06426738 0.00000000
-0.48371083 -0.02955856 -0.00000060
-0.06936724 0.11310311 0.00000000
-0.14399333 0.22348695 0.00000000
-0.10044332 -0.26659372 0.00000000
-0.00634829 0.15185528 0.00000000
-0.14983504 0.00702028 0.00000000
-0.69862056 -0.53966540 -0.00000061
-0.44517922 -0.55807000 0.00000000
-0.21553861 0.35163999 -0.00000013
-0.18778884 -0.71395159 0.00000000
-0.66615003 -0.22247599 -0.00000104
-0.16245355 0.49180460 -0.00000015
-0.04910548 -0.26342681 0.00000000
-0.19316474 0.46536231 -0.00000023
-0.02477722 0.53192484 0.00000000
-0.39009270 -0.70843476 0.00000000
-0.36346239 -0.16797668 0.00000000
-0.70762759 -0.21617898 -0.00000122
-0.11399340 -0.14190397 0.00000000
-0.13577840 0.05798009 0.00000000
-0.43759266 -0.47675243 0.00000000
-0.53186738 -0.01256865 -0.00000083
-0.05575238 -0.51205909 0.00000000
-0.18424971 -0.64842081 0.00000000
-0.20381685 0.08230852 0.00000000
-0.57821423 0.15818223 -0.00000133
-0.06186528 0.48945197 0.00000000
-0.24780107 -0.41556168 0.00000000
-0.02805770 0.51185751 0.00000000
-0.52620846 0.07208149 -0.00000096
-0.55639553 -0.01440467 -0.00000093
-0.64924681 -0.55431473 -0.00000038
-0.21515036 -0.32768580 0.00000000
-0.20931894 0.07682484 0.00000000
-0.31971693 -0.58786362 0.00000000
-0.72423375 -0.32053080 -0.00000111
-0.09442161 -0.04184592 0.00000000
-0.35866031 -0.69236702 0.00000000
-0.37010562 -0.69374657 0.00000000
-0.72136933 -0.44291860 -0.00000088
-0.73695368 -0.32123458 -0.00000116
-0.42988271 -0.02040257 -0.00000038
-0.61637950 -0.64563185 -0.00000008
-0.57487279 -0.13464639 -0.00000080
-0.14415959 0.08394484 0.00000000
-0.64795226 -0.01081564 -0.00000133
-0.18525238 -0.03127876 0.00000000
-0.62487179 -0.31294587 -0.00000070
-0.23138256 0.45854110 -0.00000038
-0.63218951 0.06699347 -0.00000140
-0.13597599 0.48778015 -0.00000003
-0.26810613 -0.71250761 0.00000000
-0.22162361 0.22690275 0.00000000
-0.15992378 -0.22506873 0.00000000
-0.39376917 -0.02822874 -0.00000022
-0.59037274 -0.13213407 -0.00000087
-0.03113761 -0.63844800 0.00000000
-0.33692968 -0.54407102 0.00000000
-0.13857502 -0.76067597 0.00000000
-0.41343528 -0.36755517 0.00000000
-0.35456395 0.29122743 -0.00000061
-0.46878099 -0.42899862 0.00000000
-0.07811196 0.69029802 -0.00000014
-0.20835397 -0.75242317 0.00000000
-0.21714561 -0.32478413 0.00000000
-0.03816006 -0.30680424 0.00000000
-0.34905908 0.44571817 -0.00000079
-0.55884546 -0.45180255 -0.00000017
-0.09611211 -0.35816500 0.00000000
-0.65752518 -0.30761656 -0.00000085
-0.01138541 0.64322406 0.00000000
-0.48047653 0.01253701 -0.00000066
-0.77330375 -0.79389733 -0.00000002
-0.51805592 -0.00233643 -0.00000079
-0.28087759 -0.71850830 0.00000000
-0.44240117 0.15492094 -0.00000075
-0.39877701 0.10381567 -0.00000047
-0.64649874 0.03064255 -0.00000140
-0.01764734 -0.46193665 0.00000000
-0.59758061 0.19046947 -0.00000147
-0.38158825 0.41718107 -0.00000095
-0.05181248 -0.56929809 0.00000000
-0.34292796 -0.29369539 0.00000000
-0.56873375 -0.37914446 -0.00000034
-0.24671622 0.00478350 0.00000000
-0.06271378 -0.43519062 0.00000000
-0.35002249 -0.32722923 0.00000000
-0.56011349 -0.24771237 -0.00000054
-0.30193305 0.22289357 -0.00000027
-0.19323935 -0.13563743 0.00000000
-0.00796003 -0.48823971 0.00000000
-0.23439667 -0.40363175 0.00000000
-0.52334213 -0.34927821 -0.00000020
-0.63401377 -0.37154278 -0.00000063
-0.48219925 0.02781422 -0.00000069
-0.39358413 0.30807453 -0.00000081
-0.39855063 -0.43866771 0.00000000
-0.26241559 -0.07579785 0.00000000
-0.16878557 -0.76173586 0.00000000
-0.79165548 -0.77700222 -0.00000006
-0.73512900 -0.13760246 -0.00000148
-0.63125885 0.02737774 -0.00000133
-0.25515831 -0.76588583 0.00000000
-0.27998334 0.14007431 -0.00000003
-0.27559921 -0.03099891 0.00000000
-0.67109185 0.08169803 -0.00000159
-0.00776192 -0.40394622 0.00000000
-0.16753387 0.03274232 0.00000000
-0.53823215 -0.28424808 -0.00000038
-0.04749816 0.02291219 0.00000000
-0.02940446 0.47670817 0.00000000
-0.38508645 0.27348965 -0.00000071
-0.51164263 -0.27280533 -0.00000029
-0.30025402 -0.56974953 0.00000000
-0.34544143 0.40647098 -0.00000078
-0.50821179 -0.17916283 -0.00000044
-0.36623371 0.23324107 -0.00000056
-0.68748617 -0.29950535 -0.00000099
-0.35479754 -0.43645543 0.00000000
-0.27039781 -0.32829189 0.00000000
-0.64658833 -0.76393068 0.00000000
-0.47450751 0.10679213 -0.00000080
-0.60759664 -0.62583047 -0.00000007
-0.52421069 -0.67965406 0.00000000
-0.32067156 -0.79634249 0.00000000
-0.32555443 -0.35146856 0.00000000
-0.10807258 0.53929061 -0.00000000
-0.07712170 0.37308523 0.00000000
-0.73006302 -0.46289498 -0.00000084
-0.56907129 -0.69178265 0.00000000
-0.72055429 -0.08801993 -0.00000151
-0.19625159 -0.33363324 0.00000000
-0.28902179 -0.78953284 0.00000000
-0.13498378 0.38921121 0.00000000
-0.01346177 -0.77126831 0.00000000
-0.47637865 -0.05748606 -0.00000052
-0.01723742 0.23045854 0.00000000
-0.46414959 -0.60215741 0.00000000
-0.00790621 0.22363900 0.00000000
-0.15751582 0.08121977 0.00000000
-0.72191209 -0.55038649 -0.00000062
-0.70049047 -0.59099448 -0.00000052
-0.20953900 -0.79011732 0.00000000
-0.48628041 0.16266745 -0.00000095
-0.20362663 -0.59123909 0.00000000
-0.10708790 0.64420909 -0.00000018
-0.00873671 -0.35553908 0.00000000
-0.22109011 0.01583203 0.00000000
-0.64819086 0.06290588 -0.00000146
-0.24141432 0.12617205 0.00000000
-0.75297499 -0.33412954 -0.00000116
-0.65156049 -0.56387323 -0.00000037
-0.79240471 -0.41480917 -0.00000096
-0.21179698 -0.17822321 0.00000000
-0.29752746 0.44840088 -0.00000065
-0.74771088 -0.11744044 -0.00000157
-0.62270558 0.12020386 -0.00000146
-0.05377626 -0.35555810 0.00000000
-0.67285514 -0.09741668 -0.00000129
-0.02155810 0.27288255 0.00000000
-0.04294415 -0.01771681 0.00000000
-0.35758853 -0.08508596 0.00000000
-0.47553930 0.08734318 -0.00000077
-0.04324768 -0.26449594 0.00000000
-0.66531152 -0.45988551 -0.00000061
-0.18351798 -0.74477953 0.00000000
-0.09165374 0.41864833 0.00000000
-0.58536893 -0.46940461 -0.00000025
-0.19429502 0.36521554 -0.00000006
-0.35204324 -0.12309716 0.00000000
-0.56957930 0.01449382 -0.00000104
-0.51326704 -0.54634643 0.00000000
-0.28968284 -0.05384508 0.00000000
-0.73883384 -0.05919420 -0.00000163
-0.13343176 0.52378428 -0.00000008
-0.29300502 -0.59451854 0.00000000
-0.35050434 -0.02512606 -0.00000004
-0.43122888 -0.06491212 -0.00000031
-0.35153165 0.09984577 -0.00000026
-0.68353814 -0.29472294 -0.00000098
-0.07923774 0.35626605 0.00000000
-0.70397937 -0.00528935 -0.00000158
-0.07890895 -0.08244968 0.00000000
-0.58777606 0.09640229 -0.00000126
-0.31791028 0.46510208 -0.00000076
-0.01161076 -0.32066172 0.00000000
-0.74568349 -0.13033105 -0.00000154
-0.31563669 0.38314956 -0.00000061
-0.49798289 -0.12811324 -0.00000048
-0.22210637 0.13672650 0.00000000
-0.12740870 -0.70275140 0.00000000
-0.05566762 -0.22729120 0.00000000
-0.75601512 -0.41433015 -0.00000096
-0.43927309 -0.45718384 0.00000000
-0.14663839 0.32288858 0.00000000
-0.72751218 0.02171346 -0.00000173
-0.18211471 -0.67661810 0.00000000
-0.06457590 0.09536862 0.00000000
-0.51879930 0.00887163 -0.00000082
-0.67645007 -0.72503942 -0.00000019
-0.22478253 0.41531107 -0.00000028
-0.24535654 0.19093753 0.00000000
-0.49800691 -0.09730050 -0.00000054
-0.40792492 -0.40217978 0.00000000
-0.77008504 -0.75103068 -0.00000012
-0.08724630 0.43903738 0.00000000
-0.00572238 0.50732434 0.00000000
-0.76771832 -0.18384887 -0.00000154
-0.01809306 -0.48997149 0.00000000
-0.55508471 -0.79176277 0.00000000
-0.41571197 -0.57871783 0.00000000
-0.17292748 -0.69929695 0.00000000
-0.68279189 -0.61777496 -0.00000041
-0.79613423 -0.23360761 -0.00000142
-0.28259495 -0.30294612 0.00000000
-0.16129836 0.30770731 0.00000000
-0.59518027 -0.41821584 -0.00000039
-0.47478405 -0.00336727 -0.00000061
-0.05409335 0.58719879 0.00000000
-0.48508388 -0.55672300 0.00000000
-0.04870937 0.71209568 -0.00000005
-0.06363519 0.03947535 0.00000000
-0.27340308 -0.38180310 0.00000000
-0.06208634 0.04571426 0.00000000
-0.16345727 -0.08393210 0.00000000
-0.17118061 -0.48554990 0.00000000
-0.21312179 -0.23917241 0.00000000
-0.17470942 -0.04067559 0.00000000
-0.64441097 -0.49558523 -0.00000046
-0.76727253 0.00733084 -0.00000187
-0.03997206 0.35544798 0.00000000
-0.19240087 -0.26922885 0.00000000
-0.42753327 -0.41903761 0.00000000
-0.01952877 -0.51731616 0.00000000
-0.52980572 -0.73942208 0.00000000
-0.68550187 0.05178466 -0.00000160
-0.45755118 0.14588878 -0.00000080
-0.08549026 -0.03909157 0.00000000
-0.20261121 -0.16834243 0.00000000
-0.29203451 -0.19198991 0.00000000
-0.22606839 -0.26651198 0.00000000
-0.77848148 -0.22269292 -0.00000144
-0.49040350 0.03741680 -0.00000074
-0.06998233 -0.46860391 0.00000000
-0.29940337 -0.47823718 0.00000000
-0.07123643 -0.72465366 0.00000000
-0.67508399 -0.19714715 -0.00000112
-0.02471456 -0.05382846 0.00000000
-0.16909754 0.07232493 0.00000000
-0.60717613 -0.54810143 -0.00000021
-0.02720107 -0.02649150 0.00000000
-0.13279875 0.12286715 0.00000000
-0.10606074 0.56483948 -0.00000004
-0.16768885 -0.72986805 0.00000000
-0.16964620 -0.58909255 0.00000000
-0.20114431 0.39702612 -0.00000015
-0.45012519 -0.23769949 -0.00000009
-0.69614089 -0.66649973 -0.00000033
-0.12574624 -0.09484523 0.00000000
-0.76693445 -0.60521817 -0.00000049
-0.09135124 -0.24422552 0.00000000
-0.00498779 0.62710488 0.00000000
-0.37921396 -0.42593929 0.00000000
-0.08687634 0.58099604 0.00000000
-0.06538079 0.66225266 -0.00000004
-0.74512875 -0.05867904 -0.00000166
-0.10635494 -0.54661202 0.00000000
-0.45304754 0.23507077 -0.00000093
-0.36018437 -0.19615956 0.00000000
-0.02089033 -0.61836571 0.00000000
-0.33899438 -0.30159244 0.00000000
-0.63830167 0.13524041 -0.00000155
-0.19791387 -0.26578769 0.00000000
-0.00503532 0.60955971 0.00000000
-0.55382961 0.15206550 -0.00000122
-0.00609260 -0.26548231 0.00000000
-0.03101925 -0.68513834 0.00000000
-0.75130701 -0.65342027 -0.00000037
-0.22591314 0.41631034 -0.00000029
-0.62492323 -0.33872417 -0.00000065
-0.56369793 -0.03758364 -0.00000093
-0.60267091 -0.17590632 -0.00000085
-0.19895683 -0.49130803 0.00000000
-0.46446663 -0.12250162 -0.00000035
-0.23970453 0.43587077 -0.00000038
-0.20021717 0.38979208 -0.00000013
-0.75219101 -0.78683472 -0.00000003
-0.03811965 -0.28623977 0.00000000
-0.43501398 0.02649633 -0.00000049
-0.67192250 -0.24617003 -0.00000102
-0.03717668 -0.20919408 0.00000000
-0.13431585 -0.58600599 0.00000000
-0.10356935 0.22222726 0.00000000
-0.22189312 -0.51191384 0.00000000
-0.37064323 -0.63151622 0.00000000
-0.04198115 0.22439533 0.00000000
-0.42649677 -0.30431896 0.00000000
-0.19127879 0.35461313 -0.00000003
-0.66744268 -0.61855435 -0.00000034
-0.02330111 -0.23425604 0.00000000
-0.56242228 -0.45460516 -0.00000018
-0.07762633 0.52817750 0.00000000
-0.12321089 0.29342973 0.00000000
-0.45378661 0.30135244 -0.00000106
-0.23421763 -0.21491355 0.00000000
-0.53517526 -0.07332436 -0.00000074
-0.34532467 -0.26985916 0.00000000
-0.10292386 0.20205466 0.00000000
-0.04722501 -0.02126141 0.00000000
-0.02703341 -0.29629561 0.00000000
-0.22431052 -0.38400558 0.00000000
-0.36623028 -0.03544997 -0.00000009
-0.52691776 -0.31832930 -0.00000027
-0.28098217 -0.09480595 0.00000000
-0.08272057 -0.67519975 0.00000000
-0.25335619 -0.65520591 0.00000000
-0.12980439 0.59720778 -0.00000020
-0.53921533 -0.55288994 0.00000000
-0.31279966 0.07935383 -0.00000006
-0.42268780 0.35898858 -0.00000102
-0.73660684 -0.63931525 -0.00000040
-0.50573486 -0.36979192 -0.00000009
-0.35188210 -0.72591788 0.00000000
-0.13952099 0.14316082 0.00000000
-0.12642290 0.56484580 -0.00000012
-0.64517057 -0.53259730 -0.00000040
-0.41672984 -0.43142110 0.00000000
-0.26320389 0.29038295 -0.00000022
-0.09380452 -0.21967357 0.00000000
-0.23309934 -0.03856999 0.00000000
-0.40415895 -0.62200159 0.00000000
-0.50379860 -0.65925837 0.00000000
-0.54750621 0.22869791 -0.00000133
-0.46401849 0.26855752 -0.00000104
-0.33288154 -0.63833880 0.00000000
-0.08034801 0.25128898 0.00000000
-0.70172018 -0.51520580 -0.00000067
-0.74964786 -0.08280311 -0.00000164
-0.22439834 -0.53403294 0.00000000
-0.27216867 0.37817910 -0.00000042
-0.35535276 0.16412579 -0.00000039
-0.35315666 0.27609962 -0.00000058
-0.05304399 0.62029773 0.00000000
-0.26535052 -0.02854813 0.00000000
-0.01573009 -0.21112093 0.00000000
-0.72042292 -0.76743883 -0.00000008
-0.37484273 -0.29821661 0.00000000
-0.69618833 -0.68519777 -0.00000029
-0.12836520 -0.06419279 0.00000000
-0.45142102 -0.35052827 0.00000000
-0.44894964 -0.13441730 -0.00000026
-0.18841155 -0.19980565 0.00000000
-0.52988571 0.08203097 -0.00000099
-0.15474454 0.55223382 -0.00000022
-0.34321395 -0.46480945 0.00000000
-0.43228659 -0.28075126 0.00000000
-0.07861755 -0.49255762 0.00000000
-0.20950067 -0.79216552 0.00000000
-0.17994550 -0.48902515 0.00000000
-0.15040229 0.04540077 0.00000000
-0.24176984 -0.04352256 0.00000000
-0.09103997 0.15583397 0.00000000
-0.37873209 -0.55092168 0.00000000
-0.75422126 -0.52336025 -0.00000069
-0.35175338 -0.60726517 0.00000000
-0.15116660 0.64313090 -0.00000037
-0.54220003 -0.75675035 0.00000000
-0.65247899 -0.64539683 -0.00000023
-0.25933748 0.20039585 -0.00000005
-0.24694666 -0.27998424 0.00000000
-0.59699053 -0.52713412 -0.00000020
-0.19283611 -0.34463254 0.00000000
-0.38417512 0.31119803 -0.00000078
-0.60547614 -0.00978094 -0.00000115
-0.08113724 -0.45416108 0.00000000
-0.48780516 -0.78020847 0.00000000
-0.04658404 0.74464685 -0.00000010
-0.19878510 -0.47422314 0.00000000
-0.43306857 0.16108985 -0.00000072
-0.31274864 -0.65306890 0.00000000
-0.04069500 0.14591517 0.00000000
-0.19110487 0.41916212 -0.00000014
-0.70302820 -0.30264658 -0.00000105
-0.35514763 0.11594764 -0.00000031
-0.37828112 -0.23286393 0.00000000
-0.59738833 -0.44042054 -0.00000036
-0.50530392 -0.34895828 -0.00000013
-0.00062081 0.27817363 0.00000000
-0.21134907 0.26083037 0.00000000
-0.12166847 0.45956725 0.00000000
-0.18333077 -0.78294122 0.00000000
-0.36864966 0.37528476 -0.00000082
-0.45588675 -0.30092862 0.00000000
-0.36713222 -0.51599902 0.00000000
-0.34497321 -0.78109640 0.00000000
-0.12618667 0.18407232 0.00000000
-0.55905795 -0.63882476 0.00000000
-0.64047426 -0.39447364 -0.00000062
-0.24706046 -0.51448560 0.00000000
-0.13337305 -0.57944733 0.00000000
-0.64507926 0.05632367 -0.00000144
-0.61083841 0.14083456 -0.00000144
-0.44183290 -0.09347794 -0.00000031
-0.34715703 0.32486397 -0.00000064
-0.14380552 -0.51467294 0.00000000
-0.02468924 0.75040925 -0.00000002
-0.35213259 -0.51806140 0.00000000
-0.03766193 -0.31780741 0.00000000
-0.21695624 -0.22574551 0.00000000
-0.33713943 0.18370289 -0.00000035
-0.69305933 -0.67409933 -0.00000031
-0.44065091 -0.68486774 0.00000000
-0.26238391 0.47563016 -0.00000055
-0.23927046 0.41479284 -0.00000034
-0.57356036 -0.20102134 -0.00000068
-0.59804416 -0.28238711 -0.00000064
-0.09632216 0.50725317 0.00000000
-0.39515063 -0.04597671 -0.00000019
-0.61158907 -0.06796394 -0.00000108
-0.65732396 -0.43420643 -0.00000062
-0.54456705 0.10159769 -0.00000109
-0.58515328 -0.50101560 -0.00000020
-0.55207568 -0.50478005 -0.00000005
-0.57842886 -0.02634648 -0.00000101
-0.15850680 -0.22835183 0.00000000
-0.23274682 -0.26361468 0.00000000
-0.66044724 -0.63525069 -0.00000028
-0.27609527 0.17210062 -0.00000007
-0.16124792 -0.40640721 0.00000000
-0.20228741 0.02159997 0.00000000
-0.19383170 -0.41683003 0.00000000
-0.06852431 -0.17778502 0.00000000
-0.12242212 0.56584102 -0.00000011
-0.14137281 -0.39256972 0.00000000
-0.44623846 0.21829005 -0.00000088
-0.75437707 -0.02755247 -0.00000176
-0.57377112 0.13562012 -0.00000127
-0.34347686 -0.11054258 0.00000000
-0.67029506 -0.54537970 -0.00000048
-0.20210125 -0.53180361 0.00000000
-0.11427424 -0.11566034 0.00000000
-0.22005071 0.02193237 0.00000000
-0.34267586 -0.28983343 0.00000000
-0.33083764 0.32754239 -0.00000058
-0.55343890 -0.16797146 -0.00000065
-0.28224650 -0.46243605 0.00000000
-0.53856850 -0.61383229 0.00000000
-0.52203172 -0.37506011 -0.00000015
-0.53287333 -0.09740365 -0.00000069
-0.37264648 -0.52744329 0.00000000
-0.38205495 -0.34776017 0.00000000
-0.08121931 0.41649389 0.00000000
-0.71773446 -0.46093214 -0.00000083
-0.02689329 -0.25613174 0.00000000
-0.63372070 -0.63370126 -0.00000017
-0.28007564 -0.20214479 0.00000000
-0.16983774 0.29185295 0.00000000
-0.11394495 -0.56312758 0.00000000
-0.12704958 0.60621011 -0.00000020
-0.33591187 0.44763413 -0.00000081
-0.17224084 0.07194572 0.00000000
-0.50867271 -0.29129234 -0.00000024
-0.22494560 -0.10951356 0.00000000
-0.10774443 0.10229594 0.00000000
-0.17038386 -0.72923815 0.00000000
-0.75435388 0.00418406 -0.00000181
-0.10194879 -0.74857342 0.00000000
-0.53793675 -0.44391462 -0.00000010
-0.39781269 -0.08096495 -0.00000014
-0.54577661 -0.69186115 0.00000000
-0.55412543 -0.49795437 -0.00000007
-0.76447904 -0.03094328 -0.00000179
-0.57716000 -0.22376946 -0.00000065
-0.00177360 -0.00143355 0.00000000
-0.00625383 -0.17240566 0.00000000
-0.20082784 -0.58961082 0.00000000
-0.67940909 -0.18243457 -0.00000116
-0.03596854 0.66004837 0.00000000
-0.31616676 0.15723401 -0.00000021
-0.02226840 0.03534121 0.00000000
-0.25701821 -0.46638718 0.00000000
-0.79978186 -0.74631190 -0.00000013
-0.09826186 -0.55046076 0.00000000
-0.47377080 -0.00973456 -0.00000059
-0.50421524 -0.11512868 -0.00000053
-0.29718471 0.25146705 -0.00000030
-0.66881067 -0.15730850 -0.00000116
-0.14187203 0.47356072 -0.00000003
-0.42971304 -0.56661367 0.00000000
-0.21236269 -0.49686918 0.00000000
-0.53269815 -0.21253982 -0.00000048
-0.50216764 -0.70294976 0.00000000
-0.11420921 0.41015893 0.00000000
-0.10964344 0.35245329 0.00000000
-0.24167451 0.33417833 -0.00000021
-0.00675136 0.18226321 0.00000000
-0.39964047 0.32514676 -0.00000087
-0.37248838 -0.22415179 0.00000000
-0.09076167 -0.48161450 0.00000000
-0.47259021 -0.63188505 0.00000000
-0.27774331 -0.51989836 0.00000000
-0.64600354 -0.05598664 -0.00000124
-0.50657791 -0.44674537 0.00000000
-0.75641596 -0.06569941 -0.00000170
-0.42654616 -0.29275465 0.00000000
-0.46217233 0.09118810 -0.00000072
-0.50444561 -0.12272439 -0.00000052
-0.32394996 -0.42168543 0.00000000
-0.08839892 0.48357168 0.00000000
-0.10786125 0.58766854 -0.00000008
-0.42247191 0.27929196 -0.00000088
-0.59444600 -0.45055425 -0.00000033
-0.57173032 0.06050360 -0.00000113
-0.76942945 -0.44138008 -0.00000090
-0.33254963 -0.07213124 0.00000000
-0.43148541 0.21090996 -0.00000080
-0.36795929 0.08247083 -0.00000030
-0.03038519 -0.21415094 0.00000000
-0.06283435 -0.34580261 0.00000000
-0.33924580 -0.63275301 0.00000000
-0.31566846 -0.27613091 0.00000000
-0.44243729 -0.31405988 0.00000000
-0.06627661 -0.18001981 0.00000000
-0.27309033 0.20637520 -0.00000012
-0.22147147 0.17155237 0.00000000
-0.34165096 -0.74925488 0.00000000
-0.32734868 -0.70962936 0.00000000
-0.28424677 0.51083219 -0.00000063
-0.53789711 -0.78882354 0.00000000
-0.09529750 -0.31883830 0.00000000
-0.01180063 0.65626818 0.00000000
-0.50314778 0.26603833 -0.00000120
-0.62149978 -0.25271663 -0.00000079
-0.29224870 -0.34826967 0.00000000
-0.56130832 -0.63820791 0.00000000
-0.34906483 0.43590370 -0.00000085
-0.22247805 -0.23810039 0.00000000
-0.23572002 -0.26258427 0.00000000
-0.18347108 0.56809974 -0.00000037
-0.02926946 0.05086159 0.00000000
-0.35424164 -0.31798372 0.00000000
-0.75095397 -0.17522068 -0.00000148
-0.55041534 -0.33382615 -0.00000034
-0.51869428 0.12196064 -0.00000102
-0.53921515 0.18429299 -0.00000121
-0.44525036 0.22713229 -0.00000089
-0.14576937 0.36146566 0.00000000
-0.78207248 -0.58946985 -0.00000053
-0.06218427 -0.26286420 0.00000000
-0.57278788 -0.13808049 -0.00000079
-0.42888868 0.35004130 -0.00000103
-0.73085368 -0.28501314 -0.00000120
-0.09311847 0.21394928 0.00000000
-0.24080904 -0.21738824 0.00000000
-0.58901519 -0.47575471 -0.00000026
-0.26823813 0.39133191 -0.00000042
-0.74223757 -0.57057124 -0.00000057
-0.06027771 0.71356374 -0.00000010
-0.57763088 -0.49883613 -0.00000017
-0.50918251 -0.72526497 0.00000000
-0.66309220 -0.49326029 -0.00000054
-0.27415988 0.24534339 -0.00000019
-0.65366781 -0.06586111 -0.00000126
-0.68741190 -0.59010506 -0.00000048
-0.31813645 0.06448418 -0.00000006
-0.41722971 0.06008867 -0.00000047
-0.28580806 -0.23608455 0.00000000
-0.53734440 -0.79493177 0.00000000
-0.02897635 -0.01574365 0.00000000
-0.31085211 0.28390852 -0.00000041
-0.04231016 0.56666261 0.00000000
-0.53360564 -0.22971237 -0.00000046
-0.23679197 -0.62299508 0.00000000
-0.26060045 -0.57192749 0.00000000
-0.26910055 -0.77235079 0.00000000
-0.35120797 -0.01001574 -0.00000007
-0.58511764 -0.40581688 -0.00000037
-0.24079798 -0.19165163 0.00000000
-0.13890339 0.64318645 -0.00000032
-0.59691441 -0.31396908 -0.00000058
-0.24613354 -0.00039890 0.00000000
-0.19307545 0.12477463 0.00000000
-0.07795371 -0.19421349 0.00000000
-0.07277813 -0.65502727 0.00000000
-0.69931114 0.09927519 -0.00000175
-0.29731709 -0.78499168 0.00000000
-0.25628385 -0.46729511 0.00000000
-0.11269761 -0.37041879 0.00000000
-0.16312566 -0.79157233 0.00000000
-0.07568093 -0.03014095 0.00000000
-0.31221926 -0.54970056 0.00000000
-0.49224654 -0.29639700 -0.00000016
-0.32869470 -0.35433054 0.00000000
-0.29738942 -0.51209456 0.00000000
-0.49935713 -0.72333843 0.00000000
-0.54464769 -0.60747296 0.00000000
-0.14229515 -0.13378058 0.00000000
-0.54792988 -0.06199715 -0.00000081
-0.38850775 -0.09192806 -0.00000008
-0.78409612 -0.68393892 -0.00000029
-0.46782744 0.08073301 -0.00000073
-0.48935860 0.15026236 -0.00000094
-0.07487495 0.23794504 0.00000000
-0.53887200 -0.61402828 0.00000000
-0.10092234 0.41571751 0.00000000
-0.34074676 0.15191337 -0.00000031
-0.60995412 -0.60435706 -0.00000012
-0.42830482 -0.17311853 -0.00000011
-0.22958127 0.41790178 -0.00000030
-0.60990429 -0.38144580 -0.00000051
-0.12369502 0.58983654 -0.00000016
-0.05666388 -0.23430686 0.00000000
-0.65357476 0.08011610 -0.00000152
-0.07132953 -0.59016639 0.00000000
-0.35193273 -0.10848598 0.00000000
-0.54131496 -0.77665854 0.00000000
-0.06006373 0.73962188 -0.00000014
-0.55296201 -0.53474444 -0.00000000
-0.24454942 0.36946511 -0.00000028
-0.37398258 -0.17940453 0.00000000
-0.17035711 -0.78333014 0.00000000
-0.03174173 0.67991275 0.00000000
-0.73815763 0.05548791 -0.00000183
-0.23499233 -0.13929977 0.00000000
-0.56629026 -0.68742877 0.00000000
-0.32399154 -0.32465109 0.00000000
-0.17791168 -0.53108788 0.00000000
-0.51455110 0.13684148 -0.00000102
-0.09714342 0.36030108 0.00000000
-0.30380693 0.24806885 -0.00000032
-0.24481139 -0.47071886 0.00000000
-0.19377045 -0.77571130 0.00000000
-0.07418615 -0.28338373 0.00000000
-0.22486196 -0.70055979 0.00000000
-0.25559327 0.25315228 -0.00000012
-0.27561337 0.04529152 0.00000000
-0.26364192 0.43251768 -0.00000048
-0.17719670 -0.58643740 0.00000000
-0.55795819 -0.03127913 -0.00000091
-0.15410081 0.29104143 0.00000000
-0.39177665 0.26153022 -0.00000072
-0.59884584 -0.57424402 -0.00000013
-0.62760401 -0.00363278 -0.00000126
-0.61587083 -0.41706809 -0.00000048
-0.57460737 0.06961084 -0.00000116
-0.36314765 0.40847301 -0.00000086
-0.02078780 -0.65211856 0.00000000
-0.33244988 -0.30009130 0.00000000
-0.02210948 -0.54080242 0.00000000
-0.14532223 -0.18355894 0.00000000
-0.46578863 -0.44937938 0.00000000
-0.77747458 -0.74442387 -0.00000014
-0.20231660 -0.24290574 0.00000000
-0.48024222 -0.66109282 0.00000000
-0.18436010 -0.67792916 0.00000000
-0.60218716 -0.21279186 -0.00000078
-0.05315919 0.25004780 0.00000000
-0.37488258 -0.79531378 0.00000000
-0.29536691 0.15329421 -0.00000012
-0.25657561 -0.26448226 0.00000000
-0.26011977 -0.12556921 0.00000000
-0.28841934 0.19000609 -0.00000015
-0.71386600 0.01689403 -0.00000166
-0.40661591 -0.29006389 0.00000000
-0.75118536 -0.05349293 -0.00000170
-0.59408933 -0.53280848 -0.00000018
-0.54143018 -0.39101008 -0.00000021
-0.10876296 0.32568344 0.00000000
-0.21571884 -0.59151000 0.00000000
-0.31921536 0.12526610 -0.00000017
-0.06421739 -0.10864377 0.00000000
-0.07856350 0.25353906 0.00000000
-0.34734637 -0.17883149 0.00000000
-0.29179308 0.20474499 -0.00000019
-0.35487986 -0.20104583 0.00000000
-0.67613101 -0.53167903 -0.00000053
-0.15009044 0.28388336 0.00000000
-0.24685219 0.17847750 0.00000000
-0.33309567 0.11511091 -0.00000021
-0.50688004 -0.00970872 -0.00000073
-0.71750706 -0.21964255 -0.00000126
-0.06234599 -0.45753542 0.00000000
-0.03074564 -0.21490167 0.00000000
-0.10214951 -0.17913616 0.00000000
-0.36652786 -0.08916642 0.00000000
-0.23704268 0.19185826 0.00000000
-0.62643534 -0.33535495 -0.00000067
-0.45133579 -0.24727726 -0.00000007
-0.34165031 -0.61819541 0.00000000
-0.16781232 -0.10904534 0.00000000
-0.60450274 -0.16626732 -0.00000087
-0.52636260 0.19521680 -0.00000118
-0.30255821 -0.69030607 0.00000000
-0.46996981 -0.72591615 0.00000000
-0.32479748 -0.11388189 0.00000000
-0.57891566 -0.40426555 -0.00000034
-0.64949006 -0.67819875 -0.00000016
-0.76513195 -0.55411005 -0.00000061
-0.76277882 -0.37084100 -0.00000107
-0.48538446 0.28841290 -0.00000117
-0.26207325 -0.40582722 0.00000000
-0.62155384 0.01421723 -0.00000126
-0.64661598 -0.25599837 -0.00000089
-0.16721019 -0.66884857 0.00000000
-0.00284560 0.47316721 0.00000000
-0.25088164 0.46243832 -0.00000047
-0.35047171 -0.51422906 0.00000000
-0.26112112 -0.03852237 0.00000000
-0.08433724 -0.26634291 0.00000000
-0.04751755 -0.70915508 0.00000000
-0.48656628 0.27138767 -0.00000114
-0.63465685 -0.70456064 -0.00000005
-0.61697853 0.13970596 -0.00000147
-0.54874367 -0.31392553 -0.00000037
