ply
format ascii 1.0
element vertex 1134
property float x
property float y
property float z
end_header
-0.38143575 -0.61058170 -0.00000195
-0.29286379 0.29460523 -0.16931649
-0.36872491 -0.69965643 -0.00000204
-0.20086280 0.03713079 -0.00000524
-0.00106472 -0.68979335 0.00000020
-0.02987964 -0.29997692 0.00000076
-0.02225641 0.03455045 -0.00001068
-0.05325512 -0.15280890 0.00000089
-0.47189143 -0.05969760 -0.23473370
-0.25738814 -0.67184031 -0.00000131
-0.36637571 -0.34455261 -0.00000136
-0.13819067 0.49142146 -0.02102456
-0.15763132 -0.19732901 0.00000018
-0.12148610 -0.19165128 0.00000041
-0.06494855 0.35308403 -0.00000342
-0.15265118 0.27477983 -0.00000224
-0.30248281 -0.64379126 -0.00000153
-0.50572336 -0.11500943 -0.25687307
-0.20499435 0.39621755 -0.07650807
-0.04717524 0.53090638 -0.00000062
-0.22172043 -0.42637840 -0.00000064
-0.10046454 0.59611952 -0.03246236
-0.36437291 0.09653317 -0.14795639
-0.10633490 -0.63894647 -0.00000034
-0.42999473 -0.23129140 -0.00570220
-0.42691785 -0.48898944 -0.00000199
-0.44135261 -0.50624746 -0.00000211
-0.18011084 0.09902617 -0.00000471
-0.44561392 -0.68552780 -0.00000247
-0.10289116 -0.59493124 -0.00000024
-0.33833927 0.12477206 -0.11889212
-0.23937275 0.39062628 -0.14150779
-0.50387561 -0.06611455 -0.29418632
-0.50363320 -0.05823391 -0.30031252
-0.01735572 0.19450623 -0.00000783
-0.31056073 0.30468234 -0.21365543
-0.25507376 0.04799855 -0.00000340
-0.21324196 0.28880242 -0.00302720
-0.13581771 -0.65315264 -0.00000054
-0.10998742 -0.23352318 0.00000040
-0.25971562 0.22491059 -0.04358996
-0.53967786 -0.09530178 -0.34225804
-0.09050918 -0.54909724 -0.00000008
-0.68042845 -0.75117880 -0.07683172
-0.18366218 0.40988275 -0.04473685
-0.60521990 -0.51541209 -0.12234579
-0.47979248 -0.02534491 -0.27959889
-0.65691406 -0.69988263 -0.07223678
-0.41037726 -0.00995833 -0.15179494
-0.11148150 0.00911680 -0.00000846
-0.20899564 -0.44932657 -0.00000060
-0.32684717 -0.49072757 -0.00000139
-0.46819893 -0.16809760 -0.13621975
-0.49693584 -0.77737850 -0.00000296
-0.52894861 -0.62890184 -0.00000287
-0.05027851 0.69068271 -0.01012957
-0.41181561 -0.36278167 -0.00000167
-0.02255354 0.72418159 0.00000226
-0.17444348 -0.65473425 -0.00000078
-0.43473953 -0.09719491 -0.12792796
-0.41007325 -0.64630765 -0.00000219
-0.38191584 -0.29575953 -0.00000136
-0.63948214 -0.49535587 -0.20864739
-0.56573677 -0.24877195 -0.26621139
-0.08832596 -0.26873225 0.00000046
-0.51909959 -0.25536048 -0.16613171
-0.21011306 0.37700832 -0.07075438
-0.31342718 -0.29488474 -0.00000094
-0.27594596 0.19696692 -0.05302800
-0.34905753 0.18901631 -0.19456986
-0.58777642 -0.42865139 -0.15983948
-0.37463251 0.08799736 -0.16158772
-0.03110840 0.03134169 -0.00001047
-0.27826992 -0.01515071 -0.00000021
-0.46573716 0.03280889 -0.29993898
-0.09697644 0.11456993 -0.00000693
-0.06158144 0.59750932 0.00000106
-0.43536523 -0.09790604 -0.12859926
-0.25453341 0.38335076 -0.16613325
-0.31293446 0.07655664 -0.02690063
-0.35123211 -0.35251483 -0.00000128
-0.00255265 -0.62984401 0.00000034
-0.26386693 0.11526250 -0.00000188
-0.21312574 0.42485431 -0.11704029
-0.29210967 -0.16569713 -0.00000057
-0.18294537 -0.08461603 0.00000024
-0.37628296 -0.27197051 -0.00000128
-0.14271501 -0.16808318 0.00000032
-0.51282340 -0.24675384 -0.16063535
-0.54208815 -0.07166665 -0.36699182
-0.03219484 -0.04080473 0.00000123
-0.45248744 -0.25144520 -0.03437741
-0.51585323 -0.20428777 -0.20243828
-0.14589299 -0.63751590 -0.00000058
-0.13465486 0.50540090 -0.02559563
-0.62520230 -0.64137566 -0.05707874
-0.04883215 0.10859128 -0.00000849
-0.16016033 -0.73494220 -0.00000084
-0.08714145 0.63304234 -0.03645830
-0.40851703 -0.77957880 -0.00000243
-0.61615241 -0.75958800 -0.00000364
-0.32683450 0.12788042 -0.09817883
-0.63521522 -0.77191138 -0.00000378
-0.62314951 -0.52366108 -0.15176722
-0.13952447 -0.10684776 0.00000046
-0.31600684 -0.12864155 -0.00000065
-0.45273823 -0.03282919 -0.21846724
-0.35110924 -0.48561060 -0.00000153
-0.66966516 -0.78151256 -0.02953879
-0.19711836 -0.45884249 -0.00000055
-0.68859464 -0.74701893 -0.09688017
-0.15836163 0.06265675 -0.00000605
-0.14514931 -0.03884885 0.00000055
-0.39296326 -0.10568494 -0.03610594
-0.61737025 -0.79540598 -0.00000372
-0.43356386 -0.04590608 -0.16861399
-0.54067963 -0.14683145 -0.30101725
-0.59825611 -0.66707575 -0.00000336
-0.22841525 -0.46729460 -0.00000075
-0.13265800 0.19184662 -0.00000440
-0.65252846 -0.56779033 -0.17426969
-0.32801068 0.11412845 -0.08901521
-0.35686874 -0.74432725 -0.00000205
-0.43117541 -0.06481276 -0.14789516
-0.36337441 -0.23708910 -0.00000114
-0.60694778 -0.60527587 -0.05038608
-0.08160009 -0.09770995 0.00000082
-0.18755117 -0.22341017 -0.00000005
-0.10519513 -0.71716607 -0.00000048
-0.13934153 0.55587357 -0.07748094
-0.41165000 0.10290995 -0.24915558
-0.25744811 -0.62242782 -0.00000122
-0.02273648 -0.61139238 0.00000022
-0.35596028 0.01608600 -0.06334659
-0.11994059 -0.38960427 0.00000005
-0.59672141 -0.40754434 -0.19569804
-0.17192088 -0.28693104 -0.00000008
-0.10283337 -0.29754290 0.00000032
-0.42895582 -0.22427411 -0.00948878
-0.52177566 -0.32708922 -0.11132307
-0.09164162 -0.05509827 0.00000084
-0.13446337 0.22659048 -0.00000369
-0.33327350 0.03417623 -0.03254507
-0.37434745 -0.52819693 -0.00000175
-0.14618954 -0.13624869 0.00000036
-0.42456132 0.02176756 -0.20719175
-0.00014471 0.45510185 -0.00000346
-0.55987340 -0.34116912 -0.17673475
-0.23809813 0.39818618 -0.14527214
-0.05855959 0.68363917 -0.02100294
-0.45409673 0.00270163 -0.25105810
-0.57709265 -0.21230938 -0.31985226
-0.03898818 -0.40609673 0.00000050
-0.26725417 -0.28536701 -0.00000065
-0.23551263 0.39150071 -0.13441649
-0.55629015 -0.11250652 -0.36148840
-0.17726053 0.29121035 -0.00000119
-0.42359984 -0.51689440 -0.00000203
-0.24150686 -0.48605451 -0.00000087
-0.11619053 0.36175498 -0.00000171
-0.26050901 0.18889664 -0.01495589
-0.46242702 -0.61623555 -0.00000245
-0.04661801 0.55604851 -0.00000017
-0.63992655 -0.77669495 -0.00000382
-0.13088207 -0.25736934 0.00000023
-0.07194306 -0.08526348 0.00000091
-0.38160515 0.19256660 -0.26353461
-0.20554104 0.10410879 -0.00000385
-0.13800991 0.39804032 -0.00000037
-0.58180898 -0.27938995 -0.27308312
-0.21583024 -0.22420228 -0.00000022
-0.15393178 0.42281780 0.00000057
-0.18652058 -0.67235827 -0.00000089
-0.45608059 -0.27601108 -0.02103275
-0.11477602 -0.43283027 -0.00000000
-0.11804546 -0.43752113 -0.00000003
-0.52819866 -0.23347580 -0.20295566
-0.22491924 -0.58684552 -0.00000096
-0.27654719 0.04658558 -0.00000278
-0.26090243 0.33244947 -0.13630106
-0.09337501 -0.03429938 0.00000087
-0.36845723 -0.04960535 -0.03351765
-0.09034516 -0.51966512 -0.00000002
-0.18886176 0.49707752 -0.12849908
-0.67341524 -0.74036533 -0.07169444
-0.06951328 -0.26845381 0.00000058
-0.00569777 -0.76485485 0.00000011
-0.53081560 -0.32758766 -0.12923113
-0.13434958 -0.73264176 -0.00000068
-0.04751996 0.35888764 -0.00000384
-0.12030299 0.10324765 -0.00000643
-0.26055011 -0.34408388 -0.00000072
-0.19392520 -0.12157431 0.00000010
-0.19583090 -0.05735850 0.00000021
-0.05081989 -0.35212272 0.00000053
-0.00193812 -0.14825080 0.00000124
-0.47266480 -0.68104988 -0.00000263
-0.45566073 0.06677065 -0.30803028
-0.11376219 0.24096605 -0.00000405
-0.42273447 0.01290561 -0.19604647
-0.09238629 -0.49482772 0.00000001
-0.12237735 -0.41980559 -0.00000003
-0.23979346 -0.51242983 -0.00000091
-0.38507870 0.15934706 -0.24268055
-0.14103323 -0.55281889 -0.00000039
-0.16686915 0.50052351 -0.08680755
-0.11903829 0.32472816 -0.00000232
-0.21996368 -0.47797590 -0.00000072
-0.50757784 -0.28883189 -0.11466638
-0.24799483 0.05522514 -0.00000348
-0.24514540 0.02102113 -0.00000421
-0.25341830 -0.42012501 -0.00000082
-0.66432655 -0.70625395 -0.08191385
-0.08894139 -0.06204701 0.00000085
-0.32805571 0.07607292 -0.05714962
-0.53872466 -0.33321175 -0.14054222
-0.02709685 0.71897858 0.00000230
-0.37282962 -0.32761306 -0.00000136
-0.09471304 -0.34708351 0.00000028
-0.57965529 -0.36680937 -0.19530702
-0.21170247 0.21529216 -0.00000157
-0.35195282 0.12783575 -0.14906342
-0.39595762 0.09877613 -0.21387123
-0.09527829 -0.34037447 0.00000029
-0.51512682 -0.06206695 -0.32039469
-0.37476361 -0.50174540 -0.00000170
-0.21788986 -0.43478218 -0.00000063
-0.21791109 -0.02737132 0.00000013
-0.67255223 -0.58930689 -0.19679528
-0.29454783 0.26355144 -0.14665334
-0.15559043 -0.13506544 0.00000031
-0.18415578 -0.23084711 -0.00000004
-0.51891243 -0.67168748 -0.00000289
-0.22440591 0.36581463 -0.09033024
-0.40134639 0.14654601 -0.26491031
-0.58413494 -0.38665158 -0.18772618
-0.31882024 0.15649135 -0.10595749
-0.41669032 -0.07152693 -0.11289152
-0.26326650 0.36375895 -0.16738568
-0.09166884 0.55808502 0.00000123
-0.48816118 -0.46559960 -0.00000232
-0.02391435 0.32928753 -0.00000510
-0.46804786 -0.18601166 -0.12087026
-0.37400416 -0.27812800 -0.00000128
-0.20258451 -0.55826420 -0.00000077
-0.19515125 0.48103842 -0.12778103
-0.33524004 -0.60894930 -0.00000167
-0.59002686 -0.72542059 -0.00000342
-0.32821882 -0.76115918 -0.00000191
-0.26509282 -0.11010307 -0.00000031
-0.24424176 -0.07100921 -0.00000011
-0.11184772 -0.75278658 -0.00000059
-0.02745042 0.73508042 -0.00113314
-0.48412737 -0.11946344 -0.20935154
-0.11997586 -0.31209311 0.00000019
-0.36250976 -0.13012561 -0.00000093
-0.29939923 0.14290859 -0.05517946
-0.00625898 0.78813028 -0.00272020
-0.47929084 -0.74400198 -0.00000279
-0.58754122 -0.24757846 -0.31141755
-0.10005049 -0.63585097 -0.00000030
-0.14017969 -0.62565142 -0.00000052
-0.37611282 0.08279430 -0.16021948
-0.29536805 -0.57286328 -0.00000136
-0.60039806 -0.61252517 -0.03102047
-0.28087842 0.18376841 -0.05194421
-0.43107915 -0.76065886 -0.00000253
-0.01194914 0.24139559 -0.00000711
-0.63813299 -0.56925547 -0.14385538
-0.43902066 0.01704798 -0.23254178
-0.57589674 -0.35645995 -0.19637829
-0.29155624 0.32962894 -0.19607668
-0.04397975 0.56296402 -0.00000012
-0.08157714 0.65423620 -0.04297521
-0.06379386 -0.02629333 0.00000107
-0.22080104 0.07644396 -0.00000390
-0.06826633 -0.25927308 0.00000060
-0.49044150 -0.34762630 -0.03055381
-0.35699558 -0.04026780 -0.01812272
-0.11164476 -0.12939914 0.00000058
-0.21234970 0.41664836 -0.10857612
-0.13552035 0.20877942 -0.00000400
-0.32390684 -0.40144065 -0.00000121
-0.49808738 -0.21955952 -0.15359747
-0.34686366 -0.40058041 -0.00000134
-0.56328154 -0.47485435 -0.07138268
-0.55110806 -0.58894295 -0.00000293
-0.37574697 -0.67779708 -0.00000204
-0.22940958 -0.05279037 0.00000002
-0.16451877 -0.40456310 -0.00000025
-0.05822003 0.02013948 -0.00000987
-0.39130709 -0.77101922 -0.00000231
-0.06037353 -0.01182807 0.00000111
-0.56085318 -0.45999655 -0.07893639
-0.30845198 -0.66497546 -0.00000161
-0.53236288 -0.73370588 -0.00000309
-0.10802404 0.31586567 -0.00000282
-0.31978753 -0.21070109 -0.00000083
-0.11036182 0.16472676 -0.00000558
-0.44105831 -0.11220601 -0.12813246
-0.22175202 0.29240558 -0.02330526
-0.11432404 0.48368567 0.00000052
-0.50729394 -0.79075742 -0.00000304
-0.33765820 -0.42416710 -0.00000133
-0.42806733 0.01011542 -0.20451462
-0.20386389 -0.20734490 -0.00000012
-0.51152408 -0.53388226 -0.00000259
-0.46446845 -0.55884027 -0.00000235
-0.38574460 -0.72229630 -0.00000218
-0.04035470 -0.78894770 -0.00000022
-0.43465281 -0.57578838 -0.00000220
-0.14653461 -0.08504629 0.00000046
-0.35133865 0.14574657 -0.16285884
-0.65757251 -0.59525865 -0.16142905
-0.57221138 -0.17429674 -0.34187737
-0.29918119 -0.41736549 -0.00000109
-0.51662308 -0.43101302 -0.01360798
-0.38701704 0.02357078 -0.13259292
-0.65360653 -0.59986305 -0.14952230
-0.70721751 -0.77399892 -0.11197790
-0.08542341 -0.53699821 -0.00000002
-0.31321034 -0.78620094 -0.00000186
-0.06480824 -0.13158996 0.00000086
-0.45882249 -0.29428992 -0.01124183
-0.44597510 -0.24017349 -0.03064035
-0.55331141 -0.07845272 -0.38404602
-0.43709093 -0.12144471 -0.11233131
-0.56926119 -0.57056546 -0.00313241
-0.33328402 -0.24736696 -0.00000098
-0.38120079 -0.44252381 -0.00000163
-0.00875265 -0.44416302 0.00000061
-0.18854675 -0.69534719 -0.00000094
-0.44612658 -0.35413492 -0.00000186
-0.04269541 0.06725464 -0.00000945
-0.62515801 -0.47686008 -0.19513994
-0.52509189 -0.38627324 -0.06834661
-0.08566243 -0.10433379 0.00000079
-0.29630405 -0.65291494 -0.00000151
-0.18533383 0.44578850 -0.07827741
-0.12898670 -0.42524776 -0.00000008
-0.04314096 0.58969927 0.00000036
-0.21461481 0.41598424 -0.11261046
-0.26104951 -0.41128638 -0.00000085
-0.17315680 0.29386339 -0.00000126
-0.56106168 -0.27747318 -0.23263200
-0.54902422 -0.32924542 -0.16475315
-0.07007477 0.18022434 -0.00000651
-0.27407515 -0.46193272 -0.00000102
-0.40906847 -0.42987815 -0.00000177
-0.67019528 -0.71758139 -0.08429930
-0.37186179 -0.27666077 -0.00000126
-0.03198041 -0.78622872 -0.00000017
-0.15734962 -0.74620265 -0.00000085
-0.35963172 -0.48595807 -0.00000158
-0.35945919 -0.63006920 -0.00000185
-0.24527806 0.28068724 -0.06115895
-0.07952808 0.51196522 -0.00000000
-0.37175837 0.17289066 -0.22704960
-0.36844373 -0.63727075 -0.00000192
-0.66301495 -0.66372734 -0.11496630
-0.15580156 -0.67613006 -0.00000071
-0.59469050 -0.25907838 -0.31625417
-0.29170343 0.28015375 -0.15482855
-0.12467567 0.18613173 -0.00000475
-0.01945271 0.12308889 -0.00000911
-0.60610276 -0.27996853 -0.32184780
-0.07888298 -0.73981953 -0.00000036
-0.34542853 -0.69715512 -0.00000189
-0.10689140 -0.28559965 0.00000032
-0.33417159 0.14091918 -0.12400247
-0.44667837 -0.39793834 -0.00000194
-0.18727717 0.08586891 -0.00000474
-0.40224811 0.02708103 -0.16641840
-0.47367591 -0.22000618 -0.10373330
-0.33456081 -0.66446167 -0.00000177
-0.21320227 0.09398866 -0.00000380
-0.04651454 -0.67109388 -0.00000004
-0.29204735 -0.53433704 -0.00000126
-0.11534919 0.59919071 -0.06521684
-0.08330271 0.01687087 -0.00000917
-0.56770420 -0.42165634 -0.12502134
-0.02214524 -0.02302701 0.00000132
-0.32901925 -0.04043656 -0.00000056
-0.71915007 -0.77763337 -0.13311671
-0.23404866 0.11683416 -0.00000275
-0.07178250 0.06813844 -0.00000856
-0.22578514 0.29268476 -0.03171601
-0.02660171 -0.12581991 0.00000110
-0.42492077 -0.75501978 -0.00000248
-0.56015891 -0.62364733 -0.00000305
-0.39311025 -0.56233275 -0.00000193
-0.15128949 -0.43028659 -0.00000022
-0.18795878 0.27676734 -0.00000114
-0.21531034 -0.46936527 -0.00000068
-0.31779301 -0.12161730 -0.00000065
-0.33208820 -0.34143168 -0.00000114
-0.39937234 -0.60094649 -0.00000204
-0.60405260 -0.45467988 -0.17097878
-0.65786546 -0.53673446 -0.21116833
-0.06536796 0.34647003 -0.00000353
-0.13403668 0.24023245 -0.00000345
-0.15121448 0.44297323 -0.00674351
-0.69596910 -0.76063079 -0.10040000
-0.29689610 0.22446704 -0.11859309
-0.16446327 0.43134347 -0.02383659
-0.57653993 -0.17997003 -0.34588847
-0.36437017 -0.28952202 -0.00000124
-0.00233352 -0.06132864 0.00000137
-0.16132443 0.43778941 -0.02288622
-0.64924783 -0.74909925 -0.01536579
-0.00736053 0.28508812 -0.00000643
-0.36688426 0.21612439 -0.25347358
-0.21780890 0.31633595 -0.03540680
-0.35612288 0.14816520 -0.17458884
-0.54628885 -0.39751711 -0.10187704
-0.46904138 -0.00998224 -0.27070400
-0.44350958 -0.08621626 -0.15492666
-0.09578013 -0.16201439 0.00000062
-0.37040788 0.06049522 -0.12992838
-0.17161265 -0.49209124 -0.00000046
-0.59817123 -0.26239344 -0.32052687
-0.53037417 -0.16152342 -0.26778755
-0.27976850 -0.79916978 -0.00000169
-0.27340168 -0.12383927 -0.00000038
-0.35840067 -0.05751008 -0.00649210
-0.00728234 0.54761183 -0.00000151
-0.17385511 -0.59018725 -0.00000066
-0.25989333 0.24572869 -0.06143210
-0.31874058 -0.28179228 -0.00000095
-0.56586188 -0.12974857 -0.36641416
-0.05374272 0.68942386 -0.01609542
-0.54780686 -0.12425898 -0.33442119
-0.56077373 -0.21910699 -0.28106087
-0.52767742 -0.08182020 -0.32925069
-0.43806115 -0.63957191 -0.00000234
-0.45030287 -0.50360382 -0.00000216
-0.60989326 -0.49606314 -0.14806817
-0.35358328 0.03509873 -0.07449352
-0.33741334 0.12991406 -0.12133296
-0.39022839 -0.73660600 -0.00000224
-0.59917593 -0.29764247 -0.29296356
-0.63243598 -0.69591296 -0.02594611
-0.02228310 0.57185167 -0.00000061
-0.36190027 0.22475711 -0.25061885
-0.39107856 0.06905644 -0.17902309
-0.42060202 -0.48167455 -0.00000194
-0.40698522 0.07950599 -0.22004540
-0.26521596 -0.61754018 -0.00000126
-0.57273519 -0.58138442 -0.00109001
-0.23976800 0.28646696 -0.05484196
-0.03722135 0.07844702 -0.00000941
-0.20029423 -0.76832384 -0.00000115
-0.29568386 -0.49329013 -0.00000121
-0.15086433 0.43282211 0.00000067
-0.53326756 -0.31827390 -0.14202304
-0.45166388 -0.57963711 -0.00000231
-0.04926054 -0.55306661 0.00000017
-0.43279228 0.02415182 -0.22588047
-0.27195910 0.26050588 -0.09830197
-0.19037071 -0.43154371 -0.00000046
-0.24926648 -0.24739873 -0.00000047
-0.55903918 -0.39242697 -0.13200007
-0.07506653 -0.16831318 0.00000073
-0.02904992 0.64450526 0.00000096
-0.06145585 0.08713969 -0.00000851
-0.37663898 -0.69881999 -0.00000208
-0.20845044 -0.28183469 -0.00000029
-0.32437766 -0.22489767 -0.00000088
-0.44820532 -0.18406275 -0.08228030
-0.06233245 -0.00826489 0.00000111
-0.31374645 -0.63110012 -0.00000158
-0.54077077 -0.76060408 -0.00000319
-0.33251107 -0.42865169 -0.00000131
-0.50730711 -0.24430551 -0.15150827
-0.60801256 -0.64484936 -0.01931313
-0.53164119 -0.19257793 -0.24427836
-0.00716143 -0.70146543 0.00000014
-0.14407986 -0.58244181 -0.00000046
-0.55409825 -0.15030256 -0.32530573
-0.15268859 0.27278304 -0.00000228
-0.61352551 -0.61285311 -0.05735813
-0.70176280 -0.75149345 -0.11981844
-0.47075358 -0.14187948 -0.16341525
-0.26236066 0.22551259 -0.04945777
-0.09538965 0.08568167 -0.00000751
-0.00004469 -0.08457574 0.00000134
-0.18484470 0.50686890 -0.12857768
-0.27138355 -0.74026817 -0.00000153
-0.02402599 0.02692491 -0.00001077
-0.38866833 -0.64273000 -0.00000205
-0.11972584 0.59708130 -0.07231823
-0.18055625 0.47887591 -0.09637680
-0.15949942 -0.71773005 -0.00000081
-0.32642582 0.05625639 -0.03720451
-0.35053489 -0.32327279 -0.00000122
-0.20706268 0.29814458 -0.00000016
-0.14583871 0.54920870 -0.08505583
-0.32946846 0.25106731 -0.20696411
-0.27462411 -0.59584457 -0.00000127
-0.43936279 -0.57756048 -0.00000223
-0.08739443 0.01167504 -0.00000914
-0.13002621 0.56043077 -0.06242298
-0.31522512 0.14627881 -0.09009321
-0.56775331 -0.25789389 -0.26263937
-0.31108284 -0.70045906 -0.00000169
-0.38414323 -0.30783448 -0.00000140
-0.29805779 0.22457698 -0.12104048
-0.46689504 -0.12183572 -0.17242450
-0.32596272 0.09966442 -0.07271731
-0.40641439 -0.01886785 -0.13627934
-0.53637868 -0.14442338 -0.29432005
-0.31686580 0.19494972 -0.13429044
-0.54168892 -0.07289297 -0.36515266
-0.22646053 -0.00816411 0.00000012
-0.21469072 -0.59621245 -0.00000091
-0.13598321 0.51328838 -0.03491204
-0.28224784 0.29964724 -0.15202892
-0.08376484 -0.04955388 0.00000090
-0.56085932 -0.64840937 -0.00000310
-0.00231867 0.15398332 -0.00000904
-0.16681702 -0.26582572 -0.00000001
-0.22906533 -0.08009436 -0.00000003
-0.09847563 0.46829569 -0.00000025
-0.32022971 -0.06492694 -0.00000055
-0.01107207 0.03992533 -0.00001092
-0.12999360 -0.57786584 -0.00000037
-0.33443359 -0.49187535 -0.00000144
-0.65002793 -0.62754267 -0.11902365
-0.06449770 -0.41772929 0.00000033
-0.14195588 -0.17617680 0.00000031
-0.41698524 0.10625052 -0.26277688
-0.15799925 0.51089257 -0.07753301
-0.62604290 -0.51197612 -0.16744530
-0.36985269 0.08110014 -0.14610571
-0.36517596 0.00908926 -0.07615393
-0.14550401 0.24974696 -0.00000293
-0.02219968 0.62988204 0.00000048
-0.48094758 -0.14156911 -0.18434209
-0.12656339 -0.03135559 0.00000068
-0.62979513 -0.54044634 -0.15114453
-0.12082704 -0.63838202 -0.00000043
-0.39480385 -0.55301625 -0.00000192
-0.36903903 0.19901755 -0.24347658
-0.57280761 -0.56118786 -0.01819681
-0.02307623 -0.15300372 0.00000107
-0.68136042 -0.79180199 -0.04460804
-0.20970738 0.39122695 -0.08187191
-0.12541994 -0.23744594 0.00000030
-0.06388183 0.30323952 -0.00000439
-0.00264002 0.54389548 -0.00000172
-0.20275784 -0.15367396 -0.00000001
-0.03051201 -0.11978110 0.00000109
-0.01454013 -0.58552843 0.00000031
-0.00020462 -0.16443054 0.00000119
-0.16962792 0.18067741 -0.00000349
-0.08722981 0.31218541 -0.00000351
-0.14437491 0.46625844 -0.01243134
-0.37345454 -0.31268072 -0.00000134
-0.12398417 0.00191869 -0.00000822
-0.46002400 -0.07338592 -0.19918036
-0.45416260 -0.32602119 -0.00000185
-0.33351982 0.22955680 -0.19711404
-0.60793853 -0.40596867 -0.21976160
-0.15605760 -0.59188396 -0.00000055
-0.24537992 -0.48421597 -0.00000089
-0.11012159 0.53610235 -0.00164093
-0.51924646 -0.07242441 -0.32004872
-0.51913816 -0.63295877 -0.00000282
-0.44094267 -0.10706165 -0.13221797
-0.36057305 0.03568510 -0.08915621
-0.03051360 -0.32511777 0.00000071
-0.58475786 -0.68988591 -0.00000332
-0.48835295 -0.31547731 -0.05331661
-0.29489335 -0.18536296 -0.00000063
-0.33116314 0.01118053 -0.00895627
-0.30194432 -0.25550482 -0.00000080
-0.42199197 -0.17103945 -0.04007451
-0.14421815 -0.32381779 0.00000002
-0.22933814 -0.71267098 -0.00000122
-0.05245011 -0.51244402 0.00000022
-0.04638642 -0.30122215 0.00000066
-0.44673416 -0.11779773 -0.13494349
-0.14309354 0.47348261 -0.01590009
-0.09960014 -0.40633669 0.00000014
-0.64274204 -0.78609663 -0.00000385
-0.47893640 -0.15743138 -0.16694456
-0.40916798 0.11344809 -0.25297314
-0.05598554 -0.78328443 -0.00000031
-0.50550181 -0.00530158 -0.34855029
-0.28453588 -0.56956559 -0.00000129
-0.09327881 -0.60625905 -0.00000020
-0.44192350 -0.49885210 -0.00000210
-0.12660030 -0.08233533 0.00000058
-0.50806046 -0.57450819 -0.00000264
-0.52919912 -0.19084920 -0.24077927
-0.31421766 0.13754313 -0.08071504
-0.10742337 -0.39460358 0.00000011
-0.17406359 -0.24292976 -0.00000001
-0.61277682 -0.33528179 -0.28892916
-0.24336044 -0.35744947 -0.00000064
-0.32427013 0.03269816 -0.01305145
-0.54853022 -0.22130916 -0.25439039
-0.17302462 -0.50355113 -0.00000049
-0.01658013 0.17603543 -0.00000820
-0.01799979 0.37485993 -0.00000443
-0.51470053 -0.21832570 -0.18831325
-0.10298748 -0.76552963 -0.00000056
-0.54657626 -0.32937175 -0.15968435
-0.27027947 -0.75722051 -0.00000155
-0.48743191 -0.27947369 -0.08168321
-0.20548613 -0.26576331 -0.00000024
-0.02706036 -0.24511199 0.00000088
-0.08261069 0.61016393 -0.00806109
-0.54579186 -0.55052871 -0.00000283
-0.65440685 -0.57545131 -0.17164449
-0.13398343 -0.21889696 0.00000028
-0.60804784 -0.65679246 -0.00935555
-0.48074001 -0.21482033 -0.12240904
-0.24507777 0.03132988 -0.00000402
-0.67242521 -0.74315608 -0.06734389
-0.03058689 -0.74514794 -0.00000008
-0.29744223 0.00228108 -0.00000298
-0.04600499 0.11576026 -0.00000844
-0.56363237 -0.29032475 -0.22705141
-0.55133617 -0.65631676 -0.00000306
-0.46919361 -0.33988190 -0.00000197
-0.22043115 0.42523780 -0.13217250
-0.40746295 -0.78990108 -0.00000244
-0.43228492 -0.08175183 -0.13592002
-0.10177924 0.24965234 -0.00000425
-0.21282043 0.15876499 -0.00000260
-0.17292506 -0.40693918 -0.00000031
-0.48478022 -0.59800643 -0.00000255
-0.42935583 -0.16756099 -0.05792421
-0.13615869 -0.60934263 -0.00000046
-0.30276722 -0.46409222 -0.00000120
-0.11945431 0.38036439 -0.00000126
-0.51326871 -0.12909748 -0.26033929
-0.00865539 0.41876489 -0.00000389
-0.17145370 0.27538159 -0.00000166
-0.41682470 -0.39545837 -0.00000176
-0.41077805 -0.18061402 -0.00930045
-0.39294130 0.15848044 -0.25789261
-0.09168145 -0.06759343 0.00000082
-0.02486538 -0.08694485 0.00000119
-0.24096827 -0.59499502 -0.00000107
-0.50385016 -0.01571362 -0.33645859
-0.42253125 -0.09279845 -0.10687017
-0.31287438 -0.35747486 -0.00000106
-0.21780640 0.35674649 -0.06933623
-0.45072335 -0.11868193 -0.14228819
-0.02395660 -0.20594659 0.00000097
-0.46111548 -0.14948615 -0.13748838
-0.52069271 -0.08060593 -0.31611040
-0.63436061 -0.58033097 -0.12690720
-0.12365332 -0.60030657 -0.00000037
-0.23347199 -0.41466838 -0.00000069
-0.50882328 -0.49572405 -0.00000250
-0.09956337 -0.50806749 -0.00000005
-0.39337647 -0.09000770 -0.05010851
-0.01719907 -0.79028302 -0.00000009
-0.47158337 -0.33764148 -0.00070761
-0.19754265 0.40046728 -0.06497000
-0.56589621 -0.78179723 -0.00000338
-0.10061736 -0.09380112 0.00000072
-0.26721293 0.22777700 -0.06119625
-0.31877753 -0.68067712 -0.00000170
-0.00207868 -0.47684163 0.00000059
-0.14208360 0.36532047 -0.00000086
-0.26191652 -0.43193471 -0.00000089
-0.10561746 0.41374031 -0.00000106
-0.05579195 -0.54953933 0.00000013
-0.65553135 -0.54163033 -0.20232514
-0.18261167 0.49534607 -0.11437446
-0.00903459 0.01518949 -0.00001144
-0.02004680 -0.70386457 0.00000006
-0.06861256 -0.14693628 0.00000081
-0.22549193 0.43288380 -0.14885280
-0.18598628 -0.78861886 -0.00000110
-0.39543799 -0.15191486 -0.00230166
-0.64703137 -0.75117093 -0.00913274
-0.47701603 -0.16358881 -0.15788080
-0.10383809 0.45135334 -0.00000040
-0.27684557 -0.34713221 -0.00000082
-0.09046329 0.61762822 -0.03024872
-0.36410460 -0.44436315 -0.00000153
-0.16205917 -0.57069391 -0.00000055
-0.06393949 -0.02420334 0.00000107
-0.60618764 -0.38913459 -0.23034833
-0.21441516 -0.04390454 0.00000012
-0.03441365 -0.21988554 0.00000088
-0.17589013 -0.63490927 -0.00000075
-0.14443710 0.52518064 -0.06203697
-0.07294502 -0.38623568 0.00000034
-0.46111038 -0.41480020 -0.00000206
-0.55999655 -0.17290749 -0.31828102
-0.42387912 -0.48409384 -0.00000197
-0.66938263 -0.62153590 -0.16330545
-0.20933199 0.36660150 -0.06043181
-0.49459401 -0.25368941 -0.11785503
-0.25452891 -0.03841507 -0.00000011
-0.39527252 -0.06430067 -0.07553966
-0.34488690 0.09771562 -0.10944557
-0.33026648 -0.27877140 -0.00000102
-0.63720113 -0.57922351 -0.13359578
-0.10111495 0.42704555 -0.00000094
-0.00261417 -0.44665682 0.00000068
-0.13375372 0.48787910 -0.00905492
-0.00315181 -0.30355009 0.00000091
-0.48736632 -0.46448341 -0.00000231
-0.17850325 -0.41122061 -0.00000035
-0.28119510 -0.72476941 -0.00000156
-0.50026453 -0.21859959 -0.15881729
-0.29262501 0.15624881 -0.05264852
-0.56459308 -0.12193717 -0.37040144
-0.55566525 -0.22865164 -0.26268935
-0.10136995 0.10885222 -0.00000690
-0.37084848 0.20576800 -0.25281349
-0.05096662 0.71347332 -0.03066273
-0.47740382 -0.59405452 -0.00000250
-0.31105557 0.19762976 -0.12476196
-0.10043036 0.35324302 -0.00000235
-0.24663951 0.38352779 -0.15027867
-0.51167178 -0.28451386 -0.12659203
-0.00258653 0.63249773 -0.00000006
-0.06440168 -0.05917020 0.00000100
-0.48789746 -0.00998741 -0.30892634
-0.37048161 -0.09089540 -0.00294860
-0.18581010 -0.01888678 0.00000034
-0.46689862 -0.05209951 -0.23099232
-0.60533887 -0.49640962 -0.13854416
-0.18375978 0.10986652 -0.00000439
-0.55193329 -0.61120689 -0.00000298
-0.44692099 -0.58286786 -0.00000229
-0.46425176 -0.25369179 -0.05634053
-0.21164928 -0.27875948 -0.00000030
-0.59372574 -0.25940046 -0.31402785
-0.15406825 -0.54807776 -0.00000046
-0.30535626 -0.04530878 -0.00000043
-0.08150750 0.38794169 -0.00000227
-0.03539921 0.18587656 -0.00000745
-0.60093260 -0.57169133 -0.06639404
-0.59478652 -0.27232230 -0.30532730
-0.56927198 -0.43374854 -0.11804539
-0.28346890 -0.35378602 -0.00000087
-0.55093795 -0.10030977 -0.36087999
-0.28978613 0.19449952 -0.07901405
-0.56782711 -0.28759888 -0.23784439
-0.43345708 -0.70151436 -0.00000243
-0.08201302 0.44938043 -0.00000110
-0.30411255 0.11229737 -0.03902914
-0.62854183 -0.44410411 -0.22950651
-0.10090403 0.33446494 -0.00000268
-0.54459608 -0.13599046 -0.31806055
-0.19360633 -0.59257925 -0.00000078
-0.21491097 -0.46356237 -0.00000067
-0.29938701 0.17136286 -0.07904897
-0.15050796 0.45543328 -0.01577441
-0.27970174 -0.67539811 -0.00000145
-0.25312060 -0.75189781 -0.00000144
-0.51392949 -0.23836812 -0.16991964
-0.06250151 -0.19211021 0.00000076
-0.10412470 -0.77008402 -0.00000057
-0.24103314 0.01930931 -0.00000436
-0.21165898 -0.34789670 -0.00000043
-0.38497096 -0.27850282 -0.00000135
-0.26498592 -0.22295310 -0.00000052
-0.32769319 -0.35581529 -0.00000114
-0.04872596 -0.10022739 0.00000102
-0.21052605 0.31778383 -0.02185821
-0.02703310 0.55189526 -0.00000084
-0.19007279 0.03721525 -0.00000557
-0.30494383 0.17839824 -0.09622217
-0.31494519 0.21028103 -0.14327118
-0.54853159 -0.11936874 -0.33999699
-0.11713731 -0.36626241 0.00000011
-0.30633107 -0.75455022 -0.00000176
-0.49332991 0.01129450 -0.33781087
-0.35167274 -0.33168614 -0.00000124
-0.12977210 -0.70365220 -0.00000060
-0.34379312 -0.62391853 -0.00000174
-0.06418555 -0.45190364 0.00000027
-0.61923206 -0.77523851 -0.00000369
-0.45451555 -0.17400849 -0.10351596
-0.48845223 -0.17258129 -0.17351390
-0.43846172 -0.18142025 -0.06474621
-0.14438535 0.55071127 -0.08337122
-0.09372876 -0.39727905 0.00000019
-0.30145931 0.13603812 -0.05358639
-0.22418842 -0.79615486 -0.00000135
-0.44660515 -0.17834486 -0.08383784
-0.38333657 -0.16836698 -0.00000113
-0.01895343 0.12141030 -0.00000915
-0.11510947 -0.37504876 0.00000010
-0.22073919 -0.29890034 -0.00000039
-0.34991160 -0.39194903 -0.00000135
-0.37311566 -0.47284466 -0.00000164
-0.21748362 -0.65775502 -0.00000105
-0.04797137 -0.70109087 -0.00000010
-0.48739111 -0.39481342 -0.00000218
-0.18027800 -0.05768959 0.00000030
-0.10602100 -0.43595430 0.00000004
-0.47994784 -0.30799353 -0.04256150
-0.24463364 -0.26699489 -0.00000048
-0.22825111 0.43631363 -0.15732665
-0.59365141 -0.60988086 -0.01956356
-0.04331226 0.35214528 -0.00000409
-0.42267913 -0.50528061 -0.00000200
-0.21641172 -0.44106770 -0.00000063
-0.63872755 -0.72942394 -0.01056038
-0.19872661 0.35181561 -0.02651530
-0.70627189 -0.73685330 -0.14125372
-0.47175258 -0.26498607 -0.06206253
-0.14485840 -0.60712391 -0.00000051
-0.59341538 -0.49165764 -0.11836221
-0.40037116 -0.27720237 -0.00000144
-0.60965985 -0.37644696 -0.24804184
-0.32623443 0.22817443 -0.18118361
-0.06021159 0.43735456 -0.00000198
-0.43698353 -0.26625615 -0.00000164
-0.07335817 0.05965315 -0.00000867
-0.22755688 0.28675115 -0.03032515
-0.10703724 0.00270236 -0.00000872
-0.22754008 -0.32898569 -0.00000049
-0.45718384 -0.26077408 -0.03606450
-0.38595080 -0.47080547 -0.00000171
-0.52639502 -0.38296661 -0.07376513
-0.24758556 -0.03946188 -0.00000007
-0.05353451 -0.52707392 0.00000019
-0.50162077 -0.03104948 -0.31906080
-0.36259976 -0.67213058 -0.00000195
-0.13734245 -0.07220867 0.00000054
-0.40864390 -0.00831226 -0.14966321
-0.62511361 -0.38136652 -0.27523997
-0.05591829 -0.47265133 0.00000028
-0.50422323 -0.29275680 -0.10456964
-0.39804432 -0.69911140 -0.00000221
-0.45470265 -0.29460561 -0.00262463
-0.00097239 -0.49304599 0.00000058
-0.50827229 -0.01704281 -0.34430730
-0.13250582 -0.44965884 -0.00000014
-0.07862197 -0.50488418 0.00000008
-0.13571097 -0.33845773 0.00000005
-0.58156896 -0.69041979 -0.00000330
-0.50964427 -0.49233872 -0.00000250
-0.43918884 -0.01640439 -0.20479134
-0.69462758 -0.74018729 -0.11484764
-0.57638854 -0.36405161 -0.19100024
-0.13461715 -0.08609274 0.00000053
-0.61113226 -0.33962893 -0.28194466
-0.54131317 -0.27685818 -0.19311246
-0.58420247 -0.18767731 -0.35495055
-0.49122596 -0.04616189 -0.28529692
-0.51415235 -0.75166726 -0.00000301
-0.54727727 -0.48715633 -0.02860691
-0.40873465 -0.39579812 -0.00000171
-0.29804102 -0.35168916 -0.00000096
-0.29265535 0.33568171 -0.20338763
-0.15927836 0.30970210 -0.00000139
-0.53899753 -0.74518788 -0.00000315
-0.04835329 0.34403765 -0.00000409
-0.32205963 0.07772965 -0.04638503
-0.21428023 0.45342627 -0.14337391
-0.18286012 0.33648819 -0.00000017
-0.67109996 -0.77665186 -0.03652931
-0.28713870 0.22716331 -0.10107619
-0.11026939 0.55389911 -0.01688527
-0.17476310 0.40609109 -0.02351184
-0.56573319 -0.40711254 -0.13323858
-0.49909756 -0.23012859 -0.14677007
-0.11586089 -0.44696990 -0.00000004
-0.55936509 -0.74606925 -0.00000327
-0.21994048 0.21880396 -0.00000126
-0.12645818 0.51726091 -0.01893795
-0.45537290 -0.11215362 -0.15719627
-0.54690492 -0.29476985 -0.18940736
-0.18401778 0.41950154 -0.05353506
-0.03431498 -0.39217326 0.00000056
-0.06927897 0.22928575 -0.00000561
-0.47503173 -0.10939482 -0.19936711
-0.58637249 -0.19765861 -0.35096803
-0.50144702 -0.17637259 -0.19667438
-0.66480905 -0.75138587 -0.04499276
-0.01809136 -0.22250213 0.00000097
-0.36068362 -0.06688463 -0.00324813
-0.63528836 -0.45623714 -0.23299497
-0.34074536 0.01674639 -0.03305608
-0.22405958 -0.42455032 -0.00000065
-0.02433330 0.31274468 -0.00000540
-0.31142664 -0.58540124 -0.00000148
-0.14285663 0.14532077 -0.00000496
-0.50064850 -0.00552732 -0.33852175
-0.42759591 -0.62393451 -0.00000225
-0.12222988 -0.31171495 0.00000018
-0.04715637 0.69081300 -0.00390954
-0.24531493 -0.52311814 -0.00000096
-0.53135115 -0.15150435 -0.27818155
-0.66925222 -0.74672776 -0.05791192
-0.00462624 0.16112858 -0.00000884
-0.14634976 0.44532534 0.00000077
-0.16500685 -0.75222528 -0.00000091
-0.13696392 -0.34724376 0.00000002
-0.18033780 0.42888021 -0.05395039
-0.65672910 -0.68660533 -0.08301132
-0.54479891 -0.14920253 -0.30737710
-0.07748213 0.34487641 -0.00000320
-0.40955678 -0.12156938 -0.05640693
-0.27338633 0.25924811 -0.10013918
-0.26545212 -0.72347927 -0.00000146
-0.22453266 0.38249826 -0.10459721
-0.27741811 0.34196219 -0.17777136
-0.33652064 -0.14595090 -0.00000080
-0.50907499 -0.79312956 -0.00000306
-0.03325143 0.15557808 -0.00000808
-0.01573539 0.61812019 0.00000006
-0.26123756 0.21972699 -0.04232247
-0.43933317 0.06042269 -0.26959893
-0.00779053 -0.69314849 0.00000015
-0.42239410 -0.58521348 -0.00000215
-0.43827552 -0.69062465 -0.00000244
-0.53885055 -0.11563171 -0.32350889
-0.51878339 -0.52323341 -0.00000261
-0.26871777 -0.33908683 -0.00000076
-0.37051111 0.20825049 -0.25421420
-0.02832519 0.70472366 0.00000207
-0.35633820 -0.13227499 -0.00000090
-0.43437433 -0.56545210 -0.00000218
-0.29726520 -0.74306905 -0.00000169
-0.05528909 -0.50567615 0.00000022
-0.08428216 -0.33414784 0.00000036
-0.42971474 -0.10636747 -0.11003864
-0.31712529 -0.25661263 -0.00000090
-0.12155425 0.11780510 -0.00000612
-0.23297474 -0.73079967 -0.00000128
-0.44876337 -0.29335484 -0.00000176
-0.31625077 0.20782350 -0.14385426
-0.11056856 -0.19043390 0.00000048
-0.02076833 -0.42351997 0.00000058
-0.06878843 -0.72269660 -0.00000027
-0.11852908 0.17766742 -0.00000509
-0.36217344 0.06724322 -0.11890142
-0.16863780 0.52124792 -0.10779629
-0.47528559 -0.22867242 -0.09971912
-0.37943250 -0.77093536 -0.00000224
-0.63031173 -0.73471165 -0.00000368
-0.05306361 -0.52677387 0.00000019
-0.08458545 0.60962915 -0.01161547
-0.15386719 0.43575931 -0.00606347
-0.32409072 -0.72480530 -0.00000182
-0.17986971 -0.50497323 -0.00000053
-0.27250260 -0.50213784 -0.00000109
-0.15024267 0.23557863 -0.00000305
-0.00435049 -0.59374404 0.00000036
-0.21385847 -0.56175160 -0.00000084
-0.61352980 -0.61331898 -0.05697566
-0.54006428 -0.18754838 -0.26557785
-0.34715599 -0.24192716 -0.00000105
-0.38121378 -0.76247078 -0.00000223
-0.40000227 -0.55156404 -0.00000195
-0.16173106 0.53892440 -0.10863804
-0.14564946 0.54644364 -0.08235022
-0.24414091 -0.53152645 -0.00000097
-0.65175968 -0.75136918 -0.01855186
-0.45570588 -0.57188582 -0.00000232
-0.59752142 -0.73869628 -0.00000349
-0.26074496 -0.76648545 -0.00000151
-0.61370289 -0.48309913 -0.16667780
-0.44603038 -0.26365474 -0.01103420
-0.34976330 0.10961900 -0.12932727
-0.39009342 -0.53036755 -0.00000185
-0.09863411 -0.05197942 0.00000081
-0.03361741 0.47362337 -0.00000211
-0.35012490 -0.62309963 -0.00000178
-0.62812304 -0.74501556 -0.00000369
-0.27696210 -0.33349791 -0.00000080
-0.55000722 -0.19858603 -0.27646634
-0.25894269 -0.17514656 -0.00000039
-0.10525323 0.62253225 -0.06435032
-0.41526109 0.01261412 -0.18065098
-0.07051125 0.48395547 -0.00000080
-0.22046012 -0.10828626 -0.00000003
-0.40801907 -0.77441633 -0.00000241
-0.40018028 -0.13669980 -0.02469242
-0.45416668 0.02745629 -0.27198744
-0.45428625 -0.05236892 -0.20519713
-0.00197748 0.28262946 -0.00000664
-0.30727243 -0.68468571 -0.00000164
-0.42685106 -0.12707630 -0.08684305
-0.16937155 0.49384674 -0.08627381
-0.44386005 0.09454117 -0.30742705
-0.11553636 -0.22608106 0.00000038
-0.67098260 -0.56191224 -0.21661775
-0.32366902 0.28618929 -0.22470038
-0.13351339 -0.42704445 -0.00000011
-0.45105651 -0.66388553 -0.00000247
-0.13872674 0.43777090 0.00000039
-0.58120245 -0.48589677 -0.09844070
-0.08613781 0.58764040 0.00000162
-0.42532030 -0.00603056 -0.18538713
-0.18615796 0.48166487 -0.11007508
-0.04047084 0.30385682 -0.00000508
-0.13287137 -0.11838424 0.00000048
-0.45486736 0.03240249 -0.27756146
-0.09806700 0.14580762 -0.00000631
-0.37527072 0.09588609 -0.16950601
-0.15156721 -0.08340015 0.00000043
-0.50107008 -0.73647052 -0.00000291
-0.61895537 -0.42212030 -0.22853278
-0.15278845 0.17651342 -0.00000408
-0.18519691 0.27864176 -0.00000119
-0.05437188 -0.07393853 0.00000103
-0.27629837 -0.25359765 -0.00000064
-0.38446674 0.06507978 -0.16227961
-0.71778554 -0.82084012 -0.09406777
-0.40484536 -0.15153672 -0.02169067
-0.46029606 -0.48729527 -0.00000219
-0.69750524 -0.80611300 -0.06532065
-0.18435693 -0.40558186 -0.00000037
-0.46304694 -0.01543386 -0.25397357
-0.19210102 0.40522188 -0.05793085
-0.47845536 -0.46498761 -0.00000226
-0.56664485 -0.75591058 -0.00000334
-0.39899421 0.16128512 -0.27251866
-0.43102476 -0.22745731 -0.01101003
-0.17634892 0.50366247 -0.10866170
-0.10783909 -0.78755140 -0.00000063
-0.13966587 0.07192573 -0.00000644
-0.27835780 0.26726347 -0.11694857
-0.04755840 -0.48706672 0.00000030
-0.09925158 -0.28217107 0.00000037
-0.04984406 -0.61246842 0.00000005
-0.43553653 0.09431286 -0.29036114
-0.12987180 0.19526164 -0.00000442
-0.26202476 0.35119873 -0.15432090
-0.01542053 0.08226148 -0.00000999
-0.67486328 -0.66389513 -0.13884541
-0.32760412 -0.25584021 -0.00000096
-0.26170975 0.29770109 -0.10875800
-0.05351407 0.52353555 -0.00000057
-0.11007776 -0.76000643 -0.00000059
-0.58751673 -0.44303477 -0.14723469
-0.38210946 0.10896430 -0.19435248
-0.45632002 -0.05388047 -0.20805089
-0.29069215 0.30224261 -0.17132741
-0.27449933 -0.45145184 -0.00000100
-0.38172686 -0.58461517 -0.00000190
-0.10801193 -0.55259365 -0.00000019
-0.60822898 -0.58752292 -0.06789142
-0.20566794 -0.63198727 -0.00000093
-0.01012913 0.53536743 -0.00000166
-0.49535358 -0.70931721 -0.00000282
-0.14672585 -0.58206207 -0.00000048
-0.01231157 -0.18493240 0.00000108
-0.61776483 -0.35208577 -0.28493026
-0.34211001 0.21249376 -0.20020024
-0.46053717 -0.42847875 -0.00000208
-0.20018782 0.13732992 -0.00000338
-0.47394490 0.02918260 -0.31353325
-0.16031080 -0.54960620 -0.00000050
-0.24021798 -0.54009253 -0.00000096
-0.12455915 -0.07574321 0.00000061
-0.28960797 -0.49787545 -0.00000118
-0.12944873 0.41331825 -0.00000034
-0.46658152 -0.78541338 -0.00000279
-0.60734445 -0.41839802 -0.20811976
-0.24721302 -0.24370904 -0.00000045
-0.69363433 -0.66676259 -0.17449191
-0.55675370 -0.16177537 -0.32105494
-0.38630986 0.18712381 -0.26850182
-0.50374609 -0.51635808 -0.00000251
-0.51164806 -0.19451667 -0.20211847
-0.20921721 -0.63315350 -0.00000095
-0.54656690 -0.79715055 -0.00000329
-0.65561527 -0.66189039 -0.10150757
-0.25262037 -0.50073969 -0.00000096
-0.65887326 -0.64740318 -0.12027796
-0.13857371 0.33432797 -0.00000155
-0.13381720 -0.38019758 -0.00000002
-0.52531803 -0.43011764 -0.03198703
-0.12780111 0.11056496 -0.00000607
-0.25862905 -0.30104846 -0.00000063
-0.67980248 -0.62449270 -0.18194661
-0.26206425 -0.65061611 -0.00000130
-0.33524823 0.09448733 -0.08719430
-0.65655875 -0.70984566 -0.06315010
-0.55552888 -0.37356490 -0.14072298
-0.20295063 0.33501858 -0.02097341
-0.39850023 0.16655171 -0.27593991
-0.57032478 -0.77532381 -0.00000340
-0.34232846 0.22012866 -0.20705448
-0.08785854 0.05284721 -0.00000836
-0.15936729 0.48245633 -0.05642731
-0.20026636 -0.14106274 0.00000003
-0.02562435 0.21403120 -0.00000721
-0.52015162 -0.32409844 -0.11054214
-0.62750578 -0.53283936 -0.15289119
-0.41736865 -0.13212878 -0.06337671
-0.52042347 -0.33465859 -0.10222552
-0.38411534 0.01890324 -0.12279077
-0.44058493 -0.72499233 -0.00000252
-0.02831562 -0.11832661 0.00000111
-0.14422537 -0.00811560 0.00000061
-0.30300277 -0.50411206 -0.00000127
-0.09734298 -0.53870910 -0.00000010
-0.03102587 -0.62755585 0.00000014
-0.03583355 0.58279812 0.00000001
-0.39624733 -0.08986276 -0.05605028
-0.53033495 -0.30598482 -0.14639747
-0.07253716 -0.12845434 0.00000082
-0.09164981 -0.66549289 -0.00000030
-0.59488285 -0.40464395 -0.19440632
-0.52798051 -0.38576874 -0.07462632
-0.31399238 -0.00990520 -0.00000041
-0.09691638 -0.27847803 0.00000039
-0.39845857 -0.48578757 -0.00000182
-0.34864247 0.05485382 -0.08106631
-0.27913240 -0.16118567 -0.00000049
-0.57760793 -0.66878760 -0.00000324
-0.17539170 0.38548893 -0.00748567
-0.57989848 -0.32344696 -0.23221341
-0.24656583 -0.35763508 -0.00000066
-0.21878535 0.34677577 -0.06294799
-0.13184726 0.56057709 -0.06623764
-0.41807348 -0.14896962 -0.05066357
-0.27432328 -0.75111771 -0.00000156
-0.11500308 0.57327908 -0.04275603
-0.08458831 0.64644331 -0.04253570
-0.26091686 0.33900645 -0.14183649
-0.44475108 -0.20432751 -0.05826036
-0.58943415 -0.65485799 -0.00000329
-0.40410221 -0.07622153 -0.08342950
-0.35266867 0.12658966 -0.14946827
-0.52396631 -0.41369423 -0.04303817
-0.30513075 0.07675399 -0.01124598
