ply
format ascii 1.0
element vertex 1150
property float x
property float y
property float z
end_header
-0.20323402 0.52525336 -0.00000038
-0.35346627 0.34931964 -0.00000071
-0.14835049 -0.34031129 0.00000000
-0.20596895 -0.31421018 0.00000000
-0.68019974 -0.13458720 -0.00000125
-0.07265418 -0.57529193 0.00000000
-0.45992029 0.02670224 -0.00000060
-0.09413546 0.48341420 0.00000000
-0.41771153 -0.37094098 0.00000000
-0.32283348 -0.70962089 0.00000000
-0.35236040 -0.44011164 0.00000000
-0.28172696 -0.07036639 0.00000000
-0.00955809 0.41691089 0.00000000
-0.07945722 0.43812838 0.00000000
-0.52040750 -0.01940837 -0.00000077
-0.24448009 -0.09552874 0.00000000
-0.48975068 0.24999861 -0.00000112
-0.28942400 -0.32182425 0.00000000
-0.57732677 0.19589484 -0.00000140
-0.65118819 -0.43332022 -0.00000060
-0.04937158 0.07272654 0.00000000
-0.08294757 -0.28870630 0.00000000
-0.28249550 0.50379425 -0.00000068
-0.68654436 -0.38597834 -0.00000083
-0.33961704 -0.38228443 0.00000000
-0.68510991 -0.79459989 -0.00000001
-0.09027547 -0.59771997 0.00000000
-0.14511040 0.55116439 -0.00000018
-0.59291518 -0.36186534 -0.00000048
-0.46315643 -0.73890084 0.00000000
-0.67559969 -0.42687461 -0.00000071
-0.15764277 0.31232336 0.00000000
-0.22528137 0.41334531 -0.00000028
-0.50383478 0.13922621 -0.00000098
-0.04437327 -0.77111226 0.00000000
-0.42861027 0.11401888 -0.00000062
-0.24194396 -0.77277797 0.00000000
-0.00850590 -0.52755159 0.00000000
-0.19925632 -0.50565743 0.00000000
-0.58320284 -0.42092657 -0.00000033
-0.23555908 -0.34209847 0.00000000
-0.56378686 -0.54540884 -0.00000003
-0.61814779 0.05779902 -0.00000133
-0.11039068 0.18364906 0.00000000
-0.19394264 -0.62846714 0.00000000
-0.23945737 0.18929647 0.00000000
-0.26717198 -0.47180489 0.00000000
-0.04828118 -0.78173447 0.00000000
-0.14567816 -0.34121460 0.00000000
-0.10297997 0.42351744 0.00000000
-0.26761577 0.50270325 -0.00000062
-0.72838342 -0.66838753 -0.00000033
-0.73689383 0.00143432 -0.00000173
-0.49926633 -0.77368402 0.00000000
-0.28071040 -0.13286915 0.00000000
-0.68677288 -0.07885975 -0.00000138
-0.16856565 -0.28113344 0.00000000
-0.25198823 -0.21962990 0.00000000
-0.21704385 -0.60984081 0.00000000
-0.07947632 0.22212276 0.00000000
-0.13308488 -0.79398292 0.00000000
-0.41618264 0.01019336 -0.00000038
-0.53748411 -0.36726558 -0.00000023
-0.29541576 -0.55666244 0.00000000
-0.42749047 -0.55323130 0.00000000
-0.61900038 0.08478023 -0.00000138
-0.34470284 0.10995800 -0.00000025
-0.38374737 -0.45181268 0.00000000
-0.09142266 0.21699560 0.00000000
-0.02768609 -0.36484465 0.00000000
-0.01749602 -0.76469254 0.00000000
-0.36418188 -0.58315861 0.00000000
-0.28900653 -0.55583215 0.00000000
-0.62582016 -0.38992739 -0.00000057
-0.62869906 0.08710518 -0.00000142
-0.60918331 -0.04849817 -0.00000110
-0.48022646 0.05109854 -0.00000073
-0.44657904 -0.78793311 0.00000000
-0.00328865 0.53716695 0.00000000
-0.00048190 0.40887001 0.00000000
-0.62286747 0.08336567 -0.00000139
-0.47639993 -0.54949480 0.00000000
-0.40645573 -0.52991670 0.00000000
-0.52198327 -0.54365575 0.00000000
-0.30574891 0.03175916 0.00000000
-0.24764542 0.54009277 -0.00000060
-0.10527108 0.68482190 -0.00000025
-0.11664686 -0.28842768 0.00000000
-0.42071447 0.00693255 -0.00000039
-0.30237353 -0.64474612 0.00000000
-0.33532846 -0.38438761 0.00000000
-0.04597856 0.54728162 0.00000000
-0.75182796 -0.29116905 -0.00000127
-0.03391505 0.04114263 0.00000000
-0.72960222 -0.69955581 -0.00000025
-0.12355919 0.35037577 0.00000000
-0.53162020 -0.12897810 -0.00000063
-0.09494398 -0.40818128 0.00000000
-0.03911355 0.01171649 0.00000000
-0.11848208 0.17268056 0.00000000
-0.03862138 0.61426252 0.00000000
-0.67982405 -0.66617858 -0.00000031
-0.60640794 -0.40637678 -0.00000046
-0.58402163 -0.09035290 -0.00000092
-0.33359963 -0.08641202 0.00000000
-0.34172088 0.07409043 -0.00000018
-0.07309392 -0.23423626 0.00000000
-0.75263828 -0.03708048 -0.00000173
-0.60109437 -0.16370659 -0.00000086
-0.09171147 0.21359847 0.00000000
-0.57921010 -0.61849892 0.00000000
-0.34507841 -0.75951147 0.00000000
-0.06307461 -0.09550762 0.00000000
-0.23637651 -0.18862541 0.00000000
-0.61709636 -0.12081653 -0.00000101
-0.66274291 -0.69223291 -0.00000019
-0.56404036 -0.25103933 -0.00000055
-0.30486724 0.34567067 -0.00000050
-0.65381736 0.09030421 -0.00000154
-0.05888661 0.73139250 -0.00000013
-0.00166558 -0.06393613 0.00000000
-0.04680644 -0.25891557 0.00000000
-0.40682709 0.33310762 -0.00000091
-0.44973335 -0.68768036 0.00000000
-0.69755334 -0.06205455 -0.00000145
-0.15530595 -0.04583903 0.00000000
-0.20360281 -0.78280550 0.00000000
-0.21678700 -0.33069202 0.00000000
-0.22312661 -0.31377238 0.00000000
-0.58955586 -0.25017357 -0.00000066
-0.12014362 0.64118719 -0.00000023
-0.58114105 -0.24516317 -0.00000063
-0.00362958 0.10114857 0.00000000
-0.10450298 -0.50915527 0.00000000
-0.45539454 0.21575531 -0.00000091
-0.58562231 -0.45999110 -0.00000027
-0.06720813 0.04302131 0.00000000
-0.61720484 -0.51560831 -0.00000031
-0.02916372 -0.66385150 0.00000000
-0.58087844 -0.26787788 -0.00000059
-0.10715803 -0.71257651 0.00000000
-0.33976817 -0.35697511 0.00000000
-0.24410339 -0.70241314 0.00000000
-0.20900838 -0.27184457 0.00000000
-0.14137110 -0.75400311 0.00000000
-0.07662840 0.70074844 -0.00000015
-0.18067293 0.16330801 0.00000000
-0.30584320 0.11925571 -0.00000010
-0.32815671 -0.73398668 0.00000000
-0.28403866 -0.58341753 0.00000000
-0.50928211 -0.54359084 0.00000000
-0.64126521 -0.44925609 -0.00000053
-0.13960053 -0.40203157 0.00000000
-0.32199585 0.07691044 -0.00000010
-0.32266554 -0.62100780 0.00000000
-0.60384762 -0.53220123 -0.00000022
-0.45969808 0.26669416 -0.00000102
-0.23754777 -0.64636254 0.00000000
-0.40080321 -0.28601280 0.00000000
-0.71049303 -0.57997960 -0.00000055
-0.75277889 0.02185194 -0.00000184
-0.75787222 -0.45528761 -0.00000086
-0.13707651 -0.46167877 0.00000000
-0.72766274 -0.52845746 -0.00000068
-0.70912021 -0.78024989 -0.00000005
-0.42130226 -0.58143634 0.00000000
-0.55505013 -0.17731768 -0.00000064
-0.78373933 -0.55020714 -0.00000062
-0.26799589 -0.77809459 0.00000000
-0.43260947 0.36338261 -0.00000101
-0.08231126 -0.42354512 0.00000000
-0.18454589 0.10212717 0.00000000
-0.58300292 -0.19906211 -0.00000072
-0.44072673 -0.61037397 0.00000000
-0.17271899 0.47791821 -0.00000017
-0.44502896 -0.18423051 -0.00000016
-0.14468805 0.27616298 0.00000000
-0.63823354 -0.53608418 -0.00000036
-0.34578609 -0.54690778 0.00000000
-0.04730006 0.26606357 0.00000000
-0.36513427 0.08845347 -0.00000030
-0.30193877 -0.13507991 0.00000000
-0.75723970 -0.43831056 -0.00000090
-0.14796390 -0.56400102 0.00000000
-0.36622754 -0.58572555 0.00000000
-0.57697076 -0.76433223 0.00000000
-0.51766592 -0.45021343 0.00000000
-0.11909634 -0.76603514 0.00000000
-0.40303305 -0.55712694 0.00000000
-0.79135638 -0.63873327 -0.00000040
-0.55565703 0.03771319 -0.00000102
-0.64022094 -0.71991539 -0.00000005
-0.03499732 0.40625128 0.00000000
-0.72122401 -0.34571075 -0.00000105
-0.27817491 0.46731547 -0.00000060
-0.08545704 0.46170384 0.00000000
-0.42470828 -0.70966643 0.00000000
-0.14872546 -0.51230890 0.00000000
-0.23036604 0.16485389 0.00000000
-0.39543819 0.32678005 -0.00000085
-0.35671085 -0.59645545 0.00000000
-0.46702603 0.01108084 -0.00000060
-0.26393747 -0.28379369 0.00000000
-0.36208615 -0.52761483 0.00000000
-0.62245059 -0.62684888 -0.00000013
-0.33661342 0.45233318 -0.00000082
-0.51419163 0.09256359 -0.00000094
-0.11125275 0.53466654 -0.00000001
-0.21214718 -0.00589512 0.00000000
-0.37872809 0.06156677 -0.00000031
-0.11705413 -0.55685776 0.00000000
-0.32456520 -0.28755024 0.00000000
-0.76759142 -0.75979823 -0.00000010
-0.01509139 -0.68115544 0.00000000
-0.64277029 -0.59327614 -0.00000028
-0.49496868 -0.14164753 -0.00000045
-0.22477211 -0.21139933 0.00000000
-0.55949575 -0.55251145 0.00000000
-0.03346637 0.09012900 0.00000000
-0.25838849 -0.54288906 0.00000000
-0.14525422 -0.70807284 0.00000000
-0.36605096 -0.49542966 0.00000000
-0.53736395 -0.48207036 -0.00000003
-0.15452781 0.58788979 -0.00000028
-0.56073099 -0.55477810 0.00000000
-0.23213360 0.13854435 0.00000000
-0.22744547 0.19141400 0.00000000
-0.69597208 -0.65424937 -0.00000036
-0.23680446 -0.07507029 0.00000000
-0.49974108 -0.01612735 -0.00000069
-0.16534746 0.17369790 0.00000000
-0.10558575 -0.07923212 0.00000000
-0.03005600 -0.52254069 0.00000000
-0.10152119 0.36650914 0.00000000
-0.07469920 0.33362797 0.00000000
-0.06914781 0.32113576 0.00000000
-0.35727674 -0.70935082 0.00000000
-0.43192512 0.20626675 -0.00000079
-0.51884669 -0.60836709 0.00000000
-0.05279981 -0.51537853 0.00000000
-0.12875837 -0.71484983 0.00000000
-0.16284715 -0.34504080 0.00000000
-0.78992176 -0.53732681 -0.00000066
-0.04653524 0.38996539 0.00000000
-0.48242316 -0.14230137 -0.00000039
-0.68629164 -0.36069399 -0.00000088
-0.40396580 0.20570347 -0.00000067
-0.13302924 0.09775769 0.00000000
-0.38649106 -0.72077990 0.00000000
-0.46396381 0.33421007 -0.00000116
-0.06520284 -0.29338184 0.00000000
-0.01245955 -0.24178872 0.00000000
-0.19372220 0.01866240 0.00000000
-0.26626068 0.14437476 0.00000000
-0.23742697 -0.42742658 0.00000000
-0.54509079 -0.72791111 0.00000000
-0.47394532 -0.34268257 -0.00000000
-0.62181658 -0.14094163 -0.00000099
-0.23926850 0.31413093 -0.00000016
-0.43345845 -0.50242168 0.00000000
-0.75066531 -0.39662141 -0.00000101
-0.25400686 0.46483615 -0.00000049
-0.28088233 -0.26748437 0.00000000
-0.39956892 -0.29261655 0.00000000
-0.53891021 -0.42625916 -0.00000013
-0.17381938 -0.18951595 0.00000000
-0.68726283 -0.32633838 -0.00000094
-0.31649968 0.24280697 -0.00000037
-0.37273812 0.01106709 -0.00000020
-0.52448618 -0.72219539 0.00000000
-0.39163947 0.09252987 -0.00000042
-0.38166687 0.05991033 -0.00000032
-0.70303643 0.02673137 -0.00000163
-0.13011229 -0.10304469 0.00000000
-0.27526984 0.46289656 -0.00000058
-0.30108291 -0.61252213 0.00000000
-0.07473053 0.07082625 0.00000000
-0.10162020 0.46134406 0.00000000
-0.66618711 -0.16058244 -0.00000115
-0.20085269 0.10333286 0.00000000
-0.52905476 -0.38978955 -0.00000015
-0.62581110 -0.60690397 -0.00000018
-0.71321011 -0.08604527 -0.00000148
-0.41164857 0.16356300 -0.00000063
-0.66778874 -0.30355591 -0.00000090
-0.07249658 0.19893876 0.00000000
-0.39976060 -0.74479693 0.00000000
-0.39270410 0.23213919 -0.00000067
-0.44783038 -0.21549536 -0.00000012
-0.46628627 -0.30435699 -0.00000004
-0.31395781 -0.04006821 0.00000000
-0.04392955 0.70205539 -0.00000001
-0.72906744 -0.39142147 -0.00000101
-0.34882647 -0.67127717 0.00000000
-0.34170905 0.05040501 -0.00000013
-0.29818305 -0.79968482 0.00000000
-0.49151367 -0.31974360 -0.00000012
-0.32005715 -0.29354718 0.00000000
-0.44067371 -0.17039987 -0.00000017
-0.01102477 0.72269267 0.00000000
-0.53130454 -0.00832080 -0.00000084
-0.16597670 0.35191640 0.00000000
-0.56769347 -0.61990440 0.00000000
-0.71199429 -0.40029541 -0.00000092
-0.71891665 -0.58924633 -0.00000053
-0.01777451 0.01499107 0.00000000
-0.02053540 0.35930163 0.00000000
-0.17223714 0.23170568 0.00000000
-0.45843765 -0.58233988 0.00000000
-0.52689046 -0.50633997 0.00000000
-0.73556894 -0.49514002 -0.00000076
-0.21316330 -0.51036590 0.00000000
-0.56582284 -0.31763723 -0.00000044
-0.35927859 0.21476750 -0.00000050
-0.38513339 0.25135809 -0.00000067
-0.16474304 -0.55206519 0.00000000
-0.14421991 -0.76939434 0.00000000
-0.30055392 -0.16449079 0.00000000
-0.20938934 0.57153279 -0.00000049
-0.62931347 -0.62127215 -0.00000017
-0.17483231 0.55361670 -0.00000031
-0.26032212 -0.39294988 0.00000000
-0.16966984 -0.70986235 0.00000000
-0.68876463 0.11021087 -0.00000170
-0.36242527 -0.33670685 0.00000000
-0.36781672 -0.24555922 0.00000000
-0.38061419 -0.39710164 0.00000000
-0.17492817 0.11579451 0.00000000
-0.46720833 0.13904057 -0.00000083
-0.44734731 -0.13633829 -0.00000025
-0.40362999 -0.16067296 -0.00000002
-0.25847840 0.40110371 -0.00000040
-0.22069053 -0.52232450 0.00000000
-0.04012751 -0.26188794 0.00000000
-0.21722423 -0.15902004 0.00000000
-0.47162953 -0.61753714 0.00000000
-0.06548680 0.61941302 0.00000000
-0.48555687 -0.54111773 0.00000000
-0.47628799 -0.60697174 0.00000000
-0.22014216 -0.03437366 0.00000000
-0.66147047 -0.49835485 -0.00000053
-0.29929680 -0.04021738 0.00000000
-0.11634339 0.66056257 -0.00000025
-0.46358606 -0.15951787 -0.00000028
-0.23579407 -0.49675885 0.00000000
-0.23005967 -0.60084873 0.00000000
-0.08339204 0.44948390 0.00000000
-0.23857903 0.42222053 -0.00000035
-0.02103945 -0.27564588 0.00000000
-0.47207385 -0.28381795 -0.00000010
-0.32916507 0.34999162 -0.00000061
-0.04863247 0.70476073 -0.00000004
-0.05215205 0.66577655 0.00000000
-0.18895796 0.43790188 -0.00000017
-0.43454495 -0.41759396 0.00000000
-0.32867861 0.05041810 -0.00000008
-0.21334367 0.46761784 -0.00000032
-0.02216405 0.73164088 0.00000000
-0.19590273 -0.18513975 0.00000000
-0.48826486 -0.79238993 0.00000000
-0.11527896 -0.08613488 0.00000000
-0.11250637 0.19585542 0.00000000
-0.78631955 -0.38607630 -0.00000103
-0.67930514 0.03031791 -0.00000154
-0.77884477 -0.15144670 -0.00000162
-0.59823924 -0.13219269 -0.00000091
-0.14358757 0.61919796 -0.00000029
-0.71952623 -0.43094820 -0.00000089
-0.70665818 -0.15459731 -0.00000133
-0.70819885 -0.75114852 -0.00000012
-0.37407115 -0.09814415 -0.00000001
-0.24512193 0.02346961 0.00000000
-0.41922620 0.29276443 -0.00000089
-0.02428243 -0.48603663 0.00000000
-0.14239416 -0.31281582 0.00000000
-0.02474567 -0.28331637 0.00000000
-0.40078524 -0.02313232 -0.00000026
-0.00255757 0.66398478 0.00000000
-0.73454052 -0.36035389 -0.00000108
-0.28923950 0.10749419 -0.00000001
-0.24573354 0.25099829 -0.00000008
-0.10685558 -0.22641435 0.00000000
-0.42356619 -0.67023820 0.00000000
-0.42847398 -0.46324220 0.00000000
-0.45920730 0.27839959 -0.00000104
-0.28477108 -0.48179170 0.00000000
-0.29598799 -0.59037322 0.00000000
-0.79123515 -0.16135445 -0.00000160
-0.30765063 -0.01626466 0.00000000
-0.33709645 -0.02778777 0.00000000
-0.73054224 -0.47455418 -0.00000081
-0.51491165 -0.30037186 -0.00000025
-0.32256475 0.01915066 0.00000000
-0.28109351 0.46929744 -0.00000062
-0.51815575 -0.17209914 -0.00000049
-0.73696566 -0.41358227 -0.00000097
-0.33637494 -0.52531701 0.00000000
-0.46843362 -0.60685265 0.00000000
-0.16709135 0.20760830 0.00000000
-0.73788595 0.03006920 -0.00000179
-0.37025276 -0.41873062 0.00000000
-0.40010312 0.15359946 -0.00000056
-0.62928474 0.09655725 -0.00000144
-0.02977613 -0.49420935 0.00000000
-0.40740684 -0.02710348 -0.00000028
-0.55223805 -0.10681968 -0.00000075
-0.59267998 -0.04229529 -0.00000104
-0.33812934 0.02603576 -0.00000007
-0.50443298 -0.47017750 0.00000000
-0.22882454 0.10854021 0.00000000
-0.47521353 0.21051756 -0.00000099
-0.22844437 -0.00804189 0.00000000
-0.77866977 -0.16187412 -0.00000160
-0.61877441 -0.62836170 -0.00000012
-0.40644291 -0.50864786 0.00000000
-0.59624106 0.09797010 -0.00000130
-0.02551403 0.04397902 0.00000000
-0.14900900 -0.04430156 0.00000000
-0.34178206 -0.38664377 0.00000000
-0.01912542 0.30604798 0.00000000
-0.10808534 -0.63639319 0.00000000
-0.24064073 -0.11230862 0.00000000
-0.74392271 -0.50439888 -0.00000074
-0.74075067 -0.74170661 -0.00000015
-0.12592424 -0.29821014 0.00000000
-0.33852255 0.12091496 -0.00000024
-0.71323597 -0.00888218 -0.00000161
-0.54744869 0.01176055 -0.00000094
-0.60756248 -0.10297930 -0.00000100
-0.56316096 0.02864323 -0.00000104
-0.03161433 -0.11897374 0.00000000
-0.43025425 0.18856964 -0.00000076
-0.07113619 -0.02545866 0.00000000
-0.24673326 -0.24252754 0.00000000
-0.62096888 -0.02694580 -0.00000119
-0.04577609 -0.64285260 0.00000000
-0.23739441 0.40092912 -0.00000031
-0.42440924 -0.45941290 0.00000000
-0.02210925 0.61841071 0.00000000
-0.14639121 0.54059279 -0.00000017
-0.10643725 -0.30830714 0.00000000
-0.67903781 -0.41276279 -0.00000075
-0.57878500 0.12118890 -0.00000127
-0.02407564 0.39423737 0.00000000
-0.09110946 -0.79829180 0.00000000
-0.31845936 -0.38165393 0.00000000
-0.04257105 0.15726258 0.00000000
-0.23072986 -0.33557102 0.00000000
-0.15931974 -0.46902731 0.00000000
-0.09261603 -0.55926144 0.00000000
-0.30687249 0.13681212 -0.00000014
-0.18178459 -0.46668640 0.00000000
-0.17351906 0.45306846 -0.00000013
-0.02094264 0.43240389 0.00000000
-0.50358033 -0.37794328 -0.00000007
-0.28913993 0.01184772 0.00000000
-0.37174317 -0.15381011 0.00000000
-0.28285483 -0.09579934 0.00000000
-0.43591979 -0.42987788 0.00000000
-0.03005479 0.29891899 0.00000000
-0.25519645 0.45075050 -0.00000047
-0.27023551 -0.77914357 0.00000000
-0.29175562 -0.06180047 0.00000000
-0.09330811 -0.53730637 0.00000000
-0.29138276 -0.27763289 0.00000000
-0.34662658 0.01058376 -0.00000008
-0.62201369 -0.16885264 -0.00000094
-0.51839387 -0.23268895 -0.00000039
-0.24643642 0.11659885 0.00000000
-0.58795404 -0.75567919 0.00000000
-0.38296542 0.03362650 -0.00000028
-0.73756778 -0.55132395 -0.00000062
-0.43110231 -0.11001742 -0.00000023
-0.54959959 0.23770265 -0.00000135
-0.17735930 0.14572814 0.00000000
-0.40650320 -0.25699076 0.00000000
-0.15772644 -0.54285407 0.00000000
-0.01983026 0.46192616 0.00000000
-0.30474776 -0.78887695 0.00000000
-0.58104306 -0.36517236 -0.00000042
-0.63593471 0.01006046 -0.00000132
-0.34367403 0.31954768 -0.00000062
-0.12604360 -0.48405734 0.00000000
-0.75579160 -0.17447272 -0.00000150
-0.42680910 -0.36814183 0.00000000
-0.55351371 -0.69509405 0.00000000
-0.05250596 -0.43875733 0.00000000
-0.10642565 0.33771688 0.00000000
-0.06394873 0.27919304 0.00000000
-0.71547276 -0.54424298 -0.00000064
-0.15002394 0.41940823 0.00000000
-0.19137748 -0.33564538 0.00000000
-0.44975135 -0.43280795 0.00000000
-0.44541591 -0.63725525 0.00000000
-0.37241223 -0.73377669 0.00000000
-0.26245219 -0.40478125 0.00000000
-0.19864412 -0.25063935 0.00000000
-0.08725604 -0.02402619 0.00000000
-0.22454479 -0.47553852 0.00000000
-0.19592734 -0.46310267 0.00000000
-0.74252498 -0.75592411 -0.00000011
-0.77350938 -0.01979018 -0.00000185
-0.06563913 0.67518497 -0.00000006
-0.79657096 -0.52113307 -0.00000070
-0.31057295 -0.17489104 0.00000000
-0.04534233 -0.70096225 0.00000000
-0.09826248 -0.54288524 0.00000000
-0.44437903 -0.15389661 -0.00000021
-0.23973520 0.42631796 -0.00000036
-0.01813966 -0.37283525 0.00000000
-0.58648014 -0.44975743 -0.00000029
-0.20194262 0.14078224 0.00000000
-0.57931137 0.09365383 -0.00000122
-0.44040847 -0.55417174 0.00000000
-0.57443142 -0.68251872 0.00000000
-0.74879271 -0.42719141 -0.00000093
-0.08337744 -0.22844213 0.00000000
-0.71892607 -0.05578788 -0.00000156
-0.06454793 -0.53315198 0.00000000
-0.27909818 -0.20704760 0.00000000
-0.39275986 -0.45130855 0.00000000
-0.52923632 -0.68612170 0.00000000
-0.02251236 -0.35928902 0.00000000
-0.02897900 -0.10616951 0.00000000
-0.31821960 0.43691871 -0.00000072
-0.16385382 -0.08003214 0.00000000
-0.14623016 0.13506456 0.00000000
-0.16882709 0.60839391 -0.00000038
-0.68306690 -0.30832204 -0.00000096
-0.48288652 -0.08699890 -0.00000049
-0.11597467 -0.11843257 0.00000000
-0.16759416 -0.13962783 0.00000000
-0.02081700 0.74973816 0.00000000
-0.64122146 -0.66270876 -0.00000015
-0.73431516 -0.03836281 -0.00000165
-0.34311754 0.27097544 -0.00000053
-0.01805276 -0.28573504 0.00000000
-0.24389067 -0.07009164 0.00000000
-0.31118214 0.30276251 -0.00000045
-0.37412742 -0.64944100 0.00000000
-0.33355010 -0.70976788 0.00000000
-0.22432432 0.33493400 -0.00000014
-0.17649017 0.39186436 -0.00000003
-0.35712075 -0.51745808 0.00000000
-0.74598467 -0.64943272 -0.00000038
-0.34024352 -0.47100905 0.00000000
-0.29648525 -0.23128951 0.00000000
-0.53275198 -0.08617560 -0.00000071
-0.21362454 -0.27999726 0.00000000
-0.17696282 -0.71883744 0.00000000
-0.01292991 0.05813456 0.00000000
-0.15320753 -0.47291625 0.00000000
-0.42800629 -0.32834342 0.00000000
-0.24348934 -0.73975313 0.00000000
-0.30238745 0.37135148 -0.00000053
-0.34992793 -0.46405667 0.00000000
-0.57194394 0.05990387 -0.00000113
-0.21301039 0.53671771 -0.00000044
-0.43888831 0.25032553 -0.00000090
-0.00310986 0.53020972 0.00000000
-0.62764806 -0.38138726 -0.00000059
-0.28207350 -0.49275887 0.00000000
-0.63336146 0.09905530 -0.00000146
-0.61126947 -0.39245304 -0.00000050
-0.79896045 -0.26150882 -0.00000135
-0.23830172 -0.31496260 0.00000000
-0.46366087 -0.51200616 0.00000000
-0.06923085 -0.78871089 0.00000000
-0.15872291 0.42431402 -0.00000001
-0.62352437 -0.72922677 0.00000000
-0.00512124 0.33835748 0.00000000
-0.45361269 -0.75696564 0.00000000
-0.24589792 -0.61614782 0.00000000
-0.32617667 0.42731556 -0.00000073
-0.34411833 -0.06137710 0.00000000
-0.43938047 -0.44667688 0.00000000
-0.00918251 0.18521637 0.00000000
-0.39921403 0.23951280 -0.00000071
-0.63700962 -0.41790047 -0.00000057
-0.25364277 -0.43578139 0.00000000
-0.52217728 0.05121021 -0.00000090
-0.59961987 -0.66717285 0.00000000
-0.41296133 -0.43805757 0.00000000
-0.41567534 -0.41557083 0.00000000
-0.29197314 -0.49367446 0.00000000
-0.10680353 0.68133479 -0.00000025
-0.39828691 0.17926562 -0.00000060
-0.21837810 -0.37728617 0.00000000
-0.77275407 -0.79158658 -0.00000002
-0.27383402 -0.17563461 0.00000000
-0.69541234 -0.21664761 -0.00000117
-0.43446857 -0.03929482 -0.00000037
-0.43370676 0.07615379 -0.00000057
-0.09616694 -0.03878498 0.00000000
-0.54047489 -0.36153197 -0.00000025
-0.11157507 -0.47525543 0.00000000
-0.31799424 -0.57690924 0.00000000
-0.11588021 -0.07727865 0.00000000
-0.02881497 0.72533488 0.00000000
-0.00425637 0.78856069 0.00000000
-0.44059491 -0.46737686 0.00000000
-0.50383091 -0.66576678 0.00000000
-0.50424713 -0.11994071 -0.00000053
-0.16680855 -0.36733580 0.00000000
-0.30301261 0.06095105 0.00000000
-0.08872879 -0.37386706 0.00000000
-0.50859529 -0.06249460 -0.00000065
-0.53849339 0.16844817 -0.00000118
-0.36800072 -0.18131636 0.00000000
-0.05078952 0.33685935 0.00000000
-0.47145414 -0.04640924 -0.00000052
-0.74087775 -0.35050958 -0.00000112
-0.70800877 0.03323394 -0.00000167
-0.67170531 -0.78636611 -0.00000003
-0.28781027 -0.74599671 0.00000000
-0.76735544 -0.33313572 -0.00000117
-0.30632234 -0.17036325 0.00000000
-0.79444110 -0.43677089 -0.00000091
-0.04297110 0.09985848 0.00000000
-0.43078357 -0.56897300 0.00000000
-0.18391106 -0.25106505 0.00000000
-0.70904464 0.07894667 -0.00000175
-0.28557441 0.06834523 0.00000000
-0.23097984 -0.08254563 0.00000000
-0.31850740 -0.09781263 0.00000000
-0.37840542 -0.79822367 0.00000000
-0.64554846 -0.16834736 -0.00000104
-0.34165987 -0.73703301 0.00000000
-0.18272167 0.15701427 0.00000000
-0.76467329 -0.62526047 -0.00000044
-0.23174842 -0.50866508 0.00000000
-0.34681001 0.01676772 -0.00000010
-0.60535616 0.02712690 -0.00000122
-0.71481752 -0.78393060 -0.00000004
-0.60631478 -0.65709805 -0.00000001
-0.59838712 -0.40674692 -0.00000042
-0.73682719 -0.33522347 -0.00000114
-0.59725249 -0.27520397 -0.00000065
-0.44980145 -0.60672259 0.00000000
-0.64321709 0.14897916 -0.00000159
-0.30178493 0.43179032 -0.00000064
-0.01747582 -0.29863852 0.00000000
-0.79692698 -0.34961995 -0.00000113
-0.48957530 0.28074804 -0.00000117
-0.71987557 0.04544294 -0.00000174
-0.74556637 -0.49961606 -0.00000075
-0.24114555 0.26495606 -0.00000008
-0.25483313 -0.58850187 0.00000000
-0.36196333 0.29480124 -0.00000065
-0.20295605 -0.37803015 0.00000000
-0.46112591 -0.09181923 -0.00000039
-0.07571591 -0.25328097 0.00000000
-0.13547026 0.20142278 0.00000000
-0.04643902 0.61719096 0.00000000
-0.33313677 -0.54132158 0.00000000
-0.20879900 0.30415276 -0.00000001
-0.01435441 -0.14305389 0.00000000
-0.60223931 -0.55982721 -0.00000017
-0.20522657 0.05800292 0.00000000
-0.36277097 -0.57596308 0.00000000
-0.17486358 -0.21994247 0.00000000
-0.48383677 -0.52689499 0.00000000
-0.04891320 -0.26564267 0.00000000
-0.45083916 -0.52549005 0.00000000
-0.09268319 -0.57559228 0.00000000
-0.03627052 0.24360494 0.00000000
-0.32680205 -0.04264111 0.00000000
-0.61777580 -0.48099399 -0.00000037
-0.58681655 0.18833244 -0.00000142
-0.51527309 -0.23684356 -0.00000037
-0.79165524 -0.37349769 -0.00000107
-0.39213961 -0.51079136 0.00000000
-0.06428992 -0.24630193 0.00000000
-0.49111268 0.21374512 -0.00000106
-0.01372856 -0.17575307 0.00000000
-0.04884484 -0.78538013 0.00000000
-0.02569969 -0.73431301 0.00000000
-0.64970809 -0.52170992 -0.00000044
-0.14785787 -0.31545857 0.00000000
-0.34263083 0.03761791 -0.00000011
-0.59811729 -0.36596861 -0.00000049
-0.49682188 0.15091898 -0.00000097
-0.73967355 -0.00483649 -0.00000173
-0.49120107 -0.63426071 0.00000000
-0.30553353 -0.38843602 0.00000000
-0.62155080 -0.54919434 -0.00000027
-0.72576529 -0.34634301 -0.00000107
-0.78002888 -0.22974797 -0.00000143
-0.66696709 -0.03498640 -0.00000137
-0.29835179 -0.46366671 0.00000000
-0.56478965 0.20357464 -0.00000136
-0.49709097 -0.64084178 0.00000000
-0.79914606 -0.70784205 -0.00000023
-0.69407082 -0.53292000 -0.00000061
-0.38139439 -0.71283925 0.00000000
-0.28036857 0.41058308 -0.00000051
-0.72828209 -0.01647825 -0.00000166
-0.04705658 0.46364200 0.00000000
-0.20281278 0.43886036 -0.00000023
-0.26520717 0.43647760 -0.00000049
-0.72347510 -0.64186627 -0.00000040
-0.20005359 -0.76020533 0.00000000
-0.48899582 0.28714061 -0.00000118
-0.24079981 -0.01686050 0.00000000
-0.43717831 0.24627049 -0.00000089
-0.68291092 -0.22226030 -0.00000111
-0.23222455 -0.08569586 0.00000000
-0.23065859 -0.70212251 0.00000000
-0.19511086 -0.68020135 0.00000000
-0.03778216 -0.78080004 0.00000000
-0.20188302 0.26069829 0.00000000
-0.02691524 -0.22469427 0.00000000
-0.75237471 -0.78019851 -0.00000005
-0.22503871 -0.37364417 0.00000000
-0.47112399 0.14995722 -0.00000086
-0.31535283 0.15158927 -0.00000020
-0.42502686 -0.06311268 -0.00000029
-0.41664106 0.30166581 -0.00000090
-0.47267562 0.22911571 -0.00000101
-0.24578448 -0.26808798 0.00000000
-0.37749708 0.33396813 -0.00000079
-0.13311189 0.50353485 -0.00000004
-0.24085471 -0.25170070 0.00000000
-0.05730756 -0.15678893 0.00000000
-0.44239736 -0.73910177 0.00000000
-0.75904959 -0.72271580 -0.00000019
-0.34487882 -0.42597684 0.00000000
-0.56328857 -0.13882236 -0.00000074
-0.62086028 -0.33143970 -0.00000065
-0.43729767 -0.64938360 0.00000000
-0.43806142 0.13209377 -0.00000069
-0.61106408 -0.67987150 0.00000000
-0.75333506 -0.78457218 -0.00000004
-0.73066902 -0.09475756 -0.00000154
-0.47427633 -0.16940159 -0.00000031
-0.15967187 -0.04100165 0.00000000
-0.23090623 0.49705338 -0.00000045
-0.77603114 0.01072248 -0.00000192
-0.18795519 -0.61222684 0.00000000
-0.73288995 -0.18290924 -0.00000139
-0.16400015 -0.45092794 0.00000000
-0.61887628 -0.58896357 -0.00000019
-0.70687270 -0.58214647 -0.00000054
-0.77982241 -0.47939879 -0.00000080
-0.60624564 -0.38431102 -0.00000049
-0.52017248 -0.25805953 -0.00000035
-0.25713176 0.07008940 0.00000000
-0.04486621 0.07717780 0.00000000
-0.65594614 0.10224944 -0.00000157
-0.10558619 0.28267443 0.00000000
-0.79038769 -0.08814548 -0.00000178
-0.47018540 -0.66984415 0.00000000
-0.28464395 0.44876525 -0.00000059
-0.60720235 -0.34025085 -0.00000058
-0.59704953 -0.44643253 -0.00000034
-0.15627833 0.05538890 0.00000000
-0.77679616 -0.77038652 -0.00000007
-0.25968862 -0.70092279 0.00000000
-0.03519440 -0.75415236 0.00000000
-0.54792839 -0.74697411 0.00000000
-0.04532686 -0.49217072 0.00000000
-0.43211955 -0.60901314 0.00000000
-0.44510204 0.14350687 -0.00000074
-0.52885836 -0.76074797 0.00000000
-0.35516098 -0.23944788 0.00000000
-0.70757431 -0.15909369 -0.00000132
-0.37113822 -0.35964239 0.00000000
-0.64214164 -0.74213946 -0.00000001
-0.29499164 0.37193346 -0.00000050
-0.61639333 -0.74306202 0.00000000
-0.43494412 -0.63066220 0.00000000
-0.57973927 -0.50459445 -0.00000017
-0.07722918 -0.76423216 0.00000000
-0.69484442 -0.38043940 -0.00000088
-0.41155699 -0.68538672 0.00000000
-0.14861786 -0.52962416 0.00000000
-0.06074592 -0.68231314 0.00000000
-0.45736879 -0.47607300 0.00000000
-0.29344022 -0.33898687 0.00000000
-0.71532613 -0.50792134 -0.00000073
-0.26158798 -0.46547672 0.00000000
-0.12445176 -0.48921677 0.00000000
-0.43884858 -0.12551104 -0.00000024
-0.23049037 0.54870588 -0.00000054
-0.63731235 -0.35024095 -0.00000069
-0.12207143 0.34666130 0.00000000
-0.35858253 0.15321764 -0.00000039
-0.06630750 0.10081191 0.00000000
-0.09863223 0.18771425 0.00000000
-0.68275118 -0.13583830 -0.00000126
-0.52971697 0.11921684 -0.00000106
-0.53150094 -0.36727256 -0.00000020
-0.47685745 -0.27073652 -0.00000014
-0.01524915 -0.46256122 0.00000000
-0.70640785 -0.35851011 -0.00000097
-0.40918818 -0.53332335 0.00000000
-0.59121490 -0.50062126 -0.00000022
-0.36092824 -0.58554602 0.00000000
-0.30164793 0.17522600 -0.00000018
-0.01898017 0.65254259 0.00000000
-0.27328974 0.51952940 -0.00000067
-0.58966279 -0.55743873 -0.00000012
-0.54020053 -0.14946891 -0.00000063
-0.47527596 -0.56978732 0.00000000
-0.09522273 -0.13521782 0.00000000
-0.76202995 -0.09026174 -0.00000168
-0.49347216 0.02287670 -0.00000073
-0.08404653 0.29644269 0.00000000
-0.66712892 -0.64169264 -0.00000030
-0.06278668 0.09071732 0.00000000
-0.53563452 0.21200863 -0.00000125
-0.64094329 -0.27322373 -0.00000084
-0.76078361 -0.63086092 -0.00000042
-0.10034465 -0.72422934 0.00000000
-0.54855752 -0.68275321 0.00000000
-0.36728290 -0.02799302 -0.00000010
-0.45652604 -0.18949109 -0.00000020
-0.36409414 -0.09743766 0.00000000
-0.36879361 -0.21691118 0.00000000
-0.59839153 0.08937478 -0.00000130
-0.45469272 -0.30488119 0.00000000
-0.09815349 -0.05898118 0.00000000
-0.28208965 0.48456708 -0.00000065
-0.42543522 -0.71090406 0.00000000
-0.69787937 -0.33402425 -0.00000097
-0.36150336 0.16552387 -0.00000042
-0.40724832 -0.29093918 0.00000000
-0.24272425 -0.46146062 0.00000000
-0.68287992 -0.36945435 -0.00000085
-0.52232981 -0.69321573 0.00000000
-0.67195910 -0.69099545 -0.00000023
-0.05141925 0.62096488 0.00000000
-0.55629164 -0.11263519 -0.00000076
-0.73127198 -0.47192681 -0.00000082
-0.05325790 0.70594162 -0.00000006
-0.20629853 -0.30944803 0.00000000
-0.24944890 -0.50586575 0.00000000
-0.16106185 -0.15719733 0.00000000
-0.51062357 -0.10832253 -0.00000057
-0.58656621 -0.37935460 -0.00000042
-0.41740528 -0.14053963 -0.00000012
-0.22250713 0.29697424 -0.00000006
-0.56640840 0.17108536 -0.00000131
-0.29292387 -0.00770253 0.00000000
-0.54331791 -0.49563581 -0.00000003
-0.76955068 -0.10644905 -0.00000168
-0.10549701 -0.07434219 0.00000000
-0.10950078 -0.39326864 0.00000000
-0.23003893 0.02721066 0.00000000
-0.33531857 0.22785737 -0.00000042
-0.25067985 -0.19273154 0.00000000
-0.12022512 -0.47676918 0.00000000
-0.63272810 -0.44037366 -0.00000051
-0.51796585 -0.32402673 -0.00000022
-0.04922078 -0.68427110 0.00000000
-0.18710700 -0.25238702 0.00000000
-0.36958191 0.30461130 -0.00000070
-0.45528126 0.16601060 -0.00000082
-0.73618847 -0.19733091 -0.00000138
-0.54258120 -0.55143505 0.00000000
-0.56386954 -0.48844108 -0.00000013
-0.24648792 0.27970088 -0.00000013
-0.17231920 -0.20843796 0.00000000
-0.58724946 -0.15334734 -0.00000082
-0.06679151 -0.14526775 0.00000000
-0.37883735 0.19003466 -0.00000054
-0.57747573 -0.33365589 -0.00000046
-0.20599781 0.56812328 -0.00000047
-0.21661100 0.34790158 -0.00000013
-0.11749672 -0.70472616 0.00000000
-0.56164539 -0.16334571 -0.00000069
-0.14344575 0.09049924 0.00000000
-0.20678392 -0.35783401 0.00000000
-0.66750228 -0.78630406 -0.00000003
-0.63851649 0.06210358 -0.00000142
-0.06426043 -0.53654480 0.00000000
-0.07039017 -0.10554571 0.00000000
-0.44892415 -0.33811277 0.00000000
-0.03510931 -0.35163471 0.00000000
-0.57742578 -0.79959679 0.00000000
-0.67858922 -0.12628642 -0.00000126
-0.29578850 -0.28399247 0.00000000
-0.18088856 -0.40036228 0.00000000
-0.39245525 -0.12567528 -0.00000004
-0.47578290 -0.39657766 0.00000000
-0.09318643 0.27937570 0.00000000
-0.19968837 -0.06195376 0.00000000
-0.28051841 0.46442476 -0.00000060
-0.71224624 -0.50454921 -0.00000073
-0.21665645 0.04765981 0.00000000
-0.14256158 -0.71255171 0.00000000
-0.37616292 -0.73116571 0.00000000
-0.36701593 0.09303783 -0.00000032
-0.21388467 -0.44714266 0.00000000
-0.50529456 -0.04487494 -0.00000066
-0.70995742 -0.23818696 -0.00000119
-0.18432358 -0.72592610 0.00000000
-0.73062772 -0.12619077 -0.00000148
-0.67098057 -0.76147664 -0.00000010
-0.24691534 0.46938989 -0.00000047
-0.69599825 0.00899815 -0.00000157
-0.26759800 -0.46954766 0.00000000
-0.08552355 0.45310569 0.00000000
-0.42923990 -0.11621700 -0.00000021
-0.03917766 0.35726383 0.00000000
-0.32294863 0.19220462 -0.00000030
-0.34104848 0.06381393 -0.00000015
-0.14114448 -0.38731080 0.00000000
-0.42435133 0.11830557 -0.00000061
-0.20276190 -0.37298316 0.00000000
-0.71649837 -0.54476255 -0.00000064
-0.40586224 -0.46365723 0.00000000
-0.07340798 0.28002435 0.00000000
-0.53879100 -0.45213720 -0.00000009
-0.67864704 -0.07957424 -0.00000134
-0.46447992 -0.60307121 0.00000000
-0.45908785 -0.26068994 -0.00000008
-0.00355824 0.44349778 0.00000000
-0.66056383 -0.72446567 -0.00000012
-0.26664194 -0.42682654 0.00000000
-0.33347580 0.01698094 -0.00000004
-0.66960943 -0.73220909 -0.00000015
-0.59061199 -0.41922683 -0.00000037
-0.03324420 -0.53983873 0.00000000
-0.35870638 -0.52520663 0.00000000
-0.50188345 0.05172245 -0.00000082
-0.72425294 -0.40415645 -0.00000096
-0.62745005 -0.17669137 -0.00000095
-0.41266116 -0.03551039 -0.00000028
-0.68338722 0.09008565 -0.00000166
-0.05989346 0.14581612 0.00000000
-0.43065569 0.35619518 -0.00000105
-0.40919945 0.09711630 -0.00000050
-0.26100570 -0.58083290 0.00000000
-0.26682046 -0.76763380 0.00000000
-0.76390338 -0.04828141 -0.00000176
-0.40698403 -0.41166264 0.00000000
-0.49543998 -0.32181993 -0.00000013
-0.14255039 -0.40739924 0.00000000
-0.75272322 0.01409204 -0.00000182
-0.36940920 -0.47505677 0.00000000
-0.24023506 -0.25279564 0.00000000
-0.35725957 0.31457368 -0.00000067
-0.58261752 0.18984705 -0.00000141
-0.46989912 -0.42310777 0.00000000
-0.42823467 0.06278719 -0.00000052
-0.76759267 -0.38622227 -0.00000103
-0.78734070 -0.26942107 -0.00000133
-0.09526982 0.56552994 0.00000000
-0.28422457 -0.22778960 0.00000000
-0.31737512 0.13680623 -0.00000018
-0.03736498 -0.74505162 0.00000000
-0.37568632 0.01042480 -0.00000021
-0.69214809 -0.61654764 -0.00000045
-0.73808891 -0.09673989 -0.00000156
-0.02337179 -0.13610296 0.00000000
-0.75482732 -0.67033768 -0.00000032
-0.53608048 -0.48139149 -0.00000002
-0.10537574 0.40183142 0.00000000
-0.48668271 0.28269166 -0.00000116
-0.40574178 -0.28453875 0.00000000
-0.70007068 -0.72293317 -0.00000019
-0.13071492 -0.17813984 0.00000000
-0.20384520 0.29302248 0.00000000
-0.12732419 -0.12453899 0.00000000
-0.74411893 -0.28493676 -0.00000126
-0.32595497 -0.16343310 0.00000000
-0.30125037 -0.63617665 0.00000000
-0.74013001 0.05947478 -0.00000184
-0.34308457 0.38510558 -0.00000073
-0.19846354 -0.26688355 0.00000000
-0.18543884 0.06995802 0.00000000
-0.03338299 0.44030795 0.00000000
-0.15881550 0.54900658 -0.00000023
-0.08954217 -0.45662650 0.00000000
-0.10884471 0.51754302 0.00000000
-0.77965498 -0.61746383 -0.00000046
-0.16905463 -0.48514450 0.00000000
-0.00643762 -0.39022690 0.00000000
-0.37024128 -0.64432538 0.00000000
-0.40191740 -0.73936331 0.00000000
-0.17535594 0.23373935 0.00000000
-0.73910153 -0.01945708 -0.00000171
-0.09151975 -0.52314192 0.00000000
-0.03562690 0.01399358 0.00000000
-0.29052693 0.37679052 -0.00000049
-0.01165185 0.58736628 0.00000000
-0.08885728 -0.78796864 0.00000000
-0.18927319 -0.48745286 0.00000000
-0.34182492 0.33604658 -0.00000064
-0.67400837 -0.67257220 -0.00000027
-0.52110845 -0.38061222 -0.00000014
-0.40847287 -0.43078554 0.00000000
-0.14734519 0.12673612 0.00000000
-0.22299647 0.46594360 -0.00000036
-0.20675002 0.41656473 -0.00000020
-0.26837468 -0.68060023 0.00000000
-0.09938013 0.32422522 0.00000000
-0.09949645 0.01325739 0.00000000
-0.49964899 -0.36100736 -0.00000008
-0.29672256 -0.43450341 0.00000000
-0.42043981 -0.43447855 0.00000000
-0.10795542 -0.05214318 0.00000000
-0.51091337 -0.69690734 0.00000000
-0.75090837 -0.30857438 -0.00000123
-0.23052424 0.35968235 -0.00000021
-0.53841490 0.10741886 -0.00000107
-0.25075004 0.53972083 -0.00000061
-0.16008873 0.55863708 -0.00000026
-0.21055634 0.31333739 -0.00000004
-0.19492008 -0.67399228 0.00000000
-0.34947529 0.30960703 -0.00000062
-0.40435299 -0.17789060 0.00000000
-0.30955112 -0.53806919 0.00000000
-0.58969617 -0.79187298 0.00000000
-0.34513250 -0.28959680 0.00000000
-0.02788771 0.53273964 0.00000000
-0.00367774 0.26968247 0.00000000
-0.53370309 -0.68051332 0.00000000
-0.71043688 -0.28782028 -0.00000111
-0.74006200 -0.32621762 -0.00000117
-0.66769499 -0.79191601 -0.00000002
-0.58411855 -0.25946522 -0.00000062
-0.54926169 0.05608124 -0.00000103
-0.63049853 -0.69618899 -0.00000005
-0.32550818 -0.39255860 0.00000000
-0.26032758 -0.26485491 0.00000000
-0.60356486 0.19617604 -0.00000150
-0.30732906 0.46837145 -0.00000073
-0.13549735 -0.51837289 0.00000000
-0.12891179 -0.06109552 0.00000000
-0.09538999 -0.56253803 0.00000000
-0.12137543 0.29952964 0.00000000
-0.15394063 -0.09433447 0.00000000
-0.01291822 0.65804273 0.00000000
-0.44100168 -0.32920918 0.00000000
-0.77677363 -0.59728605 -0.00000051
-0.25202018 -0.28200692 0.00000000
-0.58384472 0.15098228 -0.00000134
-0.01821913 0.76407486 -0.00000001
-0.47404724 0.03970763 -0.00000068
-0.61032623 -0.15683261 -0.00000091
-0.02952223 0.61862922 0.00000000
-0.51897454 -0.26004118 -0.00000034
-0.02768678 0.34770232 0.00000000
-0.38925022 0.40678826 -0.00000091
-0.22617383 -0.27989751 0.00000000
-0.02047738 -0.07101550 0.00000000
-0.46353403 -0.43370709 0.00000000
-0.13044043 -0.53871804 0.00000000
-0.71905726 -0.01636262 -0.00000163
-0.30587706 -0.28583536 0.00000000
-0.69955796 -0.46222812 -0.00000075
-0.01265741 0.62324691 0.00000000
-0.31599343 0.13038933 -0.00000016
-0.68332297 -0.02482739 -0.00000146
-0.11325328 -0.54412228 0.00000000
-0.16430923 0.33682102 0.00000000
-0.32952064 0.14650334 -0.00000025
-0.09216687 0.51683158 0.00000000
-0.06423272 0.35590333 0.00000000
-0.52742022 -0.65566725 0.00000000
-0.08920309 -0.13177206 0.00000000
-0.30123672 0.20831983 -0.00000024
-0.19055311 0.29034004 0.00000000
-0.20764454 -0.34265396 0.00000000
-0.00487324 0.31709984 0.00000000
-0.13532896 0.14116438 0.00000000
-0.31884000 -0.57061189 0.00000000
-0.31943470 0.32027540 -0.00000052
-0.49770111 0.27940482 -0.00000120
-0.68946862 0.00971604 -0.00000155
-0.00989095 -0.73596179 0.00000000
-0.16072772 -0.04373374 0.00000000
-0.47979185 -0.36190647 0.00000000
-0.78690428 -0.57566959 -0.00000056
-0.26288262 0.28367326 -0.00000021
-0.35079867 -0.00539690 -0.00000007
-0.38232875 -0.71434832 0.00000000
-0.64567250 -0.06285247 -0.00000123
-0.15171891 -0.36099735 0.00000000
-0.70486695 -0.64673084 -0.00000038
-0.06612602 -0.09504883 0.00000000
-0.77645361 -0.23392594 -0.00000142
-0.34107676 -0.24713087 0.00000000
-0.68685359 -0.57998317 -0.00000049
-0.13366538 0.35767663 0.00000000
-0.07456236 -0.49198985 0.00000000
-0.40502083 0.05865239 -0.00000042
-0.29566291 0.13179660 -0.00000008
-0.65194356 0.01053754 -0.00000139
-0.15177172 -0.71194208 0.00000000
-0.07197798 -0.20074075 0.00000000
-0.08899247 0.63953084 -0.00000010
-0.68898457 -0.03409707 -0.00000147
-0.24897145 -0.14012113 0.00000000
-0.11716743 -0.76770592 0.00000000
-0.25132179 -0.21837115 0.00000000
-0.12768917 -0.67693001 0.00000000
-0.04157246 -0.12947510 0.00000000
-0.00896883 -0.08785627 0.00000000
-0.12843908 -0.21272849 0.00000000
-0.18955381 -0.56907403 0.00000000
-0.19256750 0.22272548 0.00000000
-0.30439374 0.20318802 -0.00000024
-0.44425407 -0.77831471 0.00000000
-0.54273129 -0.33334264 -0.00000031
-0.30325848 0.13426295 -0.00000012
-0.58373868 -0.64952743 0.00000000
-0.69936025 -0.57488269 -0.00000055
-0.09648611 0.70203024 -0.00000022
-0.29863220 -0.64343023 0.00000000
-0.40918216 0.03244937 -0.00000039
-0.24268720 -0.09787460 0.00000000
-0.57207185 -0.61857378 0.00000000
-0.18449020 -0.60097420 0.00000000
-0.51435900 0.28385624 -0.00000126
-0.78390378 -0.73979968 -0.00000015
-0.08219744 0.65802985 -0.00000010
-0.05799068 0.67242402 -0.00000002
-0.47441182 -0.44997042 0.00000000
-0.70140868 -0.67682546 -0.00000031
-0.67773312 -0.46847922 -0.00000065
-0.65634817 -0.68908757 -0.00000017
-0.04299377 0.55314350 0.00000000
-0.59013677 -0.20785461 -0.00000074
-0.17783336 -0.28498933 0.00000000
-0.74086291 -0.63146502 -0.00000042
-0.63569331 -0.76862568 0.00000000
-0.68310511 -0.07632036 -0.00000137
-0.02143720 -0.19094802 0.00000000
-0.03053278 0.65623784 0.00000000
-0.12694328 -0.20306951 0.00000000
-0.30494380 0.17072552 -0.00000019
-0.62520534 -0.21192156 -0.00000088
-0.32526246 -0.12047039 0.00000000
-0.73017520 0.03457094 -0.00000176
-0.44289535 -0.05122254 -0.00000039
-0.50775921 0.21717487 -0.00000114
-0.08732246 0.48939547 0.00000000
-0.18303753 0.41669619 -0.00000010
-0.09453257 -0.30884749 0.00000000
-0.30708435 -0.13297313 0.00000000
-0.12324521 0.01805501 0.00000000
-0.32585821 0.47107741 -0.00000081
-0.17457581 -0.71133924 0.00000000
-0.44943362 0.06388830 -0.00000062
-0.52552521 -0.19359049 -0.00000049
-0.65038586 -0.02711528 -0.00000131
-0.63535225 -0.75299144 0.00000000
