ply
format ascii 1.0
element vertex 1124
property float x
property float y
property float z
end_header
-0.27929127 -0.79051286 -0.00000164
-0.41750568 -0.47595799 -0.00000110
-0.08927776 0.69981354 0.00000608
-0.33147964 -0.03363007 0.00000135
-0.20623437 -0.75688207 -0.00000106
-0.32549599 -0.37692833 -0.00000011
-0.27869770 -0.51579934 -0.00000044
-0.22425483 -0.53686267 -0.00000020
-0.54455209 0.06730680 0.00000097
-0.63803470 -0.70785642 0.00000025
-0.67212313 0.08316725 -0.00000054
-0.23278369 0.52383101 0.00000440
-0.20629384 0.22665475 -0.00000039
-0.00559020 -0.00474925 0.00000348
-0.78330320 -0.71189493 -0.00000022
-0.77852136 -0.05559889 -0.00000172
-0.44663262 -0.22760586 0.00000226
-0.38554639 0.27630469 0.00000273
-0.26164234 0.48426944 0.00000408
-0.32452971 -0.38614500 -0.00000015
-0.12159298 -0.70585263 -0.00000032
-0.37889436 -0.30483937 -0.00000012
-0.23575342 0.37214813 0.00000444
-0.12981351 0.66053176 0.00000562
-0.20444284 -0.05199408 0.00000204
-0.15049212 0.64071733 0.00000531
-0.39683458 0.21763200 0.00000263
-0.15136249 0.28733680 -0.00000061
-0.51767606 -0.01759398 0.00000132
-0.20666067 -0.10962421 0.00000177
-0.46631002 0.22720626 0.00000181
-0.10725984 -0.31410846 0.00000148
-0.24404798 -0.69773912 -0.00000103
-0.20987955 -0.34781533 0.00000071
-0.36298779 -0.31036267 -0.00000005
-0.05378203 -0.66908813 0.00000025
-0.05806871 -0.01944206 0.00000306
-0.08078103 -0.51514041 0.00000076
-0.48921198 -0.22400898 0.00000176
-0.62306356 -0.30091622 0.00000022
-0.62540936 -0.52661455 0.00000031
-0.10636515 -0.57107103 0.00000036
-0.34982184 0.23346496 0.00000317
-0.07774706 0.51700836 0.00000263
-0.07657522 -0.60758644 0.00000038
-0.02369720 0.56370354 0.00000210
-0.42535868 -0.26598746 -0.00000023
-0.55494475 -0.64965999 -0.00000269
-0.26517820 -0.16370775 0.00000118
-0.38325545 -0.37371916 -0.00000045
-0.09132316 0.25862059 -0.00000310
-0.18703569 -0.79888910 -0.00000112
-0.31965837 0.28830934 0.00000350
-0.21508688 -0.67283756 -0.00000074
-0.46166664 0.33531392 0.00000183
-0.01672154 -0.73741806 0.00000017
-0.47261503 -0.76325554 -0.00000269
-0.39088249 -0.10703151 0.00000285
-0.50224787 -0.15119797 0.00000157
-0.31780457 0.20699985 0.00000356
-0.53966874 0.02335255 0.00000104
-0.21340919 -0.60456741 -0.00000043
-0.28697017 -0.45965764 -0.00000024
-0.72995567 -0.49022403 -0.00000077
-0.13887963 0.50692642 0.00000551
-0.37752828 -0.61384135 -0.00000146
-0.14060619 -0.32972032 0.00000121
-0.42051396 -0.63737708 -0.00000183
-0.41846243 -0.06859223 0.00000251
-0.68201017 -0.37498119 -0.00000043
-0.57988900 -0.61912686 -0.00000271
-0.21525390 0.33378461 0.00000470
-0.37993932 -0.19818589 0.00000034
-0.21498048 -0.63986433 -0.00000060
-0.09121609 -0.15105522 0.00000229
-0.04360728 0.07976097 -0.00000879
-0.53502172 0.11512149 0.00000105
-0.28422427 -0.66175234 -0.00000111
-0.29166484 -0.39821592 -0.00000000
-0.38599986 -0.23024848 0.00000016
-0.17940594 -0.58892936 -0.00000016
-0.29341283 0.19320716 0.00000385
-0.29950699 0.02626398 -0.00000234
-0.48381299 0.13134909 0.00000165
-0.56579256 -0.71807677 -0.00000306
-0.45102689 -0.30033499 -0.00000054
-0.14339194 -0.25255877 0.00000153
-0.69039673 -0.57488936 -0.00000043
-0.08391635 -0.62877494 0.00000024
-0.44267675 -0.14754786 0.00000227
-0.03636873 0.06009943 -0.00000948
-0.36540437 -0.49745876 -0.00000088
-0.28357685 -0.32170987 0.00000038
-0.32270202 -0.59919429 -0.00000107
-0.69740111 -0.11352355 -0.00000074
-0.41096655 -0.19519708 0.00000017
-0.40552443 -0.58076274 -0.00000149
-0.09591766 0.54191458 0.00000377
-0.76314968 -0.10918915 -0.00000151
-0.48403361 -0.47877043 -0.00000152
-0.06740174 0.51338446 0.00000223
-0.69817924 -0.42875853 -0.00000060
-0.42356214 -0.79305542 -0.00000253
-0.61426181 -0.35824728 0.00000035
-0.12686650 0.43908945 0.00000226
-0.13457231 -0.63224572 -0.00000008
-0.23806317 -0.29245666 0.00000078
-0.45077118 0.27671990 0.00000196
-0.52545696 -0.61096835 -0.00000234
-0.52317625 -0.56089574 -0.00000211
-0.35872251 0.12765923 0.00000312
-0.75385761 -0.63604105 -0.00000041
-0.35813895 0.29990509 0.00000304
-0.68054634 -0.26160368 -0.00000047
-0.24312714 0.39020830 0.00000435
-0.09842427 -0.06471192 0.00000262
-0.15567392 -0.37874383 0.00000090
-0.45264950 -0.64532489 -0.00000206
-0.79216158 -0.76615030 -0.00000008
-0.43343213 -0.48424712 -0.00000123
-0.13423781 0.59795082 0.00000552
-0.71977144 -0.48699969 -0.00000078
-0.31573796 0.40516070 0.00000349
-0.59907824 0.07107063 0.00000032
-0.52160788 -0.61283392 -0.00000233
-0.08569565 0.60523337 0.00000609
-0.53624254 -0.77958697 -0.00000315
-0.42190546 -0.49559727 -0.00000121
-0.66810411 -0.68485969 -0.00000012
-0.29206038 -0.31726775 0.00000035
-0.12890673 -0.45941475 0.00000071
-0.11189042 0.33266404 -0.00000072
-0.49844557 -0.62037826 -0.00000222
-0.13815244 -0.44052503 0.00000074
-0.39743760 0.11945263 0.00000267
-0.46593922 -0.09375566 0.00000197
-0.57096630 -0.31124213 0.00000084
-0.11791734 -0.20908508 0.00000187
-0.30491078 -0.23933828 0.00000061
-0.04434309 0.17265525 -0.00000656
-0.47776216 0.22773489 0.00000167
-0.55116588 0.06396319 0.00000089
-0.77407086 -0.77347755 -0.00000007
-0.34903058 0.09465510 0.00000325
-0.64737999 -0.64716268 0.00000011
-0.78796935 -0.65721607 -0.00000036
-0.70852685 -0.73338944 -0.00000017
-0.76158470 -0.48321471 -0.00000079
-0.30129749 -0.58314735 -0.00000087
-0.73009843 -0.31042489 -0.00000103
-0.44317952 0.03440597 0.00000217
-0.66276228 -0.57920688 -0.00000011
-0.67392421 0.05311224 -0.00000055
-0.38584030 -0.70477176 -0.00000191
-0.64439893 0.10728886 -0.00000023
-0.17280205 0.03000227 -0.00000607
-0.18034154 -0.02917641 0.00000228
-0.58035064 -0.39310899 0.00000077
-0.40505791 -0.22949819 0.00000005
-0.73005873 0.03170245 -0.00000119
-0.21857098 -0.54191750 -0.00000019
-0.23461851 0.18821253 -0.00000045
-0.25576976 -0.50415617 -0.00000025
-0.65090436 -0.59909052 0.00000004
-0.26492548 -0.23222511 0.00000089
-0.48922300 0.09753969 0.00000160
-0.62183040 -0.16737197 0.00000017
-0.71774238 -0.08942408 -0.00000099
-0.35676432 -0.49698707 -0.00000083
-0.13757205 0.52692354 0.00000552
-0.14644670 -0.07060532 0.00000231
-0.58099228 -0.71026009 -0.00000311
-0.01381575 -0.29797611 0.00000220
-0.67071813 -0.65801400 -0.00000016
-0.02458773 0.42023200 -0.00000128
-0.18417574 -0.59258336 -0.00000020
-0.38154203 0.13922723 0.00000284
-0.05992861 0.03489741 -0.00000936
-0.38902301 -0.45034105 -0.00000082
-0.39567780 -0.12662290 0.00000281
-0.70424080 -0.69091552 -0.00000027
-0.07294848 0.64510554 0.00000622
-0.33895412 0.45299655 0.00000325
-0.04870381 -0.58774865 0.00000063
-0.27491280 -0.27943313 0.00000062
-0.25061181 0.26432285 0.00000432
-0.15913109 -0.62663794 -0.00000020
-0.35275176 0.00315046 0.00000325
-0.36506253 -0.76549184 -0.00000205
-0.19580321 -0.53196973 -0.00000001
-0.60307276 0.07261788 0.00000028
-0.04129783 -0.35448295 0.00000170
-0.63217527 -0.20564488 0.00000007
-0.07831289 0.50894898 0.00000245
-0.24743766 0.12114527 -0.00000166
-0.52451122 0.19599833 0.00000114
-0.27004570 -0.20671478 0.00000097
-0.58507103 -0.39345670 0.00000071
-0.25142363 0.35148212 0.00000427
-0.17390303 0.19589080 -0.00000210
-0.46978411 -0.70265692 -0.00000241
-0.18726702 0.28768164 0.00000048
-0.46162891 -0.27593881 0.00000211
-0.36938113 0.37074381 0.00000287
-0.20237318 -0.00337042 0.00000226
-0.52644634 0.24449801 0.00000109
-0.01251028 -0.63481939 0.00000065
-0.70593601 0.07152675 -0.00000093
-0.11127607 -0.45312002 0.00000085
-0.67487735 0.03554953 -0.00000055
-0.71870434 -0.58366245 -0.00000054
-0.29429442 0.33114582 0.00000377
-0.77666098 -0.02072757 -0.00000172
-0.39327550 -0.23904449 0.00000008
-0.56988794 -0.23717779 0.00000082
-0.63213307 -0.49078324 0.00000021
-0.49083582 0.29063296 0.00000149
-0.06946874 -0.75481874 -0.00000022
-0.04861118 0.09175630 -0.00000835
-0.21614394 -0.42485303 0.00000034
-0.16740093 -0.76097327 -0.00000084
-0.24177259 -0.69774044 -0.00000101
-0.69174045 0.10072859 -0.00000072
-0.49588105 -0.63669556 -0.00000228
-0.06913204 -0.45291802 0.00000110
-0.18665241 -0.15911473 0.00000168
-0.15993018 -0.17482054 0.00000177
-0.47184747 -0.21163218 0.00000195
-0.47170350 -0.73342562 -0.00000256
-0.64737415 -0.64337659 0.00000010
-0.66654855 -0.45260817 -0.00000021
-0.58379549 -0.45639110 0.00000076
-0.28708395 -0.48057929 -0.00000034
-0.07259428 0.59926033 0.00000442
-0.34980902 -0.65114063 -0.00000146
-0.61935180 -0.43395111 0.00000033
-0.49038750 -0.00216787 0.00000163
-0.76846921 -0.07121442 -0.00000160
-0.01191804 -0.57030398 0.00000100
-0.42780015 -0.57373148 -0.00000159
-0.69240695 -0.11053023 -0.00000068
-0.69146943 -0.48723343 -0.00000049
-0.59361970 -0.03099364 0.00000044
-0.08923696 -0.48403129 0.00000084
-0.05462148 -0.56093186 0.00000072
-0.10958773 0.03952893 -0.00000775
-0.44579971 -0.12011444 0.00000222
-0.21358915 -0.50075525 0.00000002
-0.04594132 -0.37228131 0.00000159
-0.19880572 -0.78384960 -0.00000113
-0.06927951 0.12025809 -0.00000705
-0.06506992 -0.76443481 -0.00000024
-0.16423231 0.08077657 -0.00000513
-0.49123439 -0.62638497 -0.00000221
-0.26953831 -0.18836059 0.00000105
-0.04649182 0.33641392 -0.00000261
-0.65396810 0.10739242 -0.00000034
-0.28194493 0.41579658 0.00000388
-0.60467404 -0.05247354 0.00000032
-0.51778406 0.17172895 0.00000123
-0.29710251 -0.32784578 0.00000027
-0.07640585 0.30871829 -0.00000236
-0.55179739 -0.58847088 -0.00000240
-0.21433669 -0.56334096 -0.00000026
-0.13950188 -0.71567690 -0.00000047
-0.20174521 -0.20720580 0.00000138
-0.68755603 -0.14627989 -0.00000061
-0.27493382 -0.72879589 -0.00000135
-0.18764678 0.17874989 -0.00000209
-0.69094771 -0.14789616 -0.00000065
-0.72649270 -0.13707338 -0.00000107
-0.38984928 -0.31483051 -0.00000023
-0.59291512 -0.02555744 0.00000044
-0.60905886 -0.35662714 0.00000041
-0.00010070 0.77953440 0.00000652
-0.39770049 0.26340324 0.00000259
-0.14013065 -0.73235255 -0.00000055
-0.54961729 -0.69356996 -0.00000285
-0.47997913 -0.09673191 0.00000180
-0.56311750 -0.71177644 -0.00000301
-0.38226366 -0.77865809 -0.00000221
-0.16987754 -0.47954780 0.00000038
-0.64850408 -0.75445962 0.00000014
-0.22717579 0.00726317 -0.00000497
-0.31585175 0.35451218 0.00000351
-0.30920371 -0.30229720 0.00000031
-0.40255621 0.31033686 0.00000251
-0.16083243 0.19671544 -0.00000247
-0.08643030 0.26502132 -0.00000310
-0.39555252 0.09341895 0.00000270
-0.52771860 0.03701139 0.00000118
-0.70674288 0.04669383 -0.00000093
-0.68361968 0.03121988 -0.00000065
-0.24995843 -0.79963344 -0.00000151
-0.16097125 -0.15986161 0.00000183
-0.08526521 -0.58136755 0.00000044
-0.08227169 0.05623331 -0.00000818
-0.05903682 -0.61396235 0.00000046
-0.37405643 -0.39494270 -0.00000049
-0.27677420 -0.41788432 0.00000000
-0.31560212 -0.76947558 -0.00000177
-0.50795376 -0.14316581 0.00000150
-0.26742896 -0.18899900 0.00000106
-0.23912951 0.53801173 0.00000432
-0.75205237 -0.06207910 -0.00000141
-0.14489435 -0.53441447 0.00000029
-0.49646065 -0.34220913 0.00000173
-0.21170703 -0.47377825 0.00000015
-0.62883711 -0.55377859 0.00000028
-0.14624357 -0.33466512 0.00000115
-0.05369049 0.27593458 -0.00000383
-0.14093222 0.37113753 0.00000107
-0.61305892 0.11804462 0.00000014
-0.15573896 0.39393204 0.00000206
-0.10366219 -0.77459168 -0.00000051
-0.28215656 0.13421065 0.00000401
-0.17157051 -0.08181081 0.00000211
-0.50950640 0.22473194 0.00000130
-0.53290856 0.14635557 0.00000106
-0.50732684 0.18306510 0.00000135
-0.40601599 0.01211846 0.00000262
-0.00866297 -0.16730997 0.00000272
-0.13139455 0.35218248 0.00000033
-0.68022066 -0.35685250 -0.00000042
-0.22843431 -0.73058414 -0.00000108
-0.34029615 0.07307227 0.00000336
-0.44811568 -0.60873866 -0.00000187
-0.37470117 0.24808738 0.00000287
-0.73491120 -0.73944658 -0.00000015
-0.26374441 0.03559331 -0.00000320
-0.53713042 0.13949816 0.00000102
-0.50653684 -0.28971252 0.00000159
-0.54496878 0.23777097 0.00000088
-0.79471856 -0.22697955 -0.00000143
-0.21611758 -0.23049214 0.00000119
-0.68003136 -0.26209906 -0.00000046
-0.48091611 -0.64525330 -0.00000223
-0.00983679 -0.28323278 0.00000220
-0.74661082 -0.16911787 -0.00000129
-0.40805265 -0.55251193 -0.00000138
-0.02767479 0.38310623 -0.00000207
-0.53112191 0.15024915 0.00000108
-0.00872251 -0.04344642 0.00000326
-0.56108540 0.22254200 0.00000070
-0.39666972 -0.30864570 -0.00000024
-0.22100876 -0.05647551 0.00000192
-0.30890000 0.23284832 0.00000365
-0.11543977 -0.54152095 0.00000043
-0.05250137 -0.07692326 0.00000285
-0.21836992 -0.48194915 0.00000007
-0.28892964 0.28417087 0.00000386
-0.47329721 -0.68918729 -0.00000237
-0.47846827 0.03476881 0.00000176
-0.38209456 -0.09302108 0.00000295
-0.02084998 0.34565437 -0.00000316
-0.44156396 -0.15282300 0.00000228
-0.62980342 -0.77789932 -0.00000370
-0.00074333 -0.45551366 0.00000150
-0.72211939 -0.50904930 -0.00000073
-0.34243900 -0.61904508 -0.00000128
-0.61159468 0.18073928 0.00000012
-0.12526670 0.26905882 -0.00000183
-0.34810960 -0.32687098 -0.00000003
-0.15234347 -0.31506416 0.00000120
-0.36264157 0.16725439 0.00000305
-0.04852889 0.33220962 -0.00000265
-0.24738421 -0.21335143 0.00000107
-0.25536713 0.46937668 0.00000416
-0.25411206 -0.26729402 0.00000080
-0.41006351 -0.37045082 -0.00000060
-0.52860564 -0.18554051 0.00000128
-0.00044299 -0.33524287 0.00000203
-0.60337520 -0.30067587 0.00000045
-0.00606162 -0.18632865 0.00000265
-0.43932414 0.02335576 0.00000222
-0.58819246 -0.26478535 0.00000061
-0.24199328 0.23667680 0.00000443
-0.24745177 -0.02488020 0.00000190
-0.54338449 -0.74786258 -0.00000305
-0.22394902 -0.16734640 0.00000142
-0.04760334 0.63965118 0.00000463
-0.38680357 -0.31475165 -0.00000021
-0.71353537 -0.78855675 -0.00000003
-0.34860507 -0.31884784 0.00000000
-0.55199015 -0.76036650 -0.00000316
-0.33208185 -0.53819519 -0.00000086
-0.70429504 -0.02004081 -0.00000087
-0.55752134 -0.03046855 0.00000086
-0.44422972 -0.05468153 0.00000220
-0.09579287 -0.37851995 0.00000127
-0.66122580 -0.46271461 -0.00000015
-0.69182402 -0.45073521 -0.00000051
-0.17780074 -0.05521815 0.00000219
-0.38198209 -0.34666365 -0.00000032
-0.62832534 -0.30589563 0.00000016
-0.23977806 0.53518724 0.00000431
-0.02330891 -0.70159984 0.00000029
-0.79023600 0.00049462 -0.00000182
-0.14973348 -0.73254979 -0.00000061
-0.07935995 0.29995543 -0.00000248
-0.34414363 -0.29948306 0.00000011
-0.55462259 -0.29097712 0.00000102
-0.05186725 -0.39105910 0.00000148
-0.24527480 -0.23884001 0.00000097
-0.10229909 0.16678368 -0.00000495
-0.09786308 -0.62153232 0.00000019
-0.36559653 0.27984369 0.00000296
-0.24556732 0.26751009 0.00000438
-0.67429602 -0.72356075 -0.00000017
-0.24416471 0.35443705 0.00000435
-0.23477237 -0.38572767 0.00000040
-0.00011152 -0.09242907 0.00000309
-0.36189413 -0.03908765 0.00000316
-0.46878496 0.14631765 0.00000182
-0.73359776 -0.05852761 -0.00000119
-0.39316073 -0.01768139 0.00000278
-0.64671439 -0.77706778 -0.00000380
-0.54979289 0.11919591 0.00000088
-0.28632337 -0.25161159 0.00000067
-0.03663192 -0.61928785 0.00000057
-0.43744841 0.00909601 0.00000225
-0.61729473 -0.55169350 0.00000041
-0.36648744 -0.37827888 -0.00000037
-0.31654376 -0.40273675 -0.00000017
-0.72084284 -0.76008242 -0.00000010
-0.11258115 -0.03669291 0.00000266
-0.00569994 -0.42541519 0.00000164
-0.28335845 -0.48669431 -0.00000034
-0.51363128 -0.07106419 0.00000140
-0.26710188 -0.02266182 0.00000179
-0.32021844 0.26367089 0.00000350
-0.69713604 -0.30923447 -0.00000064
-0.05679729 -0.33651334 0.00000168
-0.00930100 -0.69684237 0.00000040
-0.01722989 0.61246699 0.00000307
-0.33405989 -0.74909067 -0.00000179
-0.25716677 -0.48455185 -0.00000017
-0.12298034 -0.47789103 0.00000067
-0.38548642 0.22678742 0.00000275
-0.27812347 -0.39127237 0.00000011
-0.44256043 -0.56524956 -0.00000164
-0.72904021 -0.01827963 -0.00000116
-0.05181402 -0.58436763 0.00000063
-0.53125858 -0.32975146 0.00000131
-0.29310846 -0.48022595 -0.00000037
-0.68984103 -0.54647934 -0.00000044
-0.71183497 -0.52199978 -0.00000070
-0.20420998 -0.49916849 0.00000008
-0.51102424 0.28310612 0.00000130
-0.32051885 0.13016909 0.00000356
-0.17301702 -0.61328340 -0.00000023
-0.11441303 -0.46880805 0.00000076
-0.01757650 0.25573537 -0.00000540
-0.65570778 -0.05658176 -0.00000028
-0.28948772 0.41562632 0.00000379
-0.47929364 -0.69366670 -0.00000243
-0.61031705 0.04861475 0.00000020
-0.07915783 -0.73388970 -0.00000019
-0.11914883 0.15017411 -0.00000484
-0.24396122 -0.05770777 0.00000178
-0.14789151 -0.15280204 0.00000194
-0.00423063 -0.32316190 0.00000206
-0.46203244 -0.73657411 -0.00000251
-0.00890593 -0.27312922 0.00000231
-0.18140773 -0.45948383 0.00000039
-0.42785597 0.24052551 0.00000225
-0.48941994 -0.58684427 -0.00000202
-0.26087499 0.45205665 0.00000411
-0.48665220 0.19893017 0.00000158
-0.69532549 -0.27485856 -0.00000064
-0.66238171 -0.62463480 -0.00000008
-0.15992355 -0.44253707 0.00000060
-0.68980020 0.03368385 -0.00000072
-0.32791576 -0.77480441 -0.00000187
-0.40987664 -0.57932454 -0.00000151
-0.23202148 0.56052291 0.00000439
-0.08845558 0.69223398 0.00000601
-0.59463102 -0.38797998 0.00000060
-0.17892112 -0.60761869 -0.00000024
-0.71723431 -0.03909250 -0.00000101
-0.41062942 -0.43557763 -0.00000088
-0.29421392 -0.69970715 -0.00000134
-0.03440540 -0.75302464 -0.00000000
-0.20013227 0.39363122 0.00000485
-0.44433022 0.04609346 0.00000215
-0.32518259 0.37945104 0.00000339
-0.77115905 -0.76418418 -0.00000009
-0.29212159 -0.27880225 0.00000052
-0.50762457 -0.22112437 0.00000154
-0.25012550 0.44731727 0.00000424
-0.02982360 0.71171534 0.00000580
-0.48163745 -0.12170041 0.00000180
-0.05784308 -0.65530998 0.00000028
-0.19232757 -0.38300312 0.00000066
-0.22727880 0.00422534 -0.00000504
-0.40241465 -0.40624121 -0.00000071
-0.28473040 -0.63418990 -0.00000099
-0.35131988 0.26114410 0.00000314
-0.02886066 -0.76330131 -0.00000001
-0.16443355 -0.79126024 -0.00000095
-0.50081718 0.10037200 0.00000146
-0.18724597 -0.26739106 0.00000120
-0.07703604 -0.59136969 0.00000045
-0.00704229 -0.50965405 0.00000127
-0.33539727 -0.62346143 -0.00000125
-0.02526383 0.33163178 -0.00000336
-0.27964589 -0.57938975 -0.00000072
-0.25277862 0.39191186 0.00000423
-0.69329250 -0.62962329 -0.00000043
-0.73796320 -0.65456128 -0.00000036
-0.20141855 -0.74707019 -0.00000098
-0.26279071 0.02089678 -0.00000357
-0.08265413 -0.35868084 0.00000143
-0.23499379 -0.50700468 -0.00000014
-0.41852009 -0.45844951 -0.00000103
-0.77241933 -0.78572947 -0.00000004
-0.03639599 0.35103172 -0.00000256
-0.48234349 -0.05690684 0.00000176
-0.58506453 0.06461551 0.00000049
-0.74720967 -0.67064697 -0.00000032
-0.41179892 -0.30824921 -0.00000033
-0.26192650 -0.10152075 0.00000147
-0.78832245 -0.58127868 -0.00000055
-0.53669858 -0.49773017 -0.00000192
-0.65406698 -0.28148746 -0.00000015
-0.31140387 0.20891562 0.00000363
-0.01416138 -0.41082600 0.00000170
-0.06667701 -0.67550421 0.00000014
-0.08001646 0.21200360 -0.00000455
-0.70477289 -0.09659475 -0.00000084
-0.12969393 0.37260467 0.00000076
-0.33908066 -0.08086731 0.00000110
-0.27663597 -0.63622326 -0.00000095
-0.33297271 -0.76942742 -0.00000188
-0.60761452 -0.05164137 0.00000028
-0.08734369 0.43801507 0.00000104
-0.30508968 0.17056340 0.00000373
-0.24992226 -0.09969985 0.00000156
-0.29915670 -0.44925192 -0.00000027
-0.65836990 -0.68752104 -0.00000000
-0.29404396 -0.44664764 -0.00000023
-0.59740132 -0.25085464 0.00000050
-0.19779086 0.53095132 0.00000481
-0.33405226 0.07671135 0.00000343
-0.63056368 0.05262681 -0.00000004
-0.22296575 -0.08861661 0.00000177
-0.61044526 -0.31840602 0.00000038
-0.49352235 -0.19210523 0.00000169
-0.05389769 -0.32724899 0.00000174
-0.06714698 -0.22069956 0.00000213
-0.16295147 -0.76629543 -0.00000084
-0.62372464 0.15154035 -0.00000000
-0.40539330 -0.41119635 -0.00000075
-0.38728595 0.34708592 0.00000267
-0.11368970 -0.04855227 0.00000260
-0.02580943 -0.20284106 0.00000246
-0.23056599 0.43331742 0.00000447
-0.47785917 -0.30183193 0.00000193
-0.06224153 0.28581479 -0.00000333
-0.37382415 0.37322181 0.00000282
-0.67592466 -0.40396982 -0.00000035
-0.50851685 0.21573611 0.00000132
-0.32513157 -0.25613764 0.00000042
-0.71172279 -0.14192042 -0.00000089
-0.15928195 -0.46426192 0.00000051
-0.31543347 -0.22457045 0.00000061
-0.11202274 0.68606359 0.00000575
-0.13617170 -0.42365247 0.00000082
-0.22522432 0.33209044 0.00000458
-0.03620972 -0.37768424 0.00000163
-0.77422768 -0.27946514 -0.00000130
-0.26334244 -0.32098731 0.00000051
-0.19705588 -0.33581793 0.00000084
-0.49566635 -0.73431879 -0.00000270
-0.41206175 -0.24987310 -0.00000008
-0.06981065 0.50675857 0.00000214
-0.24321407 -0.42223692 0.00000018
-0.26859790 0.44211677 0.00000402
-0.10975022 0.56210953 0.00000583
-0.43300742 0.36024439 0.00000218
-0.33850539 -0.55694467 -0.00000098
-0.05779690 -0.09206120 0.00000275
-0.26630276 0.23355983 0.00000415
-0.25380898 0.02706600 -0.00000370
-0.06109749 -0.60655069 0.00000048
-0.02445322 0.12117905 -0.00000838
-0.71208858 -0.36958271 -0.00000079
-0.38917515 -0.52706641 -0.00000115
-0.54402959 -0.79202223 -0.00000325
-0.20945825 0.43152654 0.00000472
-0.43672091 -0.33246151 -0.00000059
-0.00170280 0.48984125 -0.00000031
-0.02573275 0.16483933 -0.00000731
-0.43646863 -0.16922349 0.00000235
-0.01844891 -0.20549525 0.00000249
-0.11957032 0.58169478 0.00000570
-0.56068784 -0.01007969 0.00000081
-0.13062210 0.38219774 0.00000102
-0.31332290 -0.54132676 -0.00000076
-0.14990930 0.62620848 0.00000533
-0.39575592 0.39258990 0.00000255
-0.22362986 -0.52437693 -0.00000014
-0.29227203 -0.62152803 -0.00000098
-0.67074341 -0.07195382 -0.00000045
-0.75206083 -0.36050552 -0.00000110
-0.53178239 -0.39553794 0.00000134
-0.60177332 0.07469997 0.00000029
-0.45127657 -0.52252632 -0.00000151
-0.37843835 -0.77246618 -0.00000216
-0.18482423 -0.66280240 -0.00000052
-0.32159087 -0.08406514 0.00000119
-0.02786678 0.49688241 0.00000064
-0.22375233 0.01677533 -0.00000485
-0.14724509 -0.01186239 0.00000256
-0.27445832 0.52489960 0.00000392
-0.46896222 -0.77649778 -0.00000273
-0.39143968 0.01028096 0.00000279
-0.49037802 -0.30791324 0.00000178
-0.28215647 -0.42206252 -0.00000005
-0.54240263 -0.12645993 0.00000108
-0.78765666 -0.13795684 -0.00000166
-0.02716750 0.51817799 0.00000113
-0.21884218 -0.48816046 0.00000004
-0.10406312 0.46463403 0.00000218
-0.55118102 -0.49497572 0.00000116
-0.10871579 0.42767307 0.00000144
-0.12472181 0.19912271 -0.00000351
-0.29903209 -0.10983289 0.00000121
-0.78143519 -0.01649273 -0.00000177
-0.36898363 0.36975217 0.00000288
-0.25977260 -0.14971823 0.00000128
-0.02989160 0.35237506 -0.00000273
-0.11099190 -0.72936058 -0.00000036
-0.24629678 -0.30298126 0.00000069
-0.35257959 0.29879043 0.00000311
-0.13683493 -0.16846655 0.00000194
-0.06960713 -0.48461634 0.00000096
-0.70439821 0.00077705 -0.00000088
-0.16969834 0.26967037 -0.00000047
-0.67109138 -0.15812349 -0.00000041
-0.55656528 -0.52571255 0.00000111
-0.22800232 -0.66322023 -0.00000078
-0.06709245 -0.28790355 0.00000184
-0.50781846 -0.47781003 -0.00000166
-0.49511164 0.08554081 0.00000154
-0.18901409 -0.53618318 0.00000001
-0.08902200 -0.28178477 0.00000173
-0.45292926 -0.14533029 0.00000214
-0.68918717 -0.13486242 -0.00000063
-0.40441549 -0.58992779 -0.00000152
-0.19521610 -0.24343362 0.00000126
-0.09309802 0.26168513 -0.00000298
-0.61234373 -0.52005124 0.00000046
-0.34724435 -0.43104747 -0.00000048
-0.75180513 -0.50817931 -0.00000073
-0.39685988 0.08052109 0.00000269
-0.05585520 -0.63701200 0.00000038
-0.47586548 -0.39194769 -0.00000109
-0.14526767 0.61413091 0.00000539
-0.00582542 -0.46901625 0.00000141
-0.49793637 0.01984097 0.00000154
-0.56495017 0.22070451 0.00000065
-0.64967072 -0.22662030 -0.00000013
-0.04232974 -0.48754540 0.00000111
-0.60075521 -0.56827450 0.00000061
-0.69656134 -0.57189071 -0.00000051
-0.53746063 -0.59031075 -0.00000233
-0.35767603 -0.60323328 -0.00000130
-0.61673301 0.14876516 0.00000008
-0.35498968 0.32136837 0.00000307
-0.17382114 -0.21997631 0.00000149
-0.11136010 -0.18215027 0.00000203
-0.62639314 -0.26840904 0.00000017
-0.18116352 0.38971651 0.00000507
-0.62345397 -0.79007268 -0.00000372
-0.04937120 0.38448855 -0.00000138
-0.19962810 -0.36708117 0.00000069
-0.03343349 0.76041055 0.00000663
-0.63585746 -0.48112836 0.00000016
-0.01093754 -0.20393258 0.00000254
-0.56904805 -0.73481309 -0.00000315
-0.01391283 -0.42883474 0.00000154
-0.12368014 0.10796951 -0.00000570
-0.36069056 -0.58488894 -0.00000124
-0.60366666 -0.00351484 0.00000031
-0.07147447 -0.45046711 0.00000110
-0.73786974 -0.30376950 -0.00000112
-0.30772921 0.36473486 0.00000360
-0.74709260 -0.73930830 -0.00000015
-0.33389458 0.12258577 0.00000341
-0.11604589 0.16541792 -0.00000457
-0.18970422 0.19817039 -0.00000157
-0.28367516 0.45575970 0.00000384
-0.74681550 0.03159015 -0.00000139
-0.31925890 -0.55795401 -0.00000087
-0.42386651 0.03723636 0.00000240
-0.74604088 -0.19983771 -0.00000127
-0.29005161 -0.77335787 -0.00000163
-0.66853589 -0.25959575 -0.00000033
-0.09941621 -0.74227005 -0.00000035
-0.12875742 -0.34751099 0.00000120
-0.08158570 0.02775127 -0.00000888
-0.36922827 -0.21378012 0.00000034
-0.20942470 0.09118420 -0.00000351
-0.79274064 -0.78072912 -0.00000005
-0.19849099 -0.21260145 0.00000137
-0.00929230 -0.18435122 0.00000264
-0.19098844 -0.55173749 -0.00000007
-0.50784427 -0.23119064 0.00000154
-0.21428035 -0.37538722 0.00000056
-0.00086054 -0.57275766 0.00000099
-0.04364514 -0.34094900 0.00000174
-0.72817987 -0.72393882 -0.00000019
-0.37826198 0.04498394 0.00000293
-0.47197238 -0.34989017 -0.00000088
-0.09182837 0.07945317 -0.00000734
-0.50796854 -0.75680691 -0.00000288
-0.18464692 -0.21151809 0.00000146
-0.37266353 -0.22157151 0.00000028
-0.24983422 -0.16197170 0.00000128
-0.00276138 0.15406545 -0.00000826
-0.15186661 -0.76127332 -0.00000075
-0.57451391 -0.76667696 -0.00000332
-0.15054367 0.47575012 0.00000539
-0.01743048 0.62647063 0.00000340
-0.09337876 -0.30362144 0.00000161
-0.20642368 -0.03433746 0.00000210
-0.07124130 0.58895844 0.00000414
-0.14054273 -0.33666155 0.00000118
-0.33806854 -0.60995626 -0.00000121
-0.64315915 -0.41598529 0.00000004
-0.58707666 -0.11966240 0.00000056
-0.03088796 -0.14288148 0.00000269
-0.00343334 0.56176531 0.00000145
-0.32857585 -0.20038478 0.00000064
-0.57016963 -0.69683152 -0.00000299
-0.25298521 -0.13797323 0.00000137
-0.36676517 0.35152087 0.00000291
-0.01749493 0.16095226 -0.00000765
-0.23206066 -0.48836723 -0.00000004
-0.65453672 -0.57869589 -0.00000001
-0.71838897 -0.18052852 -0.00000095
-0.32038000 0.40783581 0.00000343
-0.03832526 0.62149990 0.00000392
-0.73706925 -0.41505030 -0.00000096
-0.19329385 -0.16618188 0.00000161
-0.30257997 -0.39822903 -0.00000007
-0.78813487 -0.79436433 -0.00000001
-0.18475665 -0.42752129 0.00000051
-0.19417769 -0.44478500 0.00000038
-0.19572389 0.14845100 -0.00000257
-0.76849341 -0.16321491 -0.00000155
-0.59001589 0.00415110 0.00000046
-0.20960809 0.46467057 0.00000470
-0.55170923 -0.03885931 0.00000093
-0.48289376 -0.74748904 -0.00000268
-0.40393329 0.36567676 0.00000247
-0.72786689 -0.76777244 -0.00000008
-0.42241141 -0.70776343 -0.00000215
-0.13628383 -0.78935850 -0.00000078
-0.12202955 0.65283626 0.00000564
-0.03390382 -0.01255004 0.00000324
-0.04083327 0.14086033 -0.00000742
-0.58194709 0.21357705 0.00000049
-0.13731401 -0.21719331 0.00000172
-0.52122438 -0.31040776 0.00000142
-0.46408278 0.23060890 0.00000183
-0.17162859 -0.18482170 0.00000166
-0.24718864 -0.45274794 0.00000003
-0.13624480 -0.61860502 -0.00000003
-0.24572630 -0.58570963 -0.00000055
-0.64093256 0.08167591 -0.00000017
-0.35397205 -0.65470260 -0.00000150
-0.47676769 -0.42669138 -0.00000124
-0.09219184 0.37085789 -0.00000041
-0.06701295 0.12244210 -0.00000707
-0.12010418 0.18287680 -0.00000403
-0.23289753 -0.69792473 -0.00000096
-0.32148406 0.10757451 0.00000356
-0.43762407 0.07589033 0.00000222
-0.20140198 -0.70479482 -0.00000080
-0.52349037 0.26983854 0.00000116
-0.05176075 0.15614164 -0.00000673
-0.39778945 0.38323650 0.00000253
-0.23542722 -0.53570563 -0.00000026
-0.02529767 0.68473434 0.00000503
-0.07782272 -0.15205368 0.00000237
-0.13888603 0.34088647 0.00000029
-0.60139465 -0.08083342 0.00000037
-0.68451464 -0.11908770 -0.00000059
-0.27039674 -0.25801122 0.00000074
-0.15767793 0.14947046 -0.00000369
-0.30757752 -0.14504576 0.00000101
-0.02886276 0.41413677 -0.00000129
-0.37136486 -0.63931149 -0.00000154
-0.36128071 -0.61734438 -0.00000138
-0.39833650 0.03390082 0.00000270
-0.69029164 -0.69353789 -0.00000027
-0.01372571 0.73271674 0.00000582
-0.08342832 0.30266339 -0.00000229
-0.05928686 -0.44733652 0.00000119
-0.24947704 -0.33626357 0.00000052
-0.12731665 -0.40365610 0.00000097
-0.11481678 0.59127277 0.00000575
-0.00922889 -0.06921259 0.00000320
-0.17377248 -0.49439055 0.00000029
-0.27402815 -0.14666797 0.00000120
-0.05991275 0.45131412 0.00000053
-0.07042765 0.56532931 0.00000355
-0.63980484 -0.24047795 -0.00000000
-0.21000478 -0.67677873 -0.00000073
-0.31602922 -0.09298498 0.00000119
-0.28330106 0.48196185 0.00000383
-0.32659262 -0.40527409 -0.00000024
-0.05711849 -0.49473566 0.00000099
-0.14801946 0.09152317 -0.00000536
-0.74344856 -0.55377966 -0.00000062
-0.11354984 0.01453557 -0.00000823
-0.39969352 -0.04212340 0.00000272
-0.12788828 -0.03885669 0.00000256
-0.13034868 -0.41258255 0.00000091
-0.07450460 0.18754280 -0.00000530
-0.75511402 -0.42627925 -0.00000093
-0.06715519 -0.64482409 0.00000027
-0.24239562 0.24880648 0.00000442
-0.22660848 -0.18713506 0.00000131
-0.04581433 -0.29819697 0.00000192
-0.71971899 -0.01363360 -0.00000105
-0.15583228 -0.64631015 -0.00000027
-0.68909824 -0.76473510 -0.00000009
-0.66028661 -0.31154525 -0.00000021
-0.16630907 0.28150502 -0.00000030
-0.76774961 -0.35031459 -0.00000112
-0.31169510 0.43919998 0.00000352
-0.30679604 -0.75753695 -0.00000167
-0.00440473 0.29449186 -0.00000487
-0.47868198 -0.13927147 0.00000184
-0.64434731 -0.02689320 -0.00000016
-0.49521136 -0.14078285 0.00000165
-0.66141248 -0.32657215 -0.00000021
-0.12845530 -0.11467947 0.00000222
-0.63127345 -0.20621359 0.00000008
-0.62037975 -0.30748039 0.00000026
-0.33259165 0.33636063 0.00000332
-0.42963871 -0.13113044 0.00000241
-0.25119138 0.50442839 0.00000420
-0.24139495 -0.38867816 0.00000034
-0.20384523 -0.45207646 0.00000029
-0.35326645 0.40532136 0.00000305
-0.05296382 -0.01599083 0.00000311
-0.73660320 -0.19937758 -0.00000116
-0.13371596 -0.36978409 0.00000108
-0.57581925 0.00120909 0.00000063
-0.16494539 -0.46761796 0.00000046
-0.64500594 -0.24052414 -0.00000006
-0.19035095 -0.25818586 0.00000122
-0.35940263 0.23901416 0.00000305
-0.41999704 0.07767699 0.00000242
-0.09691380 -0.46561751 0.00000088
-0.62924230 -0.76501244 -0.00000364
-0.10172797 -0.18818939 0.00000206
-0.29380530 -0.24139664 0.00000067
-0.19707221 -0.62009829 -0.00000040
-0.22329608 -0.19207887 0.00000131
-0.00446345 -0.63825262 0.00000068
-0.36232030 -0.39068413 -0.00000040
-0.39366627 0.14072128 0.00000270
-0.18678291 -0.02544893 0.00000226
-0.63039070 -0.35003319 0.00000016
-0.58685607 -0.65577060 -0.00000291
-0.32111958 0.11705475 0.00000356
-0.08837913 -0.13501012 0.00000238
-0.56777179 -0.43825409 0.00000094
-0.23914786 -0.69796646 -0.00000100
-0.67768061 -0.22959974 -0.00000045
-0.45940298 -0.65419924 -0.00000213
-0.12996919 -0.02789237 0.00000259
-0.38618657 -0.28404713 -0.00000007
-0.35045454 -0.40524301 -0.00000039
-0.26885390 -0.22105327 0.00000091
-0.20865259 0.06158675 -0.00000424
-0.60061222 -0.43371791 0.00000055
-0.00686028 -0.73591661 0.00000028
-0.01106410 -0.35658029 0.00000187
-0.56712985 -0.62575090 -0.00000266
-0.49862045 -0.13622244 0.00000160
-0.03098782 0.11786173 -0.00000827
-0.12642792 0.04924197 -0.00000702
-0.65927988 -0.73385131 0.00000001
-0.43471134 -0.41528857 -0.00000094
-0.15780298 -0.73312765 -0.00000066
-0.61923796 -0.68427092 0.00000045
-0.37901777 0.07094210 0.00000291
-0.32390714 -0.02993329 0.00000141
-0.07805131 0.29472265 -0.00000264
-0.31059495 0.20856753 0.00000364
-0.35888952 -0.30773821 -0.00000001
-0.28388926 0.37057078 0.00000388
-0.66737366 -0.37767699 -0.00000026
-0.17719604 0.16030630 -0.00000285
-0.06502387 -0.57051176 0.00000061
-0.42615220 -0.11205586 0.00000244
-0.47158736 -0.31616595 0.00000201
-0.14689508 -0.17218924 0.00000186
-0.45631647 0.01788747 0.00000202
-0.76534134 -0.03856463 -0.00000157
-0.37598705 0.08270007 0.00000294
-0.63467360 -0.79123718 -0.00000379
-0.07665363 -0.72162235 -0.00000012
-0.13995044 0.63059807 0.00000544
-0.28153658 -0.22731569 0.00000081
-0.42452562 0.04019738 0.00000239
-0.65075755 -0.36050609 -0.00000007
-0.17538396 0.02027726 -0.00000623
-0.16920830 -0.44344869 0.00000054
-0.25247744 -0.27762336 0.00000076
-0.71499193 -0.09667489 -0.00000096
-0.46718496 -0.14508007 0.00000198
-0.00113803 -0.12255379 0.00000296
-0.03541829 -0.64079821 0.00000048
-0.65768504 -0.75789839 0.00000004
-0.54538250 -0.37443796 0.00000117
-0.44024333 -0.41760728 -0.00000098
-0.07875036 -0.67621040 0.00000007
-0.30142459 0.07642177 0.00000381
-0.67094314 -0.24223971 -0.00000037
-0.24218445 -0.49567807 -0.00000013
-0.34254456 -0.46576890 -0.00000061
-0.59004313 0.18073259 0.00000038
-0.47294146 -0.12469400 0.00000190
-0.73323131 -0.64296377 -0.00000039
-0.77572870 -0.16377436 -0.00000159
-0.01389353 -0.59764671 0.00000080
-0.00341897 -0.06022225 0.00000322
-0.29011664 -0.39070153 0.00000004
-0.71850312 0.03644049 -0.00000106
-0.55684102 -0.65055436 -0.00000271
-0.26097748 -0.63188702 -0.00000084
-0.20676023 -0.07047796 0.00000194
-0.04263883 -0.57611799 0.00000072
-0.49385774 -0.40277240 -0.00000124
-0.19493936 -0.31979552 0.00000092
-0.56505519 -0.37709576 0.00000094
-0.14588691 0.30424586 -0.00000037
-0.12861934 -0.67249352 -0.00000022
-0.17594644 -0.17702723 0.00000166
-0.34674391 -0.59953195 -0.00000122
-0.36120221 0.23953021 0.00000303
-0.47350809 -0.14646368 0.00000190
-0.59856397 -0.07349486 0.00000040
-0.23785719 0.29860887 0.00000445
-0.01342755 0.36856481 -0.00000284
-0.10747671 0.12454510 -0.00000580
-0.69996053 -0.03693675 -0.00000081
-0.79205781 -0.48552409 -0.00000079
-0.78667235 -0.48433042 -0.00000079
-0.68292987 -0.29769373 -0.00000048
-0.70843273 -0.21533556 -0.00000082
-0.12453180 -0.77143031 -0.00000063
-0.57439625 0.07148899 0.00000061
-0.01449789 0.59016681 0.00000245
-0.03368225 -0.18135925 0.00000250
-0.07251889 -0.10420103 0.00000261
-0.66151279 -0.72072160 -0.00000002
-0.48035678 -0.53583515 -0.00000174
-0.03347098 -0.43441167 0.00000140
-0.71316057 -0.40490487 -0.00000078
-0.12724087 -0.25666574 0.00000161
-0.32827473 0.19889474 0.00000344
-0.02701729 -0.57018542 0.00000084
-0.44372272 -0.00358769 0.00000218
-0.31959480 0.35049576 0.00000347
-0.19684234 -0.79299849 -0.00000116
-0.47280693 -0.44727370 -0.00000131
-0.17811401 0.14890398 -0.00000309
-0.69329125 -0.54632807 -0.00000048
-0.21438518 -0.18866090 0.00000138
-0.32422113 -0.17080107 0.00000080
-0.39640471 -0.72690159 -0.00000207
-0.63340682 -0.71288586 0.00000030
-0.52622426 -0.12689038 0.00000127
-0.64986372 -0.20268773 -0.00000014
-0.29290649 -0.67674464 -0.00000123
-0.05373421 0.07387314 -0.00000862
-0.62971902 -0.01586660 0.00000001
-0.45776534 -0.08386103 0.00000206
-0.65579516 -0.12274099 -0.00000025
-0.53579330 -0.20354646 0.00000120
-0.34833163 -0.06692099 0.00000110
-0.40803245 -0.13346668 0.00000267
-0.02628353 -0.26416373 0.00000219
-0.32145309 -0.23982652 0.00000051
-0.47638762 0.20386247 0.00000170
-0.18289025 -0.43730912 0.00000048
-0.38850006 0.37038913 0.00000265
-0.68663126 -0.26222393 -0.00000054
-0.18711548 -0.63312525 -0.00000040
-0.22807211 -0.37187651 0.00000050
-0.27966958 -0.34002307 0.00000032
-0.54234570 -0.54238588 -0.00000215
-0.22562918 0.32655826 0.00000458
-0.23747557 0.49171245 0.00000436
-0.44013834 -0.20269607 0.00000232
-0.28234464 -0.13595916 0.00000120
-0.11402017 -0.24724382 0.00000173
-0.16458891 -0.20477889 0.00000161
-0.11859383 -0.73545462 -0.00000043
-0.31412923 0.39141339 0.00000351
-0.15151827 0.34980842 0.00000088
-0.23514383 -0.30171904 0.00000076
-0.05388969 0.01136670 -0.00001010
-0.41411653 -0.57664990 -0.00000152
-0.48767287 0.19234116 0.00000157
-0.00651482 -0.64167821 0.00000065
-0.10311267 0.52991712 0.00000370
-0.42480364 -0.76197302 -0.00000240
-0.74428254 -0.39453429 -0.00000101
-0.01500781 0.56607461 0.00000190
-0.37173882 -0.74828321 -0.00000202
-0.71037889 -0.04186446 -0.00000093
-0.40847281 0.20068695 0.00000250
-0.46798703 -0.65127498 -0.00000217
-0.41436446 -0.61413038 -0.00000169
-0.04981299 0.59294635 0.00000359
-0.68168414 -0.64993423 -0.00000030
-0.64979142 -0.17907916 -0.00000015
-0.66157925 -0.10669720 -0.00000032
-0.33790207 0.12797303 0.00000336
-0.26765057 -0.13615924 0.00000129
-0.60498673 0.18969038 0.00000024
-0.68456316 -0.37384304 -0.00000046
-0.33727381 -0.08331566 0.00000110
-0.78664690 -0.09083510 -0.00000177
-0.37954259 -0.03821453 0.00000295
-0.36474460 -0.29308996 0.00000002
-0.58298600 0.08083490 0.00000051
-0.47596833 -0.29787067 0.00000195
-0.12890998 0.13439785 -0.00000492
-0.27230421 0.19623126 0.00000410
-0.72689009 -0.15111946 -0.00000107
-0.00749424 0.61388046 0.00000281
-0.07583608 0.05557161 -0.00000839
-0.19570243 -0.34400415 0.00000081
-0.25206837 0.16456293 -0.00000048
-0.29853746 -0.24834932 0.00000061
-0.72876590 -0.29452541 -0.00000102
-0.70962328 -0.00634646 -0.00000094
-0.66035241 -0.07902170 -0.00000032
-0.49394765 0.04932202 0.00000157
-0.06044222 0.37986642 -0.00000115
-0.24948466 0.39441541 0.00000427
-0.47535530 0.02156923 0.00000180
-0.17633161 0.25580338 -0.00000060
-0.38647956 -0.66921830 -0.00000176
-0.22780965 -0.69560128 -0.00000092
-0.21010268 0.29623443 0.00000478
-0.58250421 -0.66687232 -0.00000293
-0.61547840 0.04890264 0.00000014
-0.22423214 -0.22541822 0.00000116
-0.12879799 -0.78475827 -0.00000071
-0.00887076 -0.28412271 0.00000220
-0.32576904 -0.60713798 -0.00000112
-0.08846892 -0.46633765 0.00000093
-0.12924942 0.06421501 -0.00000657
-0.04754430 -0.11164844 0.00000272
-0.71677440 -0.43513128 -0.00000081
-0.42640564 -0.06512723 0.00000242
-0.37202644 -0.15333219 0.00000058
-0.43128172 -0.34611854 -0.00000062
-0.35693902 -0.61565089 -0.00000135
-0.67382234 -0.61551726 -0.00000022
-0.13696779 0.29535389 -0.00000085
-0.18551445 0.53491867 0.00000495
-0.05498912 0.60163713 0.00000395
-0.00522766 -0.69749248 0.00000045
-0.03227642 0.67508465 0.00000501
-0.67366827 -0.18349864 -0.00000043
-0.09151181 0.01167452 -0.00000896
-0.65714574 -0.15816461 -0.00000025
-0.20075063 -0.33363998 0.00000083
-0.64301455 -0.10596241 -0.00000011
-0.66306812 -0.66323316 -0.00000007
-0.31000313 -0.32094651 0.00000022
-0.71743751 -0.07819466 -0.00000099
-0.01977566 0.47131070 -0.00000021
-0.26205945 0.15106963 -0.00000050
-0.25545821 -0.76265883 -0.00000138
-0.38585752 -0.04058222 0.00000288
-0.59942257 -0.69180381 -0.00000314
-0.29832056 -0.65358198 -0.00000116
-0.45868859 -0.35225412 -0.00000081
-0.02514604 -0.57305205 0.00000084
-0.14474866 0.35810232 0.00000087
-0.21538590 -0.57136780 -0.00000030
-0.42528370 -0.03429563 0.00000241
-0.40631253 -0.59650159 -0.00000156
-0.55193019 -0.79991168 -0.00000333
-0.08973671 0.39506495 0.00000009
-0.45020795 0.06632294 0.00000207
-0.28774568 0.09179661 -0.00000114
-0.00106754 -0.37085885 0.00000187
-0.22735970 -0.69773889 -0.00000092
-0.37421456 -0.60581350 -0.00000141
-0.25261763 -0.16981034 0.00000123
-0.36249259 -0.68864757 -0.00000170
-0.76197052 -0.32817709 -0.00000118
-0.22131683 -0.33805808 0.00000069
-0.79930389 -0.01931152 -0.00000195
-0.49407485 0.07148600 0.00000156
-0.78518838 -0.32660165 -0.00000118
-0.54113203 -0.62055588 -0.00000248
-0.23885509 0.51461720 0.00000434
-0.30919275 0.20765501 0.00000366
-0.71667647 -0.78974348 -0.00000003
-0.37358296 -0.60571539 -0.00000140
-0.06855724 -0.58159065 0.00000054
-0.75708121 -0.68955547 -0.00000028
-0.68556309 -0.40254650 -0.00000046
-0.14058524 0.43590534 0.00000260
-0.23003457 -0.41681978 0.00000029
-0.36202350 -0.04750535 0.00000316
-0.56542218 -0.71579158 -0.00000304
-0.70352733 0.01944333 -0.00000088
-0.10839651 -0.47716787 0.00000076
