ply
format ascii 1.0
element vertex 1370
property float x
property float y
property float z
end_header
0.70036978 -0.63633561 -0.00000041
0.58058566 0.09921301 -0.00000149
0.65569961 -0.52051198 -0.00000052
-0.17524634 -0.23933661 -0.00000035
0.51031816 -0.33254409 -0.00000042
-0.63505709 -0.67954063 -0.00000005
-0.71646732 0.17859744 0.14092913
-0.56650150 -0.61233348 -0.00000012
0.62872809 -0.53084731 -0.00000042
-0.39699519 0.49664301 0.13881274
0.35837549 -0.71204644 -0.00000005
-0.52096468 -0.16932654 -0.00000027
0.64114535 -0.41252169 -0.00000069
-0.69281948 -0.72592437 0.00000000
-0.06766803 -0.64007407 -0.00000010
0.63803750 -0.31751734 -0.00000086
0.31686518 -0.02442793 -0.00000048
-0.56697106 -0.13204059 -0.00000022
-0.33839726 0.58062196 0.17643856
-0.16112621 0.66237444 0.03483669
0.32770315 -0.08415904 -0.00000045
-0.07286098 -0.03174491 -0.00000048
-0.79587036 -0.13452649 0.00000000
-0.11291622 0.18208924 -0.00000061
0.32798406 -0.44233170 -0.00000022
0.41514525 -0.38869038 -0.00000026
0.02621997 -0.39280957 -0.00000025
0.27520066 0.08419362 -0.00000055
-0.01793982 -0.20518494 -0.00000037
-0.40652138 0.45040423 0.08438848
-0.05948924 0.77007544 0.04382588
-0.29161340 0.41172767 -0.00000062
0.01463811 0.17964736 -0.00000061
0.09970245 0.02495949 -0.00000052
-0.68176258 -0.31786841 -0.00000007
-0.33318502 0.65840662 0.28402370
0.00618943 0.23898003 -0.00000065
-0.00954851 0.02107814 -0.00000051
-0.54411042 0.49564517 0.35542488
0.08659070 0.47474647 -0.00000080
-0.64230740 -0.10139470 -0.00000015
-0.44843525 0.57675713 0.33383536
-0.26293123 0.31347415 -0.00000063
0.42842731 -0.09628680 -0.00000062
-0.51067543 0.41426417 0.18521585
-0.47875243 -0.18967324 -0.00000031
0.19536996 -0.70106500 -0.00000006
0.39396822 -0.50268614 -0.00000019
0.22943307 0.44687465 -0.00000105
-0.51866275 0.55144536 0.40042099
0.02880897 -0.15998192 -0.00000040
0.55498320 0.23942733 -0.00000168
-0.38462061 0.39927989 -0.00000052
0.09166091 0.56062347 -0.00000085
0.47727445 -0.74668360 -0.00000003
0.54848605 -0.45396507 -0.00000031
0.66795963 -0.53528988 -0.00000053
-0.58743638 0.17135207 -0.00000026
0.59029782 -0.02954648 -0.00000127
0.77668399 -0.06303022 -0.00000180
-0.19915511 0.32604590 -0.00000070
-0.24410756 0.11282989 -0.00000057
-0.48638463 0.50908273 0.28976959
-0.31788731 0.56321859 0.12023392
-0.07575265 -0.03755996 -0.00000048
0.20914669 -0.18514085 -0.00000038
0.01125203 -0.37915373 -0.00000026
0.36491621 -0.40361205 -0.00000025
0.59290177 -0.09732488 -0.00000115
-0.34163252 -0.38934177 -0.00000026
0.05730734 0.28362656 -0.00000068
-0.21979280 0.62688375 0.06919391
0.35959062 -0.69758439 -0.00000006
-0.35261506 0.57428092 0.18811542
-0.67525214 0.22177690 0.14384085
0.14643027 0.64632720 -0.00000117
0.74013233 -0.42765215 -0.00000093
-0.11826177 0.24690972 -0.00000065
0.37475383 -0.11420840 -0.00000043
0.11923620 0.58439934 -0.00000096
-0.06832525 -0.59637558 -0.00000013
0.35492125 -0.69482350 -0.00000007
-0.69364101 -0.29192621 -0.00000006
-0.20060682 -0.08495538 -0.00000045
-0.07241391 -0.54747504 -0.00000016
-0.22340851 0.58570766 0.01351278
-0.20251060 0.17795049 -0.00000061
-0.19005316 -0.09437102 -0.00000044
-0.53626060 -0.47101134 -0.00000020
-0.44742906 0.53509128 0.27057612
-0.14242586 0.34159976 -0.00000071
-0.25063583 0.69524539 0.21625996
-0.09997105 0.37178043 -0.00000073
-0.50812203 -0.74275869 -0.00000004
-0.07711991 0.67749685 -0.00000090
-0.66414046 -0.37717921 -0.00000008
0.13850816 0.10992750 -0.00000057
-0.52960128 -0.52443910 -0.00000017
0.06268742 -0.35441086 -0.00000028
-0.37010190 -0.42059723 -0.00000024
-0.26574266 0.61318350 0.11700235
-0.43413654 0.48097092 0.17063987
-0.26918760 -0.29106364 -0.00000032
0.19449343 -0.53395742 -0.00000017
-0.34850371 0.49823543 0.06928732
0.53183192 0.17195924 -0.00000148
-0.46920934 -0.63594550 -0.00000010
-0.58038634 -0.69594353 -0.00000007
-0.26026595 0.57776135 0.05637207
0.31756026 -0.22889061 -0.00000036
0.40079227 0.11655865 -0.00000095
0.24696068 0.24854384 -0.00000071
0.41765353 -0.24991576 -0.00000034
0.05404250 0.39741513 -0.00000075
-0.35766301 -0.01187741 -0.00000047
0.28459805 0.10190749 -0.00000056
-0.22274134 0.08512861 -0.00000055
0.22640842 -0.62346452 -0.00000011
-0.03873365 -0.76998329 -0.00000002
0.48417309 -0.48056263 -0.00000020
-0.11751073 -0.07733262 -0.00000045
-0.25702262 0.59621954 0.07892720
0.74289000 -0.74768835 -0.00000013
-0.19876947 -0.12095529 -0.00000042
-0.34351557 0.58249646 0.18680505
-0.39832988 0.57604766 0.25850469
0.74341702 0.01135771 -0.00000184
-0.59696293 0.32495192 0.18073224
-0.16428190 0.41967168 -0.00000076
0.51832163 -0.78445560 -0.00000001
0.25877824 -0.35919398 -0.00000028
-0.53033876 0.41989446 0.22271226
0.01400907 0.51811665 -0.00000082
-0.59879905 -0.27815965 -0.00000016
-0.16464345 0.37116551 -0.00000073
-0.77946568 -0.66989630 0.00000000
-0.36005896 -0.79704040 -0.00000000
0.12147892 -0.65090781 -0.00000009
-0.24043952 -0.69021595 -0.00000007
-0.29770550 -0.63751185 -0.00000010
0.20433500 0.39523381 -0.00000086
-0.14609291 -0.78710306 -0.00000001
-0.29944181 -0.39834630 -0.00000025
-0.63210809 -0.01583280 -0.00000018
-0.30824873 0.61712283 0.18585548
0.46412140 0.28370315 -0.00000148
-0.06096294 -0.63244307 -0.00000010
0.61392975 0.16137432 -0.00000172
-0.31325883 0.40566128 -0.00000059
0.47596824 0.04986346 -0.00000106
0.33224618 -0.22423814 -0.00000036
0.15541328 -0.49988994 -0.00000019
-0.11334990 -0.64605457 -0.00000010
-0.71379805 -0.05761619 -0.00000008
-0.21644148 -0.67464441 -0.00000008
0.76929027 -0.16362926 -0.00000158
0.07671740 0.53572917 -0.00000083
-0.31441060 0.62746662 0.21032441
0.29859957 -0.72630078 -0.00000005
-0.65279090 0.10168770 -0.00000018
0.31634405 0.26204222 -0.00000096
-0.59751302 0.17510602 -0.00000025
-0.34371400 -0.59537441 -0.00000013
0.50975943 -0.34936908 -0.00000039
0.15935849 0.26306015 -0.00000066
-0.65876228 0.12116709 -0.00000017
0.42798415 -0.26262194 -0.00000034
0.53276402 -0.76127553 -0.00000002
-0.39035094 0.59852350 0.27999571
-0.20643388 0.00509401 -0.00000050
-0.24934202 0.00475774 -0.00000050
-0.45625684 0.60284626 0.38410643
0.78341872 -0.19298773 -0.00000152
-0.21040724 -0.37301144 -0.00000027
0.65978372 -0.64740294 -0.00000029
-0.62399924 -0.00815743 -0.00000019
0.00625503 -0.45231307 -0.00000022
-0.38676637 -0.35606760 -0.00000028
0.53413749 -0.69562054 -0.00000007
0.74294382 -0.21177498 -0.00000140
0.47812009 -0.18631592 -0.00000061
-0.15736289 -0.46934322 -0.00000021
0.68441188 -0.45413592 -0.00000074
0.40444943 -0.24598420 -0.00000035
0.66953468 -0.71086544 -0.00000020
0.33321598 0.42860007 -0.00000134
0.26353750 0.02913889 -0.00000052
0.34119579 0.12965240 -0.00000078
0.69135922 -0.52858847 -0.00000062
-0.10999599 0.17160697 -0.00000061
-0.38769588 0.39766881 -0.00000051
-0.00993465 0.02493023 -0.00000052
-0.35507372 0.00828493 -0.00000048
-0.49640739 0.38177809 0.11590545
0.22150742 0.41038936 -0.00000095
0.49991643 -0.48410121 -0.00000020
-0.31191236 -0.24262530 -0.00000035
0.29166782 0.04535109 -0.00000053
-0.73002297 0.04634427 -0.00000008
0.10544289 -0.63766581 -0.00000010
-0.36296028 0.45847973 0.03178286
-0.77291244 -0.00528977 -0.00000003
0.74596250 -0.47307757 -0.00000082
-0.34641379 -0.01944387 -0.00000048
-0.22504516 0.54266196 -0.00000071
0.60754693 -0.59028912 -0.00000023
0.34347621 -0.23544285 -0.00000035
-0.21774022 0.70551509 0.18271811
0.28915071 -0.03622883 -0.00000048
-0.10842293 0.60992730 -0.00000085
-0.36835873 -0.64908296 -0.00000009
-0.04792245 0.74453837 -0.00000094
0.31993005 -0.60468245 -0.00000012
-0.79683530 -0.56450248 0.00000000
0.27810884 -0.44079068 -0.00000022
-0.05117067 -0.56495482 -0.00000015
0.27690908 -0.69495398 -0.00000007
-0.36426342 0.47073704 0.05188550
0.31461555 -0.07551361 -0.00000045
-0.16218850 0.41962782 -0.00000076
0.45681342 0.05439080 -0.00000101
0.19699731 0.22505380 -0.00000064
-0.21385507 -0.68507606 -0.00000007
-0.60710531 0.10859177 -0.00000023
0.51188070 -0.38885328 -0.00000032
-0.15893900 -0.37526593 -0.00000027
0.08583277 0.14716487 -0.00000059
-0.18681832 0.70107889 0.13030131
0.76742357 -0.46976334 -0.00000083
0.37876087 -0.53294927 -0.00000017
0.72020704 -0.26155606 -0.00000123
0.22503582 -0.56823677 -0.00000014
0.10239486 -0.07867557 -0.00000045
-0.63663161 -0.49363467 -0.00000008
0.65410262 -0.45104605 -0.00000065
-0.39209160 0.15024559 -0.00000046
-0.39591870 0.39773145 -0.00000050
-0.20878430 0.65106851 0.08872688
-0.32046106 0.62080652 0.20942058
-0.20999961 -0.07010565 -0.00000046
0.67476809 0.03760765 -0.00000167
-0.75658512 -0.40915957 0.00000000
-0.37777972 -0.11566428 -0.00000043
-0.24021685 -0.79537690 -0.00000000
-0.34975573 0.53589648 0.12697367
-0.45185411 -0.34435439 -0.00000028
-0.37751648 -0.17975168 -0.00000039
-0.51900792 0.56247252 0.41727996
-0.32026631 -0.45003420 -0.00000022
-0.46551412 -0.15521692 -0.00000033
0.31298441 0.21006370 -0.00000085
0.27304256 -0.17609629 -0.00000039
0.25854889 -0.24009177 -0.00000035
-0.58967823 -0.67515546 -0.00000008
-0.11222931 0.52778363 -0.00000083
-0.30865884 -0.13626061 -0.00000041
0.65355581 -0.38102004 -0.00000079
0.47549471 -0.24535665 -0.00000048
-0.25960362 0.64320177 0.15240215
0.24683931 -0.19911025 -0.00000038
-0.02763628 -0.77526706 -0.00000002
-0.70242763 0.14864552 0.07571395
0.71271402 -0.53642535 -0.00000066
-0.13742152 0.36233720 -0.00000073
0.42196685 0.34814787 -0.00000147
-0.51304770 0.54750317 0.38625285
0.67382091 -0.02646327 -0.00000154
0.05220405 0.44291541 -0.00000078
0.45820776 -0.13777345 -0.00000064
-0.61301416 0.06860576 -0.00000021
0.45471334 -0.71859342 -0.00000005
-0.60769719 0.13906430 -0.00000023
0.02052173 0.04730713 -0.00000053
-0.32053012 -0.16034460 -0.00000040
-0.14765869 0.54964101 -0.00000080
-0.52660340 0.40389463 0.19345596
-0.05911647 -0.24667919 -0.00000035
0.34043971 -0.10819125 -0.00000043
-0.24650358 0.29284957 -0.00000064
-0.61301476 0.26953346 0.12237348
-0.09235307 -0.67529243 -0.00000008
0.65936714 -0.23323730 -0.00000109
-0.21701851 0.57741773 -0.00000073
0.15312573 0.50699562 -0.00000092
0.12983023 0.07171857 -0.00000054
0.22802529 0.41873637 -0.00000099
-0.49019787 0.36223179 0.07772388
0.51810896 -0.76745290 -0.00000002
-0.02524503 0.75504094 -0.00000096
-0.30589837 -0.70509773 -0.00000006
-0.32512894 -0.56823218 -0.00000014
-0.52661705 0.57163322 0.44214040
0.07176613 0.23651321 -0.00000065
0.55709797 -0.56040138 -0.00000015
0.62327659 -0.43448633 -0.00000059
-0.69727844 -0.64382374 0.00000000
-0.15608267 0.20753068 -0.00000063
-0.70991737 -0.72226530 0.00000000
0.35973740 -0.28550741 -0.00000032
-0.35525191 0.62973797 0.27423695
-0.07639150 0.13714333 -0.00000059
-0.31372681 0.49309361 0.01010992
-0.23643662 0.28275067 -0.00000065
-0.61831266 0.10263501 -0.00000021
0.74200010 -0.66805547 -0.00000033
-0.61184770 0.23024204 0.06239621
0.15609004 -0.54727900 -0.00000016
-0.14962164 -0.56349945 -0.00000015
-0.65960711 -0.22552040 -0.00000011
-0.47238258 0.40146253 0.10947095
-0.63117540 0.03790836 -0.00000019
0.64993405 -0.50975055 -0.00000053
0.29752037 0.37746865 -0.00000113
0.17534752 -0.27391759 -0.00000033
-0.23735347 -0.38352612 -0.00000026
-0.31068578 -0.13679206 -0.00000041
-0.46861783 -0.35054567 -0.00000028
0.13287400 0.65322316 -0.00000114
0.79256105 -0.18952926 -0.00000153
0.23611975 -0.41898388 -0.00000024
-0.19413273 0.68328017 0.11475882
-0.13685323 -0.67201084 -0.00000008
0.13117063 0.54537302 -0.00000092
-0.12204875 0.56192714 -0.00000083
-0.32399291 -0.03744390 -0.00000048
-0.12475040 -0.47115508 -0.00000021
0.66730022 0.02029930 -0.00000161
0.00205950 -0.08564257 -0.00000045
-0.28129768 0.55431569 0.05279371
0.02000920 0.07535008 -0.00000055
-0.08196281 0.64825284 -0.00000088
0.22265826 0.36190379 -0.00000086
0.38519689 0.39331609 -0.00000144
0.23288272 -0.75117671 -0.00000003
-0.03218608 -0.47732839 -0.00000020
0.41372135 -0.56760359 -0.00000015
-0.37343693 -0.33239099 -0.00000029
-0.44992006 0.57072312 0.32709143
-0.69404906 -0.79621303 0.00000000
-0.49692312 0.04409509 -0.00000033
0.53995639 -0.33117735 -0.00000052
-0.25759903 0.60181516 0.08807690
-0.59317434 -0.18051904 -0.00000019
0.21908429 -0.70115590 -0.00000006
0.59714043 -0.53586900 -0.00000031
-0.04497400 -0.27812055 -0.00000033
-0.18614554 0.70157623 0.13004123
-0.35965338 0.45759165 0.02556405
-0.61546719 0.36227056 0.26348653
-0.20815836 0.04957064 -0.00000053
0.15231661 -0.71138710 -0.00000006
-0.11947532 0.72228104 0.06189955
-0.01995814 -0.45589459 -0.00000022
0.38823965 -0.26941454 -0.00000033
-0.24511869 0.05842739 -0.00000054
0.02584263 0.57453281 -0.00000086
-0.17192759 -0.75990963 -0.00000003
0.77819651 -0.32205212 -0.00000119
0.02045857 0.52616233 -0.00000083
-0.19291379 -0.12513614 -0.00000042
-0.47985095 0.51898175 0.29475847
-0.42529222 -0.11399548 -0.00000038
-0.35485438 -0.10307611 -0.00000044
0.66660243 -0.32091701 -0.00000095
-0.31257275 0.44020566 -0.00000060
-0.49144122 -0.09683317 -0.00000031
0.29346940 0.19080210 -0.00000075
-0.38579869 -0.00302361 -0.00000044
-0.65419817 0.36191392 0.32037470
-0.36370039 -0.19424225 -0.00000038
-0.60165370 0.34081879 0.21120778
-0.17509329 -0.52057266 -0.00000017
0.59931356 -0.78293449 -0.00000001
-0.38329574 0.60786164 0.28337997
-0.79398751 -0.79441249 0.00000000
0.75245780 -0.24927711 -0.00000136
-0.58671796 -0.76689577 -0.00000002
0.06057137 0.59414476 -0.00000087
-0.07695559 -0.36087000 -0.00000027
0.02127525 -0.63189530 -0.00000011
0.11429310 -0.39117706 -0.00000026
-0.06920142 -0.06277649 -0.00000046
-0.32054725 -0.57506597 -0.00000014
-0.68449211 0.10802021 -0.00000014
-0.36976048 0.62085289 0.28257349
-0.68245792 0.22221436 0.15517153
-0.37172395 -0.57759428 -0.00000014
0.03338458 -0.60601473 -0.00000012
0.57345808 0.00359648 -0.00000128
0.74384964 -0.06438646 -0.00000169
0.57118428 -0.39974147 -0.00000049
-0.12265829 0.72936040 0.07711300
0.01479896 -0.34597099 -0.00000028
0.16667894 0.53721887 -0.00000102
0.30037308 0.18242370 -0.00000076
-0.18174931 0.19645306 -0.00000062
0.27361557 -0.34002090 -0.00000029
-0.19173279 -0.32864720 -0.00000029
0.12859088 -0.24210089 -0.00000035
0.19791681 -0.68045843 -0.00000007
0.03437535 0.40352327 -0.00000075
-0.08609908 -0.20915496 -0.00000037
0.42945191 0.28843245 -0.00000138
-0.14196102 -0.01571160 -0.00000049
0.33806524 0.32610199 -0.00000116
-0.29197231 0.33891484 -0.00000060
-0.15493394 0.29776096 -0.00000069
-0.42592451 -0.36540389 -0.00000027
0.28859657 0.41917130 -0.00000118
-0.59643078 0.13325690 -0.00000024
0.72736615 -0.44631913 -0.00000088
0.25324744 -0.20775376 -0.00000037
0.49523202 -0.41302687 -0.00000024
-0.46058008 -0.61085671 -0.00000012
0.53780079 -0.70782101 -0.00000006
-0.04514940 0.59272897 -0.00000087
0.64355588 -0.04865061 -0.00000140
0.31378144 0.22336876 -0.00000088
0.19064941 0.14988698 -0.00000059
-0.07951974 -0.75575465 -0.00000003
-0.13985412 0.17567103 -0.00000061
0.34565556 -0.38199922 -0.00000026
-0.37860042 0.47135001 0.07404802
-0.50338960 -0.26432002 -0.00000027
-0.22080462 0.14522754 -0.00000059
0.23768099 -0.12332581 -0.00000042
-0.09547445 0.28199044 -0.00000068
-0.00904269 -0.52100116 -0.00000017
0.15951122 0.42044643 -0.00000077
0.20146628 -0.73756552 -0.00000004
0.38706571 -0.54127342 -0.00000016
-0.35631794 -0.29765496 -0.00000031
0.73880303 -0.70726132 -0.00000023
0.26334125 -0.16425841 -0.00000040
0.11186310 -0.15643260 -0.00000040
-0.62990063 -0.17199408 -0.00000015
-0.78475493 -0.53207666 0.00000000
0.74449241 -0.63124210 -0.00000042
-0.49456701 -0.49217916 -0.00000019
0.24769334 0.04429188 -0.00000053
-0.05463511 0.06066909 -0.00000054
0.24783263 0.27896896 -0.00000078
-0.56959349 -0.65484798 -0.00000009
-0.37133795 0.57654309 0.21922489
-0.30584553 0.20656580 -0.00000057
-0.01354288 -0.28728020 -0.00000032
0.30613771 0.16060787 -0.00000073
-0.58875495 -0.57124549 -0.00000012
0.37717047 -0.56215060 -0.00000015
-0.39377511 0.17344317 -0.00000047
-0.10481356 -0.40876430 -0.00000024
0.30674475 0.44050217 -0.00000128
0.42761889 -0.12043116 -0.00000057
-0.68987459 -0.26048744 -0.00000007
-0.66323757 0.32793391 0.28340155
0.12183770 0.58755767 -0.00000098
-0.24042702 -0.15076920 -0.00000041
0.02057727 -0.32743642 -0.00000030
-0.44682598 0.42413777 0.10519942
0.14514419 0.54003358 -0.00000096
0.48584142 -0.65189224 -0.00000009
-0.60818493 -0.19047926 -0.00000017
-0.59435856 0.34731495 0.21002330
0.61188835 -0.69728976 -0.00000006
-0.65206444 -0.11234350 -0.00000014
0.05590940 -0.44791281 -0.00000022
-0.18108919 -0.45123515 -0.00000022
0.10106552 -0.36340278 -0.00000027
-0.67217219 -0.02157487 -0.00000013
-0.67826331 -0.32561204 -0.00000007
-0.20136534 -0.35494143 -0.00000028
-0.00570947 -0.03685957 -0.00000048
-0.76322532 -0.49602088 0.00000000
0.70889437 0.08128700 -0.00000187
-0.78372765 -0.62756181 0.00000000
-0.40089178 -0.09176708 -0.00000041
0.34623381 -0.59615552 -0.00000013
-0.54727846 0.36065945 0.16001198
-0.12507513 0.13877115 -0.00000059
0.39503700 -0.66736567 -0.00000008
0.06288811 -0.68275076 -0.00000007
-0.64668536 0.08947197 -0.00000018
-0.76637435 -0.23699071 0.00000000
0.21350636 -0.72063673 -0.00000005
-0.72859859 -0.07201783 -0.00000006
-0.42625502 -0.61559916 -0.00000012
-0.03599750 0.60910511 -0.00000088
0.11252214 0.06828214 -0.00000054
-0.28782499 0.59045398 0.11604302
0.16791359 0.26448986 -0.00000067
0.16105662 0.58343732 -0.00000109
0.16564548 0.42289656 -0.00000079
-0.03210901 -0.66482216 -0.00000008
-0.42210802 -0.44790909 -0.00000022
-0.13374875 0.25985858 -0.00000066
0.07971727 0.52175689 -0.00000083
-0.71467245 -0.73733765 0.00000000
-0.40757155 0.58920103 0.29170430
-0.04671982 0.71908528 -0.00000094
0.60054171 0.11348805 -0.00000158
0.15125825 -0.23812574 -0.00000035
0.17470501 0.10588844 -0.00000057
0.69654280 -0.19878601 -0.00000128
0.07035491 -0.40864748 -0.00000024
-0.46828172 -0.24470623 -0.00000031
0.11547536 -0.36635479 -0.00000027
-0.51786399 0.36414447 0.12157292
0.76760441 -0.66725045 -0.00000033
0.02879852 -0.31995600 -0.00000030
-0.12272681 0.62814075 -0.00000084
-0.74162734 -0.41767335 0.00000000
-0.51069587 0.33587885 0.06904441
0.70285898 -0.78200096 -0.00000004
-0.07275569 0.17468002 -0.00000061
0.70683628 -0.60360789 -0.00000049
-0.02665265 0.25898379 -0.00000066
0.06940755 0.48712307 -0.00000080
0.35678190 -0.21734501 -0.00000036
0.70705479 -0.70186514 -0.00000025
-0.53689659 -0.17756574 -0.00000025
-0.52882159 0.56382090 0.43382716
-0.36672762 -0.39838696 -0.00000025
-0.08246831 0.73399216 0.02439965
-0.14438412 -0.35777575 -0.00000028
-0.49133447 -0.72578007 -0.00000005
0.00504941 0.73289424 -0.00000096
-0.01533337 0.38745025 -0.00000074
-0.56784409 -0.28810397 -0.00000019
-0.50086784 0.28658846 -0.00000037
0.71341592 -0.41165233 -0.00000092
-0.58238131 0.43453196 0.32156226
0.26284027 0.18114090 -0.00000063
-0.47157100 -0.62360466 -0.00000011
0.72030282 0.06700829 -0.00000188
-0.62328011 -0.22438358 -0.00000015
-0.46146157 0.40755191 0.10230828
-0.67626840 0.07630861 -0.00000015
-0.73598194 -0.06613498 -0.00000006
-0.08217950 0.15221445 -0.00000060
-0.63949794 -0.45993862 -0.00000009
0.13470922 0.37152547 -0.00000073
-0.61751610 0.25982368 0.11465237
0.23125337 -0.59458536 -0.00000013
-0.30884513 0.59866637 0.15937880
-0.14355443 -0.17979845 -0.00000039
-0.22693954 0.59103000 0.02663746
0.63283414 -0.33009616 -0.00000082
0.21355420 0.19757199 -0.00000062
-0.39048061 -0.46163315 -0.00000021
0.76790661 -0.25193772 -0.00000137
-0.68965769 -0.45906198 -0.00000003
0.23901789 0.37915820 -0.00000094
-0.30655217 -0.68577886 -0.00000007
-0.35333440 0.50256073 0.08286056
-0.19743051 -0.27457619 -0.00000033
0.15748525 0.48477229 -0.00000089
-0.59701252 -0.16955866 -0.00000019
-0.26882228 0.06131465 -0.00000054
-0.28023669 -0.26021355 -0.00000034
0.73813850 0.00179482 -0.00000181
-0.10305325 -0.04019334 -0.00000047
-0.55874425 0.34959504 0.16060704
-0.41719726 0.12645237 -0.00000043
0.15585479 -0.68293524 -0.00000007
0.05383396 -0.50954103 -0.00000018
0.04879223 0.12428241 -0.00000058
-0.09630601 -0.26952583 -0.00000033
-0.51663494 0.58305037 0.44426778
-0.39166775 0.05587684 -0.00000045
0.05507077 0.01552934 -0.00000051
-0.15740053 0.59833837 -0.00000080
-0.31450620 -0.55051196 -0.00000016
0.62899566 0.16882262 -0.00000175
-0.41475269 -0.49052674 -0.00000019
0.41988441 -0.17820998 -0.00000044
0.56649059 -0.11611902 -0.00000103
-0.01800644 -0.26212168 -0.00000034
-0.68391418 -0.03806689 -0.00000012
0.05958029 -0.79809910 -0.00000000
-0.07329441 -0.31218222 -0.00000030
-0.12745903 -0.44250825 -0.00000022
0.32945344 -0.03829138 -0.00000048
-0.68017048 0.28822789 0.24964179
0.23418225 0.36015096 -0.00000089
-0.13840896 0.36705667 -0.00000073
-0.14946470 -0.09181167 -0.00000044
0.63125449 -0.57394361 -0.00000034
-0.01960613 -0.36858797 -0.00000027
0.34012941 -0.13463163 -0.00000042
-0.09861375 0.68817031 -0.00000087
-0.75182295 0.09323919 0.06680323
-0.51082867 -0.31848267 -0.00000025
-0.03011079 0.54499364 -0.00000084
0.54793453 -0.42452112 -0.00000037
-0.10481185 0.21725382 -0.00000064
-0.03368690 -0.56025797 -0.00000015
0.36885384 -0.75531000 -0.00000003
-0.04327356 -0.42767107 -0.00000023
-0.40965450 -0.09917999 -0.00000040
-0.39854103 0.46007147 0.08688914
-0.24902032 0.46552023 -0.00000067
0.37144271 0.11261536 -0.00000085
0.15185787 0.45895547 -0.00000082
0.19894502 -0.23367602 -0.00000035
0.05235909 -0.19268204 -0.00000038
0.30007061 0.09764872 -0.00000059
-0.25563756 0.38222632 -0.00000065
0.28643599 -0.32839134 -0.00000029
0.21925648 0.06462863 -0.00000054
-0.05302630 -0.70856917 -0.00000006
-0.53438246 -0.18628676 -0.00000025
-0.07456282 0.26125443 -0.00000066
0.07069259 -0.71526688 -0.00000005
0.38276333 -0.29254812 -0.00000032
-0.54537386 -0.36686245 -0.00000020
-0.33784243 0.56797945 0.15687411
-0.43729943 0.43787295 0.11143840
0.38167638 -0.08209503 -0.00000050
0.23844066 0.44656789 -0.00000107
-0.02672807 -0.48334178 -0.00000020
0.62582618 0.11791243 -0.00000167
-0.41039643 0.52394551 0.19915383
-0.34772903 -0.64095789 -0.00000010
0.60598767 0.17187339 -0.00000171
-0.77048355 0.05637914 0.03982376
0.41317853 -0.36633912 -0.00000027
-0.12598996 0.14929895 -0.00000059
-0.68781978 -0.02926914 -0.00000011
-0.12024589 -0.11552796 -0.00000043
-0.32962626 -0.45164454 -0.00000022
0.72505426 0.03273672 -0.00000182
0.58378696 -0.52786410 -0.00000028
0.46124220 -0.69429904 -0.00000007
0.48335105 -0.23667820 -0.00000052
0.29212406 -0.66847384 -0.00000008
-0.41242120 -0.35774061 -0.00000028
-0.55874586 -0.79069519 -0.00000001
0.79081839 -0.43593419 -0.00000091
-0.44841799 0.62025928 0.39829972
0.09850119 0.41026342 -0.00000076
-0.16538469 -0.64165676 -0.00000010
0.13379578 0.35867557 -0.00000072
0.28314874 -0.43577006 -0.00000023
0.00153287 0.53839165 -0.00000084
-0.67071360 0.19684736 0.10015613
-0.33193278 -0.11109564 -0.00000043
-0.41563553 -0.68495750 -0.00000007
-0.25619790 0.44742447 -0.00000066
0.43816605 -0.61390001 -0.00000012
0.55474859 0.06388568 -0.00000134
-0.49441394 -0.08331630 -0.00000031
0.09590693 -0.17459349 -0.00000039
0.25449595 -0.70665067 -0.00000006
0.39223844 -0.28276074 -0.00000032
-0.77088857 0.05882934 0.04405639
0.18128031 -0.28992653 -0.00000032
-0.02396669 0.33208826 -0.00000071
0.12611885 0.06988957 -0.00000054
0.20869043 -0.16823320 -0.00000039
0.01146606 -0.78846669 -0.00000001
-0.03506697 0.09948348 -0.00000056
0.12982889 -0.09196056 -0.00000044
-0.36151767 0.60982156 0.25400046
-0.42878979 0.46575376 0.14015503
-0.11560424 -0.13089922 -0.00000042
0.10504508 0.09326323 -0.00000056
0.31407988 -0.13663568 -0.00000041
-0.14120036 0.34274480 -0.00000071
0.79533696 -0.42579827 -0.00000094
0.59722507 -0.54174310 -0.00000029
-0.17338891 -0.62776899 -0.00000011
-0.19144370 0.46240214 -0.00000073
-0.76688629 -0.29394931 0.00000000
-0.48206946 0.52016449 0.29980066
-0.70570159 0.15870485 0.09547984
0.06186778 0.27792543 -0.00000067
-0.09924778 -0.64336580 -0.00000010
0.64555496 -0.54725367 -0.00000044
-0.37024105 0.58054864 0.22353680
-0.01703979 0.23373012 -0.00000065
-0.63487333 0.07689317 -0.00000019
-0.07147368 0.75725669 0.04258903
-0.38255334 -0.35567865 -0.00000028
0.25012013 0.45653185 -0.00000113
0.67983520 -0.78625631 -0.00000003
-0.47744659 -0.22356783 -0.00000030
-0.13904506 0.23172952 -0.00000064
-0.61794502 0.41706321 0.34838727
-0.42044210 -0.06561266 -0.00000039
-0.39254877 0.51432794 0.15843809
-0.43592304 0.35473621 -0.00000045
0.63234001 -0.02028438 -0.00000142
0.20105299 0.44155714 -0.00000094
-0.42117155 -0.40439618 -0.00000025
0.34286135 -0.08187358 -0.00000045
-0.19604291 0.08250300 -0.00000055
-0.27505070 -0.33152881 -0.00000029
-0.79994142 -0.21361382 0.00000000
-0.35936391 0.28045243 -0.00000052
0.02519995 -0.64056486 -0.00000010
0.15962677 0.62880385 -0.00000118
-0.57259142 0.14405701 -0.00000027
-0.58155042 0.24754167 0.04312772
0.49815080 -0.73521358 -0.00000004
0.39484870 -0.17925647 -0.00000039
0.63601112 0.06289076 -0.00000160
-0.04745359 -0.74589223 -0.00000003
-0.23061083 0.39773566 -0.00000068
0.35052395 0.26275018 -0.00000107
-0.68838108 -0.08146885 -0.00000010
0.00774889 0.32519269 -0.00000070
0.74470496 -0.51395351 -0.00000072
-0.22947779 0.55731511 -0.00000071
0.25069585 0.22937258 -0.00000069
-0.16755307 -0.54600966 -0.00000016
-0.51882142 -0.37773526 -0.00000023
0.13059890 0.03733307 -0.00000052
-0.65633130 -0.01013062 -0.00000015
-0.14213963 0.20895872 -0.00000063
-0.31713647 0.02736657 -0.00000052
0.03242831 0.22550555 -0.00000064
-0.01277537 0.77603972 -0.00000098
0.45626527 -0.63793373 -0.00000010
-0.70150250 0.20435461 0.15692808
-0.49867404 0.34179229 0.05998894
-0.23563001 -0.18744531 -0.00000038
0.34113315 -0.47127709 -0.00000021
0.41864973 0.29252750 -0.00000135
0.50015658 0.15883957 -0.00000135
-0.55030680 -0.39154458 -0.00000019
-0.71219224 0.13710004 0.07307404
0.19400860 0.15425910 -0.00000060
-0.69478095 -0.64994162 0.00000000
0.32792327 -0.73796260 -0.00000004
-0.06614869 0.47870079 -0.00000080
0.23768328 0.55633390 -0.00000129
0.41561693 0.20847417 -0.00000118
0.64742345 -0.18673283 -0.00000115
-0.20183748 -0.40864605 -0.00000024
-0.69725859 -0.12395490 -0.00000009
0.64240479 -0.76594579 -0.00000002
-0.29948041 -0.13730353 -0.00000041
-0.45796430 -0.37992293 -0.00000026
0.69655597 -0.20113157 -0.00000128
-0.78966296 -0.44399342 0.00000000
0.28536433 -0.56517124 -0.00000015
0.20954563 -0.02929835 -0.00000048
-0.26835823 0.68329108 0.22481097
-0.57995629 -0.22387782 -0.00000019
-0.48256290 -0.45882273 -0.00000021
0.11558836 0.31355011 -0.00000070
0.50878400 0.26452798 -0.00000158
0.04869204 -0.49639130 -0.00000019
-0.53721523 0.55910629 0.43928117
-0.74579680 0.12778068 0.10907554
0.28373903 -0.45919147 -0.00000021
0.28183612 -0.41493210 -0.00000024
-0.17243487 -0.64528877 -0.00000010
-0.24105838 0.51151615 -0.00000069
-0.08024108 -0.26809627 -0.00000033
-0.09789803 -0.32208094 -0.00000030
0.18674564 -0.71828020 -0.00000005
0.42083788 -0.51267982 -0.00000018
-0.01463874 0.39194652 -0.00000074
0.31674391 -0.11847247 -0.00000043
-0.08969460 -0.12300811 -0.00000042
0.42763564 -0.48802924 -0.00000019
0.54095811 -0.75044358 -0.00000003
0.08316499 0.43950427 -0.00000077
-0.49851546 -0.26711631 -0.00000027
0.32034910 -0.50510591 -0.00000018
0.03293174 0.38615590 -0.00000074
-0.12535533 0.18798339 -0.00000062
0.18186498 -0.65565068 -0.00000009
-0.65982902 0.19868810 0.08674905
-0.27394870 0.43247277 -0.00000064
0.09050187 0.41031006 -0.00000076
0.22332469 -0.28832620 -0.00000032
-0.00245353 0.09083090 -0.00000056
-0.15735219 -0.49409249 -0.00000019
0.41694179 0.05028445 -0.00000087
0.40258011 -0.59905720 -0.00000013
-0.62138569 -0.62952304 -0.00000008
0.55191034 0.21991719 -0.00000163
0.59420913 -0.52074331 -0.00000033
0.71696913 -0.73043627 -0.00000017
-0.03848462 -0.35358825 -0.00000028
-0.34127858 0.55387098 0.14105299
0.20746572 -0.57827353 -0.00000014
-0.54054582 0.50257814 0.36041832
-0.31242412 -0.14790915 -0.00000041
0.26694858 0.49638310 -0.00000126
0.69496173 -0.46752703 -0.00000075
-0.32675722 0.52786165 0.08096843
-0.53744066 0.55291307 0.43043420
-0.11993586 0.41692469 -0.00000076
0.77663648 -0.36200267 -0.00000109
0.22148612 -0.20766251 -0.00000037
0.39476252 -0.11319438 -0.00000048
-0.37604859 -0.31721276 -0.00000030
0.46463788 -0.04260799 -0.00000084
0.18693607 0.26026726 -0.00000066
0.29665893 0.15455513 -0.00000069
-0.57778484 -0.65142673 -0.00000009
-0.39960536 -0.45846534 -0.00000021
0.02122796 0.21770853 -0.00000064
-0.46617439 0.40804660 0.11002817
-0.78364742 -0.24298815 0.00000000
0.26363292 0.35478413 -0.00000098
-0.34104478 -0.10628740 -0.00000043
0.51869500 -0.56435215 -0.00000015
0.75982720 -0.00591204 -0.00000186
-0.33484206 0.50208533 0.05474184
-0.42631510 0.29893881 -0.00000045
0.56572539 0.12253811 -0.00000149
-0.66285652 0.14995749 0.01899685
-0.46500942 0.57991534 0.36308774
-0.34374285 0.20708448 -0.00000052
0.16816466 0.41777351 -0.00000079
0.75078160 -0.20883316 -0.00000144
-0.33804327 0.46536914 0.00505790
-0.04784623 -0.38984251 -0.00000026
-0.32727873 0.42370930 -0.00000058
-0.63975745 -0.76284701 -0.00000002
0.51655656 0.19255745 -0.00000147
0.18536864 -0.14955658 -0.00000041
-0.73090065 0.15684852 0.13008420
-0.46721661 0.43399575 0.15004133
-0.05511975 0.07842224 -0.00000055
0.26956969 -0.21757846 -0.00000036
-0.77461332 -0.16789524 0.00000000
0.62475091 -0.30215305 -0.00000085
-0.58855987 -0.19826367 -0.00000019
-0.28900859 -0.44163939 -0.00000022
0.34858534 -0.20144206 -0.00000037
-0.33203891 0.63011479 0.24038337
-0.19877680 -0.11448625 -0.00000043
-0.22830476 -0.71898735 -0.00000005
-0.61101478 -0.45175430 -0.00000012
0.74642932 -0.04904280 -0.00000173
-0.14071418 -0.62431943 -0.00000011
-0.05702684 0.38817492 -0.00000074
-0.45911866 0.54938990 0.30910248
-0.13728020 -0.05700928 -0.00000046
0.47639823 0.23321956 -0.00000142
-0.63320869 0.09508009 -0.00000020
-0.22822255 0.35306832 -0.00000067
-0.38870138 -0.75540435 -0.00000003
0.41612431 -0.10934529 -0.00000056
-0.15455349 -0.52232063 -0.00000017
-0.47693089 0.05035100 -0.00000035
-0.10954887 -0.15141454 -0.00000041
0.78214490 -0.13216995 -0.00000167
-0.49738154 -0.41365597 -0.00000024
-0.01673888 0.17399597 -0.00000061
0.46140245 -0.54654539 -0.00000016
0.69914556 -0.07264533 -0.00000154
0.00383931 -0.43027696 -0.00000023
0.16297556 -0.50343448 -0.00000019
-0.13255645 0.27657816 -0.00000067
0.29058698 0.33022416 -0.00000101
0.33253184 0.08498006 -0.00000067
0.01582751 0.16718325 -0.00000060
-0.06342290 -0.64933425 -0.00000009
-0.28645965 0.25051406 -0.00000059
-0.12076743 -0.73844683 -0.00000004
-0.53009278 0.27333075 0.00507530
0.67126393 0.12751564 -0.00000184
0.20798950 -0.20377018 -0.00000037
-0.37249371 -0.79515207 -0.00000000
0.76835734 -0.43722332 -0.00000091
0.69613576 -0.18444264 -0.00000131
-0.50476903 0.34012687 0.06655556
-0.23218799 0.04601501 -0.00000053
-0.72607416 -0.37495336 -0.00000001
-0.17809762 -0.76954681 -0.00000002
-0.33444959 0.60039079 0.19989263
0.13489641 -0.44260529 -0.00000022
-0.02133426 -0.05345350 -0.00000047
0.39000472 -0.72280800 -0.00000005
-0.23127618 -0.60533738 -0.00000012
0.33212852 0.14080353 -0.00000078
0.46178722 -0.44182402 -0.00000022
-0.51391375 0.05665257 -0.00000032
0.02586845 -0.76292074 -0.00000002
-0.01823663 0.27145484 -0.00000067
0.17357916 -0.50124508 -0.00000019
0.48828396 -0.17917623 -0.00000065
-0.67377049 0.26406914 0.20434019
0.53750265 -0.00390770 -0.00000115
-0.54315311 0.34789288 0.13497064
0.39035031 -0.09991729 -0.00000049
-0.12059882 -0.33227608 -0.00000029
0.37642646 0.35786963 -0.00000134
-0.32502261 0.09454417 -0.00000052
-0.24789298 0.62909770 0.11413301
-0.18578491 -0.77464449 -0.00000002
0.35630396 -0.76587945 -0.00000002
0.31813103 -0.14177729 -0.00000041
-0.50861138 0.43856463 0.21818005
0.67258143 -0.75281638 -0.00000012
-0.02967130 0.19032840 -0.00000062
-0.58580762 -0.74168038 -0.00000004
-0.77305555 -0.21663834 0.00000000
0.28327841 -0.09205279 -0.00000044
0.58635306 -0.60345507 -0.00000014
0.66974491 -0.44514737 -0.00000071
0.37763989 0.27091357 -0.00000118
0.71707803 -0.11255511 -0.00000152
0.06341777 0.37204865 -0.00000073
-0.26704440 -0.53335166 -0.00000017
-0.31548735 -0.73337394 -0.00000004
-0.49561828 0.52475554 0.32669222
0.65390116 -0.55033505 -0.00000046
0.33525029 0.39042005 -0.00000127
0.12928772 0.07350697 -0.00000055
0.67132628 -0.67309457 -0.00000028
0.15015638 0.59041786 -0.00000107
0.37492949 -0.69402385 -0.00000007
0.18840204 0.06384371 -0.00000054
-0.21865863 0.57492959 -0.00000073
-0.58216089 0.04530424 -0.00000024
0.12571990 0.07778546 -0.00000055
0.40232682 0.27573907 -0.00000127
-0.21750304 -0.71793336 -0.00000005
-0.01483679 -0.60204500 -0.00000012
0.65206718 0.09773204 -0.00000172
0.33935747 0.30087504 -0.00000111
-0.07762949 0.37785062 -0.00000074
0.21138035 -0.26745823 -0.00000033
0.72099739 -0.79881310 -0.00000000
-0.59007061 -0.40539160 -0.00000015
0.09594884 0.31320515 -0.00000070
0.63289565 0.06987104 -0.00000160
-0.75912857 -0.20834371 -0.00000001
-0.07157465 -0.51020855 -0.00000018
0.03416915 -0.13159886 -0.00000042
-0.51365632 0.13051771 -0.00000033
-0.66509193 -0.32216832 -0.00000008
0.70803189 -0.33609259 -0.00000105
-0.21432111 0.06894902 -0.00000054
0.41500971 -0.16765764 -0.00000044
-0.54223198 0.27679890 0.02821236
0.42624804 0.32907668 -0.00000145
-0.43884054 -0.70732987 -0.00000006
-0.19543675 -0.34741375 -0.00000028
-0.38582146 -0.55973119 -0.00000015
-0.28485626 0.33249551 -0.00000061
-0.29359311 0.23138902 -0.00000058
0.27150950 0.07585941 -0.00000055
-0.00218158 0.79012686 -0.00000099
-0.61939549 0.09166786 -0.00000021
-0.55019093 -0.05817072 -0.00000026
-0.53456205 0.21815175 -0.00000032
-0.09253982 0.75671965 0.07302251
-0.74821806 -0.63531756 0.00000000
-0.62649876 0.20059519 0.04016585
-0.67130744 0.17997085 0.07601791
0.60781574 0.10587724 -0.00000159
-0.09220114 -0.51033962 -0.00000018
0.25905174 -0.59124416 -0.00000013
-0.45090479 -0.70788670 -0.00000006
-0.31161210 0.33823162 -0.00000058
-0.61655498 0.18733934 0.00577367
0.47981533 0.31031302 -0.00000158
0.18901815 -0.61009431 -0.00000012
-0.79310912 -0.10337530 0.00000000
-0.52687174 0.37148800 0.14581282
-0.12032678 0.51449907 -0.00000082
-0.11812556 0.16793545 -0.00000060
-0.58688438 0.10187475 -0.00000025
-0.49443150 0.43044645 0.18512435
-0.39502084 0.46959934 0.09579519
0.41395462 -0.55953443 -0.00000015
-0.14555167 0.52775884 -0.00000079
0.22171141 0.11663526 -0.00000057
-0.70435977 -0.75133425 0.00000000
-0.08370105 -0.00447546 -0.00000050
0.66776800 0.10143060 -0.00000177
-0.66464263 0.20480159 0.10294791
0.74429512 -0.41475219 -0.00000096
0.61632031 -0.21136463 -0.00000100
-0.10929138 -0.01554858 -0.00000049
-0.15326422 -0.29429823 -0.00000032
-0.40922341 -0.07423928 -0.00000040
-0.42171010 0.62624699 0.36758301
0.00449758 0.33687535 -0.00000071
-0.11155090 0.07900874 -0.00000055
0.67627168 -0.23636147 -0.00000114
-0.03603321 0.20746680 -0.00000063
-0.60240436 -0.62445968 -0.00000010
-0.45920897 0.07347675 -0.00000038
-0.21550354 -0.12756310 -0.00000042
-0.16266102 0.62337750 -0.00000079
0.49704611 0.24185213 -0.00000150
0.22205672 0.12635951 -0.00000058
-0.57043892 0.51230371 0.41915113
-0.40374738 -0.75906175 -0.00000003
-0.54036212 0.01596159 -0.00000028
0.53725767 -0.13304393 -0.00000090
0.11406885 -0.21401459 -0.00000037
-0.58709675 0.43432534 0.32824641
0.64672655 -0.12965299 -0.00000126
0.02878968 -0.76332670 -0.00000002
0.35136282 0.10539669 -0.00000077
-0.32797819 0.40884656 -0.00000058
-0.41423309 -0.19075260 -0.00000038
0.46015400 -0.15638454 -0.00000061
-0.74772274 0.09881781 0.06899494
0.10374754 -0.29170951 -0.00000032
0.54854125 -0.29674745 -0.00000062
0.03277018 0.38319713 -0.00000074
-0.29902014 -0.06248009 -0.00000046
-0.67663115 -0.79579389 0.00000000
0.57433432 -0.76950824 -0.00000002
0.13560984 0.25009638 -0.00000066
-0.25022948 0.02348631 -0.00000051
0.25507665 -0.38778064 -0.00000026
-0.27395496 0.39412302 -0.00000063
0.39697590 -0.56897354 -0.00000014
-0.67189986 -0.79700226 0.00000000
0.26327154 -0.00870149 -0.00000049
-0.68561840 0.12759259 0.01958548
-0.21105585 -0.23297919 -0.00000035
0.05095592 -0.51838273 -0.00000018
-0.79739940 -0.04652711 0.00000000
-0.41197485 -0.24640876 -0.00000035
0.03088592 -0.69950235 -0.00000006
-0.08567200 -0.35904238 -0.00000028
0.59743249 -0.28823128 -0.00000079
0.47010276 -0.26546374 -0.00000043
-0.39509121 -0.00390154 -0.00000043
0.50228107 -0.03592034 -0.00000098
-0.69879580 0.04525379 -0.00000012
-0.33190072 0.44682190 -0.00000058
-0.30457246 0.63088906 0.20081338
0.73404044 -0.78840643 -0.00000003
-0.29070193 0.03408972 -0.00000052
-0.65358973 -0.13274089 -0.00000013
-0.11588351 0.44414985 -0.00000078
-0.29621050 -0.58699393 -0.00000013
0.21377733 0.46667156 -0.00000103
-0.74359083 -0.64793104 0.00000000
-0.43232527 0.00194402 -0.00000039
0.28339958 -0.06920369 -0.00000046
0.57210135 -0.07575159 -0.00000112
0.57878608 -0.72505867 -0.00000005
0.12683257 -0.26944447 -0.00000033
-0.69970536 -0.67933697 0.00000000
-0.12996741 -0.25868085 -0.00000034
0.24776027 0.50738049 -0.00000122
-0.01627221 -0.57093328 -0.00000014
-0.38352409 0.49468693 0.11594276
-0.06441866 -0.06297897 -0.00000046
0.18430795 -0.74303406 -0.00000004
-0.51152968 0.25067019 -0.00000035
0.32593107 0.33376497 -0.00000113
-0.64209008 -0.55699068 -0.00000007
-0.62156689 -0.00721902 -0.00000019
0.15404011 -0.41140538 -0.00000024
-0.28832316 0.28809047 -0.00000060
-0.43381435 -0.62974179 -0.00000011
0.53077048 -0.54571736 -0.00000016
-0.67495638 -0.04489108 -0.00000013
-0.42802423 0.23787861 -0.00000044
-0.26184008 0.68403155 0.21624579
0.20865133 0.13901776 -0.00000059
-0.69503212 0.07805798 -0.00000013
-0.32175201 -0.67370272 -0.00000008
-0.47131073 0.24652970 -0.00000040
0.49901322 -0.64880830 -0.00000009
-0.37699014 0.21557593 -0.00000049
0.62238574 -0.21662296 -0.00000101
-0.03604869 0.61549312 -0.00000088
-0.64835799 0.29613650 0.21420549
-0.11472018 0.10854267 -0.00000057
-0.20817003 -0.18670054 -0.00000038
0.52412671 -0.50449950 -0.00000018
0.02207001 -0.51660448 -0.00000018
0.24778350 0.35506392 -0.00000093
-0.42211890 -0.52216917 -0.00000017
0.34279746 0.45313966 -0.00000136
-0.50699836 0.29069567 -0.00000037
0.52462476 -0.06907163 -0.00000098
-0.25092912 0.49036020 -0.00000068
-0.34948894 0.08959865 -0.00000050
0.36624500 -0.24199229 -0.00000035
-0.46389481 -0.21061949 -0.00000032
0.74496400 0.01254289 -0.00000185
0.27649215 0.45888111 -0.00000122
0.09564546 0.68818569 -0.00000109
-0.41752532 -0.43478337 -0.00000023
0.53046912 -0.48952657 -0.00000019
0.42001620 0.33542535 -0.00000144
-0.01256663 0.08303362 -0.00000055
0.39904258 -0.37504709 -0.00000027
-0.56586879 0.26163766 0.04077699
0.20679608 -0.13366377 -0.00000042
-0.19989687 0.48699272 -0.00000073
0.59962320 0.08768303 -0.00000153
-0.34872442 -0.40482399 -0.00000025
0.23821692 0.28961432 -0.00000077
-0.40039340 0.51470512 0.17062640
-0.66543067 -0.17762938 -0.00000011
0.42392910 -0.23802935 -0.00000035
-0.30326295 0.56786740 0.10544562
0.35333684 -0.70449883 -0.00000006
0.42931664 -0.17154129 -0.00000048
0.34117311 0.08319159 -0.00000069
-0.49093735 0.29696059 -0.00000038
-0.53886384 -0.12278034 -0.00000026
-0.16809222 -0.08223976 -0.00000045
0.51795268 -0.22590244 -0.00000066
-0.45598447 -0.42491758 -0.00000023
-0.46072397 0.20670056 -0.00000040
-0.66911072 -0.21809840 -0.00000010
0.33697316 -0.53497547 -0.00000017
-0.29155192 0.62638408 0.17483260
-0.69365811 0.14508866 0.05744079
-0.41838822 0.40111312 0.02890921
-0.72797674 -0.23838393 -0.00000003
-0.67635334 -0.44398591 -0.00000005
0.64398348 -0.18019669 -0.00000115
0.26249933 -0.45999980 -0.00000021
0.11489642 -0.50672477 -0.00000018
0.01460777 0.29098290 -0.00000068
-0.16961928 0.21867006 -0.00000064
0.21223389 -0.22747909 -0.00000036
-0.19532546 -0.36484244 -0.00000027
0.07831027 0.45187390 -0.00000078
-0.32169005 0.53797191 0.08844453
0.02045709 0.62804776 -0.00000089
0.75876313 -0.66886765 -0.00000033
-0.37470675 0.44942737 0.03577683
-0.57902420 0.05692192 -0.00000025
-0.31491667 -0.11931354 -0.00000043
0.32408452 0.09604323 -0.00000066
-0.66748297 0.21878488 0.12788793
-0.17173675 0.68420053 0.08292219
0.01210371 -0.06820052 -0.00000046
-0.21630889 -0.33025682 -0.00000029
0.23915441 -0.04984060 -0.00000047
0.19767717 -0.39314485 -0.00000025
-0.41615883 0.45051745 0.09884333
0.25305387 -0.36663428 -0.00000027
-0.04175347 -0.63004476 -0.00000011
-0.01997065 -0.27891022 -0.00000033
-0.44918451 -0.55780494 -0.00000015
0.56558013 -0.34493816 -0.00000058
0.51518142 -0.06003947 -0.00000097
0.16895775 0.62579811 -0.00000120
-0.41674066 -0.50985456 -0.00000018
0.71060151 -0.08779813 -0.00000154
0.20868860 -0.45760787 -0.00000021
0.31286240 -0.55305475 -0.00000015
0.44079921 0.16341016 -0.00000117
0.66060400 -0.59021676 -0.00000040
0.12274167 0.20081912 -0.00000063
-0.57277018 0.10312365 -0.00000026
0.55383420 -0.28788024 -0.00000065
0.46523204 -0.04018283 -0.00000085
-0.65173763 0.14900877 0.00110722
-0.32738018 0.55190003 0.11752750
0.04843678 0.67378950 -0.00000092
-0.02495957 -0.40210229 -0.00000025
0.22027050 -0.26908380 -0.00000033
-0.44521672 -0.38989729 -0.00000026
-0.08480741 -0.35887858 -0.00000028
0.41111347 -0.59617400 -0.00000013
-0.78005993 -0.62784922 0.00000000
0.61826664 -0.45572376 -0.00000053
0.00691896 0.60894614 -0.00000088
0.68639779 -0.00329801 -0.00000163
0.31866622 0.16866170 -0.00000079
-0.28717035 0.59414518 0.12054456
0.64842063 -0.27461910 -0.00000098
-0.00955973 0.33201590 -0.00000071
-0.64796597 -0.65109062 -0.00000004
-0.57667542 0.35180417 0.19046400
0.77343798 -0.45644787 -0.00000086
-0.35316214 -0.03403902 -0.00000047
0.30555719 0.43242300 -0.00000126
-0.24340609 -0.54914469 -0.00000016
-0.16455191 0.72132313 0.12730356
-0.60814565 0.44098958 0.36932984
-0.75832349 -0.72171766 0.00000000
0.12575862 -0.54105812 -0.00000016
-0.62225020 -0.22435801 -0.00000015
-0.41933456 -0.36625978 -0.00000027
-0.20320393 -0.64638388 -0.00000010
0.38614801 0.29745066 -0.00000126
-0.52919054 0.01484220 -0.00000029
0.69969976 -0.16889080 -0.00000135
-0.46567139 0.12527303 -0.00000038
-0.07541697 0.50733191 -0.00000082
-0.30645221 0.64440846 0.22364195
0.71194464 -0.49258274 -0.00000076
0.75799584 -0.23045999 -0.00000142
0.40179577 -0.05813919 -0.00000061
-0.30910656 0.16113973 -0.00000055
-0.46249682 -0.17246920 -0.00000033
-0.31959245 0.64019006 0.23686814
-0.26367527 0.62415558 0.13020308
0.67370605 -0.74274898 -0.00000014
0.14470759 -0.77698809 -0.00000001
0.51588386 0.16397044 -0.00000141
0.20717077 -0.65726191 -0.00000009
0.53319228 0.15590054 -0.00000145
-0.73836368 -0.23210382 -0.00000002
-0.56947279 0.00385861 -0.00000025
0.37497714 -0.70130879 -0.00000006
0.40270409 -0.38442940 -0.00000026
0.33531645 -0.25601941 -0.00000034
0.46559277 -0.70578694 -0.00000006
-0.51404124 0.43954724 0.22768618
0.44426608 -0.63364500 -0.00000010
-0.21197709 -0.69264287 -0.00000007
0.11697933 0.25034577 -0.00000066
-0.46547312 -0.76642936 -0.00000002
0.45390990 -0.42839566 -0.00000023
-0.15526871 -0.40893269 -0.00000024
0.25909877 -0.59133762 -0.00000013
-0.06262994 -0.71229833 -0.00000005
-0.21989745 0.00678513 -0.00000050
-0.36357364 -0.46237835 -0.00000021
-0.08071315 -0.41962042 -0.00000024
-0.45505139 0.32724550 -0.00000043
-0.35338226 0.09389435 -0.00000049
0.46004230 0.00191106 -0.00000092
-0.68477267 0.23486862 0.17736225
-0.20465370 0.41742268 -0.00000071
0.46342978 -0.48389405 -0.00000020
0.28995901 -0.01715168 -0.00000049
-0.44351205 0.48659295 0.19287293
-0.75817698 0.05137366 0.01415954
-0.08112088 0.19444536 -0.00000062
-0.35917827 -0.39277327 -0.00000025
0.09491063 0.42209727 -0.00000076
0.09326283 -0.19448626 -0.00000038
-0.14788282 0.09457099 -0.00000056
-0.64796484 -0.09563538 -0.00000014
-0.14041328 0.21789990 -0.00000064
0.59666401 -0.23523697 -0.00000089
0.76056194 -0.00249375 -0.00000187
0.09461640 -0.70451176 -0.00000006
0.36502209 -0.15290280 -0.00000040
0.04069428 0.72690773 -0.00000099
0.00942342 0.33921361 -0.00000071
-0.58169121 -0.09294715 -0.00000022
0.30691054 -0.18260024 -0.00000039
0.39196989 -0.19185084 -0.00000038
-0.76806450 0.05703915 0.03721600
-0.05581337 -0.27131188 -0.00000033
0.19783378 -0.50270349 -0.00000019
-0.03051240 -0.06691807 -0.00000046
-0.19551282 -0.47458574 -0.00000020
-0.55698693 0.42533737 0.27028573
0.17364345 0.08044643 -0.00000055
0.16992867 0.32617497 -0.00000070
0.09004904 0.09089216 -0.00000056
0.27881211 -0.32968673 -0.00000029
-0.63408059 -0.08076777 -0.00000016
-0.54049689 -0.11150146 -0.00000026
-0.43856597 0.36407077 0.00390846
0.01742794 0.66792244 -0.00000092
-0.33244449 0.54368591 0.11285809
0.16286345 -0.60467672 -0.00000012
0.10925317 -0.68653476 -0.00000007
-0.32383889 -0.60988861 -0.00000012
-0.49300250 0.50634009 0.29551437
-0.68763500 -0.05468138 -0.00000011
0.63320768 -0.59417319 -0.00000031
-0.40245992 -0.22626704 -0.00000036
0.17912734 -0.20814621 -0.00000037
0.01486852 -0.17574140 -0.00000039
-0.24525781 -0.10632406 -0.00000043
-0.12994295 -0.17001742 -0.00000039
0.00383731 0.12016646 -0.00000058
-0.08822062 -0.74688923 -0.00000003
-0.17680503 0.00415193 -0.00000050
-0.05647057 -0.60736895 -0.00000012
0.54313582 -0.41627288 -0.00000037
-0.13173670 -0.63903624 -0.00000010
-0.06696945 0.75553864 0.03336480
0.02210700 0.64131492 -0.00000090
-0.74796063 -0.05696078 -0.00000005
-0.16479363 -0.43716538 -0.00000023
0.11984093 0.37692595 -0.00000074
-0.73612589 -0.53164518 0.00000000
-0.22094467 -0.46465421 -0.00000021
-0.07372267 0.58700860 -0.00000087
0.32188734 -0.22817941 -0.00000036
0.25712058 -0.75963306 -0.00000003
0.06702338 0.21496157 -0.00000063
0.10547248 0.50727689 -0.00000082
-0.40528449 -0.57906806 -0.00000014
-0.65127057 0.24004681 0.13537353
0.29786140 -0.23217352 -0.00000035
-0.35960734 -0.21660635 -0.00000036
-0.55847436 0.14170127 -0.00000028
-0.63545537 0.22257595 0.08602875
0.17057234 -0.43239743 -0.00000023
-0.62820053 0.04693534 -0.00000019
-0.32234943 0.19492878 -0.00000055
-0.12307925 0.05817656 -0.00000054
-0.04326158 0.32928130 -0.00000071
-0.50654203 -0.78490549 -0.00000001
0.52387786 -0.31719413 -0.00000050
0.75283772 -0.09249700 -0.00000167
-0.16069520 0.44102493 -0.00000076
-0.25594625 0.20679311 -0.00000062
-0.07080652 0.70469314 -0.00000091
0.45205116 -0.57451588 -0.00000014
0.12624981 -0.19586253 -0.00000038
-0.31621534 -0.75470966 -0.00000003
-0.68699163 -0.58038706 -0.00000001
0.33879489 -0.09313909 -0.00000044
-0.29447746 -0.74015903 -0.00000004
0.46740919 -0.48273712 -0.00000020
-0.03797292 0.31120527 -0.00000069
-0.28483102 0.64326626 0.18989623
-0.37179488 0.46416408 0.05330642
0.18578021 -0.46485674 -0.00000021
-0.10630032 -0.23583552 -0.00000035
-0.27284780 -0.00296484 -0.00000050
0.32331449 -0.17265275 -0.00000039
0.08074713 -0.06053662 -0.00000046
-0.04085902 0.76034528 0.00178304
0.17816383 -0.31490171 -0.00000030
-0.12964934 0.30438700 -0.00000069
-0.72078693 0.11289117 0.04992694
-0.46219009 -0.15840203 -0.00000033
-0.57874119 -0.04655356 -0.00000023
0.10225431 -0.13993016 -0.00000041
0.46681109 -0.11072942 -0.00000072
0.38000751 -0.62003088 -0.00000011
-0.00131412 0.16902877 -0.00000061
-0.01003418 -0.56881946 -0.00000014
0.56512910 0.07190932 -0.00000139
0.32547370 -0.20813757 -0.00000037
-0.22347827 0.62697321 0.07478999
-0.17126268 -0.23083824 -0.00000036
0.72693652 -0.00358190 -0.00000176
-0.67945474 -0.76480025 0.00000000
-0.29004899 0.20986255 -0.00000058
-0.50227100 -0.52696544 -0.00000017
-0.74417776 -0.29896137 -0.00000000
-0.09011267 -0.18989509 -0.00000038
-0.40748528 0.45479992 0.09233378
-0.03697639 0.20525695 -0.00000063
0.57242119 0.19108362 -0.00000164
-0.44684073 0.59801209 0.36298111
-0.71468949 -0.59657067 0.00000000
-0.57739693 0.43622240 0.31667915
-0.07333692 -0.79384381 -0.00000000
-0.28491181 -0.51850379 -0.00000018
0.03388930 -0.17184928 -0.00000039
-0.40053657 0.17405458 -0.00000046
0.21476784 0.12950206 -0.00000058
-0.05341459 0.76269805 0.02388387
0.23446009 0.46066791 -0.00000109
-0.39264801 0.49577406 0.13108011
-0.06863349 -0.03311305 -0.00000048
-0.13156770 0.65746403 -0.00000083
-0.42168877 -0.28533512 -0.00000032
-0.49119696 0.16798213 -0.00000036
0.22744718 -0.40225142 -0.00000025
-0.69943851 -0.50631177 -0.00000001
0.32174143 0.12797566 -0.00000072
0.69212496 -0.08177682 -0.00000150
