ply
format ascii 1.0
element vertex 1121
property float x
property float y
property float z
end_header
-0.49958378 -0.54559261 -0.00000190
-0.52354568 -0.38625059 -0.00181725
-0.10263063 0.47882077 0.00000247
-0.52314860 0.02629278 -0.01145086
-0.70928109 -0.30786124 -0.01414935
-0.38580850 0.14838135 -0.00654635
-0.38174438 -0.23448841 0.00000017
-0.42504340 -0.34676185 -0.00000058
-0.12406386 0.56873089 -0.00159195
-0.61820787 0.04031338 -0.01715155
-0.40017924 -0.05502153 -0.00259767
-0.55738115 0.03377903 -0.01356083
-0.45913187 -0.71776611 -0.00000241
-0.06681248 0.18083014 -0.00000569
-0.33853045 0.33368754 -0.00821162
-0.37800515 -0.42943108 -0.00000066
-0.49190992 -0.36101922 -0.00061984
-0.14828382 0.32362798 0.00000016
-0.04062191 -0.23726806 0.00000222
-0.21563675 0.57155424 -0.00683342
-0.40359002 0.38850605 -0.01317172
-0.43785471 0.23810305 -0.01158792
-0.04677142 0.01465352 -0.00001024
-0.27321115 0.16479863 -0.00056689
-0.12863822 0.48853320 0.00000348
-0.61874735 -0.29000288 -0.00945060
-0.10098070 -0.58055818 0.00000035
-0.70428306 -0.32220313 -0.01353119
-0.49462894 -0.00712091 -0.00905691
-0.23582882 -0.19716059 0.00000121
-0.41122857 0.22716282 -0.00982701
-0.03758572 -0.61702228 0.00000057
-0.07344914 0.69456887 -0.00167671
-0.08475016 0.38868257 -0.00000021
-0.26898983 -0.01468459 0.00000181
-0.21121533 0.22039521 -0.00000039
-0.01239559 -0.11454189 0.00000300
-0.55489558 -0.24844272 -0.00681462
-0.62275487 -0.71109903 -0.00000337
-0.73478258 -0.21240035 -0.01782501
-0.26541245 -0.63954210 -0.00000090
-0.25465521 0.48874062 -0.00710039
-0.42002138 0.13500088 -0.00816680
-0.41084626 -0.51183099 -0.00000122
-0.29441237 0.21008179 -0.00282504
-0.04653706 -0.71502322 0.00000009
-0.08795567 -0.63814372 0.00000018
-0.73994958 -0.49616548 -0.01147481
-0.64312887 -0.72796893 -0.00057748
-0.04982886 0.34480083 -0.00000231
-0.70631886 -0.07115456 -0.01952233
-0.67154086 -0.56819654 -0.00592292
-0.02776844 -0.76443040 -0.00000001
-0.19759175 -0.64269274 -0.00000050
-0.44206047 -0.39898941 -0.00000091
-0.34850624 -0.22803625 0.00000040
-0.26797956 -0.05030663 0.00000166
-0.34100482 -0.16856273 0.00000070
-0.76460093 -0.67962867 -0.00857304
-0.00192691 0.30990377 -0.00000458
-0.23948877 0.48564750 -0.00617082
-0.46844319 0.28608528 -0.01443979
-0.50766176 0.05426896 -0.01123040
-0.00684131 -0.00310191 0.00000349
-0.01096692 -0.37005007 0.00000188
-0.17622532 -0.61999339 -0.00000028
-0.67331254 -0.40910649 -0.00974674
-0.68513745 -0.58482766 -0.00630210
-0.40024766 -0.24863829 -0.00000000
-0.03869317 -0.67678601 0.00000031
-0.37730935 0.22138759 -0.00777480
-0.63214988 -0.13581143 -0.01381711
-0.49109113 -0.77731359 -0.00000286
-0.18156236 -0.00841517 0.00000237
-0.34623328 0.25559512 -0.00681912
-0.23996659 0.31774974 -0.00226799
-0.31604746 0.15436672 -0.00274372
-0.13357843 0.41933239 0.00000199
-0.15082069 0.43422231 0.00000286
-0.62047881 -0.68643057 -0.00026961
-0.55233616 0.21465713 -0.01750935
-0.01928091 0.39598697 -0.00000201
-0.77855432 -0.48781410 -0.01385158
-0.41199511 -0.25019670 -0.00000008
-0.27499342 -0.33399478 0.00000038
-0.36600173 0.41156858 -0.01158713
-0.14189667 0.48988616 -0.00075436
-0.46343732 0.17470723 -0.01154994
-0.40188649 0.28023794 -0.01054130
-0.22459491 0.07422495 -0.00000346
-0.28341451 -0.05162123 0.00000156
-0.05678578 -0.19595368 0.00000230
-0.10123217 0.61978799 -0.00149661
-0.66715181 0.11170183 -0.02158867
-0.45648500 -0.04569324 -0.00599828
-0.75262862 -0.69958091 -0.00742952
-0.00159288 -0.79883057 -0.00000000
-0.45699856 -0.62959874 -0.00000201
-0.27733189 -0.45146462 -0.00000015
-0.02892959 0.15365432 -0.00000748
-0.23757826 0.35003147 -0.00288859
-0.17399485 0.36182138 0.00000184
-0.46749580 -0.51524663 -0.00000158
-0.62217146 -0.47873002 -0.00522675
-0.27573708 -0.63807100 -0.00000096
-0.70028394 0.03461578 -0.02165693
-0.40919268 -0.16473652 -0.00053908
-0.47068274 -0.43172520 -0.00000123
-0.26223630 0.52442253 -0.00836403
-0.79718053 -0.57062638 -0.01296548
-0.13193402 -0.65175086 -0.00000015
-0.60072297 0.18874924 -0.01963766
-0.23423815 0.49289083 -0.00604361
-0.73686731 -0.25385734 -0.01697249
-0.59063339 -0.46268806 -0.00381977
-0.07013158 -0.33940488 0.00000159
-0.01419903 -0.57124627 0.00000092
-0.26873386 0.48435137 -0.00779335
-0.27740943 -0.54534262 -0.00000056
-0.24187167 0.14038655 -0.00000137
-0.26858705 0.07001446 -0.00000223
-0.11670929 0.44099942 0.00000200
-0.30076468 -0.65042710 -0.00000116
-0.67231160 -0.11362559 -0.01660624
-0.20788848 -0.56689584 -0.00000023
-0.70230573 0.04443359 -0.02200099
-0.24114741 0.03478925 -0.00000390
-0.54574603 -0.13130593 -0.00903923
-0.68723452 -0.40956578 -0.01052282
-0.57157838 -0.33182803 -0.00580576
-0.08113881 -0.18900964 0.00000218
-0.36532030 -0.18363409 0.00000049
-0.23984563 -0.07395532 0.00000173
-0.05098530 -0.36682168 0.00000159
-0.00539620 -0.19250447 0.00000266
-0.25351486 -0.59607869 -0.00000064
-0.38833579 -0.31050912 -0.00000020
-0.77804285 -0.79359913 -0.00666465
-0.41160855 0.33348238 -0.01233701
-0.75863940 -0.58044785 -0.01055789
-0.23534085 0.53376603 -0.00706266
-0.60288340 -0.37825280 -0.00648842
-0.32740867 0.44312844 -0.01014464
-0.73814446 -0.65802968 -0.00758378
-0.03374865 -0.74116498 0.00000005
-0.14293639 0.53857416 -0.00195273
-0.65407741 -0.55325496 -0.00528565
-0.01183596 -0.29726663 0.00000213
-0.64988840 -0.27846494 -0.01148068
-0.18787774 -0.40371406 0.00000060
-0.03081288 0.68337142 0.00000516
-0.41232920 -0.61366737 -0.00000167
-0.12131497 0.39141756 0.00000096
-0.20442086 -0.50247324 0.00000007
-0.58165991 0.01116131 -0.01440361
-0.07771764 0.57547498 0.00000401
-0.48822463 -0.09722727 -0.00658591
-0.62163407 0.03843078 -0.01730112
-0.44997981 -0.30472356 -0.00000055
-0.37360296 -0.23060298 0.00000024
-0.17165212 -0.72063202 -0.00000069
-0.64241081 -0.64657849 -0.00244194
-0.47607711 -0.13875888 -0.00492727
-0.21842539 0.27854335 -0.00013286
-0.59693998 0.03824575 -0.01590114
-0.08357678 0.32994559 -0.00000164
-0.43104669 -0.21497817 -0.00059826
-0.21090503 0.16281705 -0.00000177
-0.64907002 -0.22577573 -0.01266768
-0.77386987 -0.66836089 -0.00936053
-0.43918303 0.27540192 -0.01253602
-0.34768593 0.39293474 -0.01011582
-0.37298208 0.13686319 -0.00555184
-0.27702147 -0.73725474 -0.00000140
-0.15429688 0.54481167 -0.00274079
-0.10897337 0.68655419 -0.00349686
-0.03209602 -0.65286314 0.00000045
-0.67594832 0.03870759 -0.02037731
-0.74704349 -0.24614882 -0.01772805
-0.35850945 0.08096477 -0.00342551
-0.06488261 -0.48282072 0.00000100
-0.73621446 -0.79585820 -0.00424835
-0.41571832 -0.06623875 -0.00321335
-0.51371163 -0.25457790 -0.00434340
-0.33001044 -0.37825343 -0.00000015
-0.35080576 -0.75980175 -0.00000194
-0.45034057 -0.55846000 -0.00000166
-0.36029553 0.36377826 -0.01014604
-0.61027336 -0.24869666 -0.00993849
-0.30030370 0.03624366 -0.00000208
-0.21191096 -0.40791738 0.00000044
-0.29318795 0.21254143 -0.00281341
-0.68796694 -0.04101588 -0.01919056
-0.07254361 0.52300590 0.00000261
-0.12722491 -0.13517368 0.00000214
-0.41749147 -0.38624844 -0.00000071
-0.42651722 -0.72115356 -0.00000223
-0.62593484 -0.16435695 -0.01279771
-0.02266341 0.65536922 0.00000425
-0.35394138 -0.09974516 0.00000093
-0.07095717 -0.41763481 0.00000124
-0.22515970 0.35941356 -0.00240633
-0.48994207 -0.05841705 -0.00759138
-0.38014391 0.11850503 -0.00552692
-0.64888561 0.00934522 -0.01816053
-0.00401141 0.12768953 -0.00000885
-0.28282183 -0.56495440 -0.00000068
-0.55936295 0.12121816 -0.01571945
-0.18581443 -0.50415504 0.00000017
-0.66726720 -0.29636118 -0.01204400
-0.59278417 -0.21461689 -0.00974772
-0.05372237 0.32969418 -0.00000255
-0.04836879 -0.68640578 0.00000021
-0.28485703 -0.30701029 0.00000044
-0.33950400 0.07035435 -0.00210302
-0.15459502 -0.42038253 0.00000073
-0.10581212 0.34027889 -0.00000073
-0.43015218 0.07723442 -0.00738728
-0.06484696 0.23469853 -0.00000447
-0.42365018 -0.56263644 -0.00000152
-0.25435448 -0.45259398 -0.00000002
-0.17985760 -0.17285240 0.00000166
-0.26080906 0.34538171 -0.00409271
-0.62456310 -0.44023940 -0.00626283
-0.60370314 -0.43716529 -0.00515583
-0.64995450 -0.67612886 -0.00217663
-0.31505647 0.18840232 -0.00348436
-0.17964745 0.58240145 -0.00505337
-0.57155210 -0.21627830 -0.00850885
-0.00509116 0.02130969 -0.00001134
-0.66370809 -0.09005244 -0.01667175
-0.60866010 -0.40416169 -0.00620848
-0.75451124 -0.57531035 -0.01044490
-0.50012970 -0.54234374 -0.00000189
-0.19893353 -0.50472605 0.00000009
-0.43767142 -0.45603508 -0.00000114
-0.28564236 -0.43933180 -0.00000015
-0.44480643 -0.46667171 -0.00000123
-0.20892368 0.07628589 -0.00000388
-0.16476065 0.35394198 0.00000138
-0.13044745 -0.53868836 0.00000036
-0.55454963 -0.29347986 -0.00574092
-0.41256836 -0.75089711 -0.00000228
-0.62702000 -0.55763388 -0.00365394
-0.06288850 -0.44510177 0.00000117
-0.08206456 -0.13342866 0.00000242
-0.08317179 0.50633752 0.00000254
-0.75270712 -0.20505309 -0.01901003
-0.40572229 0.35461712 -0.01249902
-0.31259316 -0.07617576 0.00000128
-0.04384598 0.71140063 -0.00039758
-0.55353498 -0.75599349 -0.00000315
-0.12856960 -0.68127418 -0.00000026
-0.78672290 -0.16229004 -0.02193322
-0.37745237 0.24508470 -0.00833754
-0.33821708 -0.33266827 0.00000000
-0.01227503 0.18239261 -0.00000730
-0.22159818 0.15022238 -0.00000174
-0.03705457 -0.37956557 0.00000162
-0.04980285 0.51804763 0.00000181
-0.21973851 -0.76887393 -0.00000119
-0.13273202 -0.73225766 -0.00000050
-0.48803797 0.15570015 -0.01249542
-0.09136324 -0.41587508 0.00000113
-0.18974404 -0.33518645 0.00000089
-0.26335144 -0.25574985 0.00000079
-0.44762042 -0.25313160 -0.00064194
-0.77482283 -0.61012709 -0.01077755
-0.21265692 -0.69013786 -0.00000080
-0.15515292 0.28508464 -0.00000055
-0.30767319 0.29959729 -0.00566972
-0.63334978 -0.76919645 -0.00000369
-0.40526754 -0.13832304 -0.00093548
-0.18545990 -0.77774739 -0.00000102
-0.67381305 -0.17458145 -0.01526436
-0.57569331 -0.12539399 -0.01087016
-0.03311957 0.37549162 -0.00000208
-0.06974493 -0.67613626 0.00000012
-0.13107817 0.07097711 -0.00000636
-0.74430770 -0.43640804 -0.01311990
-0.44806740 0.09688911 -0.00885984
-0.00902591 -0.64066082 0.00000064
-0.03362033 -0.43977246 0.00000137
-0.64741307 -0.73973471 -0.00054422
-0.07821188 0.39126137 -0.00000035
-0.74643338 -0.33503830 -0.01561294
-0.07747979 0.02151781 -0.00000915
-0.00405489 -0.29181489 0.00000220
-0.27316377 -0.06336771 0.00000157
-0.73725903 -0.28626257 -0.01623614
-0.52512497 0.02504050 -0.01153325
-0.63173002 -0.76725733 -0.00000367
-0.30190903 0.46026275 -0.00910451
-0.77282703 -0.24909014 -0.01911618
-0.30976427 0.35781819 -0.00715063
-0.69579089 -0.31110367 -0.01331103
-0.72823519 -0.59305763 -0.00854479
-0.15114407 -0.48807788 0.00000045
-0.09920981 -0.56050795 0.00000045
-0.08661917 0.11923384 -0.00000655
-0.00512397 0.23976439 -0.00000615
-0.07558506 -0.65732419 0.00000017
-0.09436345 -0.65060377 0.00000008
-0.51569146 0.14478065 -0.01380275
-0.39934638 0.23436876 -0.00932412
-0.06661491 0.50118595 0.00000191
-0.53208286 -0.28369269 -0.00470023
-0.55049437 -0.69536722 -0.00000286
-0.00751139 -0.67231190 0.00000051
-0.26694012 0.30133903 -0.00340835
-0.10105526 -0.76223111 -0.00000044
-0.59683853 -0.56062180 -0.00187822
-0.23517396 -0.41328523 0.00000027
-0.56527489 -0.02793185 -0.01256255
-0.39848968 0.17566241 -0.00790161
-0.48049808 -0.13565648 -0.00524975
-0.60081774 -0.41744554 -0.00545432
-0.19639026 -0.74316114 -0.00000094
-0.13295314 -0.31698152 0.00000131
-0.31116617 0.35099432 -0.00707014
-0.44646364 0.24061465 -0.01213326
-0.75767249 -0.77175218 -0.00602508
-0.02665180 -0.63755339 0.00000055
-0.19042724 0.50289530 -0.00380169
-0.14414334 -0.64011949 -0.00000017
-0.34936428 -0.60254651 -0.00000124
-0.36311010 -0.45760709 -0.00000069
-0.28423592 0.26261079 -0.00347939
-0.02134471 -0.01748699 0.00000329
-0.30141857 0.10647240 -0.00079591
-0.10802071 -0.66223681 -0.00000005
-0.62906092 -0.36453599 -0.00828897
-0.55233741 -0.42153403 -0.00261863
-0.04008944 -0.42230892 0.00000141
-0.35773480 -0.72049469 -0.00000181
-0.79007566 -0.02494714 -0.02533760
-0.45507091 0.28792739 -0.01372714
-0.52043414 -0.51367247 -0.00000189
-0.72116476 -0.48720592 -0.01062315
-0.34883571 0.03547937 -0.00181414
-0.35608384 -0.60783321 -0.00000131
-0.01554738 0.15330508 -0.00000789
-0.55589855 -0.17403120 -0.00861299
-0.32325447 0.38096094 -0.00845475
-0.72417682 -0.69089866 -0.00602515
-0.19501279 0.18792348 -0.00000165
-0.72028702 -0.40508395 -0.01249577
-0.09836520 -0.76117420 -0.00000042
-0.56960797 -0.73777092 -0.00000317
-0.71826380 0.00785478 -0.02204674
-0.27900663 0.26558790 -0.00325353
-0.33540446 -0.58254802 -0.00000107
-0.52624387 0.09423926 -0.01321616
-0.08955656 -0.00473244 0.00000294
-0.04335940 -0.44539729 0.00000129
-0.28671330 -0.56702983 -0.00000071
-0.05971371 -0.49862859 0.00000096
-0.23008971 -0.16485666 0.00000139
-0.34109876 0.41002423 -0.01014352
-0.68911231 -0.70286971 -0.00376369
-0.76913601 -0.61706227 -0.01029388
-0.47426593 -0.76202226 -0.00000270
-0.17245139 -0.32814118 0.00000102
-0.55878013 -0.25377747 -0.00690930
-0.56199557 0.09621153 -0.01528293
-0.42939463 0.20709769 -0.01038406
-0.55766946 -0.01864658 -0.01235004
-0.16135812 0.25668716 -0.00000103
-0.12734327 0.37646207 0.00000078
-0.04373515 0.03687179 -0.00000980
-0.75891668 -0.09258106 -0.02199352
-0.12140785 0.27110791 -0.00000190
-0.15697604 0.61572015 -0.00455190
-0.68839240 -0.71196175 -0.00351018
-0.11870039 0.07211975 -0.00000671
-0.02318947 -0.20618322 0.00000246
-0.29456905 0.41743019 -0.00768712
-0.65690285 -0.53187120 -0.00594585
-0.45958811 -0.66374236 -0.00000218
-0.61250716 -0.27824923 -0.00937303
-0.00379011 -0.68810588 0.00000049
-0.44602022 -0.33898231 -0.00000068
-0.64677221 -0.17215589 -0.01379284
-0.35489035 -0.06529570 0.00000107
-0.36757097 -0.78343284 -0.00000215
-0.52314156 -0.71595675 -0.00000279
-0.02213769 -0.08100000 0.00000301
-0.29737097 0.26331627 -0.00423826
-0.78430790 -0.56372482 -0.01239970
-0.67756963 -0.37664336 -0.01074717
-0.16383241 -0.47803539 0.00000042
-0.06629549 0.28503779 -0.00000323
-0.06649687 -0.49977729 0.00000091
-0.51058632 0.25263363 -0.01603864
-0.15571089 -0.53301841 0.00000023
-0.65162867 -0.32795000 -0.01042078
-0.24203660 -0.78216559 -0.00000138
-0.57805741 -0.27436054 -0.00751703
-0.46691757 -0.72347355 -0.00000248
-0.25043792 0.53831238 -0.00802233
-0.29618999 0.05849251 -0.00000167
-0.39349505 0.25125313 -0.00938861
-0.56991452 -0.16139866 -0.00970082
-0.10978295 -0.05561405 0.00000259
-0.21350528 -0.48651481 0.00000008
-0.18528022 -0.46016392 0.00000037
-0.40400577 -0.71136057 -0.00000205
-0.60224992 -0.34257442 -0.00728771
-0.20854352 -0.30933324 0.00000089
-0.63151735 -0.05094697 -0.01576771
-0.58680183 -0.03759760 -0.01355296
-0.11749239 0.53111452 -0.00034009
-0.04627716 0.64526314 0.00000472
-0.52574861 -0.51851618 -0.00000194
-0.14583646 0.61413634 -0.00388525
-0.07540973 0.29124048 -0.00000281
-0.73658073 -0.65376878 -0.00759517
-0.52716881 0.07247498 -0.01275902
-0.00293997 0.21685214 -0.00000676
-0.48658711 -0.38978049 -0.00000114
-0.07265954 0.46380484 0.00000121
-0.62152451 0.02782999 -0.01704681
-0.54287589 0.02083877 -0.01243814
-0.13239686 0.57893336 -0.00230171
-0.04051297 0.16684268 -0.00000681
-0.03368472 0.28727010 -0.00000416
-0.39626327 0.28283098 -0.01028418
-0.69228023 -0.29532871 -0.01348185
-0.00595860 -0.76268488 0.00000013
-0.12250834 -0.79400474 -0.00000071
-0.15760075 -0.68314475 -0.00000044
-0.34393087 0.03371896 -0.00149572
-0.27818784 -0.58868271 -0.00000075
-0.18337570 -0.52517790 0.00000010
-0.47690943 -0.47135469 -0.00000144
-0.61931002 0.14533912 -0.01967209
-0.33227971 0.21485455 -0.00507692
-0.66100121 -0.05531672 -0.01733179
-0.19601537 -0.47705853 0.00000023
-0.69921762 -0.71819615 -0.00397589
-0.31089458 -0.55799216 -0.00000082
-0.46471673 -0.05036927 -0.00635407
-0.01399731 -0.58201140 0.00000095
-0.53432262 -0.44498289 -0.00105163
-0.74236482 -0.78687310 -0.00480619
-0.37203494 -0.44788933 -0.00000070
-0.39160663 0.10649106 -0.00589356
-0.28609794 0.36130187 -0.00589461
-0.28328481 -0.77916598 -0.00000162
-0.51483667 -0.42471173 -0.00042481
-0.74383378 -0.47574490 -0.01217230
-0.38435087 -0.30817401 -0.00000017
-0.62249672 0.00771472 -0.01663094
-0.71061713 0.05473522 -0.02271186
-0.23991787 -0.32539794 0.00000063
-0.40231228 0.11456135 -0.00668751
-0.33136362 -0.63378704 -0.00000127
-0.67545122 -0.68288213 -0.00345957
-0.21690027 0.28685084 -0.00024111
-0.06703222 0.46611559 0.00000109
-0.23871490 -0.56576633 -0.00000042
-0.64587617 -0.09852329 -0.01546566
-0.13845222 0.53537405 -0.00162439
-0.22163738 -0.53902680 -0.00000020
-0.42905065 -0.52221650 -0.00000137
-0.13798061 0.65640372 -0.00443057
-0.20046924 -0.53770989 -0.00000006
-0.00771711 -0.38141203 0.00000183
-0.59148538 0.07739086 -0.01650910
-0.21758954 0.18231346 -0.00000110
-0.27555782 -0.05131064 0.00000161
-0.55778694 -0.33903289 -0.00485766
-0.21707620 -0.59433013 -0.00000041
-0.33976579 0.45371401 -0.01109080
-0.15403713 0.62000710 -0.00448615
-0.25295100 0.24603985 -0.00132338
-0.19369583 -0.79685253 -0.00000116
-0.12572239 -0.50712478 0.00000052
-0.71154767 -0.44962636 -0.01095928
-0.24680173 0.40643984 -0.00473019
-0.60596001 -0.07404075 -0.01378274
-0.39000696 -0.28478688 -0.00000010
-0.21690078 0.18529272 -0.00000105
-0.38876364 -0.55607390 -0.00000128
-0.08047427 -0.72702569 -0.00000017
-0.49781433 -0.05856271 -0.00803289
-0.12722713 0.33861440 -0.00000012
-0.37812138 -0.02805078 -0.00198230
-0.51371068 0.09083806 -0.01242821
-0.25369081 0.54587531 -0.00838319
-0.54239726 -0.09862599 -0.00961488
-0.49645635 -0.03179605 -0.00858264
-0.44080585 -0.79575098 -0.00000264
-0.34267333 0.11898477 -0.00342040
-0.16721404 -0.17169325 0.00000174
-0.20694239 -0.35785177 0.00000069
-0.07465661 -0.47100613 0.00000099
-0.19947252 0.07695544 -0.00000415
-0.10354122 0.11388285 -0.00000617
-0.78016210 0.01277541 -0.02566025
-0.15448663 0.63498676 -0.00486209
-0.61027193 -0.22920907 -0.01039454
-0.15010938 0.38097808 0.00000158
-0.09574781 -0.64282608 0.00000011
-0.26003361 0.45565799 -0.00663003
-0.63127506 0.07537407 -0.01871071
-0.00875774 -0.08868390 0.00000311
-0.04865646 -0.05933861 0.00000295
-0.69353157 -0.02118663 -0.01996918
-0.44203198 -0.21548164 -0.00120733
-0.05054514 -0.34803012 0.00000167
-0.67684323 -0.70203519 -0.00308995
-0.23944163 0.08321830 -0.00000280
-0.69340676 -0.20708811 -0.01561089
-0.25869775 0.00895224 -0.00000398
-0.16294809 -0.37392011 0.00000088
-0.53868061 -0.75870579 -0.00000307
-0.72937167 -0.48837268 -0.01105954
-0.34858346 0.30526394 -0.00811450
-0.08992676 0.70744234 -0.00290931
-0.02403355 -0.45373464 0.00000137
-0.17613427 -0.35494488 0.00000088
-0.03747281 -0.29847419 0.00000197
-0.05460299 0.45283437 0.00000040
-0.43088311 -0.11661012 -0.00289143
-0.03812338 0.72393447 -0.00036752
-0.67514181 -0.62620831 -0.00476860
-0.36856440 0.07360912 -0.00382163
-0.67904073 -0.42690724 -0.00965383
-0.12415202 0.08313224 -0.00000628
-0.55320096 -0.44140175 -0.00220241
-0.34488347 -0.33794412 -0.00000006
-0.17335610 0.14495471 -0.00000333
-0.32240206 -0.64403760 -0.00000126
-0.50805193 0.10588875 -0.01246067
-0.46709141 -0.01463538 -0.00732467
-0.45006716 -0.60742080 -0.00000187
-0.33151126 -0.19689071 0.00000064
-0.58328718 -0.47847065 -0.00303517
-0.71455348 -0.68561673 -0.00560505
-0.76753086 -0.68160993 -0.00869221
-0.00045757 -0.41037244 0.00000170
-0.00122028 0.57124090 0.00000160
-0.08681215 -0.52681696 0.00000067
-0.34936458 -0.71666700 -0.00000174
-0.58517855 0.13044952 -0.01739455
-0.06806901 -0.26318994 0.00000194
-0.65266359 -0.05781048 -0.01680220
-0.31219125 0.26757810 -0.00517562
-0.19515041 -0.00699713 0.00000229
-0.09893804 0.53550684 0.00000370
-0.38492578 -0.61122358 -0.00000150
-0.43152061 -0.16202518 -0.00186447
-0.07920880 -0.47585669 0.00000094
-0.30813986 -0.46869901 -0.00000041
-0.34018505 0.19759163 -0.00511965
-0.35633251 -0.43253216 -0.00000054
-0.18914627 -0.30693844 0.00000102
-0.07091755 -0.43272975 0.00000118
-0.50446093 -0.05657503 -0.00845506
-0.55929065 -0.13517188 -0.00971425
-0.26858535 0.03157448 -0.00000314
-0.65058136 -0.48772582 -0.00662185
-0.17315052 -0.63536155 -0.00000032
-0.28290662 0.44651607 -0.00770878
-0.04628578 -0.33136851 0.00000177
-0.49287665 -0.65374255 -0.00000233
-0.25216731 0.21415120 -0.00053270
-0.57231790 -0.20534711 -0.00880799
-0.69600368 0.01268076 -0.02090160
-0.30270022 -0.76992917 -0.00000170
-0.12240340 0.55960637 -0.00128453
-0.25144944 0.39318508 -0.00468262
-0.01924440 0.65886456 0.00000423
-0.00727974 -0.22661957 0.00000251
-0.11377082 -0.37825325 0.00000116
-0.28629091 0.03310875 -0.00000257
-0.77884316 -0.23047423 -0.01989189
-0.29376984 -0.50320113 -0.00000047
-0.09770166 0.40354127 0.00000053
-0.43311852 -0.51737440 -0.00000138
-0.16713962 0.00935949 -0.00000673
-0.11788321 -0.27985424 0.00000156
-0.37748379 -0.01024095 -0.00236312
-0.22699951 0.41042754 -0.00370435
-0.43866393 0.14187907 -0.00938142
-0.54842317 0.24924280 -0.01809772
-0.24930817 -0.50514060 -0.00000021
-0.27065763 0.42603725 -0.00653716
-0.24892350 0.13381401 -0.00000131
-0.41062847 -0.71488512 -0.00000211
-0.63098115 -0.11373751 -0.01426772
-0.64880127 -0.22274746 -0.01272337
-0.22157784 -0.33420941 0.00000070
-0.05551434 0.57296270 0.00000328
-0.60331053 -0.78652829 -0.00000358
-0.47539049 0.16890627 -0.01208972
-0.39441425 0.15987138 -0.00730167
-0.40968516 -0.49008894 -0.00000112
-0.47173229 -0.41414216 -0.00000116
-0.71984023 -0.72365212 -0.00501341
-0.53110325 -0.12912396 -0.00826273
-0.78727305 -0.19541726 -0.02118884
-0.03188991 -0.64569688 0.00000048
-0.42625931 0.09514022 -0.00758637
-0.65926868 0.02675276 -0.01915480
-0.32873058 -0.10445498 0.00000106
-0.51080775 -0.75449693 -0.00000288
-0.45772943 -0.14719066 -0.00369294
-0.63545841 0.11189511 -0.01980196
-0.49057260 -0.22052656 -0.00383265
-0.23623677 -0.70466876 -0.00000101
-0.48388556 -0.25458813 -0.00265747
-0.26993567 0.21159235 -0.00147703
-0.03029429 0.27982721 -0.00000444
-0.76630819 -0.59348828 -0.01068594
-0.07026440 -0.28141227 0.00000184
-0.19585359 -0.16456240 0.00000160
-0.62266344 -0.19895601 -0.01180299
-0.78767681 -0.41619292 -0.01604358
-0.47066039 -0.54896611 -0.00000174
-0.16934054 -0.38880232 0.00000078
-0.14738192 0.31912217 0.00000003
-0.15128314 0.18260428 -0.00000310
-0.29522833 0.05200031 -0.00000186
-0.21810547 0.10023240 -0.00000304
-0.57736224 -0.28775999 -0.00716412
-0.02191367 -0.37784269 0.00000171
-0.26763675 0.13115241 -0.00000081
-0.46718842 -0.39523548 -0.00000105
-0.30415243 -0.30741104 0.00000032
-0.26324579 -0.14921656 0.00000126
-0.05697487 0.19528504 -0.00000564
-0.52173167 -0.68359798 -0.00000264
-0.49291447 -0.39395106 -0.00000120
-0.01958845 0.10473340 -0.00000892
-0.56191814 -0.73787272 -0.00000312
-0.69840771 0.02288242 -0.02127626
-0.13410829 0.07228925 -0.00000624
-0.74411190 -0.15479280 -0.01970065
-0.00387176 0.49002698 -0.00000024
-0.26693943 -0.56350285 -0.00000058
-0.15208893 -0.75035185 -0.00000070
-0.10226593 0.25141001 -0.00000294
-0.31365377 -0.07618096 0.00000127
-0.11463419 0.24662080 -0.00000268
-0.08211089 -0.51545566 0.00000075
-0.13906939 0.11587205 -0.00000505
-0.67003721 -0.40234253 -0.00971994
-0.04146291 -0.12601811 0.00000270
-0.50345606 -0.74578667 -0.00000280
-0.49818295 -0.11401694 -0.00675575
-0.08161483 -0.50310707 0.00000081
-0.46654385 0.32165995 -0.01516502
-0.60989743 -0.45624366 -0.00505937
-0.69198805 -0.72572190 -0.00339123
-0.00756641 -0.63663578 0.00000067
-0.45912290 -0.58226460 -0.00000182
-0.32386091 -0.12849334 0.00000098
-0.52405274 -0.00409626 -0.01079067
-0.02338426 0.68258476 0.00000492
-0.38959983 -0.31428361 -0.00000023
-0.40353015 -0.06118329 -0.00264284
-0.40879852 0.11180417 -0.00698956
-0.51014549 -0.19356172 -0.00557001
-0.46915090 -0.26332632 -0.00162017
-0.59972692 -0.07395690 -0.01343242
-0.27369902 0.25426102 -0.00268843
-0.53942388 0.06216084 -0.01321023
-0.31139120 -0.03859162 0.00000145
-0.48189741 0.30008078 -0.01552777
-0.22250332 -0.35202613 0.00000062
-0.40013802 0.34200847 -0.01188829
-0.77095532 -0.59017915 -0.01102598
-0.06460467 0.58801705 0.00000392
-0.15267818 0.54039478 -0.00254592
-0.01168612 0.39018393 -0.00000238
-0.26526478 0.29741558 -0.00322183
-0.00824245 -0.39111215 0.00000179
-0.25041193 0.05428059 -0.00000315
-0.66529965 -0.52069354 -0.00668204
-0.64493549 0.15417147 -0.02132711
-0.75308663 -0.09132483 -0.02169342
-0.37276626 -0.54071850 -0.00000112
-0.77741963 -0.17272517 -0.02116328
-0.00354783 -0.13960011 0.00000287
-0.06037725 -0.59275341 0.00000054
-0.36656028 -0.23094153 0.00000028
-0.12177749 0.22039203 -0.00000309
-0.12316730 0.49412990 0.00000345
-0.30417946 -0.36963937 0.00000005
-0.40035325 -0.15442757 -0.00028079
-0.02572847 0.09113778 -0.00000906
-0.31873491 -0.44656360 -0.00000038
-0.44396624 0.28065044 -0.01292920
-0.63279396 -0.66916984 -0.00136964
-0.13594104 0.45903656 0.00000300
-0.28584820 -0.08076386 0.00000142
-0.16437791 0.52350694 -0.00281188
-0.70325434 -0.78061581 -0.00274281
-0.07803030 0.11603717 -0.00000689
-0.28277099 -0.31225610 0.00000043
-0.66665006 -0.00981722 -0.01871602
-0.21266387 0.47482285 -0.00440138
-0.42514145 -0.70686287 -0.00000216
-0.21939625 0.21618250 -0.00000024
-0.28381595 -0.37351844 0.00000015
-0.12835173 -0.66467208 -0.00000018
-0.41708860 0.10220865 -0.00723350
-0.34753117 0.25762674 -0.00694003
-0.31790370 -0.55037725 -0.00000083
-0.78460056 -0.75555789 -0.00792567
-0.15857650 0.54480392 -0.00298248
-0.15723480 -0.52557248 0.00000025
-0.63751197 -0.49950069 -0.00560760
-0.79069746 -0.23287541 -0.02050548
-0.33413723 -0.68867952 -0.00000153
-0.32215255 -0.71150744 -0.00000156
-0.40999219 -0.05296993 -0.00320030
-0.79556811 -0.07806058 -0.02440470
-0.49197415 0.03218849 -0.00982695
-0.30420074 -0.08996302 0.00000127
-0.28145602 -0.30449840 0.00000047
-0.53716880 -0.64343566 -0.00000256
-0.25255346 0.48987335 -0.00700812
-0.44595581 -0.60941213 -0.00000186
-0.50258583 -0.19892485 -0.00501722
-0.65282768 -0.25627777 -0.01216611
-0.13547361 0.08482829 -0.00000590
-0.26341215 -0.37721264 0.00000026
-0.77420694 -0.50569445 -0.01318738
-0.70705217 -0.20009033 -0.01654589
-0.03563117 -0.75120968 -0.00000000
-0.27837977 -0.56886852 -0.00000067
-0.09628583 0.05938860 -0.00000768
-0.52844101 -0.60062057 -0.00000232
-0.66487932 -0.67213595 -0.00311360
-0.03706940 -0.05808785 0.00000302
-0.12005019 -0.40191767 0.00000102
-0.00319564 0.50540489 0.00000010
-0.53475624 -0.44457933 -0.00108559
-0.53696609 -0.34699553 -0.00349454
-0.48354188 -0.20697390 -0.00375251
-0.36611310 -0.01205277 -0.00167807
-0.12292263 -0.71475500 -0.00000037
-0.47949120 -0.37888390 -0.00000105
-0.74718851 -0.12119514 -0.02066093
-0.06927291 -0.35912645 0.00000151
-0.23218970 -0.01192875 0.00000205
-0.30949014 -0.58123815 -0.00000091
-0.67193538 -0.35225600 -0.01099955
-0.43068922 -0.63639939 -0.00000188
-0.12136038 -0.63638705 -0.00000002
-0.70084178 -0.73542392 -0.00366438
-0.33007428 -0.58075786 -0.00000103
-0.58622253 -0.56287277 -0.00122554
-0.33521143 0.24477658 -0.00594297
-0.46324629 -0.64588708 -0.00000212
-0.35592875 -0.34773728 -0.00000017
-0.28888875 0.28538460 -0.00427540
-0.56195146 -0.04107067 -0.01206718
-0.45872933 0.31175697 -0.01449166
-0.18921582 0.01020641 -0.00000605
-0.01987965 0.50926298 0.00000070
-0.70400840 0.09157412 -0.02320060
-0.41723648 0.08313553 -0.00679543
-0.18398923 0.47124746 -0.00269707
-0.01128187 -0.33277404 0.00000198
-0.51475853 -0.75238395 -0.00000290
-0.58324677 -0.69233227 -0.00000305
-0.54582220 -0.09707012 -0.00984486
-0.58830452 -0.17375836 -0.01045089
-0.27353096 0.33970079 -0.00467875
-0.10955012 -0.58976465 0.00000026
-0.51953721 -0.68358749 -0.00000263
-0.19914575 0.28730440 0.00000083
-0.78188604 -0.01171999 -0.02518434
-0.14486530 -0.35233366 0.00000108
-0.29899558 0.38989964 -0.00729291
-0.31840014 -0.56169671 -0.00000088
-0.66100425 0.02402058 -0.01918894
-0.38391516 -0.05274938 -0.00173165
-0.30943656 -0.06203909 0.00000136
-0.56780028 -0.66518092 -0.00000284
-0.05985904 -0.68297255 0.00000015
-0.18514875 -0.52638817 0.00000008
-0.04570310 0.15077007 -0.00000704
-0.59853840 -0.67132199 -0.00000305
-0.31694114 -0.22562933 0.00000060
-0.11780206 0.10512156 -0.00000595
-0.38602448 0.05344685 -0.00433651
-0.59426451 -0.70048678 -0.00000315
-0.38181338 -0.41192541 -0.00000061
-0.57660306 -0.67465180 -0.00000293
-0.38713461 -0.34706393 -0.00000035
-0.75306106 -0.49693561 -0.01219761
-0.46972805 -0.51756912 -0.00000160
-0.61015123 -0.68563020 -0.00000318
-0.21723036 0.55257988 -0.00647946
-0.63011211 -0.26904944 -0.01058335
-0.01131287 -0.63070697 0.00000074
-0.54403478 -0.53739387 -0.00000213
-0.22022498 -0.09898594 0.00000174
-0.39814195 0.30060044 -0.01080628
-0.49334243 -0.32505119 -0.00154267
-0.01836040 -0.79587829 -0.00000009
-0.44284722 -0.10539157 -0.00383019
-0.15680058 0.44349936 -0.00051096
-0.45621458 0.27481407 -0.01348484
-0.16159908 -0.53137475 0.00000020
-0.04256190 -0.42457879 0.00000139
-0.35398841 -0.49123970 -0.00000079
-0.17117149 -0.42197493 0.00000062
-0.69066489 0.04438225 -0.02134188
-0.22526203 -0.14165898 0.00000152
-0.48587710 -0.28250104 -0.00211669
-0.13566364 0.27705055 -0.00000133
-0.65134108 -0.11829907 -0.01531165
-0.20886955 0.01053676 -0.00000545
-0.27321798 -0.62085098 -0.00000087
-0.49392805 -0.50607741 -0.00000170
-0.74924177 -0.55553412 -0.01061010
-0.72208452 0.06532079 -0.02360773
-0.46158597 -0.18117122 -0.00311555
-0.50658751 -0.53657842 -0.00000191
-0.28683624 -0.14636011 0.00000113
-0.72258830 0.06817211 -0.02370294
-0.06176493 0.51700795 0.00000214
-0.61554915 -0.27302551 -0.00966722
-0.20635377 -0.66341555 -0.00000065
-0.14439166 0.33524936 0.00000032
-0.20546927 -0.09862045 0.00000183
-0.68713629 -0.44685018 -0.00964459
-0.73289263 -0.57557893 -0.00921711
-0.71650004 -0.05065932 -0.02057746
-0.48826888 0.15304819 -0.01244640
-0.27276698 -0.73425996 -0.00000136
-0.05809466 -0.62688428 0.00000041
-0.19045857 0.05405194 -0.00000497
-0.06123982 0.31525645 -0.00000266
-0.29917929 -0.15095297 0.00000103
-0.44935986 0.23048219 -0.01205979
-0.59061962 -0.16424617 -0.01080437
-0.38964534 -0.35975513 -0.00000043
-0.67724574 -0.51888222 -0.00739960
-0.62096024 -0.19400798 -0.01182254
-0.14371237 -0.08507895 0.00000226
-0.02704373 0.00842339 -0.00001098
-0.19288421 -0.02273153 0.00000224
-0.33385617 -0.40888295 -0.00000030
-0.48323628 -0.07257914 -0.00688090
-0.11191886 0.34424114 -0.00000045
-0.08015123 0.66840345 -0.00144307
-0.48712599 -0.75013053 -0.00000272
-0.00479291 -0.13080718 0.00000290
-0.74879330 -0.15949598 -0.01985515
-0.19761756 -0.10842766 0.00000183
-0.66798633 -0.07034138 -0.01737490
-0.61973214 -0.28191984 -0.00969545
-0.22891940 0.56157738 -0.00735062
-0.19901805 -0.39395669 0.00000058
-0.61210084 -0.20287174 -0.01111436
-0.22830911 0.19403505 -0.00000050
-0.12396385 -0.73855531 -0.00000048
-0.60732031 -0.30368289 -0.00848458
-0.44191709 0.29887232 -0.01323989
-0.46432552 0.16726021 -0.01142583
-0.03389695 -0.03799674 0.00000313
-0.69582546 0.03842631 -0.02149414
-0.63700157 -0.20198674 -0.01254241
-0.48419714 -0.77106965 -0.00000280
-0.21001559 0.31916368 -0.00060832
-0.52900732 -0.15182415 -0.00761295
-0.76925606 -0.58868819 -0.01096487
-0.08044444 -0.05244338 0.00000279
-0.63587630 -0.26796705 -0.01093446
-0.29057831 -0.17835419 0.00000097
-0.67867875 -0.47791949 -0.00843938
-0.73486954 -0.73003924 -0.00571309
-0.17694922 -0.23840132 0.00000139
-0.28751695 0.39018452 -0.00665084
-0.18536285 -0.02329181 0.00000228
-0.79200822 -0.31991330 -0.01854210
-0.26020941 0.03275027 -0.00000337
-0.41574875 -0.43772832 -0.00000092
-0.30695021 0.46975487 -0.00961160
-0.65279359 -0.24872878 -0.01234088
-0.17915112 0.05688414 -0.00000524
-0.24572916 -0.26641810 0.00000085
-0.25674978 -0.23808950 0.00000091
-0.33319077 0.05842289 -0.00146695
-0.49260616 0.12094462 -0.01194011
-0.00116361 -0.34538081 0.00000198
-0.05749565 -0.62198156 0.00000043
-0.42057669 -0.63542396 -0.00000182
-0.02983257 -0.10895893 0.00000284
-0.79548550 -0.60280818 -0.01211637
-0.01202649 -0.74728370 0.00000023
-0.06813268 -0.57442558 0.00000058
-0.59835756 -0.49285835 -0.00355015
-0.36050165 -0.46128762 -0.00000069
-0.48354700 -0.04031340 -0.00765368
-0.13545549 -0.49716547 0.00000051
-0.10930221 0.64382261 -0.00251527
-0.40257716 -0.35685176 -0.00000049
-0.41738588 -0.31885958 -0.00000041
-0.43862352 -0.15257730 -0.00248704
-0.54431152 -0.19329076 -0.00750733
-0.52297360 0.11998390 -0.01363392
-0.20092693 -0.44183758 0.00000035
-0.74087214 -0.66356713 -0.00760828
-0.40795276 0.26307210 -0.01048236
-0.59847766 -0.64715087 -0.00000294
-0.11148369 -0.16642207 0.00000210
-0.65588778 -0.69308990 -0.00211497
-0.13720319 0.24172591 -0.00000212
-0.12880181 0.35052595 0.00000021
-0.25419408 0.14411066 -0.00000091
-0.14893739 0.61630017 -0.00411115
-0.40341842 -0.37678108 -0.00000058
-0.75700533 -0.03372701 -0.02326304
-0.08773613 -0.16421615 0.00000225
-0.20728710 -0.16433358 0.00000153
-0.49364334 -0.19743368 -0.00454672
-0.29535556 0.11878773 -0.00074150
-0.36182240 -0.36256397 -0.00000027
-0.03285758 -0.22256333 0.00000233
-0.53461981 -0.74292314 -0.00000298
-0.37551284 0.42278245 -0.01238715
-0.17295437 -0.13392086 0.00000187
-0.22839972 -0.64785427 -0.00000071
-0.30037788 0.37879187 -0.00711105
-0.20164479 0.03578418 -0.00000506
-0.26702946 0.24705048 -0.00214272
-0.18691675 -0.10609451 0.00000191
-0.04012889 0.28170320 -0.00000410
-0.04635340 0.42965847 -0.00000040
-0.12087403 -0.73694670 -0.00000045
-0.65502024 0.12257032 -0.02115741
-0.00611521 -0.22798152 0.00000250
-0.00826271 -0.42072907 0.00000161
-0.05671284 -0.54855376 0.00000076
-0.27979875 0.26557890 -0.00329808
-0.42813429 -0.18871526 -0.00104837
-0.32726681 -0.19882581 0.00000065
-0.16278955 -0.37747666 0.00000087
-0.27312428 0.37367439 -0.00545096
-0.61963618 -0.30307397 -0.00919489
-0.05133714 -0.12893254 0.00000263
-0.26205614 -0.73558336 -0.00000130
-0.36003718 -0.08475154 0.00000096
-0.21831687 0.50492483 -0.00542545
-0.67163658 -0.66192913 -0.00373441
-0.30783522 -0.78163290 -0.00000178
-0.72026229 0.01723295 -0.02237919
-0.39094591 -0.09736403 -0.00108475
-0.46297491 0.16234463 -0.01123444
-0.16709502 -0.31286809 0.00000112
-0.69767237 -0.53972375 -0.00806625
-0.15290789 -0.63326758 -0.00000019
-0.40440920 0.26290354 -0.01027815
-0.30012909 -0.46258512 -0.00000034
-0.78890234 -0.09256813 -0.02368846
-0.26385078 -0.22875111 0.00000091
-0.14906491 -0.41316620 0.00000079
-0.47043839 -0.74988222 -0.00000262
-0.02739166 -0.59992760 0.00000071
-0.00827579 -0.32130802 0.00000209
-0.66969067 -0.23407778 -0.01363879
-0.39014918 -0.12930299 -0.00029215
-0.79042327 -0.43753418 -0.01569919
-0.71936762 -0.63581610 -0.00704283
-0.10553231 -0.63741177 0.00000007
-0.43005303 -0.37604851 -0.00000074
-0.24994446 0.30482793 -0.00252946
-0.25129923 0.50570947 -0.00730789
-0.33980605 -0.46244502 -0.00000057
-0.10919717 -0.53276807 0.00000051
-0.75425518 -0.19917560 -0.01923510
-0.00294457 -0.18132509 0.00000269
-0.38272309 -0.30708265 -0.00000015
-0.68018597 -0.36380607 -0.01119552
-0.36199665 -0.30647248 -0.00000003
-0.07639480 -0.29599491 0.00000174
-0.78999972 -0.56696188 -0.01264552
-0.79583168 -0.70502341 -0.00974321
-0.33682203 -0.37204155 -0.00000016
-0.44030559 -0.34963930 -0.00000069
-0.07584588 0.26538596 -0.00000341
-0.28260088 -0.31990707 0.00000039
-0.17495699 -0.44250816 0.00000051
-0.40515292 -0.24784206 -0.00000003
-0.10160248 0.20914008 -0.00000397
-0.76981336 -0.45868194 -0.01403963
-0.75815725 -0.05599058 -0.02280704
-0.46326742 -0.43690825 -0.00000121
-0.03014571 -0.52605027 0.00000102
-0.01352177 0.03096743 -0.00001086
-0.00107557 -0.44074640 0.00000157
-0.49788731 -0.57560223 -0.00000202
-0.32451007 0.16076812 -0.00337184
-0.76950181 -0.75599402 -0.00706234
-0.66430914 0.12903401 -0.02183369
-0.13433282 -0.34424219 0.00000118
-0.71793985 -0.57348257 -0.00842130
-0.47505918 -0.79308903 -0.00000284
-0.78308934 -0.00207545 -0.02547809
-0.16287401 -0.59451610 -0.00000008
-0.04749935 0.48715305 0.00000100
-0.75021183 -0.56275183 -0.01049595
-0.12216505 -0.16050214 0.00000206
-0.02144292 -0.04415109 0.00000318
-0.46760046 -0.48645625 -0.00000145
-0.11027426 -0.67636579 -0.00000012
-0.54917902 -0.20846583 -0.00742724
-0.67967153 -0.18927094 -0.01525164
-0.49108177 -0.07621745 -0.00723915
-0.01945861 0.66328984 0.00000434
-0.23238675 -0.31767848 0.00000071
-0.57367331 -0.55219716 -0.00076616
-0.11420925 0.28653607 -0.00000175
-0.59571058 -0.22414920 -0.00969000
-0.40049145 0.20259994 -0.00864525
-0.01024639 -0.29077172 0.00000223
-0.73345351 -0.74614412 -0.00525609
-0.00826138 -0.68808460 0.00000049
-0.60277390 0.03752199 -0.01621392
-0.37935433 -0.33896929 -0.00000027
-0.73890585 -0.01607273 -0.02265332
-0.68437397 -0.68001825 -0.00403088
-0.51378137 -0.11563713 -0.00759941
-0.45122880 0.24228476 -0.01244167
-0.28291905 0.05934724 -0.00000205
-0.46348357 -0.28168958 -0.00087005
-0.16278923 -0.30355018 0.00000119
-0.65615809 0.11939757 -0.02114746
-0.40228236 -0.67588365 -0.00000188
-0.76972407 -0.47648054 -0.01361795
-0.05440138 0.55252194 0.00000276
-0.50778830 -0.69831163 -0.00000262
-0.24914978 -0.07851518 0.00000165
-0.63276666 -0.47215906 -0.00597936
-0.46207502 -0.71610796 -0.00000242
-0.31128731 0.40998176 -0.00845766
-0.22813901 -0.20721793 0.00000122
-0.27701241 -0.50936902 -0.00000040
-0.40712288 -0.70827508 -0.00000206
-0.22403695 -0.08145451 0.00000179
-0.58274239 -0.26868409 -0.00791468
-0.27735314 0.48506156 -0.00829711
-0.53173894 -0.11067139 -0.00873056
-0.13529208 -0.10581515 0.00000222
-0.03962791 -0.16678670 0.00000253
-0.18521838 -0.68997061 -0.00000064
-0.26427865 0.24805345 -0.00201072
-0.20149249 0.26476854 0.00000037
-0.25605342 -0.67429203 -0.00000100
-0.13206609 0.37956038 0.00000100
-0.24312493 0.12136118 -0.00000178
-0.17482089 -0.11227866 0.00000195
-0.19501303 -0.58228135 -0.00000022
-0.25677976 -0.23839389 0.00000091
-0.64208472 0.13321535 -0.02067549
-0.02668143 -0.75770175 0.00000002
-0.77251130 -0.66872197 -0.00927531
-0.27979076 -0.78297806 -0.00000161
-0.78639030 -0.78337711 -0.00737558
-0.16745891 -0.41771227 0.00000066
-0.37636104 -0.39677131 -0.00000051
-0.40053096 -0.24516404 0.00000001
-0.34610829 0.10338426 -0.00324939
-0.33206382 -0.20919003 0.00000058
-0.68228573 0.04882904 -0.02097239
-0.22476701 -0.33556226 0.00000068
-0.12986837 -0.03495523 0.00000256
-0.40990481 0.35733935 -0.01279912
-0.40841043 -0.00201580 -0.00430354
-0.11291507 -0.14930753 0.00000217
-0.17726114 -0.44781730 0.00000047
-0.59519440 0.11751414 -0.01765786
-0.67514294 -0.05857797 -0.01805471
-0.72330087 -0.59623981 -0.00819150
-0.72799897 -0.35283309 -0.01415463
-0.70184028 -0.17409113 -0.01685986
-0.51008242 0.17940988 -0.01429627
-0.32252535 -0.13210136 0.00000098
-0.21657184 0.08664056 -0.00000341
-0.16980077 0.61811733 -0.00533284
-0.30980605 -0.69218874 -0.00000140
-0.30054700 -0.60972714 -0.00000098
-0.08929331 0.51290274 0.00000288
-0.73780549 -0.49081665 -0.01147887
-0.79608595 -0.63417470 -0.01141605
-0.22958940 -0.60096741 -0.00000051
-0.53968126 -0.13168986 -0.00868748
-0.53410256 -0.14002334 -0.00817713
-0.18092784 -0.19665219 0.00000155
-0.12505376 -0.15668756 0.00000206
-0.43829909 -0.25650710 -0.00003611
-0.78670228 -0.78177023 -0.00743083
-0.24687123 -0.24549845 0.00000094
-0.17971723 0.04621135 -0.00000548
-0.06008836 -0.62605149 0.00000040
-0.61057931 0.15508766 -0.01940683
-0.41143176 -0.57638282 -0.00000150
-0.63957602 -0.47698241 -0.00625132
-0.11528885 -0.75231993 -0.00000049
-0.69556618 -0.17567611 -0.01646817
-0.21080150 0.58828288 -0.00695179
-0.58569223 -0.55887872 -0.00128906
-0.26680464 -0.08320800 0.00000153
-0.29076645 0.36432254 -0.00622916
-0.54988819 -0.73556781 -0.00000304
-0.12443763 0.60186052 -0.00238851
-0.67553687 -0.06840138 -0.01784705
-0.16390806 -0.19841152 0.00000164
-0.64636993 -0.05418238 -0.01653142
-0.34595653 0.33708075 -0.00871075
-0.27191445 0.16998434 -0.00061498
-0.00885439 -0.40168783 0.00000169
-0.37782392 -0.61892402 -0.00000149
