ply
format ascii 1.0
element vertex 1206
property float x
property float y
property float z
end_header
-0.01630310 -0.62221116 0.00000067
-0.57766181 -0.75389940 0.00000017
-0.54153383 0.19216318 0.00000063
-0.30584556 -0.70480520 0.00000036
-0.60948086 -0.54301745 0.00000040
-0.09178041 -0.20793390 0.00000222
-0.43818685 0.13314801 0.00000177
-0.25380880 -0.42752197 0.00000140
-0.03992862 0.30895922 -0.00000396
-0.21228455 -0.49510819 0.00000114
-0.35302588 -0.44703135 0.00000132
-0.65168756 -0.09613017 -0.00000035
-0.16881657 0.23204836 -0.00000219
-0.17048863 0.32929900 0.00000004
-0.21678303 0.47063062 0.00000391
-0.05092309 -0.72639364 0.00000035
-0.78058714 -0.28299832 -0.00000129
-0.15495823 -0.43537718 0.00000137
-0.79382217 -0.32237044 -0.00000119
-0.32321581 -0.62430185 0.00000066
-0.37098736 0.14226936 0.00000248
-0.27268225 0.31373325 0.00000342
-0.06032477 0.50515652 0.00000100
-0.72317487 -0.30552265 -0.00000098
-0.35830975 -0.09944238 0.00000263
-0.54016769 -0.32960442 0.00000099
-0.46054369 -0.67269695 0.00000048
-0.60331511 -0.47141099 0.00000041
-0.50187194 0.06599037 0.00000114
-0.27168664 -0.11888492 0.00000255
-0.29231006 0.12688698 0.00000333
-0.62832201 0.12542363 -0.00000025
-0.42449474 -0.04178581 0.00000203
-0.25277111 0.15987054 -0.00000154
-0.27318087 0.37065715 0.00000337
-0.38984713 -0.30211121 0.00000187
-0.13914232 0.46452057 0.00000474
-0.08421153 -0.04778014 0.00000282
-0.17222418 -0.60476935 0.00000073
-0.71966815 -0.71460903 -0.00000021
-0.79477400 -0.06311987 -0.00000184
-0.08615706 -0.34114030 0.00000172
-0.51794207 -0.20656297 0.00000115
-0.36456376 -0.01829782 0.00000266
-0.18542615 0.05444521 -0.00000574
-0.43051437 -0.54871881 0.00000094
-0.17087078 0.31566706 -0.00000026
-0.08820343 0.16584057 -0.00000587
-0.46887806 -0.65588367 0.00000054
-0.48168406 -0.15912478 0.00000150
-0.41816047 -0.15853693 0.00000218
-0.36955503 -0.67913842 0.00000045
-0.74618793 -0.45102197 -0.00000087
-0.23249596 0.32227275 0.00000384
-0.45935908 -0.25936079 0.00000181
-0.29542345 -0.25870270 0.00000203
-0.68542022 -0.67132509 -0.00000032
-0.20202880 0.07690572 -0.00000478
-0.45524660 -0.46430263 0.00000126
-0.08813941 0.35653526 -0.00000158
-0.03691655 -0.36807942 0.00000168
-0.46982992 -0.27064615 0.00000170
-0.74264306 0.04508052 -0.00000142
-0.50839084 -0.03284958 0.00000113
-0.01063376 -0.68881869 0.00000043
-0.12272007 -0.18860807 0.00000229
-0.06272902 0.42590263 -0.00000071
-0.56517446 0.06284832 0.00000046
-0.70857775 0.02345920 -0.00000104
-0.11919263 0.23443332 -0.00000349
-0.75641477 -0.16954704 -0.00000142
-0.16029967 0.37891939 0.00000088
-0.39697486 0.34385824 0.00000207
-0.58880031 -0.27992511 0.00000044
-0.07925642 -0.60497314 0.00000073
-0.50349694 -0.49809229 0.00000113
-0.06253840 -0.73657930 0.00000024
-0.18486172 -0.35160664 0.00000168
-0.27921897 -0.44863880 0.00000132
-0.24535622 -0.63618380 0.00000061
-0.07181770 -0.04742157 0.00000282
-0.23736317 0.29730302 0.00000380
-0.06127616 0.68122828 0.00000543
-0.12883115 0.47559541 0.00000220
-0.27904260 -0.17552860 0.00000234
-0.06296872 -0.66490430 0.00000051
-0.24738333 -0.57464391 0.00000085
-0.58264613 0.04294513 0.00000029
-0.05255764 -0.68414146 0.00000051
-0.21185274 -0.21081997 0.00000221
-0.44152936 -0.24460307 0.00000199
-0.13807684 -0.70698708 0.00000035
-0.32053685 -0.03597476 0.00000287
-0.27813423 -0.78244710 0.00000007
-0.57846713 0.12123747 0.00000028
-0.29947475 0.16594800 0.00000323
-0.42938730 0.21760385 0.00000181
-0.03588570 -0.20843019 0.00000222
-0.24969077 -0.22698496 0.00000215
-0.64165533 0.15548027 -0.00000039
-0.15586676 -0.63929695 0.00000060
-0.38082710 -0.72068036 0.00000030
-0.04327766 0.00708687 -0.00001067
-0.77730268 -0.10058403 -0.00000169
-0.05873026 -0.65912646 0.00000053
-0.02441032 -0.50508684 0.00000111
-0.07813868 -0.57408208 0.00000085
-0.03102410 0.03850174 -0.00001029
-0.72668147 -0.18398052 -0.00000109
-0.26630014 0.38675785 0.00000344
-0.04402798 0.22958313 -0.00000564
-0.17383981 0.01480491 -0.00000695
-0.59688550 -0.23467824 0.00000032
-0.40803158 0.14820471 0.00000208
-0.76379812 -0.62111658 -0.00000045
-0.76871258 -0.11864954 -0.00000159
-0.31207302 -0.20914350 0.00000222
-0.66736704 -0.28795081 -0.00000039
-0.04795893 -0.67304593 0.00000048
-0.15268166 -0.65026319 0.00000056
-0.66817898 -0.43668878 -0.00000030
-0.50870258 -0.33385348 0.00000133
-0.12568033 0.03458721 -0.00000781
-0.05487742 -0.30247995 0.00000187
-0.32802266 -0.62822920 0.00000064
-0.24882181 0.37645662 0.00000363
-0.47408405 -0.47800624 0.00000121
-0.35710701 -0.68601048 0.00000043
-0.27877551 -0.61275500 0.00000070
-0.35165983 -0.56477958 0.00000088
-0.26739824 -0.56556028 0.00000088
-0.61918962 -0.71284729 0.00000033
-0.52998781 0.10528449 0.00000081
-0.43196195 0.20371017 0.00000179
-0.26364666 0.37331489 0.00000347
-0.55198765 0.04858520 0.00000061
-0.54705560 -0.54915756 0.00000094
-0.51076722 0.03414603 0.00000106
-0.40066126 0.14258242 0.00000217
-0.22589305 0.15751550 -0.00000232
-0.48084196 0.17639844 0.00000129
-0.21882236 0.41084132 0.00000393
-0.03370297 -0.44734031 0.00000137
-0.63135290 -0.15771279 -0.00000010
-0.40061611 -0.29048827 0.00000191
-0.44231394 -0.42474645 0.00000141
-0.76927131 -0.43624845 -0.00000091
-0.28841698 -0.33379856 0.00000175
-0.41782364 0.26358452 0.00000190
-0.57279438 -0.50162691 0.00000076
-0.05297064 -0.34104913 0.00000180
-0.60795379 -0.65894800 0.00000049
-0.55463475 -0.15184297 0.00000072
-0.13848980 0.12376065 -0.00000545
-0.18435463 -0.40195984 0.00000149
-0.34087902 0.42114627 0.00000262
-0.04816311 -0.06714032 0.00000275
-0.13868579 0.51695800 0.00000471
-0.50710058 -0.65745282 0.00000053
-0.00762617 -0.15763164 0.00000241
-0.60538405 -0.32575223 0.00000029
-0.04958579 -0.41907984 0.00000150
-0.19355142 0.43716875 0.00000418
-0.04544610 -0.51232994 0.00000115
-0.40462172 -0.46596187 0.00000125
-0.44835040 0.26820138 0.00000157
-0.03638378 -0.03401331 0.00000287
-0.76457000 -0.48198360 -0.00000080
-0.06341495 0.56265324 0.00000238
-0.53091270 0.10288214 0.00000080
-0.24564859 -0.36949626 0.00000161
-0.31631255 -0.77988470 0.00000008
-0.06056609 -0.20246063 0.00000224
-0.55428678 -0.47169152 0.00000094
-0.20289819 0.48514393 0.00000405
-0.00605598 -0.26055241 0.00000202
-0.02685234 -0.46023798 0.00000131
-0.56494439 -0.07907585 0.00000056
-0.07883761 0.03724050 -0.00000902
-0.16166361 -0.18154348 0.00000232
-0.44723871 -0.61626923 0.00000069
-0.71589947 -0.35067743 -0.00000087
-0.45733356 -0.33515507 0.00000174
-0.15606236 0.23698895 -0.00000243
-0.00723569 -0.03384609 0.00000288
-0.35057804 0.26135525 0.00000262
-0.67387193 -0.36517203 -0.00000041
-0.33855632 0.22843675 0.00000277
-0.75474489 -0.06032522 -0.00000148
-0.02197516 0.57220674 0.00000147
-0.12279203 0.61195761 0.00000482
-0.12986214 0.42679402 0.00000113
-0.30871862 -0.51016754 0.00000109
-0.00609519 -0.54901975 0.00000094
-0.00046301 -0.61820400 0.00000068
-0.21412341 0.13286975 -0.00000319
-0.04501867 -0.24890178 0.00000213
-0.70225221 -0.48652133 -0.00000063
-0.42349926 -0.04818475 0.00000205
-0.08780534 -0.11467809 0.00000257
-0.06645268 0.05993092 -0.00000885
-0.14172961 0.31018069 -0.00000117
-0.02837930 -0.39337057 0.00000152
-0.13435788 -0.24638072 0.00000208
-0.04023665 0.00879843 -0.00001071
-0.02717136 0.67111260 0.00000384
-0.73333454 -0.76920593 -0.00000008
-0.60224158 -0.00044557 0.00000011
-0.72238648 -0.64467323 -0.00000039
-0.05240032 -0.08973994 0.00000274
-0.79710513 -0.50232542 -0.00000074
-0.35725656 -0.36428815 0.00000163
-0.48493570 -0.36006212 0.00000160
-0.37647074 0.29852137 0.00000232
-0.79675561 -0.24059483 -0.00000140
-0.10651274 0.06288067 -0.00000769
-0.59265161 -0.03526714 0.00000024
-0.67628151 -0.59558028 -0.00000028
-0.55007607 -0.76332057 0.00000014
-0.43129975 0.00176016 0.00000193
-0.28022572 -0.77060193 0.00000011
-0.72387660 -0.66624248 -0.00000033
-0.16186135 -0.20060968 0.00000225
-0.03864095 0.36926639 -0.00000264
-0.18766363 -0.36637485 0.00000163
-0.39749655 -0.02726045 0.00000231
-0.16723420 -0.14808574 0.00000244
-0.79350817 -0.55594450 -0.00000061
-0.50833213 -0.34226236 0.00000134
-0.63433731 -0.33933863 -0.00000001
-0.07211435 -0.27684122 0.00000196
-0.53658813 -0.03515722 0.00000083
-0.75389189 -0.21855192 -0.00000136
-0.40658510 -0.68165904 0.00000044
-0.28093660 -0.74706417 0.00000020
-0.52516252 -0.36079812 0.00000117
-0.05431087 -0.70693266 0.00000043
-0.35496655 -0.36988622 0.00000161
-0.17673895 0.46876541 0.00000434
-0.47114474 -0.40203848 0.00000149
-0.39254835 0.40588585 0.00000208
-0.18073232 -0.68497813 0.00000043
-0.05146708 -0.40679148 0.00000155
-0.07966770 -0.28098980 0.00000195
-0.57589203 0.16532756 0.00000028
-0.03002782 0.65960723 0.00000366
-0.00495120 -0.74432397 0.00000021
-0.16638093 -0.14824224 0.00000244
-0.42235291 0.05856537 0.00000199
-0.08695630 -0.20013113 0.00000225
-0.56166822 -0.14288683 0.00000064
-0.00008541 -0.24985094 0.00000206
-0.11993422 0.11022393 -0.00000626
-0.16659734 0.23108022 -0.00000228
-0.45719272 -0.03949533 0.00000168
-0.02028298 -0.58323699 0.00000081
-0.53480864 0.21953230 0.00000068
-0.52700168 -0.46519676 0.00000122
-0.22729291 -0.57222670 0.00000085
-0.44269472 -0.04844926 0.00000184
-0.50284612 -0.26176235 0.00000135
-0.72041225 -0.12598374 -0.00000107
-0.10055547 -0.10669472 0.00000260
-0.64789313 -0.29899371 -0.00000018
-0.15245330 0.29194602 -0.00000129
-0.25442472 0.36443669 0.00000358
-0.55910373 -0.24091411 0.00000073
-0.78749555 -0.75894219 -0.00000010
-0.20752805 -0.67047834 0.00000049
-0.12436349 0.49448341 0.00000250
-0.22947799 0.54445654 0.00000372
-0.01007540 0.60974056 0.00000199
-0.41871688 -0.05647620 0.00000211
-0.55835074 0.19051401 0.00000045
-0.43179336 -0.79543680 0.00000002
-0.68970901 -0.31124386 -0.00000061
-0.08563697 0.04651371 -0.00000863
-0.67386407 0.10260093 -0.00000072
-0.34918189 0.10899274 0.00000274
-0.50868911 0.28819466 0.00000094
-0.03843745 -0.49291965 0.00000121
-0.30775845 -0.04265143 0.00000284
-0.07340289 -0.74419087 0.00000021
-0.61649626 -0.51491427 0.00000030
-0.77077973 -0.64098948 -0.00000040
-0.51129729 -0.32512367 0.00000130
-0.28400028 0.19759227 0.00000337
-0.66677999 -0.32279935 -0.00000036
-0.21988676 0.08010300 -0.00000423
-0.03783575 -0.61278266 0.00000070
-0.61665040 -0.05273612 -0.00000001
-0.04938500 0.62701917 0.00000345
-0.64576763 -0.79639566 0.00000001
-0.23761711 -0.02734661 0.00000290
-0.01287837 -0.57377118 0.00000087
-0.57607627 0.17491965 0.00000027
-0.49972564 -0.30623049 0.00000141
-0.65282506 -0.63660818 -0.00000000
-0.02258021 -0.00907211 0.00000300
-0.20395896 0.29063126 0.00000008
-0.17526887 0.46753606 0.00000435
-0.21017121 -0.66421157 0.00000051
-0.78478503 -0.54555738 -0.00000064
-0.20448805 0.45481643 0.00000405
-0.66477680 -0.61724013 -0.00000014
-0.45388466 -0.34660167 0.00000170
-0.29591605 -0.14826681 0.00000244
-0.34710902 -0.53181428 0.00000101
-0.39218768 0.32461098 0.00000213
-0.50780201 0.24184945 0.00000096
-0.62807083 -0.68143827 0.00000029
-0.30370021 -0.47326282 0.00000123
-0.10909807 0.48455933 0.00000187
-0.64720297 -0.11290835 -0.00000029
-0.37433037 -0.53652149 0.00000099
-0.39640361 -0.00049362 0.00000231
-0.16644259 0.25562820 -0.00000173
-0.11149983 -0.00744894 0.00000297
-0.00634814 -0.46839175 0.00000124
-0.41676810 -0.46256909 0.00000127
-0.10179349 0.68022710 0.00000499
-0.30614126 0.23196174 0.00000311
-0.72992080 -0.07032075 -0.00000121
-0.25791514 -0.60840601 0.00000072
-0.12961297 -0.09455370 0.00000265
-0.21619195 -0.09097815 0.00000266
-0.37048903 0.32482925 0.00000237
-0.24647078 -0.37744096 0.00000158
-0.62663585 -0.05669195 -0.00000011
-0.27728617 -0.29526290 0.00000189
-0.46280995 0.13573056 0.00000151
-0.78741777 -0.11147061 -0.00000172
-0.50957102 -0.01521178 0.00000111
-0.75278646 -0.36913368 -0.00000108
-0.58877575 0.12336722 0.00000017
-0.38569784 -0.45245406 0.00000130
-0.24954483 0.37921992 0.00000362
-0.65158063 -0.77337998 0.00000010
-0.33278680 -0.52013475 0.00000105
-0.38905978 0.29783323 0.00000219
-0.15602499 -0.56588811 0.00000088
-0.51659310 -0.45456934 0.00000130
-0.58624703 -0.46382099 0.00000059
-0.02948515 0.64889371 0.00000340
-0.00356233 0.29726350 -0.00000521
-0.49356687 -0.24285071 0.00000143
-0.05276797 -0.59844041 0.00000084
-0.01679327 -0.06367646 0.00000279
-0.68787396 -0.00820303 -0.00000080
-0.05929824 0.02795853 -0.00000976
-0.28608394 0.31858006 0.00000327
-0.40304038 0.17317660 0.00000212
-0.27251723 -0.58636433 0.00000080
-0.14954498 0.14256161 -0.00000473
-0.12260393 0.54487860 0.00000486
-0.06208106 0.39413801 -0.00000145
-0.41993177 -0.40227556 0.00000149
-0.30136713 0.15688084 0.00000322
-0.35433355 -0.26582935 0.00000200
-0.67815846 -0.41802675 -0.00000042
-0.05512383 0.08752473 -0.00000853
-0.04867397 0.67811203 0.00000458
-0.22953707 -0.35682341 0.00000166
-0.17942668 -0.26766196 0.00000200
-0.35091576 0.30350795 0.00000259
-0.18209524 -0.17225263 0.00000235
-0.28287476 -0.21247905 0.00000220
-0.18210115 -0.77540618 0.00000009
-0.20383209 -0.14652149 0.00000245
-0.78575480 -0.22268176 -0.00000144
-0.62550652 -0.69207615 0.00000033
-0.69892293 0.09054876 -0.00000098
-0.15109728 0.12882267 -0.00000500
-0.17443137 -0.17469756 0.00000234
-0.67367357 0.08236119 -0.00000071
-0.13859788 -0.07018089 0.00000274
-0.16995673 0.33711639 0.00000020
-0.37085590 -0.71719104 0.00000031
-0.29246932 -0.79335356 0.00000002
-0.18488826 -0.12392880 0.00000254
-0.07638598 -0.26931301 0.00000199
-0.27224201 0.40807754 0.00000336
-0.67533553 -0.32901096 -0.00000045
-0.47243699 -0.31838715 0.00000171
-0.45547825 -0.01905659 0.00000169
-0.10414177 0.60454649 0.00000502
-0.18234281 0.24791351 -0.00000147
-0.56930667 -0.35827315 0.00000070
-0.05786559 0.25086707 -0.00000478
-0.36228001 -0.71917486 0.00000030
-0.72926372 -0.51508397 -0.00000071
-0.22812583 -0.51899576 0.00000105
-0.38793206 0.05128778 0.00000236
-0.28729045 -0.54712844 0.00000095
-0.29886279 -0.05788185 0.00000278
-0.56997627 -0.45804057 0.00000076
-0.01850490 -0.23097876 0.00000213
-0.35033071 -0.27807602 0.00000196
-0.57634234 -0.70118308 0.00000037
-0.72833627 -0.78493160 -0.00000004
-0.51526129 -0.21946782 0.00000118
-0.01010939 -0.21805505 0.00000220
-0.77637696 -0.22974306 -0.00000143
-0.15992472 0.03604686 -0.00000685
-0.66357124 -0.72794473 -0.00000006
-0.61957824 0.09279549 -0.00000014
-0.00348245 -0.34618473 0.00000170
-0.57214797 -0.10281846 0.00000050
-0.50171506 -0.63656390 0.00000061
-0.43383864 0.35897389 0.00000173
-0.59794581 -0.13672616 0.00000025
-0.34037873 0.08574688 0.00000285
-0.03000664 -0.66458285 0.00000051
-0.58446658 -0.67182833 0.00000048
-0.32923925 0.06655109 0.00000298
-0.23139238 0.54660934 0.00000370
-0.24743529 0.32364506 0.00000368
-0.15467118 0.54025459 0.00000452
-0.04372132 -0.02699242 0.00000296
-0.06356626 0.33919138 -0.00000264
-0.01642394 -0.65768701 0.00000056
-0.32005280 0.11169823 0.00000305
-0.32040429 -0.55415821 0.00000092
-0.54335046 -0.39535782 0.00000100
-0.41431335 0.15491290 0.00000201
-0.13428912 0.44952178 0.00000176
-0.67582917 -0.41250414 -0.00000040
-0.26370347 -0.61529905 0.00000069
-0.23127611 -0.77568197 0.00000009
-0.58856875 -0.41600615 0.00000053
-0.37142265 -0.69259381 0.00000040
-0.05528915 -0.62409616 0.00000066
-0.00497626 -0.26576594 0.00000201
-0.53959370 0.13750909 0.00000069
-0.54589885 0.17831424 0.00000059
-0.62384266 0.04458910 -0.00000015
-0.46221465 0.20456652 0.00000147
-0.62554687 -0.15582407 -0.00000003
-0.71791106 -0.09841132 -0.00000106
-0.43552798 -0.51389694 0.00000107
-0.20064841 0.57824272 0.00000401
-0.08417817 -0.69799489 0.00000038
-0.52641851 0.01280506 0.00000091
-0.11126536 0.56608456 0.00000497
-0.43782148 -0.12717289 0.00000195
-0.01645319 -0.65087044 0.00000056
-0.55941480 -0.14396317 0.00000066
-0.66074789 -0.59584469 -0.00000012
-0.16939224 -0.38235250 0.00000157
-0.58731270 -0.00399482 0.00000027
-0.02772262 -0.20014577 0.00000229
-0.13821641 -0.44368297 0.00000134
-0.45075536 -0.79207599 0.00000003
-0.39444548 0.25116295 0.00000216
-0.01130878 0.38863859 -0.00000295
-0.21054292 -0.53324753 0.00000100
-0.18110648 -0.78533357 0.00000005
-0.38799477 -0.23916775 0.00000210
-0.02930113 0.39448163 -0.00000233
-0.13370097 -0.30944538 0.00000184
-0.57203925 -0.46789303 0.00000075
-0.05037317 -0.47045878 0.00000124
-0.17529570 -0.31134880 0.00000183
-0.06608163 -0.46463698 0.00000126
-0.66964936 -0.56180537 -0.00000023
-0.13727516 -0.34883127 0.00000169
-0.29578161 -0.35971430 0.00000165
-0.00475479 0.46004885 -0.00000152
-0.77903998 -0.33213013 -0.00000117
-0.36077517 0.17075793 0.00000257
-0.36071551 0.25333777 0.00000252
-0.15925299 -0.20605625 0.00000223
-0.11161056 -0.00807043 0.00000297
-0.01810122 -0.64690834 0.00000060
-0.64456707 -0.54788435 0.00000003
-0.68811703 -0.00755538 -0.00000080
-0.15106037 0.51701033 0.00000458
-0.28672245 0.30944845 0.00000327
-0.54513323 -0.08101641 0.00000077
-0.67330539 -0.54044199 -0.00000029
-0.24786589 0.44377622 0.00000359
-0.16592249 0.36724284 0.00000077
-0.04593824 -0.43995246 0.00000142
-0.62485230 -0.17755999 -0.00000001
-0.26185161 0.48802572 0.00000342
-0.50966150 0.09187868 0.00000104
-0.00317093 0.36799705 -0.00000363
-0.78711957 -0.38087460 -0.00000105
-0.58943999 0.05538304 0.00000021
-0.06853514 -0.12628742 0.00000253
-0.56095511 0.11706434 0.00000047
-0.76093048 -0.20403308 -0.00000145
-0.49828622 0.25723380 0.00000105
-0.15915313 -0.28098810 0.00000195
-0.50113100 -0.72803438 0.00000027
-0.30295590 0.44834346 0.00000300
-0.37697992 -0.57858634 0.00000083
-0.62920398 -0.06828170 -0.00000013
-0.48134324 -0.15260065 0.00000150
-0.60014737 -0.47235671 0.00000045
-0.02786244 -0.79280424 0.00000003
-0.20632453 0.46213686 0.00000402
-0.33586419 -0.41884869 0.00000143
-0.49122161 0.21041679 0.00000115
-0.54021019 -0.52878791 0.00000102
-0.02163475 -0.13731629 0.00000252
-0.41427371 0.34847486 0.00000188
-0.29633924 0.50325137 0.00000304
-0.04308690 0.05981409 -0.00000948
-0.16407713 -0.37610155 0.00000159
-0.14746791 -0.08732731 0.00000267
-0.07662767 0.29086310 -0.00000337
-0.50260341 0.10891261 0.00000110
-0.37947220 -0.08213943 0.00000254
-0.65113389 -0.15250205 -0.00000031
-0.12983264 -0.32209617 0.00000179
-0.05183848 -0.50755513 0.00000110
-0.21555056 -0.76398444 0.00000014
-0.38780001 -0.45868608 0.00000128
-0.06132704 0.62882882 0.00000381
-0.00551474 -0.26242816 0.00000202
-0.01150541 -0.68314779 0.00000044
-0.26468411 -0.50956619 0.00000109
-0.55501544 0.22923867 0.00000046
-0.34840572 0.16329420 0.00000271
-0.24135797 0.06756015 -0.00000392
-0.02686869 0.30500764 -0.00000441
-0.54784834 -0.78227693 0.00000007
-0.41145644 -0.29803348 0.00000188
-0.03229119 -0.41859597 0.00000148
-0.15054205 -0.20501062 0.00000223
-0.27897799 -0.53223360 0.00000100
-0.00990776 -0.11332970 0.00000258
-0.01785426 -0.76609349 0.00000013
-0.51059896 0.15455061 0.00000098
-0.13924091 -0.01413481 0.00000295
-0.65690500 0.12898739 -0.00000056
-0.68673503 -0.25055692 -0.00000062
-0.76503938 -0.45537093 -0.00000086
-0.21760607 0.11792095 -0.00000344
-0.59168226 0.04192669 0.00000019
-0.41422808 -0.31820372 0.00000181
-0.14677407 -0.67551643 0.00000047
-0.37702781 -0.37473002 0.00000159
-0.16051446 -0.22558609 0.00000215
-0.04585131 0.31865704 -0.00000358
-0.41572040 -0.07843417 0.00000215
-0.41852888 -0.05767386 0.00000211
-0.07390279 0.16056584 -0.00000638
-0.11327421 0.24714032 -0.00000336
-0.00832622 -0.46133673 0.00000127
-0.11653367 0.00999021 -0.00000861
-0.03482667 -0.30176556 0.00000187
-0.35984096 -0.27285713 0.00000198
-0.66746873 -0.77448344 -0.00000006
-0.25827256 0.07283271 -0.00000335
-0.02336719 -0.75092554 0.00000018
-0.25624803 -0.50028175 0.00000112
-0.59319210 -0.06601485 0.00000025
-0.48374262 0.22939882 0.00000122
-0.03305153 0.48219883 -0.00000025
-0.34339368 -0.31895873 0.00000180
-0.10974729 0.36182117 -0.00000088
-0.53787756 -0.40321612 0.00000107
-0.48301050 -0.67007464 0.00000049
-0.24051632 -0.29936826 0.00000188
-0.45432696 0.23007415 0.00000153
-0.59564757 -0.11550235 0.00000026
-0.29202372 -0.02948027 0.00000289
-0.36070040 -0.73535520 0.00000024
-0.51186669 -0.67870826 0.00000045
-0.47694823 0.11539006 0.00000137
-0.10516657 -0.39541590 0.00000152
-0.32928139 0.20590134 0.00000288
-0.25081486 -0.61650699 0.00000069
-0.31172442 -0.35523376 0.00000167
-0.15175657 -0.02336163 0.00000291
-0.06649797 0.53800344 0.00000191
-0.65883255 -0.39641848 -0.00000023
-0.04282835 -0.10135197 0.00000268
-0.01340295 0.70043081 0.00000412
-0.37303132 0.27369034 0.00000237
-0.15294918 0.63697749 0.00000448
-0.35427910 0.40377843 0.00000249
-0.06001659 0.08031335 -0.00000856
-0.64344120 -0.71784323 0.00000015
-0.02038957 -0.74740702 0.00000023
-0.06762065 -0.10256958 0.00000262
-0.26580426 0.00901382 -0.00000458
-0.62177759 -0.76487052 0.00000013
-0.75790024 -0.64305085 -0.00000039
-0.14248753 0.06226530 -0.00000673
-0.17637101 0.13734363 -0.00000412
-0.74049544 -0.17284976 -0.00000125
-0.49820766 -0.17017794 0.00000133
-0.09349770 0.03804777 -0.00000860
-0.47677916 0.01778971 0.00000144
-0.70618904 -0.51021582 -0.00000066
-0.40369034 -0.34207094 0.00000172
-0.16146657 -0.06455779 0.00000276
-0.12505686 0.26056799 -0.00000274
-0.04275731 -0.50754958 0.00000116
-0.56693268 0.14285181 0.00000039
-0.51215667 -0.66879553 0.00000049
-0.54645741 -0.25833589 0.00000088
-0.63895613 -0.65743381 0.00000016
-0.50905389 -0.71623820 0.00000031
-0.73902756 -0.02102680 -0.00000134
-0.10522163 0.53264177 0.00000284
-0.08167706 0.43858340 0.00000009
-0.39020470 -0.78865367 0.00000004
-0.31981105 0.23047011 0.00000297
-0.50166333 -0.19578688 0.00000131
-0.21123175 -0.11179035 0.00000258
-0.44507524 0.19230752 0.00000166
-0.10260416 -0.40934145 0.00000146
-0.75469851 -0.71795022 -0.00000021
-0.03490583 -0.68502134 0.00000043
-0.39788830 -0.13081922 0.00000238
-0.54716325 -0.72244608 0.00000029
-0.40436581 -0.55547881 0.00000092
-0.13554740 -0.57966387 0.00000083
-0.31220284 0.24292342 0.00000304
-0.02941104 0.25915876 -0.00000537
-0.43577766 0.05047323 0.00000185
-0.55127662 0.15043588 0.00000055
-0.71129239 -0.06096056 -0.00000101
-0.73086816 -0.02242406 -0.00000125
-0.63619483 0.14794517 -0.00000035
-0.23054612 -0.04776332 0.00000282
-0.35649422 0.01531956 0.00000272
-0.18313032 -0.68296379 0.00000044
-0.65843278 -0.27384752 -0.00000031
-0.40242258 0.14948997 0.00000214
-0.51371211 -0.41180599 0.00000133
-0.45112684 0.31731933 0.00000151
-0.22614069 -0.72279245 0.00000029
-0.40038559 -0.42413381 0.00000141
-0.13571034 0.20101467 -0.00000379
-0.28333217 -0.20355894 0.00000224
-0.70370430 -0.08855552 -0.00000091
-0.18384783 -0.38879949 0.00000154
-0.52083665 0.13450275 0.00000089
-0.44275627 -0.05902777 0.00000185
-0.74081546 -0.41003066 -0.00000097
-0.21223749 0.11909988 -0.00000356
-0.50560558 -0.71437454 0.00000032
-0.39203626 -0.26895943 0.00000199
-0.06779908 0.12077363 -0.00000744
-0.12711538 -0.53873789 0.00000098
-0.04737050 -0.62347233 0.00000073
-0.49022484 -0.62849778 0.00000064
-0.17954351 -0.16765451 0.00000237
-0.00361316 -0.55322564 0.00000093
-0.23946136 -0.25703815 0.00000204
-0.55217350 -0.72258735 0.00000029
-0.25918090 -0.08181940 0.00000269
-0.73159862 -0.35590485 -0.00000103
-0.68214655 -0.08342760 -0.00000069
-0.56575942 -0.62806767 0.00000064
-0.42424715 0.18327352 0.00000189
-0.25584474 0.11913175 -0.00000237
-0.50777942 -0.54627931 0.00000095
-0.60265982 -0.52070475 0.00000045
-0.54008311 -0.12689079 0.00000086
-0.17666250 -0.02091308 0.00000292
-0.31197017 0.45857531 0.00000290
-0.56003565 -0.23846070 0.00000072
-0.74376899 -0.62532938 -0.00000044
-0.03971743 0.36865973 -0.00000263
-0.12231017 -0.51570815 0.00000107
-0.66237921 0.13358654 -0.00000059
-0.09351614 0.22372253 -0.00000443
-0.32525098 0.07241325 0.00000302
-0.61930937 -0.66878903 0.00000038
-0.10040489 -0.18166466 0.00000232
-0.20909092 -0.50745797 0.00000110
-0.11396085 0.19265245 -0.00000457
-0.44162917 -0.04392187 0.00000185
-0.25415289 -0.77232611 0.00000010
-0.28973508 -0.33472779 0.00000174
-0.13855062 -0.20888039 0.00000222
-0.72971010 -0.11023096 -0.00000118
-0.34491521 0.22417022 0.00000271
-0.73720819 -0.35171655 -0.00000109
-0.01620898 0.36614844 -0.00000332
-0.07267901 -0.43425664 0.00000137
-0.67253393 -0.46499524 -0.00000033
-0.20775224 -0.29618412 0.00000189
-0.20601200 -0.13377415 0.00000250
-0.48119670 -0.65822744 0.00000053
-0.29633424 0.27689791 0.00000319
-0.05797999 0.62086481 0.00000354
-0.05745104 -0.18054986 0.00000241
-0.35751441 -0.44950777 0.00000131
-0.59012204 -0.33976427 0.00000047
-0.06346013 -0.50799924 0.00000110
-0.11208873 -0.24355932 0.00000209
-0.01127243 -0.05044359 0.00000283
-0.06989439 0.56674969 0.00000265
-0.26038644 0.01217262 -0.00000465
-0.24339658 -0.47989833 0.00000120
-0.12813768 0.54884315 0.00000480
-0.64138430 -0.30921602 -0.00000010
-0.02914150 0.03711297 -0.00001037
-0.28331652 0.23942970 0.00000335
-0.02074744 -0.27288184 0.00000198
-0.76094198 -0.68804884 -0.00000028
-0.03939614 -0.34833518 0.00000169
-0.25089931 0.44543222 0.00000356
-0.53499609 -0.72083884 0.00000030
-0.10634114 0.15547377 -0.00000561
-0.26763305 -0.50102985 0.00000112
-0.70512104 -0.69514996 -0.00000026
-0.78313428 -0.09660697 -0.00000176
-0.51974028 -0.47173610 0.00000123
-0.45992133 -0.33159694 0.00000176
-0.39507088 -0.28426474 0.00000193
-0.57429355 0.21064472 0.00000027
-0.09722610 -0.15939134 0.00000240
-0.12517449 -0.65074575 0.00000056
-0.67428225 -0.11364634 -0.00000058
-0.18197042 -0.72196293 0.00000029
-0.00787572 0.50156492 -0.00000050
-0.11028631 -0.12266786 0.00000254
-0.52116448 -0.74085748 0.00000022
-0.30055675 0.35848653 0.00000309
-0.18495911 -0.76358902 0.00000014
-0.75727063 -0.70597923 -0.00000024
-0.02848562 0.08980851 -0.00000921
-0.41778064 -0.28860062 0.00000192
-0.00252202 -0.38073248 0.00000157
-0.00606882 -0.78733468 0.00000006
-0.74522352 -0.77974200 -0.00000005
-0.25008371 -0.51939410 0.00000105
-0.03200084 -0.02026653 0.00000292
-0.45547649 0.24576461 0.00000151
-0.55311114 -0.49797231 0.00000097
-0.55105335 -0.42707586 0.00000094
-0.15859091 0.59684289 0.00000444
-0.14884654 0.38805512 0.00000077
-0.10398840 -0.02421155 0.00000291
-0.68670726 0.06342858 -0.00000083
-0.60826176 -0.64582640 0.00000048
-0.31102711 0.05622501 0.00000318
-0.70719111 -0.33123663 -0.00000079
-0.26224047 -0.51056165 0.00000109
-0.42433238 0.32557988 0.00000179
-0.69513518 -0.57366502 -0.00000050
-0.01373048 0.01008065 -0.00001140
-0.29012167 -0.15687375 0.00000241
-0.24362986 -0.03958523 0.00000285
-0.68137121 -0.19487229 -0.00000060
-0.12001713 -0.32626003 0.00000178
-0.29509717 0.15237106 0.00000329
-0.22569583 0.46700537 0.00000381
-0.70048499 0.08484877 -0.00000100
-0.63281786 -0.56617492 0.00000016
-0.42174324 -0.53332078 0.00000100
-0.09417343 -0.14842030 0.00000244
-0.08868821 -0.68487799 0.00000043
-0.07900266 0.58265376 0.00000326
-0.21679004 -0.68661976 0.00000043
-0.57964349 -0.25331107 0.00000052
-0.29886138 0.21477434 0.00000320
-0.29563764 -0.22763410 0.00000215
-0.12990651 0.38388255 0.00000017
-0.15558603 0.43158463 0.00000459
-0.36451110 -0.13997073 0.00000248
-0.37886918 -0.42714596 0.00000140
-0.71410769 -0.39620984 -0.00000082
-0.25808790 0.50023693 0.00000345
-0.31317547 -0.78336543 0.00000006
-0.75513190 -0.64612406 -0.00000038
-0.76356959 -0.08674944 -0.00000155
-0.65268010 -0.01540123 -0.00000042
-0.40940192 -0.71407151 0.00000032
-0.34985358 -0.44565782 0.00000133
-0.67829162 0.05165453 -0.00000074
-0.22597691 -0.58439183 0.00000081
-0.32690120 -0.04793759 0.00000282
-0.50979006 -0.77216715 0.00000010
-0.07934178 -0.24132618 0.00000210
-0.09421275 -0.22961876 0.00000214
-0.66783774 -0.15345448 -0.00000049
-0.12550399 -0.16083220 0.00000240
-0.62665129 -0.04899509 -0.00000012
-0.19802737 0.22589925 -0.00000154
-0.02865215 -0.76578677 0.00000013
-0.31118086 -0.42354736 0.00000141
-0.66640240 -0.25249282 -0.00000041
-0.25175977 0.48902160 0.00000352
-0.30123627 -0.44860694 0.00000132
-0.21205501 -0.60898966 0.00000072
-0.56346542 -0.11415751 0.00000060
-0.44328457 -0.60345882 0.00000074
-0.51665533 -0.12837113 0.00000111
-0.34531516 -0.76815832 0.00000012
-0.26763421 0.06083872 -0.00000336
-0.38347679 -0.71402907 0.00000032
-0.55725026 -0.33255652 0.00000081
-0.41636434 0.08558163 0.00000204
-0.72477901 -0.17676406 -0.00000108
-0.61690605 -0.32030895 0.00000017
-0.43475592 0.31514567 0.00000169
-0.46769956 -0.35450548 0.00000167
-0.34005189 0.40587905 0.00000264
-0.76743108 -0.40498924 -0.00000099
-0.57483590 -0.17064530 0.00000052
-0.28185916 0.21787438 0.00000338
-0.20619848 0.21055102 -0.00000166
-0.64412671 -0.62067991 0.00000008
-0.46879575 -0.74721181 0.00000020
-0.53396958 -0.46179450 0.00000115
-0.05454932 0.52002078 0.00000118
-0.53019774 -0.28273535 0.00000107
-0.79098701 -0.55995512 -0.00000060
-0.58230990 0.12494350 0.00000024
-0.14894329 0.65086800 0.00000451
-0.22145425 -0.61736077 0.00000068
-0.09009228 -0.53197020 0.00000101
-0.15184817 -0.64925551 0.00000057
-0.57286525 -0.39984331 0.00000069
-0.55340666 -0.26971459 0.00000081
-0.65904844 -0.08944928 -0.00000044
-0.63718987 0.14513034 -0.00000036
-0.66524136 0.00577730 -0.00000057
-0.16673756 0.14828511 -0.00000413
-0.24056213 0.48349380 0.00000365
-0.75919569 -0.43922129 -0.00000090
-0.04255665 0.04360924 -0.00000986
-0.15815216 0.09438660 -0.00000558
-0.11465502 0.09853941 -0.00000667
-0.58254719 -0.02217319 0.00000033
-0.47427857 0.14292859 0.00000138
-0.25989640 -0.46945050 0.00000124
-0.14492653 -0.02751016 0.00000290
-0.59932929 -0.13483857 0.00000023
-0.62880850 0.13782710 -0.00000027
-0.48401371 0.26007834 0.00000120
-0.00381212 0.78946871 0.00000596
-0.62060368 0.09199493 -0.00000015
-0.39101177 -0.63980752 0.00000060
-0.23080736 -0.33193678 0.00000176
-0.05565339 0.43567285 -0.00000069
-0.26584664 -0.40306675 0.00000149
-0.09047189 -0.04032289 0.00000285
-0.54022992 -0.26249641 0.00000095
-0.73455787 -0.36333123 -0.00000106
-0.49684912 -0.33540419 0.00000146
-0.18312448 -0.52547336 0.00000103
-0.29993942 -0.07743326 0.00000271
-0.78583819 -0.72110099 -0.00000020
-0.53776908 -0.66183788 0.00000052
-0.60079587 0.03605584 0.00000010
-0.11797872 -0.11913403 0.00000255
-0.14701892 -0.68430805 0.00000043
-0.69514316 0.02789256 -0.00000090
-0.58573729 -0.30000594 0.00000049
-0.22483563 -0.05888938 0.00000278
-0.33416659 -0.42580616 0.00000140
-0.04955888 -0.78757012 0.00000005
-0.20921022 -0.34133154 0.00000172
-0.17953888 -0.03858150 0.00000286
-0.61893648 -0.33045396 0.00000015
-0.24100442 0.17862590 -0.00000144
-0.76960862 -0.39400974 -0.00000101
-0.62906325 -0.01931270 -0.00000016
-0.21685342 0.40879509 0.00000395
-0.47862160 -0.19187617 0.00000156
-0.08800559 0.55505496 0.00000288
-0.15483604 -0.34252816 0.00000172
-0.02580164 -0.70248073 0.00000040
-0.21991833 -0.65905273 0.00000053
-0.68400055 0.01397615 -0.00000077
-0.29729176 0.16792718 0.00000325
-0.44739160 0.02213357 0.00000175
-0.71553284 -0.11670595 -0.00000102
-0.27164042 0.43143272 0.00000335
-0.20390867 -0.13393098 0.00000250
-0.02688439 -0.30593276 0.00000189
-0.56627983 -0.00534213 0.00000050
-0.21807776 -0.31052944 0.00000184
-0.01171391 -0.35862824 0.00000167
-0.07230139 0.22399488 -0.00000500
-0.29068092 -0.39774007 0.00000151
-0.05454799 0.41316903 -0.00000122
-0.03797609 0.07801755 -0.00000921
-0.64168036 -0.35884044 -0.00000007
-0.64724261 -0.47572058 -0.00000005
-0.13716747 0.00840588 -0.00000809
-0.07203714 -0.06337608 0.00000276
-0.19869117 -0.59611237 0.00000076
-0.64439803 -0.35659426 -0.00000010
-0.08965031 0.55344385 0.00000289
-0.66997975 -0.20743977 -0.00000047
-0.37229186 0.19181640 0.00000243
-0.07363469 0.34683388 -0.00000220
-0.55083305 -0.71678632 0.00000031
-0.04479158 0.23606285 -0.00000547
-0.00423441 0.53782266 0.00000022
-0.04317951 -0.74726748 0.00000020
-0.00605767 -0.64554489 0.00000059
-0.20795806 -0.62254393 0.00000067
-0.32189551 0.01345219 -0.00000295
-0.39600933 -0.33820367 0.00000173
-0.03957366 -0.31029099 0.00000190
-0.53293735 -0.64537656 0.00000058
-0.11240717 0.48850486 0.00000204
-0.41277501 -0.28729761 0.00000192
-0.00653443 -0.78023881 0.00000008
-0.04727530 -0.58544588 0.00000080
-0.66700435 -0.36323062 -0.00000034
-0.07013093 -0.04261289 0.00000284
-0.00900407 -0.05582543 0.00000279
-0.69488770 -0.11121997 -0.00000080
-0.72690481 -0.65861958 -0.00000035
-0.09896675 0.21897979 -0.00000439
-0.31727260 0.37481830 0.00000290
-0.14206105 0.62824196 0.00000460
-0.57531416 -0.25159344 0.00000057
-0.28073186 -0.70471239 0.00000036
-0.70735109 -0.65877670 -0.00000035
-0.26818788 0.26190901 0.00000350
-0.17916273 0.33894426 0.00000049
-0.67610782 -0.62583017 -0.00000026
-0.61868465 -0.58679390 0.00000033
-0.65510815 0.10123532 -0.00000052
-0.48961103 -0.34230000 0.00000154
-0.29453635 0.37144122 0.00000314
-0.33998659 -0.30966023 0.00000184
-0.75146568 -0.15338807 -0.00000138
-0.25740311 0.03623744 -0.00000419
-0.13003144 -0.58219272 0.00000082
-0.21447103 0.32868630 0.00000403
-0.48428521 -0.14754249 0.00000147
-0.61313331 -0.27521685 0.00000018
-0.04171766 -0.65062273 0.00000062
-0.02283858 -0.11309575 0.00000261
-0.37436458 0.33770621 0.00000232
-0.06616647 -0.32590616 0.00000178
-0.67968452 -0.38446358 -0.00000046
-0.71831691 -0.10736061 -0.00000106
-0.34217623 0.32112533 0.00000267
-0.73174226 -0.56246215 -0.00000059
-0.26295444 0.40405634 0.00000346
-0.35398039 0.05145323 0.00000272
-0.08606459 0.63305062 0.00000519
-0.66555226 -0.66260272 -0.00000012
-0.51059371 -0.66075659 0.00000052
-0.20975351 0.44576067 0.00000400
-0.64499003 -0.33683535 -0.00000012
-0.70152980 -0.61857891 -0.00000045
-0.08945485 0.61307257 0.00000517
-0.43437162 -0.59654522 0.00000076
-0.04863018 -0.59118325 0.00000078
-0.29607016 -0.49759629 0.00000113
-0.47524944 0.28625879 0.00000127
-0.71935511 0.07158196 -0.00000119
-0.65287530 -0.22029804 -0.00000028
-0.15358804 0.42513931 0.00000174
-0.07857642 -0.46454874 0.00000126
-0.44371545 -0.25999337 0.00000198
-0.72112072 -0.20485947 -0.00000102
-0.53193665 0.10830390 0.00000079
-0.65946436 -0.38063532 -0.00000025
-0.40187773 0.00522526 0.00000224
-0.30446342 -0.03330210 0.00000288
-0.52606601 -0.38047886 0.00000118
-0.43787548 -0.66291976 0.00000051
-0.50898528 -0.49772513 0.00000113
-0.29435453 -0.51523858 0.00000107
-0.41790596 -0.14907739 0.00000218
-0.03264341 0.33680657 -0.00000354
-0.43741971 0.35513738 0.00000169
-0.16299124 -0.27878141 0.00000195
-0.17799661 -0.30698174 0.00000185
-0.42982918 0.07549864 0.00000190
-0.25031301 -0.16238065 0.00000239
-0.23697080 0.14887603 -0.00000221
-0.21856324 0.43805972 0.00000391
-0.28217557 -0.54521942 0.00000096
-0.03615651 -0.34360102 0.00000177
-0.02215751 0.69053441 0.00000414
-0.42374581 -0.36902654 0.00000162
-0.40792376 -0.46721289 0.00000125
-0.09161820 0.39911431 -0.00000053
-0.42861333 -0.33080643 0.00000176
-0.19244276 0.50821644 0.00000414
-0.27335364 -0.25424847 0.00000205
-0.31739241 -0.73928523 0.00000023
-0.63717675 -0.57831836 0.00000012
-0.31147134 -0.02779746 0.00000290
-0.29333678 -0.23548386 0.00000212
-0.16218850 -0.10352456 0.00000261
-0.00452990 -0.56366825 0.00000089
-0.48924935 -0.42176461 0.00000142
-0.41800055 -0.46214512 0.00000127
-0.54096073 -0.17366108 0.00000088
-0.02250950 -0.26792225 0.00000203
-0.28415361 -0.15729989 0.00000241
-0.30939308 0.21385561 0.00000309
-0.39912704 -0.18423444 0.00000231
-0.35770786 -0.56160367 0.00000089
-0.36087736 -0.16331317 0.00000239
-0.59512901 0.19677228 0.00000005
-0.24352892 0.02628637 -0.00000479
-0.11599518 0.63501847 0.00000487
-0.55506921 -0.52979350 0.00000097
-0.31270057 -0.61466092 0.00000070
-0.06175977 -0.70963699 0.00000034
-0.51131922 -0.29064962 0.00000127
-0.37788802 0.11113634 0.00000243
-0.02760984 -0.20532326 0.00000227
-0.34511027 -0.77510154 0.00000009
-0.00317876 -0.20605452 0.00000223
-0.17570871 0.62268227 0.00000426
-0.35930416 0.23580512 0.00000254
-0.15642031 -0.32734424 0.00000177
-0.58298051 0.17382830 0.00000020
-0.71137542 -0.50300127 -0.00000072
-0.50302547 -0.73065645 0.00000026
-0.55862784 -0.11664873 0.00000065
-0.48699105 -0.52247888 0.00000104
-0.62210160 -0.26985955 0.00000008
-0.25826263 0.33201176 0.00000356
-0.18689182 -0.63715893 0.00000061
-0.06030998 0.15391950 -0.00000690
-0.26804012 -0.10013782 0.00000262
-0.03246741 -0.65269685 0.00000060
-0.01823648 0.63135004 0.00000270
-0.06476102 0.21777190 -0.00000534
-0.31786156 -0.41575274 0.00000144
-0.07082293 -0.20739968 0.00000222
-0.25130999 -0.23547462 0.00000212
-0.29639289 -0.04913875 0.00000282
-0.26612669 0.16592595 0.00000359
-0.31314015 -0.21619172 0.00000219
-0.63597941 0.13626820 -0.00000034
-0.46264786 -0.01156626 0.00000161
-0.20835495 -0.67302155 0.00000048
-0.52107561 -0.64501184 0.00000058
-0.72007203 -0.24962750 -0.00000098
-0.20291311 -0.67033279 0.00000049
-0.05119597 -0.36200169 0.00000172
-0.23042226 0.28268075 0.00000389
-0.28171346 0.48572317 0.00000320
-0.04389200 0.27127928 -0.00000470
-0.73385340 -0.68755215 -0.00000028
-0.78320235 -0.79138720 -0.00000002
-0.37027422 -0.04892574 0.00000262
-0.23071034 -0.15737262 0.00000241
-0.14582536 -0.43972519 0.00000135
-0.39911029 -0.58869690 0.00000079
-0.13017412 -0.17352436 0.00000235
-0.79360861 -0.62219566 -0.00000044
-0.48409131 0.05526540 0.00000133
-0.04840068 -0.31667855 0.00000189
-0.36986354 -0.41905642 0.00000143
-0.30074063 0.44857433 0.00000303
-0.30729800 -0.65179384 0.00000056
-0.26987800 0.36672041 0.00000341
-0.52893072 -0.35520095 0.00000113
-0.52604079 -0.54360694 0.00000096
-0.32939184 0.37153593 0.00000277
-0.27182060 -0.77515239 0.00000009
-0.53617585 -0.74947232 0.00000019
-0.63053560 0.05608196 -0.00000023
-0.33168963 0.43148002 0.00000271
-0.44408295 -0.36882260 0.00000162
-0.69844073 -0.16915376 -0.00000080
-0.13371919 0.49611643 0.00000478
-0.42462295 -0.59700024 0.00000076
-0.53536844 0.21014456 0.00000068
-0.41846251 -0.74134052 0.00000022
-0.29167554 0.15213069 0.00000332
-0.63648087 -0.34373602 -0.00000003
-0.38143152 -0.32094908 0.00000180
-0.59597337 -0.69295871 0.00000040
-0.39716691 -0.34335819 0.00000171
-0.02818937 0.26530209 -0.00000527
-0.25250304 -0.07233965 0.00000273
-0.52035713 -0.77931780 0.00000008
-0.16429196 -0.57851243 0.00000083
-0.41406655 0.05311929 0.00000208
-0.25320032 -0.61738515 0.00000068
-0.61112028 -0.06653180 0.00000006
-0.34864399 -0.64569199 0.00000058
-0.01159928 -0.45935822 0.00000128
-0.40060085 -0.72198129 0.00000029
-0.05418782 -0.23238055 0.00000213
-0.07060075 0.08218807 -0.00000823
-0.48688942 -0.41181687 0.00000146
-0.30059430 -0.05038544 0.00000281
-0.13922684 -0.69780225 0.00000038
-0.74251211 -0.16662560 -0.00000128
-0.42855632 -0.69142538 0.00000041
-0.51587242 -0.45801684 0.00000128
-0.26536533 -0.52215862 0.00000104
-0.73641855 -0.40764102 -0.00000098
-0.47679245 0.25520778 0.00000128
-0.57639009 0.15327181 0.00000028
-0.49718952 -0.54056245 0.00000097
-0.15203726 0.18622153 -0.00000368
-0.11722566 -0.60390937 0.00000074
-0.01240245 -0.12194242 0.00000256
-0.53483731 -0.38929549 0.00000109
-0.21417820 0.16767935 -0.00000241
-0.69843918 -0.51776820 -0.00000057
-0.01713946 0.68305820 0.00000383
-0.68243259 -0.19871159 -0.00000061
-0.13120337 0.13571946 -0.00000538
-0.23707248 -0.25330204 0.00000205
-0.70382035 -0.21106277 -0.00000083
-0.15200929 0.56616205 0.00000453
-0.71347624 -0.09158664 -0.00000102
-0.04590205 0.33414134 -0.00000324
-0.02316755 -0.06842366 0.00000274
-0.70152521 -0.30570963 -0.00000074
-0.42431980 -0.77423435 0.00000010
-0.07457763 0.30930293 -0.00000302
-0.04975095 -0.65247166 0.00000063
-0.02809904 -0.38590449 0.00000160
-0.02899215 -0.54674268 0.00000095
-0.02008888 0.31911635 -0.00000427
-0.03550190 -0.45056909 0.00000136
-0.24375148 -0.39782614 0.00000151
-0.21496688 0.54512268 0.00000388
-0.17846639 0.52849144 0.00000428
-0.74579120 -0.06363759 -0.00000138
-0.15608101 -0.41018468 0.00000146
-0.24672981 0.10535683 -0.00000293
-0.72672325 -0.61156970 -0.00000047
-0.02174976 -0.11023364 0.00000259
-0.23294328 0.02899699 -0.00000502
-0.67077374 -0.25968421 -0.00000045
-0.72005558 -0.26253244 -0.00000097
-0.79164743 -0.57423741 -0.00000056
-0.10949052 0.57532060 0.00000498
-0.23985592 -0.56953859 0.00000086
-0.52409232 -0.31502742 0.00000115
-0.09671441 -0.01480225 0.00000294
-0.59844750 -0.42591405 0.00000044
-0.46982270 -0.46147162 0.00000127
-0.02650317 0.64518130 0.00000324
-0.39546496 -0.41777572 0.00000143
-0.41098672 0.12631378 0.00000207
-0.19838253 0.17371446 -0.00000270
-0.10079556 -0.35406187 0.00000167
-0.18242235 -0.03840629 0.00000286
-0.61364043 -0.68888420 0.00000042
-0.75339627 -0.30875084 -0.00000123
-0.18877444 -0.55206335 0.00000093
-0.14214064 0.32705316 -0.00000078
-0.57547504 -0.67746264 0.00000046
-0.71237403 -0.24561304 -0.00000090
-0.21532451 0.39395899 0.00000397
-0.48049995 -0.04039014 0.00000144
-0.65508640 0.11821962 -0.00000053
-0.65263516 -0.36786711 -0.00000018
-0.72065902 -0.31412193 -0.00000094
-0.13087432 0.25223008 -0.00000277
-0.23905423 0.39064339 0.00000372
-0.32982725 -0.20789663 0.00000222
-0.31434312 -0.22580704 0.00000215
-0.10891418 0.63030523 0.00000495
-0.74104065 -0.35555419 -0.00000111
-0.14085551 0.59829879 0.00000463
-0.18623254 0.41506386 0.00000427
-0.24484348 -0.08725383 0.00000267
-0.35777438 0.20921789 0.00000258
-0.04437887 0.64750862 0.00000377
-0.52897203 -0.77092296 0.00000011
-0.23973601 -0.18575907 0.00000230
-0.67953342 -0.05550587 -0.00000068
-0.75350755 -0.36347321 -0.00000109
-0.02625723 -0.71170980 0.00000037
-0.57888550 0.11273844 0.00000028
-0.41168645 -0.77548456 0.00000009
-0.17456679 0.58527219 0.00000428
-0.49954167 -0.55908352 0.00000090
-0.17338265 -0.16814242 0.00000237
-0.67176998 -0.09638730 -0.00000057
-0.05694986 -0.11309251 0.00000258
-0.60531813 -0.41888908 0.00000036
-0.61274213 -0.37327969 0.00000025
-0.29922986 -0.38710168 0.00000155
-0.37070540 -0.79208094 0.00000003
-0.12577415 -0.11947415 0.00000255
-0.32221210 -0.65440065 0.00000055
-0.06136951 0.70928317 0.00000541
-0.73059976 -0.53593683 -0.00000066
-0.61491555 -0.79219663 0.00000003
-0.34706506 -0.10291739 0.00000261
-0.55833048 -0.52763641 0.00000093
-0.21899249 -0.32040486 0.00000180
-0.52345639 -0.32012871 0.00000116
-0.38230774 0.08265668 0.00000240
-0.02949816 -0.48916435 0.00000121
-0.05652454 0.20990495 -0.00000574
-0.01343144 -0.63426185 0.00000062
-0.17361470 0.21751256 -0.00000239
-0.18783803 0.03848052 -0.00000603
-0.05838868 0.47951749 0.00000038
-0.15687865 -0.25754875 0.00000203
-0.50825822 0.29050958 0.00000093
