ply
format ascii 1.0
element vertex 1384
property float x
property float y
property float z
end_header
0.21033785 -0.47129726 0.00000000
-0.44494948 0.16296060 -0.00000039
0.04671016 -0.38523960 0.00000000
-0.72553700 -0.32522115 -0.00000055
0.73053366 -0.01407697 -0.00000168
-0.57821983 -0.41708609 -0.00000016
-0.64790779 -0.34678560 -0.00000037
-0.30761343 0.25327644 -0.00000017
-0.04705600 0.72758538 -0.00000004
0.16183060 0.03489012 0.00000000
0.69975263 -0.13165024 -0.00000134
0.72154891 0.05710179 -0.00000177
0.48328799 -0.19073711 -0.00000031
-0.72907656 -0.30315313 -0.00000058
0.21592514 -0.37996015 0.00000000
-0.40196490 -0.31014016 0.00000000
0.17279954 0.05253174 0.00000000
-0.06324342 0.01796290 0.00000000
0.14559163 0.29253352 0.00000000
0.24027333 -0.64608973 0.00000000
-0.06980883 0.41544148 0.00000000
0.15347587 0.18650609 0.00000000
-0.16961429 -0.20090550 0.00000000
0.58959395 -0.02840031 -0.00000105
0.16530553 0.26343757 0.00000000
0.08579708 0.32042950 0.00000000
-0.36826205 -0.55298620 0.00000000
-0.43600214 -0.38525021 0.00000000
-0.07514678 -0.43773913 0.00000000
0.58636141 -0.28974533 -0.00000058
0.28008455 -0.58668911 0.00000000
0.31328896 0.46373990 -0.00000074
-0.37542635 -0.70725167 0.00000000
-0.13158102 -0.47933203 0.00000000
0.72007465 -0.68198812 -0.00000030
-0.43754014 0.29806292 -0.00000049
0.49187896 0.29770121 -0.00000121
0.67565382 -0.71851301 -0.00000020
0.09693750 0.70074463 -0.00000024
0.52795410 0.18079883 -0.00000116
-0.27675113 -0.51051235 0.00000000
-0.43280041 0.03717863 -0.00000025
0.08908080 -0.39232391 0.00000000
-0.44957581 -0.03468132 -0.00000022
-0.49716994 -0.21724316 -0.00000016
0.03275954 -0.07158605 0.00000000
-0.37056708 -0.78835273 0.00000000
0.63623273 -0.19392225 -0.00000096
-0.48353302 -0.62695462 0.00000000
-0.01491939 -0.63704520 0.00000000
-0.01542979 0.30723381 0.00000000
0.09619748 0.25181654 0.00000000
-0.70223540 -0.71952397 -0.00000010
-0.28713590 0.11934059 -0.00000001
0.76316309 -0.08205355 -0.00000170
0.16979432 -0.41088960 0.00000000
-0.50980449 -0.44262409 0.00000000
0.35513395 0.06242138 -0.00000021
-0.66174436 -0.56696564 -0.00000020
-0.58359462 -0.05351051 -0.00000049
-0.16967817 0.04608535 0.00000000
0.48596442 0.27226862 -0.00000114
0.29797870 0.26482001 -0.00000033
-0.42001006 -0.35559559 0.00000000
0.20420106 0.55132765 -0.00000043
0.40251055 -0.66501170 0.00000000
-0.28528315 -0.55816078 0.00000000
-0.52715254 0.25516662 -0.00000064
0.51795101 -0.58441848 0.00000000
0.40611178 -0.03522000 -0.00000026
0.40562612 -0.14277744 -0.00000006
0.47901642 -0.11170258 -0.00000043
0.11142388 -0.52343464 0.00000000
-0.66351330 -0.60823697 -0.00000017
-0.22580886 0.00492520 0.00000000
0.41255981 -0.63504958 0.00000000
0.33926332 0.38834935 -0.00000072
0.10178280 0.02977412 0.00000000
-0.61631358 -0.00384204 -0.00000060
-0.06345019 0.25936610 0.00000000
0.10632675 0.02569798 0.00000000
-0.06412594 -0.49023396 0.00000000
-0.07054692 -0.25955328 0.00000000
-0.09561411 0.21128657 0.00000000
0.29000047 -0.23609628 0.00000000
0.04238107 -0.03405696 0.00000000
-0.51786101 -0.29467666 -0.00000014
0.31356409 -0.04861041 0.00000000
0.17212442 -0.35254464 0.00000000
0.50197494 -0.32579955 -0.00000015
-0.36651883 0.28624392 -0.00000033
-0.28296745 0.14300732 -0.00000002
0.45016018 -0.11901289 -0.00000030
0.06400310 -0.00848484 0.00000000
-0.05463142 0.39154470 0.00000000
-0.02478981 0.17625947 0.00000000
-0.54223680 -0.70986921 0.00000000
-0.39292014 0.31524327 -0.00000041
-0.37748089 -0.33075014 0.00000000
0.13293529 0.47560492 0.00000000
-0.29873830 -0.20343281 0.00000000
0.28202572 -0.25857529 0.00000000
-0.51527435 0.13088375 -0.00000051
-0.50692314 0.00491820 -0.00000038
-0.60364550 -0.20608094 -0.00000040
0.15825531 -0.30951732 0.00000000
0.32150319 -0.03758519 0.00000000
-0.42875221 -0.65376717 0.00000000
0.54243207 -0.19908953 -0.00000055
0.73453373 -0.78831905 -0.00000003
0.06433386 -0.62939894 0.00000000
0.00294617 0.68030632 0.00000000
-0.66387874 -0.26264301 -0.00000048
0.19042516 0.20281371 0.00000000
-0.17016877 -0.20039330 0.00000000
0.60535210 -0.41676316 -0.00000043
0.44982773 0.34445232 -0.00000103
0.04055549 -0.61110169 0.00000000
-0.02260395 0.19279915 0.00000000
-0.42833918 -0.16791412 -0.00000006
-0.32612643 0.44671974 -0.00000038
-0.08248660 -0.18968488 0.00000000
-0.04434666 -0.07443936 0.00000000
0.18750951 -0.30260745 0.00000000
0.05925110 -0.70591986 0.00000000
-0.51005167 -0.10905255 -0.00000028
-0.32804164 -0.04798740 0.00000000
0.10541970 -0.32366201 0.00000000
0.74277669 -0.31927919 -0.00000119
-0.51809222 0.14635882 -0.00000053
-0.23912869 0.02175810 0.00000000
-0.44939473 0.31370112 -0.00000053
-0.26478052 -0.26898587 0.00000000
0.25005606 -0.36304647 0.00000000
0.64730269 0.09408125 -0.00000151
0.09395399 0.42483878 0.00000000
-0.24142423 -0.43183279 0.00000000
0.58158010 0.02045672 -0.00000110
-0.54127693 0.15535501 -0.00000059
-0.28403887 -0.59145147 0.00000000
0.06252666 0.16636950 0.00000000
-0.16909058 -0.13744967 0.00000000
-0.23935015 0.29914096 -0.00000007
-0.48077327 -0.10750145 -0.00000022
-0.41260687 -0.36209324 0.00000000
0.34253076 -0.63215846 0.00000000
-0.43661523 -0.75818700 0.00000000
0.03187399 -0.77247322 0.00000000
-0.06593262 -0.37708485 0.00000000
0.68270028 -0.11764793 -0.00000129
-0.44721094 -0.72151268 0.00000000
0.67745537 -0.09924740 -0.00000130
0.45948225 0.22781716 -0.00000095
-0.08642239 -0.57642990 0.00000000
0.40770152 -0.13904789 -0.00000008
-0.34596652 0.10680896 -0.00000013
-0.49525961 -0.72113651 0.00000000
0.26902017 -0.68224961 0.00000000
0.30100578 -0.23843531 0.00000000
0.59969735 -0.17025231 -0.00000084
0.35179669 -0.36053303 0.00000000
0.53240269 -0.37019944 -0.00000020
0.51463491 -0.06817896 -0.00000066
0.42127433 -0.34684682 0.00000000
0.28819230 -0.16154826 0.00000000
-0.22709087 0.34723327 -0.00000008
0.00166627 -0.44936800 0.00000000
-0.60899800 -0.69349986 0.00000000
0.09897267 0.67691809 -0.00000020
-0.46615016 0.23265648 -0.00000049
-0.20741795 -0.11610375 0.00000000
0.11477664 0.56861299 -0.00000008
-0.55442113 -0.06243181 -0.00000042
-0.06840018 -0.68633711 0.00000000
-0.15590350 -0.22980151 0.00000000
0.28962165 0.37380615 -0.00000048
-0.25125530 0.38395295 -0.00000017
-0.33191675 0.44710040 -0.00000040
-0.05067274 -0.31750163 0.00000000
0.36896145 0.28137043 -0.00000066
0.45879647 0.32810280 -0.00000112
-0.22557963 -0.68198556 0.00000000
-0.29158553 0.02654765 0.00000000
-0.56207377 0.13635972 -0.00000061
0.24847677 -0.47318071 0.00000000
-0.39084008 0.09353073 -0.00000021
0.69366825 -0.46918726 -0.00000072
-0.06904761 -0.46811593 0.00000000
-0.58957654 -0.57853103 -0.00000004
0.62109548 -0.48252946 -0.00000038
0.67793757 -0.34265044 -0.00000087
0.49771863 -0.01069324 -0.00000069
-0.11852875 0.66358519 -0.00000013
-0.70426929 -0.51927406 -0.00000034
-0.37158015 -0.25859192 0.00000000
0.52290648 -0.67109507 0.00000000
0.23471817 0.23149361 0.00000000
-0.38455975 -0.38520253 0.00000000
0.62855303 -0.31676710 -0.00000071
0.61610192 -0.55691665 -0.00000023
0.77632719 -0.46886930 -0.00000083
-0.21822608 -0.39859715 0.00000000
0.54510641 -0.20372190 -0.00000055
0.58531755 -0.50618958 -0.00000019
-0.06839336 0.58043474 0.00000000
-0.27947420 -0.12770221 0.00000000
0.43586704 -0.39173910 0.00000000
0.18486388 -0.76311624 0.00000000
-0.09036462 -0.69109368 0.00000000
-0.40186697 -0.49149171 0.00000000
-0.69390965 -0.57879484 -0.00000026
-0.17848200 0.03755093 0.00000000
-0.01880974 0.10550398 0.00000000
0.12785003 0.01269791 0.00000000
-0.19463637 -0.59868735 0.00000000
0.07483917 -0.59969860 0.00000000
-0.47142702 0.04214406 -0.00000034
-0.00466134 -0.17764425 0.00000000
-0.73882616 -0.33698103 -0.00000057
0.11812148 0.48473451 0.00000000
-0.48123801 -0.05518980 -0.00000027
0.38283715 0.36508259 -0.00000087
-0.71198875 -0.07879112 -0.00000074
0.44406089 -0.04919479 -0.00000039
-0.36966765 -0.05814630 -0.00000003
-0.26564124 -0.49119902 0.00000000
-0.36066544 -0.30038625 0.00000000
0.29805329 0.37856418 -0.00000053
0.01996974 0.29866204 0.00000000
-0.79565638 -0.03949005 -0.00000095
-0.18773776 0.25885311 0.00000000
-0.14247437 -0.00647502 0.00000000
0.55572003 0.20840390 -0.00000133
-0.57243353 0.07373941 -0.00000058
-0.73585075 -0.46175542 -0.00000042
0.22794726 -0.22032791 0.00000000
-0.12950698 0.27996674 0.00000000
-0.33658832 -0.53853714 0.00000000
0.44734871 -0.57486230 0.00000000
-0.48006967 -0.66844344 0.00000000
-0.70387381 -0.38713714 -0.00000045
-0.70021194 -0.56836444 -0.00000028
-0.21683383 -0.73811972 0.00000000
0.13396724 -0.27398863 0.00000000
-0.20323387 -0.66315234 0.00000000
0.62433958 -0.31296539 -0.00000070
0.03524909 -0.16800030 0.00000000
0.39111722 -0.51740497 0.00000000
-0.66520590 -0.11162607 -0.00000061
-0.00538819 -0.03866694 0.00000000
-0.13505730 -0.70857197 0.00000000
-0.33902451 0.25255579 -0.00000024
-0.24279016 -0.34744608 0.00000000
-0.75105441 -0.00132601 -0.00000089
-0.07875306 0.31219596 0.00000000
-0.74024725 -0.49382117 -0.00000038
0.65471393 -0.57845938 -0.00000036
0.05643264 0.65368986 0.00000000
-0.15959120 -0.42370704 0.00000000
0.25113443 0.42290464 -0.00000041
0.16726433 -0.06928636 0.00000000
-0.72065896 -0.35116950 -0.00000052
0.27948725 0.49389344 -0.00000065
-0.49480960 -0.47018471 0.00000000
-0.04783530 0.00427875 0.00000000
-0.31180805 -0.32540214 0.00000000
0.27356216 -0.63884562 0.00000000
0.68567115 -0.28525096 -0.00000101
-0.17847651 -0.47621781 0.00000000
-0.15515688 -0.22329369 0.00000000
0.48718727 0.11454840 -0.00000087
0.45030659 0.01355824 -0.00000053
-0.02328833 0.05273421 0.00000000
0.43425688 0.21597628 -0.00000082
0.16315132 0.11625746 0.00000000
-0.73021322 -0.26718122 -0.00000061
-0.55663991 -0.46871188 -0.00000007
-0.41170016 -0.00407399 -0.00000017
0.22130816 -0.51601577 0.00000000
0.59634936 -0.43671709 -0.00000036
0.46483898 -0.21735914 -0.00000019
-0.23045592 -0.60674769 0.00000000
0.04119570 -0.48776242 0.00000000
-0.35850784 -0.38017046 0.00000000
0.08812309 -0.16606428 0.00000000
0.40771237 -0.29985392 0.00000000
-0.67880303 -0.77679932 -0.00000003
-0.46690327 0.18141729 -0.00000045
0.40264526 -0.53483844 0.00000000
0.01504708 0.75138932 0.00000000
-0.40036413 0.27047926 -0.00000039
-0.02529005 -0.35077724 0.00000000
0.34204656 -0.32349589 0.00000000
-0.49360180 -0.25915357 -0.00000012
0.42218298 0.33407748 -0.00000098
-0.47019938 -0.05606782 -0.00000025
-0.47344515 0.10310327 -0.00000039
0.47993463 0.20090041 -0.00000099
-0.11008879 -0.33394352 0.00000000
0.35168228 0.40128350 -0.00000080
-0.10441277 -0.67960203 0.00000000
0.07220891 -0.14932989 0.00000000
-0.50304651 0.07458790 -0.00000043
-0.10414566 0.30223131 0.00000000
0.46790659 0.08639346 -0.00000074
0.15850411 0.26559609 0.00000000
-0.18263309 0.20162971 0.00000000
-0.30342659 -0.03334141 0.00000000
-0.44621009 -0.69789630 0.00000000
0.10870153 -0.04061605 0.00000000
-0.45956692 0.04532729 -0.00000031
0.47901559 -0.30979592 -0.00000008
0.38572142 -0.28437454 0.00000000
0.17031816 0.05115580 0.00000000
-0.53016537 -0.24218076 -0.00000021
0.44594276 -0.28098518 0.00000000
0.11814163 0.06046346 0.00000000
-0.52887130 -0.21919063 -0.00000023
-0.65806401 -0.14779867 -0.00000057
0.69811708 -0.02918255 -0.00000151
0.24348152 0.34534973 -0.00000024
-0.30325881 -0.35792363 0.00000000
-0.18064401 -0.04698476 0.00000000
0.00517049 -0.01625478 0.00000000
0.24490039 -0.31931058 0.00000000
0.41258985 -0.52361190 0.00000000
0.09964758 0.04819171 0.00000000
-0.51675791 -0.58060884 0.00000000
-0.40636846 -0.27271426 0.00000000
-0.56182384 0.18208537 -0.00000065
-0.65454316 -0.29621089 -0.00000043
-0.45101041 -0.06235017 -0.00000020
-0.41141009 -0.32558671 0.00000000
-0.05691733 -0.04194018 0.00000000
0.42819878 -0.26544109 0.00000000
0.28183278 -0.72089171 0.00000000
-0.08090894 -0.21909733 0.00000000
0.10815009 -0.07246036 0.00000000
0.15907171 -0.57945496 0.00000000
0.19622403 -0.29704821 0.00000000
0.22205018 0.20083538 0.00000000
0.13017714 -0.70140105 0.00000000
-0.27685738 -0.69978148 0.00000000
0.42024904 -0.75801826 0.00000000
-0.38935271 0.11685540 -0.00000023
0.04963970 -0.02997154 0.00000000
-0.28136435 -0.27253065 0.00000000
-0.65047359 -0.09491375 -0.00000060
-0.56316602 -0.19300453 -0.00000032
-0.72508049 -0.24568552 -0.00000062
-0.41619486 -0.24365564 0.00000000
0.37598804 -0.18089019 0.00000000
0.40644491 -0.27778181 0.00000000
0.59026325 -0.71759570 0.00000000
0.23667465 -0.09003410 0.00000000
0.66032106 -0.30373743 -0.00000087
-0.26975310 -0.14159632 0.00000000
0.13968880 0.21909866 0.00000000
-0.18029666 -0.06559157 0.00000000
0.22149724 0.22174834 0.00000000
0.05883785 -0.06859234 0.00000000
0.30675590 -0.21707585 0.00000000
-0.76080543 -0.35562876 -0.00000056
-0.16668379 0.41589049 -0.00000002
0.63860565 -0.04950575 -0.00000122
0.08537034 0.54610330 0.00000000
-0.14103760 0.65816492 -0.00000018
0.02609076 0.28572953 0.00000000
0.69578356 -0.31441209 -0.00000100
-0.45533442 -0.25979847 -0.00000003
0.35900432 -0.40644318 0.00000000
0.03019106 -0.76083726 0.00000000
0.13492693 -0.24254590 0.00000000
-0.38192281 -0.02460311 -0.00000009
-0.26191732 0.28824407 -0.00000011
-0.19108631 0.04724894 0.00000000
0.77761149 -0.62592804 -0.00000044
-0.27890673 0.01133934 0.00000000
-0.00086697 -0.36226782 0.00000000
-0.41606125 -0.55498511 0.00000000
0.66490346 -0.44706091 -0.00000063
0.18568049 0.49650070 -0.00000026
0.09222244 -0.25476587 0.00000000
-0.04991349 -0.23829742 0.00000000
-0.16175838 -0.09296507 0.00000000
-0.72183990 -0.03764574 -0.00000080
0.02050119 0.19172920 0.00000000
-0.23390129 -0.29011497 0.00000000
-0.09973253 -0.22426730 0.00000000
0.35713688 0.02618100 -0.00000016
0.69677329 -0.57988715 -0.00000053
0.14890817 0.64187151 -0.00000036
-0.40048364 -0.11928752 -0.00000004
-0.03899113 -0.74176455 0.00000000
0.59895742 -0.42199031 -0.00000040
0.18287610 0.21236983 0.00000000
0.17669994 -0.04051000 0.00000000
-0.42317888 -0.14699857 -0.00000007
0.72413671 -0.60547823 -0.00000049
-0.56243396 -0.46269363 -0.00000008
-0.23159759 0.27398625 -0.00000003
0.09525913 0.37867260 0.00000000
-0.13332216 -0.36759871 0.00000000
-0.61442786 -0.07664308 -0.00000054
0.32730848 0.31998551 -0.00000055
0.66962892 0.10879571 -0.00000164
0.45333007 -0.52814960 0.00000000
-0.29257825 0.33336318 -0.00000021
0.31712607 0.27775881 -0.00000043
0.04315471 0.19448484 0.00000000
0.65748429 -0.36336225 -0.00000075
-0.06786445 0.46846697 0.00000000
-0.76511550 -0.49126798 -0.00000039
0.09380498 -0.06048340 0.00000000
-0.16952503 -0.05075521 0.00000000
-0.06232729 -0.79198647 0.00000000
-0.52785575 -0.43847075 -0.00000003
-0.33465287 0.11874047 -0.00000011
-0.10921222 -0.61651939 0.00000000
0.41160390 -0.35150698 0.00000000
0.71908289 -0.54133689 -0.00000065
-0.08646709 0.49936888 0.00000000
-0.37196058 0.12253822 -0.00000019
0.50080347 -0.53995889 0.00000000
0.77071643 0.02769772 -0.00000192
0.23609369 0.21191113 0.00000000
0.04355215 -0.67662299 0.00000000
0.39180046 -0.76605809 0.00000000
0.68528551 -0.67949080 -0.00000030
-0.03954111 -0.11537693 0.00000000
0.31502208 -0.78839225 0.00000000
-0.33053574 -0.70088840 0.00000000
-0.28754893 -0.72744054 0.00000000
0.17571956 0.02651629 0.00000000
-0.79389590 -0.56592888 -0.00000029
-0.31641358 -0.38289571 0.00000000
0.15414590 0.23774272 0.00000000
0.22230592 -0.20720460 0.00000000
-0.16685779 -0.69877702 0.00000000
0.18924569 -0.22229949 0.00000000
-0.75149339 -0.04860614 -0.00000085
-0.59904361 -0.62302643 -0.00000002
-0.03196419 -0.05959841 0.00000000
-0.48580787 -0.01647399 -0.00000031
0.26978540 -0.47900411 0.00000000
-0.62757218 -0.67000717 -0.00000004
0.33145794 -0.55888367 0.00000000
0.01150980 0.16354036 0.00000000
0.15094669 -0.57803965 0.00000000
0.78710926 -0.35508057 -0.00000111
-0.30829290 0.36046848 -0.00000027
0.25187811 0.22754537 -0.00000006
-0.71510571 -0.08278002 -0.00000075
0.51967275 -0.61272329 0.00000000
-0.11780851 0.41053531 0.00000000
-0.38803139 -0.42137733 0.00000000
-0.22891983 -0.58267087 0.00000000
-0.19112946 0.57842517 -0.00000021
0.49700913 -0.32870454 -0.00000013
0.65411407 -0.70714974 -0.00000013
0.31045324 0.21889491 -0.00000030
-0.72612572 -0.68161434 -0.00000015
0.48201984 0.31443647 -0.00000120
0.12825425 -0.59508926 0.00000000
-0.61312526 -0.32149673 -0.00000032
0.63651484 -0.31645980 -0.00000074
-0.07149887 0.15690355 0.00000000
-0.36140719 0.34224248 -0.00000037
0.29203427 -0.22344473 0.00000000
-0.51966542 -0.02198734 -0.00000038
-0.10440098 -0.37324691 0.00000000
0.51448298 -0.69652992 0.00000000
-0.36880296 -0.78097618 0.00000000
-0.27542445 0.38555944 -0.00000022
-0.58264649 0.04860688 -0.00000058
-0.07855322 0.36919308 0.00000000
0.50975436 -0.04892238 -0.00000067
0.00021415 0.21932967 0.00000000
0.23013434 0.52908051 -0.00000050
0.34845296 0.24791656 -0.00000051
-0.38853195 -0.53861248 0.00000000
0.72998953 -0.21566966 -0.00000132
-0.03868377 0.00662960 0.00000000
0.12912810 0.64554018 -0.00000028
0.42205271 0.36556923 -0.00000103
-0.44184145 -0.36291185 0.00000000
-0.20211945 -0.29995704 0.00000000
0.38606134 -0.49868348 0.00000000
-0.17735972 -0.67955375 0.00000000
0.36111060 -0.10766535 0.00000000
0.32232657 0.46865013 -0.00000079
-0.20473631 0.17010731 0.00000000
0.56094980 -0.66900986 0.00000000
0.28106445 -0.19506858 0.00000000
-0.23406932 -0.23382583 0.00000000
-0.72158247 -0.62781280 -0.00000022
-0.02084764 -0.48057297 0.00000000
0.57996815 -0.79178268 0.00000000
-0.39898703 0.00744119 -0.00000015
0.15007156 -0.69947445 0.00000000
-0.26748592 -0.40591207 0.00000000
0.52581596 -0.09526250 -0.00000066
0.45214191 0.31847334 -0.00000108
-0.00163000 0.61133707 0.00000000
0.31270117 -0.18083964 0.00000000
0.22834729 -0.21717829 0.00000000
0.03427606 0.53713369 0.00000000
0.29433513 -0.09556972 0.00000000
-0.18938899 -0.01660194 0.00000000
-0.04328811 0.02828865 0.00000000
0.72154993 -0.39878896 -0.00000096
-0.62723416 -0.72343147 0.00000000
-0.30485985 -0.67679870 0.00000000
-0.69638246 -0.56389946 -0.00000028
0.48060009 -0.13703126 -0.00000039
-0.27868977 0.32820863 -0.00000018
0.65831310 -0.11116816 -0.00000120
0.31498030 -0.65097296 0.00000000
0.14077026 0.54110885 -0.00000014
-0.62485206 -0.12785181 -0.00000051
0.04434537 -0.28045595 0.00000000
-0.59399188 -0.79384720 0.00000000
0.61584473 -0.68524534 -0.00000000
0.02783212 0.61818206 0.00000000
0.76097196 -0.38453045 -0.00000104
0.71700603 -0.30279681 -0.00000111
0.08992287 -0.51090717 0.00000000
-0.44486275 -0.69320256 0.00000000
0.08795803 0.44427249 0.00000000
0.64169294 -0.28897873 -0.00000081
-0.14889859 -0.73108763 0.00000000
-0.39358950 -0.69461608 0.00000000
0.64941633 -0.65796661 -0.00000019
-0.26359054 0.25482592 -0.00000008
0.09481359 0.30078146 0.00000000
-0.72257227 -0.38629255 -0.00000049
0.11892208 0.42809439 0.00000000
0.44359130 -0.64426559 0.00000000
-0.19668438 0.46960244 -0.00000013
-0.30774394 0.10465391 -0.00000004
0.10214978 -0.01566976 0.00000000
-0.39840043 0.09474088 -0.00000023
-0.20262706 -0.33425564 0.00000000
0.03174647 -0.72250909 0.00000000
0.11599743 -0.36585301 0.00000000
0.57682079 -0.28433216 -0.00000054
0.23783606 -0.19081180 0.00000000
0.27832913 -0.40388235 0.00000000
-0.67006862 -0.38601986 -0.00000038
-0.58113831 0.17558478 -0.00000069
0.29848120 -0.31366515 0.00000000
-0.22202225 -0.61277276 0.00000000
-0.11151428 -0.34621379 0.00000000
-0.34773606 -0.34672245 0.00000000
-0.42198557 -0.41931152 0.00000000
0.00140572 -0.33597818 0.00000000
0.63781434 -0.56574112 -0.00000031
0.78689140 -0.60612458 -0.00000048
0.03624964 0.18500923 0.00000000
0.04328939 -0.59958166 0.00000000
-0.29465407 0.02369013 0.00000000
-0.10489610 0.05980686 0.00000000
-0.34322688 -0.05499802 0.00000000
-0.40080073 -0.04274732 -0.00000011
0.49132887 -0.41218024 0.00000000
-0.44241944 -0.46712318 0.00000000
0.66563606 -0.40468308 -0.00000071
-0.02928775 -0.08595422 0.00000000
-0.17041767 0.45492330 -0.00000006
-0.64717972 -0.49098530 -0.00000024
-0.71580899 -0.56905389 -0.00000029
0.43185711 0.28568879 -0.00000093
-0.40193900 0.31592184 -0.00000043
-0.17110901 0.06456167 0.00000000
-0.56084925 -0.52320379 -0.00000003
-0.70465451 -0.08275543 -0.00000072
-0.60900152 -0.49230468 -0.00000016
-0.26898256 -0.32765242 0.00000000
0.18556425 -0.65529138 0.00000000
-0.79293001 -0.70822406 -0.00000011
-0.09833096 0.28751409 0.00000000
0.59324157 0.08905207 -0.00000128
0.32789403 -0.66358972 0.00000000
-0.17906582 0.54628325 -0.00000016
0.19483399 0.45280972 -0.00000022
-0.10303399 0.25121361 0.00000000
0.51165754 -0.15203524 -0.00000050
-0.15015297 0.18813081 0.00000000
-0.04945549 -0.73690283 0.00000000
0.71415442 0.06933378 -0.00000176
0.03566819 -0.63181418 0.00000000
0.78083521 -0.59349912 -0.00000052
-0.13809703 0.25276715 0.00000000
-0.04960973 -0.44736448 0.00000000
-0.09959516 0.53644329 0.00000000
-0.42362899 -0.43953955 0.00000000
0.47233468 -0.09601996 -0.00000043
-0.19409955 0.14044286 0.00000000
0.19052401 -0.63306761 0.00000000
0.25314403 -0.57744759 0.00000000
-0.05496384 0.11357446 0.00000000
0.51841742 0.02952135 -0.00000085
-0.04716118 -0.72985125 0.00000000
-0.43040338 -0.25684726 0.00000000
0.17371751 -0.03495680 0.00000000
-0.08270049 -0.19399291 0.00000000
0.16604067 0.44616541 -0.00000008
-0.78828949 -0.41330892 -0.00000048
-0.16648905 -0.21103331 0.00000000
0.68053025 -0.75909275 -0.00000010
0.65667766 -0.41089597 -0.00000066
0.33201346 -0.47014928 0.00000000
0.18231846 0.00963278 0.00000000
0.37638628 0.42114687 -0.00000090
0.34230873 -0.70819843 0.00000000
-0.37951019 -0.26747364 0.00000000
0.01302932 -0.19684602 0.00000000
-0.15780807 0.46854129 -0.00000004
0.08771897 0.33135828 0.00000000
0.35709026 0.04321103 -0.00000019
0.02660283 -0.47043848 0.00000000
0.52339709 -0.12539348 -0.00000060
-0.08388433 -0.03719578 0.00000000
0.26478404 0.00098103 0.00000000
-0.79306954 -0.62169111 -0.00000022
0.27284029 -0.76041281 0.00000000
0.51438212 -0.79978150 0.00000000
0.39862123 -0.06701107 -0.00000017
0.64833021 -0.04836320 -0.00000127
0.00743353 -0.39348823 0.00000000
0.53975946 0.06809366 -0.00000101
0.64224797 -0.25632980 -0.00000087
-0.69714391 -0.08618953 -0.00000070
0.32733834 0.31749484 -0.00000054
-0.06175626 -0.33246395 0.00000000
-0.32132226 -0.24847846 0.00000000
0.52450615 -0.77431160 0.00000000
-0.70111710 0.00059246 -0.00000079
-0.00555228 0.53839427 0.00000000
0.64217871 -0.67572474 -0.00000013
0.42608950 -0.54068351 0.00000000
-0.35560626 0.29029816 -0.00000031
-0.17065480 0.44553760 -0.00000005
-0.16733423 -0.02229715 0.00000000
-0.09474996 0.45196232 0.00000000
-0.22675118 0.48371455 -0.00000020
0.63071823 -0.49214894 -0.00000041
0.33021951 0.46065819 -0.00000081
-0.14078665 0.18225645 0.00000000
-0.26503155 0.51760691 -0.00000032
0.73969263 -0.41894737 -0.00000095
-0.30599609 0.31608507 -0.00000023
-0.36501762 -0.70155919 0.00000000
0.41932878 -0.49154407 0.00000000
0.25125703 -0.29508761 0.00000000
-0.07567555 -0.00415022 0.00000000
0.58429754 -0.51991153 -0.00000016
0.64669591 -0.25668126 -0.00000089
-0.60344160 -0.35678446 -0.00000027
0.73094755 -0.15198359 -0.00000144
0.41350353 -0.59639889 0.00000000
0.37416950 0.17391957 -0.00000049
-0.77355117 -0.02261384 -0.00000092
0.14152539 0.13859417 0.00000000
-0.22226687 -0.66466033 0.00000000
0.32557747 0.01177666 0.00000000
-0.03003159 0.28920561 0.00000000
-0.18239380 -0.36137745 0.00000000
0.62129927 -0.48533371 -0.00000038
-0.05846547 -0.18234254 0.00000000
0.47089687 -0.44800547 0.00000000
-0.77903795 -0.07196081 -0.00000089
-0.54326814 0.14604320 -0.00000058
0.42489415 -0.45570225 0.00000000
-0.54122072 -0.20156309 -0.00000027
0.04441805 -0.38963723 0.00000000
-0.36592948 -0.18534034 0.00000000
-0.34286687 0.26077703 -0.00000026
-0.76159996 -0.70553857 -0.00000012
0.45618236 -0.78980607 0.00000000
0.53311217 0.10149275 -0.00000104
0.64730561 -0.29269236 -0.00000083
-0.45714498 0.21983238 -0.00000046
0.11107001 0.41425449 0.00000000
0.61823726 -0.27178279 -0.00000074
0.76163101 -0.69038808 -0.00000027
0.61791450 -0.42770156 -0.00000047
0.08258349 0.57565057 0.00000000
0.17903398 0.43307745 -0.00000012
0.55122143 -0.62075299 0.00000000
-0.11146177 0.10518646 0.00000000
-0.79210174 -0.19816224 -0.00000075
0.27017242 -0.19198962 0.00000000
-0.32740408 -0.08501890 0.00000000
0.33647177 -0.44296688 0.00000000
-0.34176970 -0.38599196 0.00000000
0.24250241 -0.33841196 0.00000000
0.01980530 -0.04356866 0.00000000
0.14882581 0.64277476 -0.00000036
-0.17469169 0.10647931 0.00000000
0.15831839 -0.19242249 0.00000000
0.23029771 -0.23293251 0.00000000
0.26760778 -0.27077773 0.00000000
-0.20617419 -0.39901483 0.00000000
0.16626333 -0.65427715 0.00000000
0.25787461 -0.72277868 0.00000000
0.60826617 -0.76841688 0.00000000
-0.21061730 0.01589017 0.00000000
0.79068196 -0.14220574 -0.00000164
-0.05894318 0.26345083 0.00000000
0.17150304 0.51177859 -0.00000022
-0.44373065 0.01319726 -0.00000025
-0.49260020 0.20329653 -0.00000052
0.24098250 0.14149597 0.00000000
-0.17598709 -0.55844706 0.00000000
0.21522015 -0.61216533 0.00000000
0.62273312 -0.07813694 -0.00000111
0.49012703 -0.45732620 0.00000000
-0.68279141 -0.35911533 -0.00000043
-0.43167806 0.18579967 -0.00000038
-0.13758233 0.07406808 0.00000000
-0.75448138 -0.61865050 -0.00000023
0.60231578 -0.57313126 -0.00000014
-0.78442037 -0.33929923 -0.00000058
0.27091017 0.18847260 -0.00000008
-0.01886274 -0.47473642 0.00000000
-0.06269676 0.26470885 0.00000000
0.12544750 0.50003594 -0.00000001
-0.31206629 -0.71974653 0.00000000
-0.06261957 0.47866964 0.00000000
0.44515759 0.33969846 -0.00000109
0.76298809 -0.54672205 -0.00000063
-0.51752400 -0.70239484 0.00000000
0.03578711 0.11102746 0.00000000
0.29508677 -0.16268185 0.00000000
-0.71605045 -0.27849218 -0.00000057
-0.38024965 0.24628225 -0.00000032
-0.51716715 -0.58476686 0.00000000
0.03121520 -0.34067097 0.00000000
0.74236149 -0.50529766 -0.00000074
0.48944643 -0.39595973 0.00000000
-0.46342978 -0.32375601 0.00000000
-0.27867892 0.50241327 -0.00000033
-0.63551593 0.09838305 -0.00000074
0.22826599 -0.38556987 0.00000000
-0.34531191 -0.18119887 0.00000000
0.26441991 -0.53026974 0.00000000
0.51628864 -0.07302398 -0.00000066
0.02404411 0.32873261 0.00000000
0.42392007 -0.24498612 0.00000000
0.15520123 -0.08158870 0.00000000
-0.29035112 -0.58020633 0.00000000
0.39335516 -0.66944647 0.00000000
0.62891358 -0.37437722 -0.00000061
0.04226378 -0.03771719 0.00000000
-0.46287408 -0.49402335 0.00000000
-0.19975182 -0.41682482 0.00000000
-0.60975355 -0.78129923 0.00000000
0.20795380 -0.30963144 0.00000000
-0.51402682 0.17811601 -0.00000055
-0.05741181 -0.54233432 0.00000000
0.11622896 0.55180991 -0.00000006
-0.23380227 -0.41830894 0.00000000
-0.54609281 -0.14014409 -0.00000033
0.15412205 -0.25225893 0.00000000
-0.17885450 0.10055886 0.00000000
-0.20301111 -0.29426354 0.00000000
0.51356709 -0.56570691 0.00000000
0.49220186 0.17657064 -0.00000100
-0.25937396 0.51382083 -0.00000030
0.04915113 0.62418574 0.00000000
-0.20070109 -0.58171868 0.00000000
0.00565199 -0.79425341 0.00000000
0.53680503 -0.27481374 -0.00000039
0.34619489 -0.30127063 0.00000000
-0.11472403 -0.36895901 0.00000000
0.70395523 -0.28731367 -0.00000108
0.40050656 -0.76327288 0.00000000
0.21155313 -0.14793929 0.00000000
-0.11725952 0.08868690 0.00000000
0.36948729 0.00631817 -0.00000017
0.51644427 -0.01026313 -0.00000077
-0.40887833 -0.48559350 0.00000000
-0.39210305 -0.79403675 0.00000000
-0.37392443 0.06628946 -0.00000015
-0.13148671 0.44467691 0.00000000
-0.02097888 0.59987789 0.00000000
-0.38157561 -0.34626758 0.00000000
0.49579227 0.29046208 -0.00000122
0.57076371 -0.72530389 0.00000000
0.08281817 0.63402307 -0.00000006
-0.34856331 -0.78556424 0.00000000
-0.29135945 -0.71893513 0.00000000
-0.51428074 -0.28178921 -0.00000014
0.69542867 -0.46910241 -0.00000072
0.02959702 0.53006983 0.00000000
0.71579689 -0.36815566 -0.00000099
0.11770128 -0.70168924 0.00000000
-0.10037101 -0.15639155 0.00000000
0.17102739 -0.52869302 0.00000000
-0.26783758 0.11058412 0.00000000
-0.23317058 -0.11645220 0.00000000
0.76637334 -0.46485612 -0.00000084
-0.10210750 0.53620434 0.00000000
0.28963691 -0.17126551 0.00000000
-0.18791310 0.05680294 0.00000000
0.28716430 -0.37494260 0.00000000
0.59621066 -0.59363884 -0.00000008
-0.41582391 0.37155604 -0.00000051
-0.75117898 -0.50470859 -0.00000037
-0.21826176 0.57659811 -0.00000027
-0.02961675 0.22620459 0.00000000
0.20376226 -0.69778001 0.00000000
0.48340100 -0.08772392 -0.00000049
-0.09898727 -0.04638642 0.00000000
0.01534735 0.45527986 0.00000000
0.59294486 0.18447353 -0.00000144
0.78487301 -0.24009664 -0.00000140
0.69604772 -0.47319064 -0.00000072
-0.68846303 -0.70644945 -0.00000012
-0.74464685 -0.14069466 -0.00000076
-0.36224663 -0.16099454 0.00000000
0.27787644 -0.35293660 0.00000000
0.28731802 0.40791839 -0.00000053
-0.46914566 0.31669065 -0.00000057
0.43800122 0.13704816 -0.00000070
0.52726704 -0.27092105 -0.00000036
0.68844122 -0.13765433 -0.00000128
-0.46761140 -0.37233907 0.00000000
0.68407542 -0.10568461 -0.00000132
0.63169998 -0.19574182 -0.00000094
-0.28519261 0.17762356 -0.00000006
-0.23688044 -0.00532809 0.00000000
-0.32877380 0.25751466 -0.00000022
-0.12456702 0.40440246 0.00000000
0.27595165 -0.46249738 0.00000000
0.31063750 -0.46993718 0.00000000
-0.18174449 0.43914789 -0.00000007
0.29206803 -0.70074546 0.00000000
-0.24352245 0.08469212 0.00000000
0.42719311 0.37113750 -0.00000104
-0.24198055 0.00465798 0.00000000
-0.64458174 -0.63100570 -0.00000011
0.06906195 -0.49755222 0.00000000
0.53130990 -0.74671131 0.00000000
0.46821135 -0.59794998 0.00000000
0.28957596 -0.63342965 0.00000000
0.78764415 -0.51246816 -0.00000072
-0.11331295 -0.07270770 0.00000000
0.64588481 -0.56230724 -0.00000035
-0.36199248 -0.78846395 0.00000000
-0.24519028 0.22376701 -0.00000001
-0.11521937 0.57489115 -0.00000005
0.67400062 -0.04088504 -0.00000139
-0.04482434 -0.79597837 0.00000000
0.55932587 -0.49100977 -0.00000010
-0.25929004 -0.20051479 0.00000000
0.47758147 -0.01114041 -0.00000060
-0.01896580 -0.72605097 0.00000000
-0.06873110 -0.75765038 0.00000000
-0.61815393 -0.43939996 -0.00000022
0.53674561 -0.51287013 0.00000000
0.40889791 -0.46948615 0.00000000
-0.62134314 -0.53249532 -0.00000015
0.63912338 -0.38792878 -0.00000063
0.78494143 -0.05859772 -0.00000183
-0.57943338 0.05050785 -0.00000057
-0.09862970 0.62424868 -0.00000006
-0.46431637 -0.43457878 0.00000000
-0.66237700 -0.35796413 -0.00000039
0.04451022 -0.76696074 0.00000000
-0.20088476 0.02082959 0.00000000
0.38646939 0.02682509 -0.00000028
-0.04734681 -0.47027808 0.00000000
-0.65952981 -0.50847179 -0.00000025
0.33900103 -0.56995016 0.00000000
-0.54184097 -0.76413846 0.00000000
-0.19214143 0.23572659 0.00000000
0.22646056 0.01342207 0.00000000
0.42537659 -0.43110552 0.00000000
0.75316143 0.00642084 -0.00000181
-0.40204358 -0.61913174 0.00000000
0.46284994 -0.66953379 0.00000000
0.22513466 -0.16857724 0.00000000
0.06624562 0.42875049 0.00000000
0.22074971 0.11637586 0.00000000
-0.13857724 -0.40544170 0.00000000
0.73588496 -0.34680530 -0.00000111
-0.21028879 -0.50871545 0.00000000
-0.58233589 -0.61613125 0.00000000
-0.51655751 -0.21055999 -0.00000021
0.63474882 0.09747504 -0.00000147
-0.10522343 -0.18165259 0.00000000
-0.19245280 0.03026404 0.00000000
0.48601106 -0.27575865 -0.00000017
-0.72354937 -0.43488255 -0.00000045
0.55801177 -0.66806686 0.00000000
0.74666238 -0.73813951 -0.00000015
-0.48569477 -0.22711237 -0.00000013
-0.00117267 0.52096552 0.00000000
-0.04903979 0.16892920 0.00000000
0.09162781 0.50962526 0.00000000
-0.18444133 -0.52388597 0.00000000
-0.53559995 -0.46604130 -0.00000002
-0.61982542 -0.32932228 -0.00000032
-0.14920346 0.18051586 0.00000000
0.25679961 0.00250737 0.00000000
0.56552041 -0.72117239 0.00000000
0.64343119 0.04305033 -0.00000141
0.17483111 -0.69733733 0.00000000
-0.40065891 -0.28385139 0.00000000
0.20029648 -0.17484587 0.00000000
0.52129287 0.17859107 -0.00000113
-0.29434448 0.38294998 -0.00000026
0.26438585 -0.49030206 0.00000000
-0.63274717 0.15547284 -0.00000078
-0.41866234 -0.12335538 -0.00000008
0.46768492 -0.16901226 -0.00000028
0.54793286 -0.64945620 0.00000000
-0.05115427 0.48773140 0.00000000
0.12021922 0.34033629 0.00000000
-0.04832638 0.69095963 -0.00000001
0.78785253 -0.11459433 -0.00000171
0.16822332 -0.34661534 0.00000000
0.01002662 0.62711531 0.00000000
-0.66178429 0.02055433 -0.00000072
0.63147742 -0.12829518 -0.00000105
0.56269681 0.21038352 -0.00000136
-0.18603355 0.32204157 0.00000000
-0.12259466 -0.25942197 0.00000000
0.35870507 -0.62293684 0.00000000
-0.24022307 0.39095601 -0.00000015
-0.36867440 -0.61609715 0.00000000
0.16581789 0.27101547 0.00000000
0.26278543 -0.46207097 0.00000000
-0.15583819 -0.48808846 0.00000000
0.09331034 -0.09555888 0.00000000
0.32740498 -0.12754981 0.00000000
-0.75106955 -0.63622773 -0.00000020
-0.68294472 -0.53393525 -0.00000028
-0.13612616 0.04817280 0.00000000
0.40417430 0.32179528 -0.00000088
-0.60846931 -0.64183885 -0.00000002
0.14008524 -0.31756544 0.00000000
0.07300639 -0.79011405 0.00000000
-0.78400034 -0.48725671 -0.00000039
-0.17080005 0.11058975 0.00000000
0.21960701 -0.04240014 0.00000000
0.78220689 -0.13511333 -0.00000166
-0.25592765 -0.21620949 0.00000000
0.06615885 -0.11290434 0.00000000
0.35823005 -0.14631252 0.00000000
0.57869190 0.02986756 -0.00000111
0.16900440 -0.31380236 0.00000000
-0.78598779 -0.33883432 -0.00000058
-0.75898260 -0.43208826 -0.00000046
0.49772412 -0.64679027 0.00000000
-0.28030649 -0.73326135 0.00000000
0.67283219 0.11626428 -0.00000166
0.37942749 -0.63216829 0.00000000
-0.28353411 -0.33927554 0.00000000
-0.13013487 0.01751530 0.00000000
0.07363606 -0.45807108 0.00000000
0.63650674 -0.64546537 -0.00000016
-0.36102980 -0.67781073 0.00000000
0.34322435 -0.44793069 0.00000000
0.77349079 -0.18287869 -0.00000154
0.25631282 0.20781069 -0.00000005
0.10209160 -0.06718404 0.00000000
0.36988905 -0.66769797 0.00000000
0.18990090 0.55434978 -0.00000038
-0.16359429 0.53237808 -0.00000011
0.44184729 0.32646874 -0.00000105
0.13346449 0.27827695 0.00000000
0.73279846 -0.24500638 -0.00000128
-0.64805520 -0.09737760 -0.00000059
-0.60207105 -0.71665668 0.00000000
-0.27444637 -0.01590830 0.00000000
0.28461653 0.21213631 -0.00000018
-0.26760152 0.35729793 -0.00000018
-0.72485334 -0.76321614 -0.00000005
-0.57655603 0.20497487 -0.00000070
-0.24576519 -0.55023694 0.00000000
-0.48881939 -0.36045742 -0.00000002
-0.00598531 0.60813868 0.00000000
-0.30718169 -0.40188694 0.00000000
0.44714904 0.15595500 -0.00000077
-0.14310193 -0.04541084 0.00000000
0.79683036 -0.17004475 -0.00000157
-0.12130395 -0.11371892 0.00000000
-0.73376393 -0.43157926 -0.00000046
-0.40286264 -0.21271847 0.00000000
-0.25602040 -0.28496051 0.00000000
-0.03069617 0.14277039 0.00000000
0.73351336 -0.58112150 -0.00000055
-0.35274130 0.39021927 -0.00000039
-0.09240037 0.58321548 -0.00000001
0.43336692 -0.62151700 0.00000000
0.20504422 0.28315729 0.00000000
-0.35225329 -0.29933050 0.00000000
0.19878197 -0.05349256 0.00000000
0.05189526 0.35146186 0.00000000
-0.32557970 0.27901515 -0.00000023
0.30107632 -0.19165102 0.00000000
0.64583963 -0.31595090 -0.00000078
-0.47277859 -0.55942488 0.00000000
0.25414076 0.54059929 -0.00000063
0.14484265 -0.77065504 0.00000000
0.36792815 -0.74915218 0.00000000
0.16719583 -0.10459209 0.00000000
-0.02651397 0.15536891 0.00000000
-0.06381091 -0.75335783 0.00000000
-0.69445282 -0.33903295 -0.00000048
-0.19291683 -0.34879291 0.00000000
0.60417247 -0.07908549 -0.00000102
-0.48994181 0.01399758 -0.00000035
-0.40520051 0.37528643 -0.00000049
-0.03009629 -0.69844532 0.00000000
-0.76308185 0.01087104 -0.00000093
0.21115620 -0.55241096 0.00000000
-0.43304878 0.33120865 -0.00000051
0.13280584 0.03102070 0.00000000
-0.14933781 -0.52940512 0.00000000
-0.18956558 -0.37948030 0.00000000
0.05016769 -0.76106411 0.00000000
-0.67661911 -0.56730491 -0.00000024
-0.20462559 -0.02433354 0.00000000
0.20907827 -0.47856858 0.00000000
0.44540507 0.22772516 -0.00000089
-0.56881458 -0.62312448 0.00000000
-0.13552804 -0.78419143 0.00000000
-0.00958195 -0.41154531 0.00000000
0.04343232 -0.41049221 0.00000000
0.29289025 0.28511852 -0.00000034
0.32707864 -0.44634727 0.00000000
0.74343526 -0.26017433 -0.00000130
0.63228482 -0.71608263 -0.00000002
0.68415177 0.00715093 -0.00000152
0.07327237 0.05283000 0.00000000
0.15400080 -0.21511519 0.00000000
-0.67990232 -0.51560241 -0.00000029
0.58128619 -0.75496703 0.00000000
0.23425999 0.56437033 -0.00000056
-0.26997864 -0.16820794 0.00000000
-0.55283773 -0.13228115 -0.00000036
-0.15762734 0.56283349 -0.00000013
0.29439762 0.14101411 -0.00000009
0.11633145 0.28149000 0.00000000
0.01579761 0.51969129 0.00000000
-0.44858536 0.16013907 -0.00000039
-0.43482518 -0.24035352 -0.00000001
0.74884290 -0.56674099 -0.00000058
0.19330706 -0.51715928 0.00000000
-0.75788742 -0.59778047 -0.00000025
0.31972015 -0.78086287 0.00000000
0.11758521 0.34122577 0.00000000
0.10473417 -0.22793968 0.00000000
0.28984129 -0.57771719 0.00000000
0.45339730 -0.30673888 0.00000000
-0.39769229 -0.71332633 0.00000000
0.02040677 0.72199982 0.00000000
-0.05531818 -0.39467815 0.00000000
-0.05243698 0.64580578 0.00000000
0.60347790 0.03131025 -0.00000122
-0.63414043 -0.60866874 -0.00000011
-0.73470825 -0.22872952 -0.00000066
0.06624933 -0.16791624 0.00000000
-0.36251155 -0.03579080 -0.00000003
0.05607461 0.64589334 0.00000000
0.08520230 0.21450289 0.00000000
-0.28293577 0.06495714 0.00000000
-0.45232648 -0.10524131 -0.00000017
-0.38490608 -0.03954784 -0.00000008
0.60174686 -0.28258294 -0.00000065
0.72945082 -0.54697216 -0.00000063
0.16143531 0.05644973 0.00000000
0.04401786 0.18578462 0.00000000
0.02504630 -0.19356516 0.00000000
0.74953562 -0.42464697 -0.00000094
0.00905397 0.28287056 0.00000000
0.41094169 -0.75695848 0.00000000
-0.36799157 -0.00045111 -0.00000008
0.79651833 -0.65750593 -0.00000036
-0.40472174 -0.52969313 0.00000000
0.25878924 0.26992074 -0.00000017
-0.54234749 -0.66572016 0.00000000
0.49646559 -0.45190427 0.00000000
0.20477021 0.24483499 0.00000000
0.68008441 -0.36834723 -0.00000084
0.22085805 -0.37815326 0.00000000
0.71128672 -0.71713978 -0.00000021
0.10959050 0.55834132 -0.00000004
-0.00842043 -0.48623690 0.00000000
-0.00719655 0.58604330 0.00000000
0.07309331 -0.74499625 0.00000000
0.53637993 -0.10725675 -0.00000069
0.19207729 0.19356769 0.00000000
-0.34660864 -0.46019822 0.00000000
-0.06165379 0.66034710 -0.00000001
-0.30072078 -0.38215044 0.00000000
0.06615046 0.29769155 0.00000000
-0.45786092 0.32925558 -0.00000056
-0.21059157 0.44253641 -0.00000013
-0.27144089 -0.33461612 0.00000000
-0.07414684 0.28772259 0.00000000
-0.41827270 0.14314803 -0.00000031
-0.25305009 -0.35520068 0.00000000
0.13583057 -0.24172981 0.00000000
0.76244056 -0.66482818 -0.00000034
-0.11925006 0.06521121 0.00000000
0.00790950 -0.01285860 0.00000000
-0.63437009 -0.61688995 -0.00000010
-0.00403307 0.61945611 0.00000000
0.64038944 -0.21111612 -0.00000095
-0.06384884 -0.63774312 0.00000000
0.74637985 -0.59381205 -0.00000052
0.33171287 0.36931255 -0.00000065
-0.23209487 -0.62057197 0.00000000
-0.04885305 -0.68429005 0.00000000
0.11126487 0.63042802 -0.00000018
0.78670961 -0.39639279 -0.00000101
0.52145362 0.06807816 -0.00000093
-0.33442473 -0.62581837 0.00000000
0.10300880 -0.36470068 0.00000000
0.56451315 0.02614205 -0.00000104
0.78879070 -0.14588794 -0.00000164
0.14102691 -0.37406325 0.00000000
0.63962060 -0.03416738 -0.00000126
0.41015318 0.11528850 -0.00000054
-0.01153796 -0.71716225 0.00000000
0.54582351 -0.44014260 -0.00000014
0.37109140 -0.68525314 0.00000000
-0.10401525 -0.60864770 0.00000000
0.20771749 -0.46828020 0.00000000
0.75235444 -0.06175923 -0.00000169
0.11705254 -0.25380188 0.00000000
-0.39020771 -0.40739939 0.00000000
0.45232168 0.07532434 -0.00000065
0.55606031 -0.69687074 0.00000000
-0.06093880 0.58601320 0.00000000
-0.67669868 -0.46451068 -0.00000033
-0.29797456 -0.45876426 0.00000000
0.41384587 -0.29652438 0.00000000
0.44231531 -0.45727783 0.00000000
-0.12754278 -0.49246171 0.00000000
0.63171136 -0.14028984 -0.00000103
0.75917143 -0.70854217 -0.00000023
0.01955310 0.39579517 0.00000000
0.15256764 -0.50106007 0.00000000
0.58587837 -0.16983303 -0.00000079
0.14759360 -0.67582929 0.00000000
0.49971029 -0.19023333 -0.00000038
0.50060844 0.25884846 -0.00000118
0.41743767 -0.03136730 -0.00000031
0.52407986 0.15067604 -0.00000109
-0.10630937 -0.48718178 0.00000000
0.30465108 -0.79830533 0.00000000
-0.50734258 -0.66008222 0.00000000
0.65715319 0.02388169 -0.00000143
0.02388034 0.12350987 0.00000000
-0.57475060 -0.09507913 -0.00000044
-0.05987122 -0.54260504 0.00000000
-0.33522984 -0.08272646 0.00000000
0.33432046 0.07925370 -0.00000015
-0.45992509 0.18819027 -0.00000044
0.09600626 0.41169050 0.00000000
0.08087867 -0.10801901 0.00000000
-0.65383488 -0.61340624 -0.00000015
-0.43822879 -0.59935361 0.00000000
0.06674610 -0.52574152 0.00000000
-0.06586414 -0.09959261 0.00000000
0.35736176 -0.47262746 0.00000000
-0.21331857 0.57323992 -0.00000025
-0.69896424 -0.28819230 -0.00000053
-0.06563088 0.64646488 -0.00000000
0.16631860 0.35484546 0.00000000
0.21167836 -0.75808221 0.00000000
-0.24830282 -0.31485301 0.00000000
-0.23420177 0.45731521 -0.00000020
-0.76684415 -0.02770365 -0.00000090
-0.71862262 -0.67637569 -0.00000015
0.00796400 0.07784165 0.00000000
-0.31764302 0.31328031 -0.00000025
0.06371645 -0.64351499 0.00000000
0.16849665 -0.72816837 0.00000000
-0.35440814 -0.10978385 0.00000000
-0.43453145 -0.65931904 0.00000000
0.09409022 -0.20489083 0.00000000
-0.18825372 0.10899081 0.00000000
0.48766330 -0.25242022 -0.00000022
-0.74340421 -0.68745750 -0.00000014
0.04213926 0.12998028 0.00000000
-0.55164409 0.07375267 -0.00000054
0.02955545 -0.05097214 0.00000000
-0.33258435 -0.43989646 0.00000000
0.36059713 -0.47744000 0.00000000
-0.15634364 -0.08980840 0.00000000
0.04974361 -0.48466015 0.00000000
0.23943201 -0.60751480 0.00000000
0.18574303 0.15924458 0.00000000
-0.32581657 -0.12863199 0.00000000
-0.51674682 -0.33562019 -0.00000010
-0.14147390 -0.05558291 0.00000000
-0.43062633 0.25293744 -0.00000044
0.24233781 0.04519909 0.00000000
0.49293363 -0.48114222 0.00000000
0.16950940 -0.69413042 0.00000000
-0.32102069 0.09068456 -0.00000006
0.21397978 0.04686805 0.00000000
-0.47764423 0.04628806 -0.00000035
-0.17460990 0.03572235 0.00000000
-0.21852738 0.16566975 0.00000000
-0.21715802 -0.08286412 0.00000000
0.36104608 -0.39382896 0.00000000
-0.07017994 -0.18352675 0.00000000
-0.27239451 -0.76400882 0.00000000
-0.64971095 -0.74128121 -0.00000002
0.79742986 -0.25425068 -0.00000136
0.44728866 -0.16142263 -0.00000021
-0.30056432 -0.58320427 0.00000000
-0.25099036 -0.78639793 0.00000000
0.46217743 -0.37507576 0.00000000
0.07209238 -0.36720669 0.00000000
-0.11411921 -0.09621521 0.00000000
0.42495441 -0.32777098 0.00000000
-0.51819706 0.10212974 -0.00000049
0.00219141 -0.44149134 0.00000000
0.40953058 -0.40080261 0.00000000
-0.50709701 0.18992576 -0.00000054
-0.15136793 0.55979007 -0.00000011
0.05767021 -0.79570448 0.00000000
-0.20039181 0.51626915 -0.00000018
-0.49879584 -0.57785320 0.00000000
-0.33591911 0.11544182 -0.00000011
0.58541995 -0.23117363 -0.00000068
-0.40608463 -0.36751086 0.00000000
-0.26272833 -0.74314618 0.00000000
0.76065981 -0.20443647 -0.00000147
0.08890123 0.43275413 0.00000000
0.04594860 -0.29567319 0.00000000
0.79160035 -0.41474959 -0.00000096
0.10504682 0.68117738 -0.00000024
0.77560937 -0.72006553 -0.00000020
-0.00951157 -0.66958821 0.00000000
-0.78356773 -0.14656590 -0.00000082
0.37021160 -0.34099042 0.00000000
-0.66508049 -0.28477627 -0.00000046
-0.02118852 0.08906751 0.00000000
0.09083370 0.28629437 0.00000000
0.08275658 -0.22745775 0.00000000
0.55242532 0.04122891 -0.00000102
-0.52709532 0.23052253 -0.00000062
-0.56343204 -0.13970265 -0.00000037
0.34339061 0.25627387 -0.00000050
-0.72512257 -0.00590228 -0.00000084
-0.13850187 -0.16988993 0.00000000
-0.53744650 -0.73658729 0.00000000
-0.25178701 -0.08091216 0.00000000
-0.50466299 -0.06913924 -0.00000031
0.05342508 -0.21430452 0.00000000
0.40247545 0.28801095 -0.00000081
0.61624444 0.12564006 -0.00000144
-0.14292160 -0.41865358 0.00000000
-0.25215432 0.43009672 -0.00000021
-0.16106473 -0.60423499 0.00000000
-0.03862603 0.33783099 0.00000000
0.11753261 0.60810214 -0.00000016
0.01171758 -0.42986318 0.00000000
0.44152814 -0.28175434 0.00000000
0.60994351 0.15017325 -0.00000145
0.43757993 -0.06544709 -0.00000034
0.67989475 -0.53330338 -0.00000054
-0.37885278 0.34271663 -0.00000040
0.29269472 0.45039514 -0.00000063
-0.61435068 -0.16458625 -0.00000046
-0.55552006 0.12651204 -0.00000059
0.31904110 -0.39189422 0.00000000
-0.24937348 0.15903753 0.00000000
-0.33048028 0.34264255 -0.00000030
-0.29085436 0.21578074 -0.00000010
-0.75662148 -0.32477409 -0.00000059
-0.06942596 0.13813739 0.00000000
0.18162008 0.00753798 0.00000000
-0.52471715 -0.41144660 -0.00000005
-0.27734324 -0.34059876 0.00000000
-0.69173396 -0.43274415 -0.00000039
-0.50903589 -0.18589625 -0.00000021
0.64634967 -0.38367137 -0.00000067
-0.67825258 -0.24197838 -0.00000053
0.28134134 -0.52328169 0.00000000
-0.18073833 -0.53251165 0.00000000
-0.79311204 -0.45382488 -0.00000043
-0.14434353 0.12119505 0.00000000
0.78329879 -0.77181059 -0.00000007
0.07056684 0.16643377 0.00000000
-0.27679852 -0.63593644 0.00000000
0.61301476 -0.42018870 -0.00000046
-0.37588033 0.21230964 -0.00000028
-0.35979068 -0.07867576 0.00000000
0.02212994 -0.79451931 0.00000000
0.07786853 -0.57613671 0.00000000
-0.11115044 0.04634155 0.00000000
0.68604827 -0.01331599 -0.00000149
-0.09565572 -0.53056711 0.00000000
-0.07923535 0.61594510 -0.00000001
0.69045490 -0.36495307 -0.00000089
0.49846274 -0.62788129 0.00000000
-0.16471763 -0.04827744 0.00000000
0.30020109 -0.74482590 0.00000000
-0.27593288 0.24084969 -0.00000009
0.58389980 0.19489916 -0.00000142
-0.43257481 -0.02069356 -0.00000020
0.30117753 -0.22671811 0.00000000
0.61823332 -0.33137295 -0.00000064
-0.70591307 -0.74286938 -0.00000007
0.50452149 0.08699367 -0.00000089
-0.76924127 -0.00484068 -0.00000093
0.54748046 -0.27364126 -0.00000044
0.09602534 -0.45423034 0.00000000
0.09436506 0.63792038 -0.00000012
0.43053013 -0.38528922 0.00000000
0.01019036 -0.25879869 0.00000000
-0.67110491 -0.22075957 -0.00000053
-0.71106136 -0.39178178 -0.00000046
0.05234472 -0.43122572 0.00000000
0.34899721 0.03913123 -0.00000014
0.37465706 -0.05386150 -0.00000009
0.03695568 -0.74762243 0.00000000
-0.20308344 0.24477015 0.00000000
0.31020516 -0.71814793 0.00000000
0.22137398 -0.19934411 0.00000000
0.29635981 -0.41033658 0.00000000
0.04841246 -0.26663691 0.00000000
0.25145760 -0.66719252 0.00000000
-0.66983747 -0.33374670 -0.00000043
-0.26217908 -0.08810564 0.00000000
-0.06835797 0.38458675 0.00000000
-0.08896189 0.64232898 -0.00000005
0.34586948 0.37890527 -0.00000073
0.11246398 0.20333685 0.00000000
0.55813891 -0.48024598 -0.00000012
-0.65829146 -0.23132294 -0.00000049
0.41933590 -0.12936619 -0.00000015
-0.74187422 -0.23722342 -0.00000067
-0.45582452 0.22872309 -0.00000047
-0.28568739 -0.63147438 0.00000000
0.00393530 -0.15471007 0.00000000
-0.59031409 -0.06508887 -0.00000050
0.47374094 -0.20377354 -0.00000025
0.34495515 -0.67255074 0.00000000
-0.43223268 -0.21319994 -0.00000003
0.37914315 0.30178830 -0.00000074
-0.31196147 -0.28975794 0.00000000
-0.75578618 -0.13386387 -0.00000079
-0.22107293 -0.22758242 0.00000000
-0.39989841 0.31559974 -0.00000043
0.14383085 -0.49700311 0.00000000
0.46070600 -0.38508621 0.00000000
-0.68460602 -0.50557590 -0.00000031
-0.14061509 -0.18123960 0.00000000
0.70850629 -0.38563418 -0.00000093
-0.13421655 0.03134588 0.00000000
0.07935291 -0.68515366 0.00000000
0.34554771 0.41270533 -0.00000079
0.64425719 -0.70980352 -0.00000008
-0.52338898 -0.70402902 0.00000000
0.63830739 -0.32675409 -0.00000073
-0.26790845 0.21722277 -0.00000006
-0.79059899 -0.71876264 -0.00000010
0.41627669 0.33922473 -0.00000096
-0.58391184 0.04405759 -0.00000058
0.39529288 0.19925512 -0.00000063
-0.44890228 -0.69308752 0.00000000
0.33699128 -0.37643239 0.00000000
-0.19941252 -0.27288052 0.00000000
-0.56690949 -0.74911839 0.00000000
-0.04517905 -0.16608466 0.00000000
-0.08354292 0.30914003 0.00000000
0.65285689 -0.59596753 -0.00000032
-0.41554207 0.05921339 -0.00000023
-0.15897065 -0.04986642 0.00000000
0.48074555 -0.60456318 0.00000000
0.28394514 0.24040817 -0.00000022
-0.61486846 -0.54134262 -0.00000013
