ply
format ascii 1.0
element vertex 1368
property float x
property float y
property float z
end_header
-0.62767470 -0.53653389 -0.00000032
-0.25780514 -0.06601689 0.00000000
-0.73353487 -0.10220547 -0.00000154
-0.07925605 0.19108693 0.25924441
-0.54455763 0.16123800 -0.00000119
-0.29729307 -0.52877897 0.00000000
-0.72069597 -0.40712708 -0.00000094
-0.60324311 -0.59374505 -0.00000011
-0.10641847 -0.68356848 0.34809154
-0.60398209 -0.62310535 -0.00000006
-0.18293595 -0.47849363 0.00000000
-0.11687243 0.38329077 0.00000000
-0.09179422 0.10349075 0.00000000
-0.51531637 -0.63456994 0.00000000
-0.03128769 -0.19321308 0.00000000
-0.04879817 -0.61861718 0.15961732
-0.65273076 -0.41025814 -0.00000065
-0.03151633 0.06666178 0.10308894
-0.36539865 -0.61394459 0.00000000
-0.76525426 0.01886415 -0.00000189
-0.69578868 -0.40819106 -0.00000083
-0.52515316 -0.01765819 -0.00000080
-0.09766479 -0.27687648 0.00000000
-0.68789232 -0.07951065 -0.00000138
-0.52798259 -0.19651742 -0.00000049
-0.38105056 -0.23084468 0.00000000
-0.63708031 -0.37548661 -0.00000064
-0.17105980 0.40400964 -0.00000003
-0.75661522 -0.20668603 -0.00000145
-0.33100832 -0.48394898 0.00000000
-0.02405821 0.25599882 0.00000000
-0.63816190 -0.36703765 -0.00000066
-0.40346539 0.23980993 -0.00000073
-0.06582158 0.31590301 0.21530078
-0.03838024 -0.37164259 0.12554058
-0.54273951 -0.13864262 -0.00000066
-0.21685234 -0.22125950 0.70932263
-0.38869798 -0.12855503 -0.00000002
-0.13000748 0.24963497 0.00000000
-0.12008219 -0.29964972 0.39278516
-0.22137249 -0.59421104 0.00000000
-0.12293980 -0.04380481 0.40213349
-0.31729591 -0.12733154 0.00000000
-0.63096464 -0.63409632 -0.00000016
-0.48726270 -0.57871425 0.00000000
-0.11477877 0.36871406 0.00000000
-0.27576342 -0.35554278 0.00000000
-0.20110606 -0.25032276 0.65781593
-0.40916947 0.21662112 -0.00000071
-0.72497207 -0.21994875 -0.00000129
-0.21031918 -0.28842631 0.00000000
-0.75855631 -0.74322522 -0.00000014
-0.02934817 -0.27696934 0.09599696
-0.01974815 -0.78611201 0.00000000
-0.05823949 -0.39948386 0.00000000
-0.20672853 -0.78772986 0.67620319
-0.29152226 -0.04396771 0.00000000
-0.63305402 -0.05380961 -0.00000119
-0.07135843 0.42800319 0.00000000
-0.33865467 -0.46378866 0.00000000
-0.11432666 -0.40912110 0.37395900
-0.00579979 0.51081729 0.01897094
-0.06764877 -0.35562980 0.22127704
-0.18453516 -0.34293786 0.60361147
-0.06591291 0.43297374 0.00000000
-0.30787086 -0.54989111 0.00000000
-0.43908802 0.02550940 -0.00000050
-0.11305072 0.61520755 -0.00000016
-0.61281854 -0.14717171 -0.00000094
-0.12914969 -0.64149415 0.00000000
-0.00005786 -0.02675877 0.00018926
-0.02251639 -0.58804840 0.07365043
-0.01973763 -0.55384523 0.06456118
-0.34596580 -0.01913249 -0.00000003
-0.75477654 -0.33428979 -0.00000116
-0.04466727 -0.79158694 0.14610527
-0.09279027 -0.52841020 0.30351412
-0.05453703 -0.50795048 0.17838895
-0.40185997 -0.33559680 0.00000000
-0.36351535 -0.55143064 0.00000000
-0.17534687 -0.72028512 0.57355422
-0.13613176 0.45280561 0.00000000
-0.29399952 -0.50670016 0.00000000
-0.00722865 -0.79230261 0.02364469
-0.32381961 -0.22720838 0.00000000
-0.20661615 0.00201120 0.67584133
-0.19779974 0.55897164 -0.00000042
-0.00339797 -0.17637070 0.01111465
-0.42213967 0.31922963 -0.00000095
-0.14694516 0.34217364 0.00000000
-0.18733484 -0.38570383 0.00000000
-0.09612349 0.55305260 0.00000000
-0.56682134 -0.37963715 -0.00000033
-0.53888059 0.03295487 -0.00000094
-0.08158875 0.56426388 0.00000000
-0.15641731 0.28315112 0.00000000
-0.37923163 -0.47993392 0.00000000
-0.36632666 -0.53525102 0.00000000
-0.02503527 0.60202748 0.08188965
-0.53410023 0.17035218 -0.00000117
-0.72799659 -0.51104468 -0.00000072
-0.04120311 -0.21864161 0.00000000
-0.18608792 -0.10268886 0.00000000
-0.02739023 0.28639361 0.08959260
-0.51690060 -0.03376431 -0.00000073
-0.67052507 -0.47021222 -0.00000062
-0.14105745 0.12289279 0.00000000
-0.44026589 -0.46134064 0.00000000
-0.54829234 -0.07518276 -0.00000079
-0.19621640 -0.32102141 0.00000000
-0.67155325 -0.15303729 -0.00000118
-0.21175148 0.49767208 -0.00000037
-0.12898143 -0.79352915 0.42189428
-0.12471570 -0.62971503 0.40794122
-0.00144192 0.71068913 0.00471648
-0.21757598 -0.00048606 0.00000000
-0.11067843 -0.76986247 0.36202574
-0.49306992 0.00710001 -0.00000070
-0.34324896 -0.72400969 0.00000000
-0.74219596 -0.45790011 -0.00000086
-0.63415712 -0.29193848 -0.00000078
-0.65970033 0.05497613 -0.00000150
-0.50321269 -0.21311611 -0.00000036
-0.52791369 -0.05535669 -0.00000074
-0.17297758 -0.72398937 0.00000000
-0.21648170 0.16706333 0.00000000
-0.13257603 -0.69361377 0.43365213
-0.23726870 0.27858481 -0.00000009
-0.71406966 -0.55785251 -0.00000061
-0.34311685 0.13843977 -0.00000029
-0.07019453 0.30027092 0.00000000
-0.77606189 -0.43721330 -0.00000091
-0.10534825 -0.01637487 0.34459126
-0.51804662 0.27847630 -0.00000124
-0.42134178 0.10210941 -0.00000056
-0.12459634 0.41540664 0.00000000
-0.03893204 -0.53680646 0.12734550
-0.12466128 -0.28099853 0.00000000
-0.74468273 -0.34050328 -0.00000115
-0.38877243 0.14944454 -0.00000051
-0.01730761 -0.36308238 0.05661266
-0.39463279 0.06016252 -0.00000038
-0.05628034 -0.73754555 0.00000000
-0.32671797 -0.50590307 0.00000000
-0.43171310 0.00918837 -0.00000044
-0.31241345 -0.15721545 0.00000000
-0.44272098 -0.64396203 0.00000000
-0.64085108 -0.00700075 -0.00000131
-0.18452513 -0.11412168 0.60358024
-0.25428388 -0.43375579 0.00000000
-0.32839221 -0.33582392 0.00000000
-0.08368933 0.58210862 0.00000000
-0.33888873 -0.37779841 0.00000000
-0.06122502 0.25788185 0.20026515
-0.02422431 -0.58092612 0.07923698
-0.52147657 0.20941883 -0.00000118
-0.06527911 -0.36687753 0.21352597
-0.44327080 -0.29493102 0.00000000
-0.14428137 -0.19747134 0.00000000
-0.10917327 0.38050944 0.00000000
-0.03013930 -0.18735096 0.09858473
-0.63586104 -0.20255490 -0.00000094
-0.07435736 0.33710283 0.24322169
-0.08929705 0.30187172 0.00000000
-0.49756357 -0.03360776 -0.00000065
-0.34399432 -0.23927219 0.00000000
-0.01305719 -0.29844406 0.00000000
-0.37391743 -0.04297187 -0.00000011
-0.05804863 -0.40202847 0.18987527
-0.64059067 -0.13085163 -0.00000109
-0.39249098 -0.38518670 0.00000000
-0.20864706 -0.79743552 0.68247861
-0.32626700 -0.17057948 0.00000000
-0.04405692 0.42098582 0.14410883
-0.00188320 0.09096573 0.00615989
-0.16548610 -0.66660744 0.00000000
-0.55718195 -0.50720280 -0.00000007
-0.33446041 -0.76407301 0.00000000
-0.00489544 -0.73710293 0.01601283
-0.50037056 -0.59663564 0.00000000
-0.24832132 -0.40739360 0.00000000
-0.09991615 -0.65374148 0.00000000
-0.27800366 -0.67335463 0.00000000
-0.08658947 -0.47922185 0.28323150
-0.20776613 0.34238437 -0.00000008
-0.11122854 0.16396104 0.36382708
-0.13242608 0.16026671 0.00000000
-0.35908878 0.17895809 -0.00000043
-0.13769658 -0.66597509 0.00000000
-0.09090127 0.50779593 0.00000000
-0.16211960 -0.60051626 0.53028822
-0.15797557 -0.36730427 0.51673418
-0.04655223 0.68071705 0.00000000
-0.04033757 0.25154433 0.13194296
-0.39481097 -0.71592194 0.00000000
-0.16951318 -0.49037978 0.55447316
-0.34056059 -0.07894564 0.00000000
-0.18665922 0.19093423 0.00000000
-0.51045245 -0.09725070 -0.00000059
-0.71908963 -0.58946997 -0.00000053
-0.31801963 0.14057787 -0.00000019
-0.08041310 0.32286566 0.26303008
-0.52409106 -0.61004561 0.00000000
-0.57677799 -0.59086490 -0.00000000
-0.06452304 0.07137639 0.00000000
-0.28811628 0.07184631 0.00000000
-0.02137535 0.42212221 0.06991811
-0.44417784 -0.29921198 0.00000000
-0.73181903 -0.66100621 -0.00000035
-0.16916507 0.00050097 0.00000000
-0.62721872 -0.79626065 0.00000000
-0.68276614 -0.75363237 -0.00000012
-0.14363901 -0.04548548 0.00000000
-0.27156377 -0.45649803 0.00000000
-0.18602493 0.55669218 -0.00000036
-0.10226812 -0.21358117 0.00000000
-0.15813237 0.53749561 -0.00000021
-0.18780854 0.53288245 -0.00000033
-0.06640493 -0.22497919 0.00000000
-0.64075154 -0.79831791 0.00000000
-0.14382270 0.61400115 -0.00000028
-0.18177903 -0.04815154 0.59459811
-0.09648205 0.07971971 0.31559035
-0.09607827 0.26931384 0.00000000
-0.58947986 0.18824096 -0.00000143
-0.29279590 -0.48797557 0.00000000
-0.04044674 -0.77089119 0.00000000
-0.03798701 -0.11766895 0.12425434
-0.06151234 0.10663723 0.20120497
-0.00168991 0.48585498 0.00552764
-0.03160088 -0.42453122 0.10336551
-0.19329129 -0.27204558 0.00000000
-0.71427411 -0.65474999 -0.00000036
-0.06584437 -0.76221091 0.21537492
-0.57744521 -0.43484843 -0.00000028
-0.01838834 -0.59371138 0.06014769
-0.27950913 -0.52066725 0.00000000
-0.35844147 -0.30847874 0.00000000
-0.38170627 -0.14429170 0.00000000
-0.02294759 -0.32429531 0.00000000
-0.21832018 -0.09871275 0.00000000
-0.38030145 0.41302177 -0.00000094
-0.75491494 -0.45438510 -0.00000086
-0.66346973 -0.33172640 -0.00000083
-0.78630334 -0.19961226 -0.00000150
-0.12045022 -0.63498336 0.39398897
-0.29034203 0.27721182 -0.00000031
-0.18102460 -0.76302832 0.59212589
-0.57104808 -0.01606451 -0.00000099
-0.28584704 0.14668705 -0.00000007
-0.18874201 -0.46678358 0.00000000
-0.30392104 -0.26412848 0.00000000
-0.50564104 0.24607143 -0.00000118
-0.33100572 -0.39234158 0.00000000
-0.21197879 -0.72414982 0.69337732
-0.13662899 -0.55266875 0.44690922
-0.02942099 -0.09700834 0.09623515
-0.54261345 -0.50795841 -0.00000000
-0.73384058 -0.10001835 -0.00000154
-0.46461588 -0.73255867 0.00000000
-0.50051171 -0.33677888 -0.00000013
-0.50098920 -0.25296971 -0.00000028
-0.04207354 -0.58516800 0.13762125
-0.26382059 0.10554347 0.00000000
-0.51949316 -0.15477687 -0.00000053
-0.18613261 -0.01347056 0.60883904
-0.16122837 -0.14357339 0.00000000
-0.78598738 -0.53479159 -0.00000066
-0.37017843 0.15039054 -0.00000043
-0.22184433 -0.08480815 0.00000000
-0.12541837 0.20393389 0.41024265
-0.41164058 0.37773880 -0.00000101
-0.02661572 0.41309008 0.08705920
-0.63324630 -0.66402602 -0.00000011
-0.21425270 0.04659356 0.00000000
-0.07571626 -0.00346383 0.24766555
-0.07377400 0.47233912 0.24131444
-0.10405093 -0.34848678 0.34034738
-0.09825384 0.65927619 -0.00000017
-0.58571422 -0.07079039 -0.00000096
-0.17678031 0.45758897 -0.00000015
-0.11781500 0.09779376 0.38537112
-0.59458470 -0.09627131 -0.00000095
-0.79996979 -0.74525112 -0.00000014
-0.13548169 -0.11309276 0.44315785
-0.69951826 -0.70427978 -0.00000024
-0.50780743 -0.47090560 0.00000000
-0.02022349 0.50095165 0.06615041
-0.63198626 -0.38068911 -0.00000061
-0.08337844 -0.09573950 0.00000000
-0.08653556 0.22357541 0.00000000
-0.19788472 -0.17603619 0.64727938
-0.25614560 -0.53063184 0.00000000
-0.39369243 0.15756637 -0.00000054
-0.11987611 -0.45460114 0.39211106
-0.31228015 -0.39519811 0.00000000
-0.41421348 0.09962248 -0.00000053
-0.03595534 0.14802684 0.00000000
-0.79839033 -0.28928196 -0.00000128
-0.29032707 -0.55137628 0.00000000
-0.33028021 0.25102443 -0.00000044
-0.13833687 -0.21158276 0.00000000
-0.31824133 0.01276707 0.00000000
-0.32220101 0.04036796 -0.00000003
-0.58562738 -0.63032663 0.00000000
-0.04477596 0.47633326 0.00000000
-0.20855606 -0.04749759 0.00000000
-0.17625704 0.17249967 0.57653707
-0.26220077 -0.16601910 0.00000000
-0.07069906 -0.67618698 0.23125444
-0.47738332 -0.76315147 0.00000000
-0.72985625 -0.62337983 -0.00000044
-0.37699088 -0.57214481 0.00000000
-0.02739770 0.17178170 0.08961703
-0.58157003 -0.16344672 -0.00000078
-0.71000528 -0.73066229 -0.00000017
-0.44775608 0.30217251 -0.00000103
-0.47238591 -0.38464138 0.00000000
-0.25614458 -0.70346034 0.00000000
-0.15997408 0.06309571 0.00000000
-0.35600218 0.33574969 -0.00000070
-0.16446009 -0.59855163 0.00000000
-0.24436298 0.12555878 0.00000000
-0.44892985 -0.37037063 0.00000000
-0.13263704 0.07574054 0.00000000
-0.63266015 0.06881897 -0.00000141
-0.62087762 -0.76419395 0.00000000
-0.00133554 0.75331861 0.00436851
-0.22645786 -0.66954738 0.74073881
-0.61614007 -0.77652550 0.00000000
-0.46122691 -0.00514601 -0.00000055
-0.01674951 -0.49750817 0.05478714
-0.21670865 -0.57289153 0.00000000
-0.29284751 -0.06070633 0.00000000
-0.10333968 0.19426046 0.33802262
-0.13532099 0.42450628 0.00000000
-0.04284569 -0.03939415 0.00000000
-0.04126329 0.67907292 0.00000000
-0.09721417 0.34115115 0.31798694
-0.63351291 -0.41107467 -0.00000056
-0.09176009 -0.09914389 0.00000000
-0.05154106 -0.71963406 0.00000000
-0.23439051 -0.28536901 0.00000000
-0.43994540 0.12139411 -0.00000068
-0.11898261 -0.23633270 0.38918847
-0.50387627 0.21348757 -0.00000111
-0.05790746 -0.68620342 0.18941352
-0.65143919 -0.31571370 -0.00000081
-0.74943393 -0.03400588 -0.00000172
-0.38928685 0.12834714 -0.00000047
-0.06868370 -0.32584813 0.00000000
-0.25003940 -0.23131908 0.00000000
-0.16054904 -0.63863629 0.00000000
-0.55892521 -0.19006184 -0.00000064
-0.77537566 -0.07642289 -0.00000176
-0.49996307 -0.53787607 0.00000000
-0.09034435 0.35519707 0.00000000
-0.28572151 0.16170751 -0.00000009
-0.02329981 0.08322853 0.07621296
-0.56157070 -0.63097811 0.00000000
-0.06593312 0.17432143 0.21566522
-0.11662674 -0.38873106 0.00000000
-0.24329582 -0.20673659 0.00000000
-0.33663416 0.08827010 -0.00000018
-0.13343409 -0.39698040 0.00000000
-0.04474099 0.31077594 0.14634641
-0.12360759 -0.51850814 0.40431663
-0.05914039 0.07426539 0.19344640
-0.63208246 0.04800978 -0.00000137
-0.69162250 -0.64624584 -0.00000038
-0.24307679 -0.48461643 0.00000000
-0.18235570 -0.31066486 0.00000000
-0.30689234 0.46345040 -0.00000071
-0.03156464 -0.52241194 0.10324697
-0.31354442 -0.08001044 0.00000000
-0.12240500 0.20940733 0.40038589
-0.42901564 0.12681507 -0.00000064
-0.11430989 -0.59283400 0.37390414
-0.11523512 0.66496605 -0.00000025
-0.23993561 -0.43746775 0.00000000
-0.17503282 0.17770968 0.57253265
-0.77039587 -0.15775032 -0.00000159
-0.27280429 -0.57534069 0.00000000
-0.07075130 0.40660852 0.23142664
-0.47227421 -0.16538092 -0.00000031
-0.29453960 -0.62285483 0.00000000
-0.54598856 -0.68266207 0.00000000
-0.06911533 -0.07109998 0.22607413
-0.15774933 -0.09831273 0.00000000
-0.07411031 0.28585452 0.24241321
-0.18187299 -0.26706061 0.00000000
-0.39404640 -0.66948187 0.00000000
-0.05762684 0.29702276 0.00000000
-0.16322277 -0.58705169 0.00000000
-0.63401735 -0.66065091 -0.00000012
-0.12010195 -0.02901299 0.39285091
-0.05434529 0.33744913 0.17776178
-0.50898176 -0.46987072 0.00000000
-0.58920515 0.02557743 -0.00000115
-0.16101447 -0.62563622 0.00000000
-0.40310159 0.39509153 -0.00000100
-0.00627416 0.34325388 0.02052258
-0.79443753 -0.46031001 -0.00000085
-0.47742310 -0.54270262 0.00000000
-0.41859207 0.27014607 -0.00000085
-0.34736949 0.34446207 -0.00000068
-0.19624242 -0.44244331 0.00000000
-0.14899082 -0.70148766 0.00000000
-0.73907584 -0.67148685 -0.00000032
-0.10857094 0.27274248 0.35513476
-0.01639038 0.16828385 0.00000000
-0.16627441 0.13773812 0.00000000
-0.21183638 -0.05192454 0.00000000
-0.13914646 -0.71835244 0.00000000
-0.56439114 -0.04636132 -0.00000091
-0.51463228 -0.49285561 0.00000000
-0.06717463 0.49147776 0.21972784
-0.39120284 0.01811418 -0.00000029
-0.01448927 0.61959976 0.04739396
-0.19880827 -0.78244001 0.65029603
-0.61828238 -0.42518502 -0.00000047
-0.26939130 -0.36653095 0.00000000
-0.12436300 -0.71375346 0.40678754
-0.17683695 -0.40703464 0.00000000
-0.44193491 -0.77850235 0.00000000
-0.14019065 -0.09628392 0.45856109
-0.10578094 0.09191525 0.00000000
-0.07645249 0.12239897 0.00000000
-0.10012509 0.13560434 0.00000000
-0.10780967 -0.41796809 0.35264212
-0.24410310 -0.33002084 0.00000000
-0.43198907 -0.46453997 0.00000000
-0.22189660 0.06419580 0.00000000
-0.18134490 0.28231400 0.00000000
-0.13310434 0.49437159 -0.00000003
-0.00273205 0.62330282 0.00000000
-0.37892085 0.15445139 -0.00000048
-0.29902545 0.03995140 0.00000000
-0.60254914 -0.35876846 -0.00000052
-0.22549628 -0.18523835 0.00000000
-0.74071354 -0.76436698 -0.00000009
-0.07549387 -0.13026415 0.24693814
-0.63321304 -0.58865321 -0.00000025
-0.25752002 -0.35953826 0.00000000
-0.25617018 0.07900291 0.00000000
-0.05251886 -0.07953718 0.17178757
-0.57073075 -0.76494288 0.00000000
-0.24838454 -0.69397503 0.00000000
-0.00492076 -0.71929270 0.01609566
-0.40047550 0.21498959 -0.00000067
-0.39062360 -0.36669669 0.00000000
-0.64829087 -0.68874425 -0.00000014
-0.28693539 0.41951087 -0.00000055
-0.05002610 0.41452020 0.16363403
-0.00730766 -0.15109596 0.02390313
-0.63612646 -0.10833065 -0.00000111
-0.54229635 -0.79750967 0.00000000
-0.71006721 -0.75770414 -0.00000011
-0.05829504 0.31858692 0.00000000
-0.02198560 0.52144980 0.00000000
-0.16805826 0.31109810 0.00000000
-0.14195779 0.13733418 0.00000000
-0.58349383 -0.04047787 -0.00000100
-0.30123979 -0.69553643 0.00000000
-0.57228386 -0.56855470 -0.00000002
-0.64502561 -0.36981007 -0.00000068
-0.27525860 -0.56854498 0.00000000
-0.05842556 -0.43930459 0.19110821
-0.44921476 -0.33300537 0.00000000
-0.07591170 0.57810438 0.00000000
-0.07737509 -0.11441369 0.25309154
-0.50941122 0.15448153 -0.00000103
-0.05327754 0.03327206 0.17426920
-0.68438900 0.02719424 -0.00000155
-0.41691959 -0.33058837 0.00000000
-0.21770537 -0.49535006 0.00000000
-0.45150205 -0.41024509 0.00000000
-0.54108679 0.00927942 -0.00000091
-0.71410817 -0.21835154 -0.00000125
-0.05328095 -0.78751087 0.00000000
-0.20873451 0.37102997 -0.00000013
-0.56313145 -0.78610694 0.00000000
-0.17214075 -0.22662278 0.00000000
-0.38315827 -0.18120879 0.00000000
-0.05801328 -0.45857549 0.18975966
-0.23772138 -0.36730289 0.00000000
-0.06786661 0.51994270 0.00000000
-0.08060600 -0.49781647 0.26365975
-0.05820771 0.09645429 0.00000000
-0.29468346 0.19382748 -0.00000019
-0.10072937 -0.39126614 0.32948267
-0.09411772 -0.51625794 0.00000000
-0.09360163 -0.49111480 0.30616805
-0.43295842 -0.10921320 -0.00000024
-0.12644081 0.56944084 -0.00000013
-0.60815567 -0.51184279 -0.00000028
-0.49945754 -0.46712247 0.00000000
-0.10414739 0.32450601 0.00000000
-0.34927708 -0.24909566 0.00000000
-0.11865156 0.39720395 0.00000000
-0.24506836 0.26661023 -0.00000010
-0.25134611 -0.15455887 0.00000000
-0.30511072 0.13939218 -0.00000013
-0.39535972 -0.43658853 0.00000000
-0.68956292 -0.51904494 -0.00000061
-0.63674957 -0.59244347 -0.00000026
-0.11323093 0.06015863 0.37037623
-0.22022712 0.03780964 0.00000000
-0.04412249 -0.48804894 0.00000000
-0.31301153 0.48687664 -0.00000078
-0.15744133 -0.51311100 0.00000000
-0.75771487 -0.69155908 -0.00000027
-0.22215506 -0.74103034 0.72666377
-0.05094979 0.07335497 0.16665520
-0.21587905 0.58167225 -0.00000054
-0.08250683 0.26289088 0.26987830
-0.07168363 -0.55003828 0.23447496
-0.15612368 0.52848297 -0.00000019
-0.31541178 0.22449739 -0.00000033
-0.25188801 -0.53190178 0.00000000
-0.34934860 0.31124920 -0.00000063
-0.27684227 -0.03519034 0.00000000
-0.52835315 -0.34339425 -0.00000023
-0.09881967 -0.25424552 0.00000000
-0.22721428 -0.25645125 0.00000000
-0.39864606 0.19375367 -0.00000063
-0.39356938 0.29041466 -0.00000078
-0.78544152 0.00591102 -0.00000195
-0.00165135 0.22856200 0.00000000
-0.25704393 0.43725136 -0.00000046
-0.16710962 0.14279786 0.00000000
-0.01456254 -0.43795601 0.00000000
-0.62084544 -0.25237012 -0.00000079
-0.46014556 0.21659353 -0.00000093
-0.13494402 -0.05760453 0.00000000
-0.55271798 -0.18845397 -0.00000061
-0.10752515 -0.60768145 0.00000000
-0.42759177 -0.60654318 0.00000000
-0.55985212 0.18031172 -0.00000129
-0.61198562 -0.75502896 0.00000000
-0.48839438 -0.66798109 0.00000000
-0.10023333 0.18894988 0.00000000
-0.29428568 -0.72842491 0.00000000
-0.07527821 -0.60655969 0.24623270
-0.12362116 0.27677354 0.00000000
-0.01609487 -0.47159165 0.05264583
-0.56326365 0.15150560 -0.00000126
-0.60104626 -0.19160426 -0.00000081
-0.12632382 -0.47982702 0.00000000
-0.06725619 -0.66337711 0.00000000
-0.17968845 -0.45545223 0.00000000
-0.47122923 -0.74241000 0.00000000
-0.15415651 -0.53487432 0.00000000
-0.03165674 0.47414258 0.10354822
-0.08198126 0.22090293 0.26815885
-0.39266571 -0.43821478 0.00000000
-0.34496608 0.26313046 -0.00000052
-0.01946260 -0.06821846 0.00000000
-0.65179950 -0.31359544 -0.00000081
-0.66946322 -0.57729894 -0.00000042
-0.50003213 0.29967311 -0.00000125
-0.27243659 0.22797461 -0.00000015
-0.18934008 -0.54947877 0.00000000
-0.20107614 0.58794385 -0.00000048
-0.42775726 0.19443186 -0.00000076
-0.53554475 -0.00370726 -0.00000086
-0.10624382 -0.67220008 0.34752026
-0.75554252 -0.57364011 -0.00000057
-0.05092645 -0.00623168 0.16657886
-0.19344062 0.34279934 -0.00000002
-0.76485527 -0.57221264 -0.00000057
-0.43158466 0.04432306 -0.00000051
-0.07309928 0.39693952 0.00000000
-0.10946344 0.31859124 0.35805446
-0.17284121 -0.28127792 0.00000000
-0.22265925 0.04204781 0.00000000
-0.79004800 -0.77968979 -0.00000005
-0.18424670 0.23052651 0.00000000
-0.00634750 -0.27480581 0.02076248
-0.10516260 -0.40010512 0.34398362
-0.24392167 0.33674431 -0.00000022
-0.05886887 0.40491962 0.19255888
-0.61030692 -0.33654207 -0.00000060
-0.01655208 0.06261616 0.00000000
-0.37708041 -0.28568134 0.00000000
-0.15520518 0.39406174 0.00000000
-0.00960438 -0.52804708 0.03141563
-0.05227407 -0.13096280 0.00000000
-0.03035211 -0.45895201 0.09928083
-0.07526861 -0.56865412 0.00000000
-0.11607507 -0.14730473 0.00000000
-0.27470204 0.31987140 -0.00000032
-0.67747992 -0.03187815 -0.00000142
-0.03583774 0.69244528 0.00000000
-0.06285472 -0.24397478 0.20559587
-0.64272428 -0.24158290 -0.00000090
-0.10943895 -0.29065508 0.00000000
-0.16409048 -0.09721179 0.00000000
-0.05185624 -0.13058367 0.00000000
-0.26922300 -0.68271369 0.00000000
-0.20688824 -0.71311331 0.00000000
-0.11426051 -0.77246684 0.37374261
-0.55165100 -0.44326806 -0.00000016
-0.10362786 0.68891543 -0.00000025
-0.42523602 -0.35529366 0.00000000
-0.07695613 -0.20411757 0.00000000
-0.45246789 -0.24838869 -0.00000008
-0.07262707 0.66339040 -0.00000007
-0.37479204 0.04779023 -0.00000027
-0.79310519 -0.00470408 -0.00000196
-0.01513139 0.67184615 0.00000000
-0.27550769 -0.57611233 0.00000000
-0.20972525 -0.20790088 0.68600982
-0.25414681 -0.29460153 0.00000000
-0.72049791 -0.64442950 -0.00000039
-0.07804854 -0.48090610 0.25529438
-0.30962574 0.07657917 -0.00000004
-0.06929622 -0.40968159 0.00000000
-0.18474142 -0.16672266 0.00000000
-0.08721782 0.20797208 0.00000000
-0.02936999 -0.63211596 0.09606833
-0.15033096 0.00441327 0.49173102
-0.63017684 -0.28740495 -0.00000077
-0.06112526 -0.01180692 0.00000000
-0.60917580 -0.10896393 -0.00000099
-0.12953804 0.02907432 0.00000000
-0.02321155 0.17221379 0.07592427
-0.25475320 -0.66417295 0.00000000
-0.03989934 0.52719307 0.13050991
-0.06705793 0.19321702 0.00000000
-0.42729989 -0.15992968 -0.00000013
-0.08406046 0.08838048 0.27495918
-0.55503482 0.13288496 -0.00000119
-0.65066719 -0.43402663 -0.00000060
-0.08551165 -0.65096855 0.27970597
-0.68825811 -0.23198113 -0.00000111
-0.16923776 -0.76555938 0.55357152
-0.14720443 0.28034076 0.48150596
-0.35425198 -0.54531658 0.00000000
-0.72105473 -0.25219625 -0.00000122
-0.13395539 -0.68409610 0.00000000
-0.10598350 -0.68213397 0.00000000
-0.57823783 0.21697089 -0.00000137
-0.76187247 -0.03345425 -0.00000178
-0.04517721 -0.51493341 0.14777327
-0.29289958 -0.25803953 0.00000000
-0.60951829 -0.29888648 -0.00000066
-0.41590664 -0.27008548 0.00000000
-0.00185701 -0.15637389 0.00607423
-0.16697776 -0.14806029 0.54618210
-0.00443242 -0.39966035 0.00000000
-0.29184580 -0.53763807 0.00000000
-0.07226896 -0.09122222 0.00000000
-0.60985303 -0.69690287 0.00000000
-0.25784877 0.07577993 0.00000000
-0.60296589 0.03646716 -0.00000122
-0.14660376 0.00163819 0.47953925
-0.15579519 0.24445842 0.50960630
-0.09937330 -0.61615247 0.32504702
-0.01858871 -0.19420576 0.00000000
-0.08994709 0.05646554 0.29421416
-0.50710994 0.15580368 -0.00000103
-0.15206490 -0.59519625 0.00000000
-0.26641265 0.51475024 -0.00000063
-0.68894911 0.10407435 -0.00000171
-0.00435617 -0.37739277 0.01424890
-0.31915238 -0.37338743 0.00000000
-0.67145818 0.09130180 -0.00000161
-0.01009225 -0.50518340 0.03301144
-0.03675821 -0.33066884 0.00000000
-0.05382375 -0.09043159 0.00000000
-0.64115334 0.03272475 -0.00000138
-0.78541321 -0.58132863 -0.00000055
-0.05987412 -0.78442341 0.19584641
-0.43087375 -0.08370422 -0.00000028
-0.02014286 -0.02444268 0.06588668
-0.79425806 -0.09187354 -0.00000177
-0.20367415 0.02672765 0.00000000
-0.09428874 0.13449012 0.30841634
-0.49192160 -0.76762187 0.00000000
-0.39744902 0.06672692 -0.00000040
-0.73713309 -0.10957115 -0.00000154
-0.10736812 0.10744410 0.35119915
-0.48568672 -0.59003282 0.00000000
-0.01707562 0.77147824 -0.00000002
-0.04144648 0.59397930 0.00000000
-0.00589541 0.09426292 0.01928370
-0.63302141 -0.70591223 -0.00000004
-0.62086564 -0.70105124 0.00000000
-0.23420776 -0.42650202 0.00000000
-0.01901442 0.68087858 0.06219585
-0.75107014 -0.32936740 -0.00000118
-0.03249101 -0.75651723 0.10627710
-0.06392865 -0.44712925 0.20910865
-0.73319352 -0.05054008 -0.00000163
-0.10297429 0.52040738 0.00000000
-0.21514890 -0.43901128 0.00000000
-0.51464820 0.10290774 -0.00000096
-0.22128487 0.00117996 0.00000000
-0.03851636 0.61069119 0.12598673
-0.16724262 -0.28527871 0.00000000
-0.24988864 -0.15663736 0.00000000
-0.20134404 0.52837962 -0.00000038
-0.08886605 0.60143250 -0.00000003
-0.36105785 -0.58042109 0.00000000
-0.29023430 0.12279403 -0.00000004
-0.68857145 0.10268832 -0.00000171
-0.42183304 0.04750998 -0.00000047
-0.50739646 0.11935292 -0.00000096
-0.13343331 -0.34866759 0.00000000
-0.00838688 -0.17374843 0.02743323
-0.47047913 -0.73969680 0.00000000
-0.44643849 -0.79898751 0.00000000
-0.28246170 -0.05320792 0.00000000
-0.05891277 -0.79092520 0.00000000
-0.18398294 -0.23376533 0.00000000
-0.35723710 -0.45715079 0.00000000
-0.79619443 -0.50819194 -0.00000073
-0.32126865 0.01000235 0.00000000
-0.35056153 0.15760489 -0.00000036
-0.29727584 -0.22513469 0.00000000
-0.19871329 0.27838477 0.00000000
-0.78199029 -0.18445532 -0.00000154
-0.11008225 0.03135479 0.36007661
-0.10621673 -0.20570479 0.34743166
-0.15270981 -0.50001389 0.49950910
-0.38515326 0.00037180 -0.00000023
-0.00191554 0.10447825 0.00000000
-0.08734823 -0.70880562 0.00000000
-0.57796019 -0.07255732 -0.00000092
-0.18547083 0.04291069 0.00000000
-0.11389898 -0.01620958 0.37256092
-0.47853529 -0.04738064 -0.00000054
-0.20685007 -0.22965489 0.00000000
-0.68542451 0.07914863 -0.00000165
-0.78448939 -0.68939453 -0.00000028
-0.28722250 -0.79530352 0.00000000
-0.15112934 -0.29551244 0.00000000
-0.03486294 -0.22457291 0.11403561
-0.10057237 0.14358824 0.00000000
-0.73661393 -0.29241911 -0.00000121
-0.16833973 -0.74216712 0.00000000
-0.08629694 -0.28733835 0.28227463
-0.61279446 -0.22948720 -0.00000080
-0.05380149 -0.19534802 0.00000000
-0.76283175 -0.56669229 -0.00000058
-0.36085311 -0.64714104 0.00000000
-0.00755284 0.21418665 0.00000000
-0.45024195 -0.21561325 -0.00000013
-0.62014133 0.06982104 -0.00000136
-0.10389213 0.15998891 0.00000000
-0.13414751 -0.60654575 0.43879238
-0.47195700 0.15957201 -0.00000088
-0.69747800 -0.28309411 -0.00000106
-0.12289080 0.26953545 0.40197536
-0.01980849 0.47999066 0.06479297
-0.24999940 -0.29463607 0.00000000
-0.45862943 -0.61486328 0.00000000
-0.67166442 -0.71677536 -0.00000019
-0.40894443 -0.03713817 -0.00000027
-0.48899701 -0.60895205 0.00000000
-0.50753105 -0.57982945 0.00000000
-0.29585195 0.04982361 0.00000000
-0.70099342 -0.63638234 -0.00000041
-0.01295543 0.47868109 0.00000000
-0.16533162 -0.74835718 0.00000000
-0.63629949 -0.06793063 -0.00000118
-0.27044848 0.37109679 -0.00000040
-0.01624661 -0.21672720 0.05314216
-0.43264413 -0.41383556 0.00000000
-0.32963413 -0.58275598 0.00000000
-0.02318918 0.32905418 0.07585109
-0.49813661 -0.75679189 0.00000000
-0.31641287 0.13429667 -0.00000017
-0.63812494 -0.58804941 -0.00000027
-0.54208720 -0.25759009 -0.00000044
-0.28832158 -0.24115305 0.00000000
-0.01310582 0.25851920 0.04286874
-0.27052087 -0.09904945 0.00000000
-0.05304150 -0.09084638 0.00000000
-0.61068571 -0.52300304 -0.00000027
-0.03251947 0.05388650 0.10637019
-0.20638882 -0.65494138 0.00000000
-0.79868215 -0.38235897 -0.00000104
-0.27395433 -0.37945709 0.00000000
-0.66403389 -0.46436042 -0.00000060
-0.44875872 -0.18978599 -0.00000017
-0.33609435 -0.07484857 0.00000000
-0.26520330 0.44465324 -0.00000050
-0.17306547 0.02013805 0.56609631
-0.02789953 0.61245179 0.00000000
-0.36520007 -0.23111415 0.00000000
-0.72828722 0.04267337 -0.00000177
-0.15281539 -0.54827815 0.00000000
-0.79191512 -0.68329859 -0.00000029
-0.27526447 0.05591446 0.00000000
-0.03052463 0.30661723 0.09984513
-0.59337759 -0.69441420 0.00000000
-0.28522417 -0.33511400 0.00000000
-0.29411757 -0.63334394 0.00000000
-0.17392446 -0.69017893 0.00000000
-0.52205467 -0.58298659 0.00000000
-0.71522826 0.03150172 -0.00000169
-0.71308219 -0.70211768 -0.00000024
-0.03895777 0.28881955 0.00000000
-0.24209660 0.17249924 0.00000000
-0.45300877 -0.11774285 -0.00000031
-0.00506233 -0.17235765 0.01655872
-0.63917565 0.12331976 -0.00000153
-0.56187105 0.12274360 -0.00000120
-0.65350568 -0.25951853 -0.00000092
-0.06247428 0.48832083 0.20435286
-0.02857355 -0.46533614 0.09346321
-0.27993563 0.50133169 -0.00000067
-0.19392785 -0.10807711 0.63433683
-0.18422948 0.13399687 0.00000000
-0.07695824 -0.21761750 0.25172803
-0.06934354 -0.23638242 0.22682057
-0.12277659 0.10235214 0.40160063
-0.27819282 -0.37173924 0.00000000
-0.71579069 -0.47220585 -0.00000081
-0.64743394 -0.28804061 -0.00000084
-0.20654491 -0.58933920 0.67560416
-0.07066575 -0.54946518 0.00000000
-0.02738041 0.34656793 0.00000000
-0.34333244 -0.22556759 0.00000000
-0.68464667 -0.55597192 -0.00000052
-0.76450217 -0.26964873 -0.00000133
-0.06266065 -0.11582351 0.00000000
-0.34026808 -0.47552618 0.00000000
-0.18811865 -0.46147054 0.00000000
-0.18356007 -0.50717789 0.00000000
-0.55486810 -0.65020496 0.00000000
-0.52619332 0.15433939 -0.00000110
-0.08360066 -0.78550309 0.27345520
-0.41210788 -0.26815188 0.00000000
-0.05152131 0.33418095 0.00000000
-0.01265182 -0.10255551 0.00000000
-0.14246906 -0.47758263 0.00000000
-0.15779060 -0.42109141 0.00000000
-0.04437062 0.47342509 0.00000000
-0.18868902 -0.44330773 0.61719817
-0.67460787 -0.24417543 -0.00000103
-0.12895711 -0.43619567 0.42181474
-0.11880351 -0.09606144 0.00000000
-0.05337413 -0.30613267 0.17458513
-0.00788575 0.67165899 0.02579405
-0.41284692 -0.32990184 0.00000000
-0.48240960 -0.09962564 -0.00000047
-0.07109973 -0.08276640 0.00000000
-0.59963650 -0.22252449 -0.00000075
-0.27158764 -0.15008578 0.00000000
-0.00723369 -0.52768254 0.02366118
-0.11755180 -0.26015961 0.38450834
-0.18808924 0.46055710 -0.00000020
-0.05950463 0.45747265 0.19463883
-0.07258220 -0.29155135 0.00000000
-0.07063628 0.24214065 0.00000000
-0.05336984 -0.12373204 0.17457110
-0.01083009 -0.67665505 0.00000000
-0.35748142 0.40399888 -0.00000083
-0.68746203 -0.05255503 -0.00000143
-0.05138198 0.61637020 0.16807052
-0.03175697 -0.74670708 0.00000000
-0.41487029 -0.62635052 0.00000000
-0.77697670 -0.18967305 -0.00000153
-0.15466426 -0.68757486 0.50590205
-0.68034393 0.04378680 -0.00000157
-0.00200312 -0.74819988 0.00655214
-0.77218741 -0.05057462 -0.00000179
-0.01668109 -0.26167026 0.05456334
-0.03912223 -0.55438793 0.00000000
-0.14724645 -0.32559788 0.00000000
-0.28089219 0.08470558 0.00000000
-0.44727397 -0.27879491 -0.00000000
-0.68074793 0.01872431 -0.00000152
-0.51992661 0.18574293 -0.00000113
-0.14593664 -0.70422018 0.47735426
-0.64104104 -0.55410159 -0.00000034
-0.08260062 -0.24951857 0.27018410
-0.57099938 -0.25210407 -0.00000058
-0.57714647 -0.27918211 -0.00000056
-0.72110355 -0.29770097 -0.00000114
-0.01697132 0.19829959 0.05551266
-0.28917712 -0.34474662 0.00000000
-0.58758998 -0.45202774 -0.00000029
-0.31687111 -0.42172825 0.00000000
-0.51819074 -0.33469766 -0.00000021
-0.44647580 -0.21915627 -0.00000010
-0.15906420 -0.16689438 0.52029651
-0.68652666 0.09439309 -0.00000168
-0.05103402 0.32707611 0.16693071
-0.62490451 -0.69362354 -0.00000003
-0.26700088 -0.50730336 0.00000000
-0.23810847 0.40819266 -0.00000032
-0.04013795 -0.44118440 0.13129000
-0.14613152 -0.35037696 0.47799209
-0.35965288 -0.30100358 0.00000000
-0.36185902 -0.32804510 0.00000000
-0.14531860 -0.38496095 0.00000000
-0.04580964 0.05828079 0.14984193
-0.47146773 0.07341083 -0.00000073
-0.45443609 -0.25631237 -0.00000007
-0.50000036 -0.32617345 -0.00000014
-0.69764912 0.02884298 -0.00000161
-0.59898651 -0.13159241 -0.00000091
-0.06660508 0.48009360 0.21786477
-0.70942789 -0.57718182 -0.00000056
-0.18260774 -0.25692251 0.00000000
-0.03825851 -0.38619941 0.12514241
-0.43141565 -0.43060741 0.00000000
-0.07508675 -0.43861458 0.00000000
-0.60594600 -0.35707363 -0.00000054
-0.34305239 0.38680062 -0.00000073
-0.16693179 -0.23741052 0.54603112
-0.10273070 -0.46701837 0.00000000
-0.09339919 -0.70754981 0.00000000
-0.38815522 -0.57673347 0.00000000
-0.09180375 -0.17041019 0.30028725
-0.14246066 -0.32109728 0.46598482
-0.39981127 -0.33246318 0.00000000
-0.47480494 -0.41174719 0.00000000
-0.06406682 0.13895310 0.00000000
-0.24296764 -0.18962394 0.00000000
-0.09082266 0.16773200 0.29707894
-0.22906870 -0.01418135 0.00000000
-0.02510990 -0.32152158 0.00000000
-0.02894419 -0.28801402 0.00000000
-0.35823837 -0.73157656 0.00000000
-0.18697597 0.18611579 0.00000000
-0.41851884 -0.76291203 0.00000000
-0.00303076 -0.08358940 0.00991353
-0.03110448 0.76324594 -0.00000007
-0.10167849 -0.07711148 0.00000000
-0.22411132 -0.52751476 0.00000000
-0.20545605 -0.26648980 0.67204475
-0.55188131 0.06791366 -0.00000106
-0.57165569 -0.61229551 0.00000000
-0.11015410 -0.41490003 0.36031067
-0.12877177 -0.29528728 0.00000000
-0.50010693 0.11336195 -0.00000092
-0.18405680 -0.15517463 0.60204804
-0.47491717 0.16261378 -0.00000090
-0.04804995 0.70903343 -0.00000004
-0.67015219 -0.12445351 -0.00000123
-0.17093837 0.23605745 0.00000000
-0.08988034 -0.07712813 0.29399583
-0.10541604 -0.32912880 0.00000000
-0.19291250 0.12637956 0.00000000
-0.37105340 0.31262273 -0.00000072
-0.71848959 0.04148309 -0.00000173
-0.16118123 -0.31052288 0.00000000
-0.67534173 -0.36557823 -0.00000082
-0.43571660 -0.77256811 0.00000000
-0.01806198 0.68221879 0.00000000
-0.30878881 -0.52066869 0.00000000
-0.03692256 0.21200912 0.12077256
-0.07188054 0.68731546 -0.00000011
-0.13570166 -0.28636265 0.44387618
-0.10638621 -0.48464918 0.34798601
-0.30885577 0.13713235 -0.00000015
-0.58152831 -0.41577768 -0.00000033
-0.10088957 -0.04965127 0.33000669
-0.12654018 0.29011545 0.00000000
-0.41175595 -0.67684257 0.00000000
-0.08232017 0.32141095 0.00000000
-0.24819142 -0.61928177 0.00000000
-0.20078018 -0.73896384 0.00000000
-0.08917774 0.70079815 -0.00000021
-0.11011956 0.03812175 0.36019871
-0.10584808 -0.71316695 0.34622583
-0.60998869 -0.77297574 0.00000000
-0.40080702 0.10802228 -0.00000049
-0.19485538 -0.27554482 0.00000000
-0.07182636 -0.70918387 0.23494183
-0.65092868 -0.16490012 -0.00000107
-0.57735783 -0.03515865 -0.00000099
-0.21760175 -0.51843870 0.00000000
-0.31855983 -0.55721575 0.00000000
-0.00462636 0.75586492 0.01513268
-0.11559032 0.47949269 0.00000000
-0.77231127 -0.57702702 -0.00000056
-0.07321762 -0.62173891 0.00000000
-0.29748026 -0.10299996 0.00000000
-0.12636399 0.09559301 0.00000000
-0.00768914 -0.59675455 0.02515094
-0.47518405 -0.16399029 -0.00000032
-0.13561735 0.05259579 0.00000000
-0.17039414 0.20376575 0.00000000
-0.44384357 -0.41076168 0.00000000
-0.00007376 0.43341944 0.00024126
-0.15268341 -0.47769925 0.00000000
-0.73259264 -0.54316562 -0.00000064
-0.11669275 -0.79734647 0.38169840
-0.30280083 0.43888795 -0.00000065
-0.30621767 -0.64424783 0.00000000
-0.34566754 0.10095872 -0.00000024
-0.06942805 0.28806716 0.00000000
-0.48642695 -0.64579809 0.00000000
-0.17691679 -0.02644540 0.00000000
-0.32972798 0.41992691 -0.00000074
-0.54874521 0.24989396 -0.00000135
-0.78420216 -0.06569324 -0.00000182
-0.00252513 -0.05114562 0.00825962
-0.16660157 -0.38135663 0.54494995
-0.42116329 -0.49053037 0.00000000
-0.27859390 0.44317836 -0.00000056
-0.77723897 -0.03996984 -0.00000183
-0.31738722 0.27974528 -0.00000043
-0.12221724 -0.47993916 0.39976883
-0.36120352 0.34365380 -0.00000073
-0.11365056 -0.69670862 0.00000000
-0.02565993 0.11896941 0.00000000
-0.68142015 -0.64603734 -0.00000035
-0.24025936 -0.46122336 0.00000000
-0.33163506 -0.28760111 0.00000000
-0.04139235 -0.62545007 0.00000000
-0.48930904 -0.27422562 -0.00000019
-0.03219782 0.09091147 0.00000000
-0.20022376 0.01414403 0.00000000
-0.04543804 -0.69013828 0.00000000
-0.58527303 -0.27170318 -0.00000060
-0.14651750 -0.40056658 0.00000000
-0.06119558 -0.37978971 0.20016886
-0.19804093 0.57014507 -0.00000044
-0.52007806 -0.46170288 0.00000000
-0.10427487 0.27964714 0.34108225
-0.17653425 -0.36589155 0.00000000
-0.10369007 -0.75092125 0.00000000
-0.09407683 0.12404408 0.30772310
-0.01045736 0.60742015 0.00000000
-0.21481280 0.40975058 -0.00000023
-0.24740613 0.24113302 -0.00000007
-0.74639457 -0.34546363 -0.00000114
-0.15139437 0.29132870 0.00000000
-0.01488707 0.07676331 0.04869515
-0.70457822 -0.45900691 -0.00000078
-0.04419538 0.33082110 0.14456174
-0.19836850 -0.45536172 0.64885992
-0.12998402 -0.59491670 0.00000000
-0.12622222 0.20804228 0.00000000
-0.06572456 0.47413084 0.21498451
-0.69787949 -0.47065133 -0.00000073
-0.46661085 -0.65610027 0.00000000
-0.16561413 -0.74775600 0.54171872
-0.08679799 0.12246137 0.28391382
-0.41135189 -0.25174728 0.00000000
-0.46508983 -0.34669313 0.00000000
-0.06011682 -0.45254433 0.00000000
-0.68249410 -0.11033839 -0.00000130
-0.32107082 -0.20528114 0.00000000
-0.09441035 -0.71294975 0.30881336
-0.24077965 0.45345861 -0.00000041
-0.60381639 0.12189684 -0.00000138
-0.05930817 -0.41003898 0.19399521
-0.01868403 -0.37574640 0.06111489
-0.16631551 0.57349801 -0.00000031
-0.03067773 -0.64475447 0.00000000
-0.64524752 -0.70333862 -0.00000010
-0.45914239 -0.05684149 -0.00000044
-0.11860780 0.61528069 -0.00000018
-0.44265714 -0.14685734 -0.00000022
-0.66566807 -0.06171583 -0.00000132
-0.13777097 -0.72830927 0.00000000
-0.79070550 -0.44830531 -0.00000088
-0.10962109 0.61715925 -0.00000014
-0.19748576 -0.70262867 0.00000000
-0.27851421 -0.07934409 0.00000000
-0.02129903 -0.74547452 0.06966848
-0.22513157 -0.35465297 0.00000000
-0.42462724 0.01660966 -0.00000043
-0.15142810 -0.70898730 0.00000000
-0.44204721 -0.03300827 -0.00000041
-0.10162388 -0.36136279 0.00000000
-0.11715838 0.59658796 -0.00000014
-0.50486016 -0.15135606 -0.00000047
-0.17743844 0.55971593 -0.00000033
-0.13117470 -0.28330755 0.00000000
-0.56528288 -0.62092018 0.00000000
-0.71205050 -0.64926082 -0.00000038
-0.59522265 -0.28851563 -0.00000062
-0.53048331 0.10819609 -0.00000104
-0.07272636 -0.74448150 0.23788570
-0.36536047 0.25333768 -0.00000059
-0.69818449 -0.76596564 -0.00000009
-0.21132001 0.02237434 0.00000000
-0.24335700 -0.76102948 0.00000000
-0.08479387 0.01855543 0.00000000
-0.07376547 -0.01065601 0.24128459
-0.07887774 -0.62399989 0.00000000
-0.03650528 0.12623735 0.11940764
-0.32945225 -0.31842586 0.00000000
-0.30699986 0.15900566 -0.00000018
-0.03739699 0.36205727 0.12232441
-0.09040809 -0.44941989 0.29572207
-0.43037361 -0.76305795 0.00000000
-0.66082895 -0.59901530 -0.00000035
-0.22721577 -0.00691566 0.00000000
-0.10465476 -0.04890638 0.00000000
-0.74406290 -0.46259275 -0.00000084
-0.04926400 -0.11252377 0.16114102
-0.15547001 0.57258260 -0.00000026
-0.33713797 0.26743034 -0.00000050
-0.00077548 -0.27796289 0.00253657
-0.58438694 -0.57091141 -0.00000007
-0.10856336 -0.37052971 0.35510743
-0.28423634 -0.45933864 0.00000000
-0.66697878 -0.70084226 -0.00000019
-0.26891372 0.28252062 -0.00000023
-0.04521980 0.55110270 0.14791344
-0.50211519 -0.10986717 -0.00000053
-0.32629368 -0.52555537 0.00000000
-0.66778594 -0.51499879 -0.00000053
-0.05780005 -0.24730936 0.00000000
-0.64606863 -0.68338746 -0.00000013
-0.51751924 -0.04701672 -0.00000071
-0.30178469 -0.60029173 0.00000000
-0.00890066 0.05142840 0.02911378
-0.35978049 -0.12605135 0.00000000
-0.35895181 -0.00914283 -0.00000010
-0.01846276 -0.55755776 0.00000000
-0.07531539 0.59310091 0.00000000
-0.77064306 -0.29174390 -0.00000127
-0.50121760 -0.12702040 -0.00000050
-0.48379219 -0.30089983 -0.00000012
-0.19944099 -0.02579447 0.00000000
-0.51217961 0.01976743 -0.00000081
-0.19258679 -0.31823304 0.00000000
-0.16676810 -0.51634443 0.00000000
-0.25539079 0.20183951 -0.00000003
-0.01548493 0.37674731 0.05065074
-0.62693769 -0.44763234 -0.00000047
-0.03110196 -0.45411631 0.10173355
-0.51592207 -0.19718853 -0.00000044
-0.29432982 -0.16831894 0.00000000
-0.17456406 -0.73141545 0.00000000
-0.36577883 -0.37227702 0.00000000
-0.78266436 -0.14047332 -0.00000165
-0.08240118 -0.11749966 0.26953173
-0.43624046 -0.03095231 -0.00000039
-0.55699718 0.23892869 -0.00000139
-0.29008284 -0.07429409 0.00000000
-0.13416271 0.14068662 0.43884519
-0.09098688 0.08347984 0.29761553
-0.20750105 -0.02659187 0.67873567
-0.58440530 -0.75424105 0.00000000
-0.06545779 -0.06748329 0.00000000
-0.19404958 0.08023696 0.63473630
-0.10347301 -0.04739729 0.00000000
-0.08825275 0.25431904 0.28867331
-0.50530964 0.07514328 -0.00000088
-0.38720536 -0.72089142 0.00000000
-0.19216342 -0.60418069 0.62856191
-0.15181628 0.03555647 0.00000000
-0.58082044 -0.79009527 0.00000000
-0.40211967 -0.44173259 0.00000000
-0.76078814 -0.35752472 -0.00000111
-0.05228426 -0.36102584 0.00000000
-0.43594813 -0.57969266 0.00000000
-0.03017241 0.60321367 0.00000000
-0.30721533 -0.63379127 0.00000000
-0.09617603 0.31050950 0.31459093
-0.02820524 0.40899095 0.09225847
-0.15963161 0.09657207 0.52215433
-0.17827851 0.46004191 -0.00000016
-0.57385755 -0.72368038 0.00000000
-0.05052622 -0.40734351 0.16526972
-0.32061628 0.05058277 -0.00000004
-0.20547837 -0.77375907 0.67211401
-0.56277174 -0.70766705 0.00000000
-0.09976111 0.67208630 -0.00000020
-0.20696495 -0.43231836 0.00000000
-0.77230620 -0.37098801 -0.00000107
-0.49103910 -0.01382689 -0.00000066
-0.05310039 -0.67520094 0.17368974
-0.00783657 0.15020277 0.00000000
-0.38514513 0.22685795 -0.00000063
-0.19373725 0.30106235 0.00000000
-0.08410458 0.45613089 0.00000000
-0.33214435 -0.58026707 0.00000000
-0.45998555 -0.60573268 0.00000000
-0.11555603 -0.64635992 0.37798023
-0.63407385 -0.10890309 -0.00000110
-0.12634069 0.32246694 0.00000000
-0.62329865 -0.10730606 -0.00000106
-0.75213313 -0.78860712 -0.00000003
-0.16905583 0.21644790 0.55298203
-0.22931454 0.35499179 -0.00000019
-0.14315058 0.28338033 0.00000000
-0.05273851 -0.69388187 0.00000000
-0.00868614 -0.73993486 0.02841209
-0.09665753 0.33563450 0.31616610
-0.35752302 0.09097543 -0.00000027
-0.13577676 -0.69355536 0.00000000
-0.53723449 -0.18769601 -0.00000055
-0.16139176 0.20889603 0.52791262
-0.07125431 -0.54663193 0.00000000
-0.08875371 -0.54953283 0.29031065
-0.07749403 0.15090761 0.00000000
-0.70915276 -0.28666681 -0.00000111
-0.03776141 0.43192512 0.12351640
-0.00503801 0.52127373 0.01647918
-0.02192238 -0.55592078 0.00000000
-0.13593280 -0.17485118 0.00000000
-0.56629789 -0.09311875 -0.00000084
-0.29874200 -0.05955416 0.00000000
-0.04879216 0.23671937 0.15959767
-0.59672844 -0.49038184 -0.00000027
-0.30508140 -0.08454419 0.00000000
-0.01522958 0.73910266 0.04981593
-0.32951131 -0.35817829 0.00000000
-0.57409453 -0.77711177 0.00000000
-0.01552270 0.32056543 0.05077428
-0.06247435 -0.54700178 0.00000000
-0.40800384 -0.07080732 -0.00000020
-0.08504641 -0.17195486 0.00000000
-0.53472984 0.26507184 -0.00000133
-0.41677561 -0.37922192 0.00000000
-0.68893611 -0.00048052 -0.00000153
-0.30453634 0.32743168 -0.00000046
-0.15386648 -0.07871958 0.50329524
-0.45798549 0.21599995 -0.00000092
-0.08182925 -0.73781717 0.00000000
-0.00453109 -0.68910837 0.01482106
-0.08725336 -0.57333517 0.28540307
-0.01653086 0.73875910 0.05407246
-0.25672764 0.52629256 -0.00000061
-0.58464926 -0.39701486 -0.00000038
-0.24936604 0.51982665 -0.00000057
-0.31809351 -0.63734478 0.00000000
-0.60806733 -0.49938294 -0.00000030
-0.26061222 -0.50115293 0.00000000
-0.27604702 -0.79924679 0.00000000
-0.21070118 0.58847320 -0.00000053
-0.12444987 -0.29770917 0.40707171
-0.69865942 -0.35987255 -0.00000093
-0.01193597 0.63544434 0.00000000
-0.06046962 0.24198493 0.00000000
-0.51024032 -0.28537473 -0.00000026
-0.19753864 0.12137425 0.64614940
-0.02154232 -0.26856837 0.07046427
-0.09202262 -0.27883607 0.30100316
-0.11337261 -0.28519097 0.37083831
-0.01987989 -0.17649134 0.06502651
-0.01645023 0.19555908 0.05380819
-0.04458308 -0.19422446 0.00000000
-0.06642445 -0.12924601 0.00000000
-0.64808494 0.12727787 -0.00000158
-0.20184562 -0.31875768 0.00000000
-0.26875567 -0.01675339 0.00000000
-0.07132242 0.55234021 0.00000000
-0.43319166 -0.07328117 -0.00000031
-0.37109673 -0.77806169 0.00000000
-0.05580417 -0.79809922 0.18253373
-0.01129913 -0.06632816 0.03695911
-0.02493102 -0.05773276 0.00000000
-0.69332296 -0.02602458 -0.00000150
-0.35890555 -0.70858800 0.00000000
-0.78829831 -0.55138981 -0.00000062
-0.37839419 -0.45848098 0.00000000
-0.51030576 -0.10443072 -0.00000058
-0.72745144 0.07162469 -0.00000180
-0.51254708 -0.54040891 0.00000000
-0.07485891 -0.49813804 0.00000000
-0.00594222 0.67647731 0.00000000
-0.52442235 -0.32960200 -0.00000024
-0.37074426 -0.09640540 0.00000000
-0.25606772 0.50166756 -0.00000057
-0.35768038 -0.38894773 0.00000000
-0.25053972 0.37061250 -0.00000031
-0.00990011 0.53181952 0.03238295
-0.21755585 -0.07382664 0.71162486
-0.74335533 -0.61378402 -0.00000047
-0.49286127 0.24211352 -0.00000112
-0.05162671 -0.38341075 0.16886938
-0.39070073 0.03848709 -0.00000032
-0.57292652 -0.47045520 -0.00000020
-0.10853843 -0.22567531 0.35502586
-0.49878734 -0.25736097 -0.00000026
-0.07047667 -0.06734220 0.00000000
-0.04651213 -0.06877099 0.15213975
-0.22019973 -0.49047178 0.72026992
-0.25073898 -0.40098155 0.00000000
-0.22831269 -0.46576396 0.00000000
-0.37611890 0.41950768 -0.00000087
-0.30286014 -0.33339763 0.00000000
-0.01740229 0.02434810 0.00000000
-0.34297174 -0.46911973 0.00000000
-0.09899231 0.33719683 0.00000000
-0.01832619 -0.13761821 0.00000000
-0.10822994 -0.00710493 0.35401741
-0.03192788 0.59603155 0.10443552
-0.69478238 0.08493075 -0.00000170
-0.79510415 -0.19075739 -0.00000152
-0.32032552 -0.19674192 0.00000000
-0.72678053 -0.04827092 -0.00000160
-0.06365318 0.60800344 0.00000000
-0.64421773 -0.38680610 -0.00000065
-0.08425776 -0.39581272 0.00000000
-0.10326922 0.03235140 0.00000000
-0.50312364 0.29337868 -0.00000120
-0.00041670 -0.13900246 0.00136302
-0.08218472 0.45842648 0.26882601
-0.43653092 -0.08031164 -0.00000031
-0.30657127 -0.51151091 0.00000000
-0.34295788 -0.13646337 0.00000000
-0.29083392 -0.11135617 0.00000000
-0.42722324 -0.66453099 0.00000000
-0.48267561 -0.26434246 -0.00000018
-0.00204644 -0.21644399 0.00669385
-0.24520446 -0.41938427 0.00000000
-0.01465802 0.05895786 0.00000000
-0.51261282 -0.78039348 0.00000000
-0.68231386 -0.45824987 -0.00000069
-0.11352187 0.61090189 -0.00000015
-0.00263771 -0.23357335 0.00862787
-0.12692557 0.16781853 0.00000000
-0.07701799 -0.27933082 0.00000000
-0.49507755 -0.40962285 0.00000000
-0.05420462 -0.53458309 0.00000000
-0.28482008 -0.33017150 0.00000000
-0.01867950 0.54143900 0.06110007
-0.15661821 -0.70622039 0.51229334
-0.41665271 0.20695384 -0.00000073
-0.07895221 -0.58994752 0.00000000
-0.21766420 0.09014295 0.00000000
-0.13607217 0.56501651 -0.00000017
-0.06356868 -0.29031056 0.20793121
-0.22593033 -0.62516379 0.73901361
-0.26921448 -0.38624114 0.00000000
-0.01921680 0.71685636 0.06285808
-0.10675994 0.40295583 0.00000000
-0.15195148 0.07335503 0.00000000
-0.20563167 -0.62871784 0.00000000
-0.58308381 -0.26637095 -0.00000060
-0.07948500 0.35083723 0.00000000
-0.07200749 0.16309409 0.00000000
-0.37775767 -0.05520155 -0.00000010
-0.15293165 0.20541702 0.50023931
-0.08784195 -0.61793244 0.00000000
-0.05299528 0.70359004 -0.00000006
-0.12122364 0.36165792 0.00000000
-0.46972603 0.13922407 -0.00000084
-0.45727140 -0.20748660 -0.00000017
-0.66979808 -0.45213622 -0.00000065
-0.18433644 0.10742521 0.00000000
-0.13003381 -0.47222388 0.00000000
-0.01197486 0.58532917 0.03916940
-0.49890134 -0.72397131 0.00000000
-0.03056561 -0.08240895 0.00000000
-0.29011929 -0.64696938 0.00000000
-0.47767928 -0.52379823 0.00000000
-0.44997370 -0.77015978 0.00000000
-0.33310112 -0.68985552 0.00000000
-0.01173502 -0.13538232 0.03838489
-0.07302415 0.46764767 0.23886162
-0.78474164 -0.58383310 -0.00000054
-0.10271629 -0.73047084 0.00000000
-0.41082406 0.21784535 -0.00000072
-0.09749412 0.04098171 0.00000000
-0.07179309 0.66368079 -0.00000007
-0.34154782 0.35852799 -0.00000068
-0.65751648 -0.47029880 -0.00000056
-0.22212760 -0.03817965 0.00000000
-0.63027370 -0.01942119 -0.00000124
-0.45033410 -0.31267390 0.00000000
-0.22292633 -0.09226233 0.00000000
-0.58204305 -0.21942040 -0.00000068
