ply
format ascii 1.0
element vertex 1392
property float x
property float y
property float z
end_header
0.23533387 0.51703423 0.14705151
-0.03630893 0.10418851 0.00000000
-0.42002872 0.36202648 -0.00000102
0.00575211 -0.23126169 0.00359428
-0.04800545 0.21491890 0.00000000
0.21565951 0.12346530 0.13475774
0.01114063 -0.51240176 0.00696137
-0.71988273 -0.14293826 -0.00000141
0.22199501 -0.08234123 0.13871656
0.50965410 -0.58236837 0.31846419
-0.68969584 -0.69878972 -0.00000025
0.66875273 -0.14424451 0.41787893
-0.10469484 -0.27511704 0.00000000
0.13126448 -0.11203445 0.08202237
0.29378253 0.44041234 0.18357381
-0.58703834 0.10870710 -0.00000128
-0.14642096 -0.20012353 0.00000000
0.06968214 0.55970669 0.04354182
0.16844518 0.17607693 0.10525524
-0.16526879 -0.79523998 0.00000000
-0.06745770 0.11424025 0.00000000
0.30316025 -0.40290260 0.18943375
-0.20870245 -0.22349180 0.00000000
-0.03438430 0.18821698 0.00000000
-0.47003824 -0.56690907 0.00000000
0.42347318 -0.62769639 0.26461291
0.11426676 0.58714694 0.07140109
0.19084755 -0.55168337 0.11925366
0.14728244 0.48207387 0.09203138
-0.64523363 -0.53862339 -0.00000039
0.44795859 0.22305506 0.27991274
-0.30989918 -0.53887188 0.00000000
-0.18277189 -0.06544130 0.00000000
-0.25180271 0.49253392 -0.00000053
-0.40191510 -0.02203646 -0.00000026
-0.55573237 0.20119356 -0.00000131
0.13750289 -0.64975435 0.08592054
-0.23552229 -0.46682432 0.00000000
-0.17356098 0.29426748 0.00000000
-0.13386939 0.41101760 0.00000000
-0.66338521 -0.39990282 -0.00000071
-0.59218496 -0.42523503 -0.00000036
-0.17453459 0.59623313 -0.00000038
-0.15079270 0.30875814 0.00000000
0.01748274 -0.45531279 0.01092433
0.03969271 0.66170800 0.02480252
-0.59402776 -0.50456226 -0.00000023
-0.18457071 -0.19044258 0.00000000
-0.19879542 -0.67531765 0.00000000
-0.08506445 -0.08427909 0.00000000
-0.26278621 0.51965970 -0.00000063
0.25620234 -0.57033581 0.16009147
-0.08358487 0.12493354 0.00000000
-0.28879589 -0.08560963 0.00000000
0.12052809 -0.71023840 0.07531360
0.22833692 0.39543751 0.14267930
0.03546575 0.42190835 0.02216125
0.05744719 -0.41829845 0.03589665
0.26286185 -0.29701835 0.16425276
-0.52068919 -0.38900125 -0.00000012
0.26604962 -0.33839330 0.16624469
-0.10288306 -0.78938800 0.00000000
-0.36035863 -0.40023297 0.00000000
-0.03683037 -0.49974376 0.00000000
-0.79518151 -0.40202990 -0.00000099
0.28634760 -0.38752058 0.17892814
0.54047632 -0.69088197 0.33772391
-0.36466137 -0.48217317 0.00000000
-0.69456029 0.01322202 -0.00000157
0.07116928 -0.78981817 0.04447108
-0.59182590 -0.34003538 -0.00000051
-0.22072566 -0.36860415 0.00000000
-0.40557048 -0.33748919 0.00000000
-0.34439331 -0.14885727 0.00000000
-0.28676125 -0.51841033 0.00000000
0.15046424 0.19416267 0.09401960
-0.15423521 0.58946401 -0.00000029
-0.62583178 0.01853218 -0.00000129
-0.32407364 0.46346718 -0.00000079
0.28275678 0.04205970 0.17668436
-0.61599755 -0.75122613 0.00000000
-0.16862236 0.44631234 -0.00000009
-0.03999127 0.69309783 0.00000000
0.29474792 -0.79296577 0.18417719
0.27747154 -0.54200411 0.17338182
0.57476467 -0.66103142 0.35914937
0.53648877 -0.38879809 0.33523211
-0.02734237 0.05017531 0.00000000
-0.11478809 -0.30168748 0.00000000
-0.27654654 -0.48920676 0.00000000
0.67388541 -0.78256083 0.42108697
-0.63611537 -0.13431939 -0.00000106
0.61930853 -0.74229246 0.38698351
-0.07838042 -0.33382463 0.00000000
0.65676987 -0.54024822 0.41039172
0.29218110 0.26547986 0.18257320
0.29062000 -0.66211861 0.18159781
-0.06911454 0.56531107 0.00000000
-0.34951907 -0.58388835 0.00000000
0.57908797 -0.67414200 0.36185086
-0.02845476 0.53759152 0.00000000
-0.79909080 -0.07828666 -0.00000180
-0.01892777 0.76848704 -0.00000003
-0.22875787 -0.73873985 0.00000000
0.44582668 0.21560910 0.27858058
0.62959039 -0.06401007 0.39340773
-0.04846380 -0.18708728 0.00000000
0.11371945 0.56708324 0.07105910
-0.28872260 0.36487412 -0.00000046
-0.10656415 -0.68102467 0.00000000
-0.08233415 0.27122641 0.00000000
0.10247086 -0.59552121 0.06403030
0.28585243 -0.18887101 0.17861873
-0.25160044 -0.28612426 0.00000000
0.01665187 0.60271209 0.01040514
0.09856011 0.66960680 0.06158656
0.30855709 -0.38433960 0.19280605
-0.00691059 0.55804873 0.00000000
-0.62272990 -0.37836921 -0.00000057
-0.15327530 0.28797090 0.00000000
0.17475571 0.47405809 0.10919839
0.05088350 -0.52692062 0.03179524
-0.16940852 -0.69622093 0.00000000
0.28890008 0.44970337 0.18052295
-0.22895864 -0.04845059 0.00000000
0.06761976 0.08823135 0.04225312
0.11945418 -0.76041484 0.07464255
0.49837527 -0.65550011 0.31141648
0.29685053 0.17335859 0.18549098
-0.26954597 -0.52607512 0.00000000
-0.74047494 -0.17981055 -0.00000143
-0.41596252 -0.32867253 0.00000000
0.22177124 0.28929541 0.13857670
-0.30946848 0.48350677 -0.00000076
0.58278155 -0.25665146 0.36415872
0.31721273 -0.21990381 0.19821464
-0.19158529 -0.67807269 0.00000000
-0.33962452 -0.55081159 0.00000000
0.27878284 -0.03594241 0.17420121
-0.72870106 -0.27074215 -0.00000122
-0.07690841 -0.72242719 0.00000000
0.67739648 -0.73156178 0.42328086
0.60462254 -0.22502179 0.37780631
0.25787461 -0.66487139 0.16113642
-0.56455934 0.22900231 -0.00000140
-0.14539731 -0.63538402 0.00000000
-0.32907203 0.01874710 -0.00000002
-0.68237925 -0.36856419 -0.00000085
-0.21586657 -0.11558635 0.00000000
-0.59941685 0.14700066 -0.00000140
0.00432895 -0.25288633 0.00270501
-0.23700702 -0.11774962 0.00000000
0.59861463 -0.36853814 0.37405223
0.34073126 0.33358648 0.21291035
0.13974012 -0.45633152 0.08731850
0.41112924 -0.76030391 0.25689965
0.43789464 0.24555716 0.27362415
-0.04357610 -0.01472327 0.00000000
0.23267858 -0.14002727 0.14539234
0.40435281 0.08389113 0.25266516
-0.68707728 -0.24452856 -0.00000109
-0.07117737 -0.01185782 0.00000000
-0.30006698 -0.29000714 0.00000000
0.11175012 0.07051520 0.06982856
-0.03296919 0.32720178 0.00000000
0.09934158 -0.18668620 0.06207492
-0.53389817 -0.44634467 -0.00000008
0.56880069 -0.68342090 0.35542271
-0.51793021 0.21601073 -0.00000118
-0.66083741 0.06724374 -0.00000152
0.55163187 -0.40478456 0.34469447
0.65007633 -0.43821505 0.40620896
-0.11813366 -0.36945868 0.00000000
0.11999150 0.11589794 0.07497830
-0.52595729 -0.17085332 -0.00000053
0.66425717 -0.56694514 0.41507030
0.00960979 0.08781126 0.00600481
-0.60879993 -0.78670698 0.00000000
-0.75885785 -0.00443255 -0.00000182
-0.22949532 0.29974881 -0.00000010
0.28943500 0.07611995 0.18085733
-0.08132804 -0.15492511 0.00000000
-0.41494128 0.22371247 -0.00000075
0.27603310 0.34982735 0.17248288
0.37320814 -0.00405384 0.23320404
-0.48214060 -0.37070829 0.00000000
-0.54996759 0.03442219 -0.00000099
0.24882925 0.32157114 0.15548423
0.07275115 0.04540100 0.04545953
0.21595128 -0.09521945 0.13494006
-0.65789193 0.01468036 -0.00000142
-0.27741432 -0.79351389 0.00000000
0.36885747 -0.32515317 0.23048554
-0.02273637 -0.54207617 0.00000000
0.21385489 0.01142293 0.13363010
-0.04392758 0.14025384 0.00000000
0.28065318 0.05500277 0.17536990
-0.38929850 0.11326858 -0.00000045
0.40138942 -0.03246540 0.25081348
0.08161644 -0.03673980 0.05099913
0.18349507 -0.75675869 0.11465937
-0.17013262 -0.44002956 0.00000000
0.42087525 -0.57559705 0.26298955
0.07695684 0.48993945 0.04808751
-0.79430968 -0.05574184 -0.00000186
0.19477522 0.15619762 0.12170792
-0.18368839 0.07963899 0.00000000
-0.17601271 -0.21024592 0.00000000
-0.12147605 0.63936222 -0.00000023
0.11754462 0.47199968 0.07344933
-0.24999557 0.01040784 0.00000000
0.09298009 -0.67899656 0.05809986
-0.49076125 0.00975710 -0.00000070
0.20763974 0.49183869 0.12974639
-0.06771452 -0.46127111 0.00000000
-0.01995663 -0.48543867 0.00000000
0.43722585 0.02563515 0.27320629
-0.21780710 -0.16829486 0.00000000
-0.09946239 0.08211680 0.00000000
0.50247049 -0.46798149 0.31397539
-0.39461708 -0.71031648 0.00000000
0.00670703 0.53622031 0.00419098
0.04036554 -0.06385771 0.02522295
-0.11304204 0.09158927 0.00000000
0.05051032 -0.19739343 0.03156205
-0.40967125 0.19327337 -0.00000068
-0.12208731 -0.55257326 0.00000000
-0.07647009 0.27098867 0.00000000
-0.24444009 -0.70025724 0.00000000
0.31048477 -0.28590542 0.19401059
0.01583322 -0.64657271 0.00989360
0.40569597 -0.53573644 0.25350457
0.49704739 -0.39500192 0.31058666
0.45020160 -0.15377888 0.28131443
-0.02495107 -0.60549951 0.00000000
-0.07458032 0.03632911 0.00000000
0.08142697 -0.51810712 0.05088074
0.02895396 -0.44240102 0.01809227
0.58380407 -0.23898864 0.36479762
-0.35485044 0.44132760 -0.00000088
-0.35075173 -0.13550356 0.00000000
0.53394890 -0.27920905 0.33364499
-0.35834774 -0.26140174 0.00000000
-0.55487067 -0.48139024 -0.00000010
-0.08447053 0.20484392 0.00000000
-0.02280888 -0.60941887 0.00000000
0.42586675 -0.02479440 0.26610845
-0.14680927 -0.48253629 0.00000000
-0.50367856 -0.36555746 -0.00000009
0.20303859 -0.38617134 0.12687139
0.09421144 -0.40139300 0.05886929
0.31513780 0.15059234 0.19691803
-0.17966750 -0.62473053 0.00000000
0.09908622 0.66815519 0.06191531
-0.23209904 0.02479810 0.00000000
0.01501061 0.32311395 0.00937958
0.41933814 -0.20219371 0.26202902
-0.77307808 -0.12164881 -0.00000167
-0.53567326 -0.60683632 0.00000000
-0.44347328 -0.14285484 -0.00000023
0.53288144 -0.79806262 0.33297813
-0.17805192 0.25064999 0.00000000
-0.41157946 -0.18621525 -0.00000001
-0.58628565 0.14446560 -0.00000134
-0.63994896 -0.34993741 -0.00000070
0.34072456 -0.39647365 0.21290632
-0.19514437 -0.49466696 0.00000000
-0.62719911 -0.48575112 -0.00000040
0.10447090 -0.73018563 0.06528005
-0.74019021 -0.72598135 -0.00000019
0.65611964 -0.22343057 0.40998498
0.31058532 -0.58568221 0.19407341
-0.23641083 -0.31024969 0.00000000
0.40094233 -0.76980740 0.25053421
-0.28057632 -0.20568033 0.00000000
-0.03599619 -0.07844007 0.00000000
-0.32310864 0.32100159 -0.00000053
0.06875357 0.66854829 0.04296157
0.05584482 -0.45805344 0.03489539
0.56571048 -0.64502364 0.35349175
-0.15590823 -0.28650895 0.00000000
-0.00842261 -0.69437408 0.00000000
0.50727838 -0.70374274 0.31697971
-0.05431065 0.35165995 0.00000000
-0.51915216 -0.54422504 0.00000000
0.04848721 -0.41003761 0.03029789
0.10813382 -0.74745715 0.06756887
-0.32825080 0.46737298 -0.00000075
0.50834370 -0.43028745 0.31764534
-0.04695984 -0.32810587 0.00000000
-0.45371366 -0.14874023 -0.00000026
0.00951852 -0.04347167 0.00594778
0.17387061 0.26267633 0.10864539
-0.03663647 -0.03281175 0.00000000
0.08910291 -0.51635027 0.05567715
-0.33869386 0.22843051 -0.00000044
0.24493755 -0.22725645 0.15305252
0.57275856 -0.52114391 0.35789579
0.52448463 -0.77124399 0.32773125
0.10682844 -0.24633124 0.06675319
0.37998685 -0.21061599 0.23743987
-0.35037825 0.07778630 -0.00000022
0.10809694 -0.43875352 0.06754582
0.11048299 -0.79866755 0.06903678
-0.10442609 0.06180328 0.00000000
0.24149656 0.46656448 0.15090227
0.59881645 -0.74452019 0.37417865
-0.52938628 -0.65904021 0.00000000
0.48096499 -0.39148325 0.30053738
0.08543443 -0.11988073 0.05338485
-0.29036212 -0.23965538 0.00000000
0.17050759 -0.73510027 0.10654397
0.40801561 0.24190950 0.25495386
0.67062831 -0.70776677 0.41905159
-0.67904425 -0.77627325 -0.00000006
-0.47773644 0.31660455 -0.00000110
-0.02871840 -0.43713903 0.00000000
-0.03948742 -0.69954932 0.00000000
0.67041874 -0.53099132 0.41892043
0.07729126 0.64814246 0.04829646
-0.23026054 -0.61567873 0.00000000
-0.03900152 0.64234579 0.00000000
0.39631790 -0.60620922 0.24764457
0.05752998 -0.22147299 0.03594838
0.14531842 0.62178063 0.09080410
-0.49526361 -0.36072683 -0.00000006
-0.51816791 0.13651641 -0.00000104
0.27786958 -0.60046470 0.17363054
0.18071344 0.39869866 0.11292119
-0.32063410 -0.65572971 0.00000000
0.49677673 -0.23638560 0.31041750
0.35087511 0.01426535 0.21924897
0.05361569 0.06403106 0.03350249
-0.17975394 -0.03451203 0.00000000
0.11693484 -0.33217207 0.07306831
-0.39150965 -0.26810223 0.00000000
-0.58841014 -0.67309004 0.00000000
0.20381635 -0.27804330 0.12735739
0.12672323 0.27625605 0.07918471
-0.28328675 -0.01486811 0.00000000
0.64133519 -0.18167996 0.40074664
-0.14788979 -0.07972973 0.00000000
-0.52576274 0.15484308 -0.00000110
0.04995577 -0.37260157 0.03121553
-0.07211887 0.14257114 0.00000000
-0.57321751 -0.40350422 -0.00000032
-0.50502175 -0.78129846 0.00000000
-0.13839982 0.15400258 0.00000000
-0.28060383 0.45133069 -0.00000058
-0.02032121 -0.61273116 0.00000000
-0.00696263 -0.33145034 0.00000000
0.47911167 -0.55256456 0.29937938
0.28974587 0.12723137 0.18105157
0.08122617 0.67975491 0.05075523
-0.64536923 -0.04424049 -0.00000126
-0.20727848 -0.07449584 0.00000000
0.52272457 -0.05277884 0.32663128
0.47377816 -0.02025236 0.29604647
0.10720047 -0.25211737 0.06698565
-0.78787047 -0.02874694 -0.00000190
-0.74850601 -0.14454170 -0.00000152
0.33228076 0.15282308 0.20762999
0.46178308 -0.41975042 0.28855133
-0.45394537 -0.47546190 0.00000000
0.56621492 -0.75454772 0.35380700
-0.34705657 -0.66044486 0.00000000
-0.79973972 -0.74345404 -0.00000014
-0.01672668 0.31331155 0.00000000
0.44975671 -0.28494379 0.28103647
-0.42619687 0.32096800 -0.00000097
0.28411585 0.26608062 0.17753354
0.54391211 -0.30990922 0.33987066
-0.58178097 -0.05924222 -0.00000096
-0.78057808 -0.71885031 -0.00000020
-0.19637778 0.35555151 -0.00000005
-0.10281150 -0.77669787 0.00000000
-0.40577006 -0.08586253 -0.00000017
0.04143481 0.50662476 0.02589110
-0.07105342 0.17276660 0.00000000
0.23862106 -0.68442619 0.14910556
0.30129415 -0.33584121 0.18826769
0.26499978 -0.22541401 0.16558868
-0.36491683 -0.20047469 0.00000000
-0.00102857 -0.46371341 0.00000000
-0.32510471 -0.36827323 0.00000000
-0.67490262 -0.77803940 -0.00000005
-0.58193195 -0.64777112 0.00000000
0.31423596 -0.74107891 0.19635457
0.15679751 0.23890144 0.09797704
-0.08717379 0.06438777 0.00000000
-0.77167290 -0.38396502 -0.00000104
-0.38299242 0.04533401 -0.00000030
0.10201503 0.47033936 0.06374546
0.05109002 -0.16781311 0.03192428
0.66003174 -0.27331045 0.41242960
-0.02932011 0.73297983 -0.00000001
0.27311426 -0.54748434 0.17065911
0.53977877 -0.04664554 0.33728781
0.02998088 0.00145742 0.01873396
0.33094603 -0.08312836 0.20679606
0.33051285 -0.64857972 0.20652539
0.41335180 0.24889372 0.25828823
0.11724972 -0.22755615 0.07326506
-0.16119003 -0.65742093 0.00000000
0.05901885 -0.44521916 0.03687872
-0.27594465 -0.50322545 0.00000000
0.35674384 -0.35495785 0.22291619
-0.04768607 -0.52329260 0.00000000
0.07238155 -0.43291882 0.04522858
0.25894982 0.08361448 0.16180827
-0.57126594 -0.08401094 -0.00000088
-0.37353745 -0.26880303 0.00000000
0.07557582 0.71037322 0.04722454
0.00044796 0.45646715 0.00027991
0.66214132 -0.10522452 0.41374761
-0.09929596 0.23421882 0.00000000
-0.65759140 -0.73541504 -0.00000009
-0.64822137 -0.11526976 -0.00000115
0.18100868 -0.49998289 0.11310570
-0.17468344 0.20076039 0.00000000
-0.60024905 -0.56757426 -0.00000014
0.28587946 0.37128499 0.17863549
0.51031029 0.01954689 0.31887403
0.22739999 -0.32665211 0.14209394
0.19245966 -0.76519424 0.12026101
0.27387583 0.13736175 0.17113495
-0.48577616 0.26800978 -0.00000113
-0.41008544 -0.30746540 0.00000000
-0.70879704 -0.56725425 -0.00000058
0.60625035 -0.36877429 0.37882349
-0.17668808 -0.16589668 0.00000000
0.40848488 -0.54487365 0.25524727
0.10025722 0.39356104 0.06264707
0.53697109 -0.61909527 0.33553359
-0.24632920 -0.21002981 0.00000000
-0.06037638 0.54307508 0.00000000
0.32769981 0.05111570 0.20476757
-0.52040905 -0.12162699 -0.00000059
0.36481500 -0.62532610 0.22795956
0.01509361 0.04173286 0.00943144
-0.16667175 0.34427229 0.00000000
0.47330204 -0.48846826 0.29574913
0.15818346 -0.17495693 0.09884306
-0.22276174 0.01736174 0.00000000
-0.36341611 0.24486776 -0.00000057
0.51500332 0.18278864 0.32180649
0.07683167 -0.79213828 0.04800930
-0.51086491 -0.14155300 -0.00000052
-0.62692761 -0.57152140 -0.00000025
-0.17547742 -0.11052365 0.00000000
-0.01421770 0.11520590 0.00000000
-0.37637749 -0.55230272 0.00000000
0.20805612 -0.60309505 0.13000666
0.49578068 -0.45658308 0.30979517
0.20580602 -0.28520665 0.12860066
0.60667235 0.02525832 0.37908706
0.58265305 -0.13805196 0.36407837
-0.49990940 -0.49883288 0.00000000
0.61150944 -0.76581758 0.38211015
-0.76664448 -0.65658784 -0.00000036
-0.32031608 -0.61820483 0.00000000
0.42750105 -0.25298801 0.26712975
0.34189734 0.24546593 0.21363901
0.08824765 0.46971795 0.05514273
-0.43460417 -0.06558572 -0.00000032
-0.61056161 -0.19887239 -0.00000084
-0.31484029 -0.54639053 0.00000000
0.13254748 -0.58986169 0.08282408
0.32395494 -0.60403472 0.20242760
0.56798327 -0.26025531 0.35491180
0.55020428 -0.58704507 0.34380251
-0.65379268 -0.53227228 -0.00000044
-0.19136007 -0.55445302 0.00000000
0.38132575 0.27548045 0.23827635
0.33173168 -0.04068594 0.20728697
0.24636939 -0.76624691 0.15394722
-0.18706207 -0.47048551 0.00000000
0.65192002 0.02167967 0.40736067
-0.16741256 -0.48605347 0.00000000
-0.26638052 0.36591095 -0.00000037
-0.36716360 0.21296038 -0.00000053
0.21361856 0.11836262 0.13348243
0.37969801 0.24731199 0.23725924
-0.29033583 0.26441419 -0.00000029
0.36094958 -0.34161010 0.22554421
-0.67309552 0.10966639 -0.00000165
0.24754530 -0.66891652 0.15468201
-0.30763763 -0.74654752 0.00000000
-0.35869330 0.13222066 -0.00000035
-0.67754114 -0.03191134 -0.00000142
-0.14058238 -0.29643261 0.00000000
0.29302421 0.02962497 0.18310009
0.10099144 0.27991641 0.06310586
0.04860477 0.55365086 0.03037135
-0.05626069 -0.55981201 0.00000000
0.10202035 -0.52769452 0.06374879
-0.65308005 -0.42217213 -0.00000063
-0.34088907 0.32911137 -0.00000062
-0.07074272 0.10432118 0.00000000
-0.51953268 0.02985279 -0.00000086
0.05601876 -0.11964911 0.03500408
-0.30897433 -0.53046978 0.00000000
-0.56480795 0.05812131 -0.00000110
-0.17008989 -0.53211725 0.00000000
0.11339293 0.25287968 0.07085509
0.06853639 0.11456389 0.04282589
0.56396544 -0.73356128 0.35240135
0.38012719 -0.04311519 0.23752750
-0.34317014 -0.41760069 0.00000000
-0.52360624 -0.49432772 0.00000000
0.31972441 -0.55864620 0.19978409
-0.48285952 0.22836274 -0.00000105
0.32433221 -0.49195775 0.20266335
0.19358125 0.56232899 0.12096176
0.16731656 -0.19839098 0.10454999
-0.40769404 0.22977360 -0.00000073
0.44180781 0.10925959 0.27606937
-0.29970932 0.18818332 -0.00000020
-0.54653347 -0.67108142 0.00000000
-0.56389111 -0.21555273 -0.00000061
-0.64715981 -0.03349024 -0.00000129
-0.53460360 -0.55482626 0.00000000
0.09521611 -0.18539415 0.05949707
-0.34214637 -0.21466950 0.00000000
-0.55116314 -0.33875537 -0.00000034
0.62596029 -0.38922223 0.39113957
-0.05839937 -0.53543872 0.00000000
0.18644814 0.25422958 0.11650463
0.10111843 0.06132890 0.06318521
0.19920282 -0.74499500 0.12447456
-0.23270521 -0.71663505 0.00000000
-0.06367662 0.05671421 0.00000000
0.46632680 -0.55839211 0.29139057
0.21091013 0.26342514 0.13179000
-0.01131873 -0.73698068 0.00000000
0.23720165 -0.34469798 0.14821865
0.38918403 -0.41855446 0.24318688
0.21031556 -0.78492713 0.13141850
-0.65301067 -0.79832476 0.00000000
-0.20440446 -0.73272955 0.00000000
0.16444835 -0.02485399 0.10275776
0.21045955 0.10074547 0.13150847
0.05644940 -0.70372474 0.03527317
0.62924266 -0.76237345 0.39319107
-0.06135969 0.00401337 0.00000000
0.28135151 0.08873998 0.17580625
0.29426074 -0.72600394 0.18387279
-0.29633710 0.00875584 0.00000000
0.37063861 -0.20843785 0.23159850
0.48579505 -0.00436053 0.30355540
-0.09714248 0.15725467 0.00000000
-0.70109111 -0.26640475 -0.00000111
-0.47760853 -0.31135303 -0.00000007
0.43219671 -0.51013237 0.27006391
0.14251938 -0.45405480 0.08905516
-0.12089747 0.12476410 0.00000000
-0.45290634 -0.12005706 -0.00000031
0.40986827 -0.24092774 0.25611165
-0.49564353 -0.75725645 0.00000000
0.23692191 -0.43342778 0.14804383
0.01929265 -0.10176007 0.01205527
-0.17882641 0.51609087 -0.00000026
0.17652147 -0.30603462 0.11030181
-0.31013247 -0.37295368 0.00000000
0.14308162 0.01550258 0.08940647
-0.55247635 -0.30483970 -0.00000040
0.33661500 -0.55445749 0.21033840
-0.41927537 -0.64530557 0.00000000
0.58481359 -0.78018183 0.36542875
-0.06643061 0.11537744 0.00000000
0.06491884 -0.34406734 0.04056541
-0.56796068 -0.34850404 -0.00000039
0.26198372 -0.00140817 0.16370404
0.29274911 -0.01213288 0.18292820
-0.03214201 0.43292680 0.00000000
-0.42011771 0.14494421 -0.00000063
0.33146784 -0.42405438 0.20712215
0.38050252 0.19955070 0.23776196
-0.20660809 -0.36446148 0.00000000
-0.01224279 -0.40472516 0.00000000
-0.31877777 -0.22697102 0.00000000
0.00848833 -0.03772791 0.00530405
0.52372390 0.01538980 0.32725570
0.03643307 0.23864377 0.02276569
-0.12286294 -0.38916245 0.00000000
0.46612784 -0.19631524 0.29126614
0.22132497 0.34690592 0.13829783
-0.56634325 -0.67748487 0.00000000
0.52562070 -0.13372459 0.32844096
-0.04655290 0.38046393 0.00000000
-0.60098624 0.09466615 -0.00000132
0.21279661 0.46094120 0.13296874
0.05478561 -0.46623218 0.03423353
0.46105868 0.10070884 0.28809851
0.28560910 -0.35450482 0.17846668
-0.07752503 0.56015867 0.00000000
0.15385026 0.34783921 0.09613541
-0.72681648 -0.74495536 -0.00000014
-0.26725245 0.28196198 -0.00000022
0.59892726 -0.75015163 0.37424791
-0.37675488 0.21025901 -0.00000057
0.13090824 0.61638236 0.08179971
-0.50969261 -0.28157485 -0.00000026
-0.24109638 -0.35550016 0.00000000
0.52877319 -0.41468623 0.33041096
0.23555607 -0.47477788 0.14719038
-0.13445510 -0.21397053 0.00000000
-0.04357989 -0.04107160 0.00000000
0.13711055 0.62114865 0.08567530
-0.70764810 0.03092281 -0.00000166
0.18437009 -0.41144004 0.11520613
-0.26627138 -0.38412568 0.00000000
-0.49023029 -0.01764738 -0.00000065
-0.15142708 -0.58738184 0.00000000
0.21135993 -0.22893548 0.13207109
0.18178336 0.27221209 0.11358978
-0.52795547 0.04929561 -0.00000093
-0.26345956 0.51473206 -0.00000062
0.12401941 0.39475125 0.07749519
-0.66299385 -0.31083179 -0.00000087
-0.74265140 -0.19709413 -0.00000141
0.32027096 -0.76034719 0.20012560
0.01883593 0.28935105 0.01176988
0.64520943 -0.79377747 0.40316823
-0.58242095 -0.70392650 0.00000000
-0.46207774 0.12472455 -0.00000078
0.05997596 0.06869328 0.03747678
0.34911621 0.32716775 0.21814980
0.07555630 -0.74682164 0.04721237
0.23810881 -0.69611573 0.14878549
0.51879597 0.13458079 0.32417637
0.15209638 -0.25303510 0.09503946
-0.18156065 -0.03758632 0.00000000
-0.42143524 0.13683528 -0.00000063
-0.54507130 0.20163785 -0.00000127
0.19613615 -0.34854943 0.12255830
0.66894817 -0.69893569 0.41800174
0.49925458 -0.70743614 0.31196594
-0.15726390 0.59796178 -0.00000031
0.10130147 0.06801251 0.06329959
0.40770870 0.19527590 0.25476208
-0.41314057 -0.04040173 -0.00000028
0.21117130 -0.44303644 0.13195322
-0.29070175 -0.48725593 0.00000000
-0.56760961 -0.19029771 -0.00000067
-0.25304601 0.07333703 0.00000000
0.49677846 -0.67450207 0.31041870
-0.16101703 -0.24311118 0.00000000
-0.47255144 0.16336852 -0.00000089
0.03064377 -0.03847820 0.01914817
-0.15120108 0.60250252 -0.00000030
-0.21368065 -0.09138720 0.00000000
0.58261561 -0.76826811 0.36405528
-0.74957281 -0.66154182 -0.00000035
0.35114399 -0.23329608 0.21941705
-0.05562457 -0.12319197 0.00000000
-0.09924424 -0.27499506 0.00000000
-0.52761483 -0.00125528 -0.00000084
-0.43652594 -0.54165441 0.00000000
-0.40423903 -0.77988327 0.00000000
-0.55042595 -0.57876813 0.00000000
0.15068521 -0.30045396 0.09415768
0.07612471 0.29691789 0.04756755
0.21684729 -0.07614270 0.13549994
0.20790029 -0.54352754 0.12990929
-0.68811518 -0.43824023 -0.00000075
0.32694939 -0.77671069 0.20429873
0.18648678 0.08175700 0.11652877
-0.33930528 -0.46693751 0.00000000
-0.33315551 -0.39768690 0.00000000
-0.65662646 -0.51316184 -0.00000048
-0.30106601 0.48688295 -0.00000073
-0.24181160 0.55156738 -0.00000059
-0.19394399 -0.27412131 0.00000000
-0.61366105 -0.74695939 0.00000000
-0.68861675 -0.62349641 -0.00000042
0.03066693 -0.75681341 0.01916264
-0.22219826 0.06368555 0.00000000
-0.29217029 -0.11969712 0.00000000
-0.45911795 -0.36487183 0.00000000
-0.12929770 -0.04262793 0.00000000
0.21392000 -0.48292232 0.13367079
0.67775899 -0.39850089 0.42350695
-0.23350045 -0.55053622 0.00000000
-0.03369289 -0.33428696 0.00000000
0.17323285 0.27221292 0.10824688
-0.40405059 -0.19398811 0.00000000
-0.15476760 -0.68454248 0.00000000
-0.08550537 -0.52948827 0.00000000
-0.10089475 0.32979330 0.00000000
0.04715376 -0.14602683 0.02946466
-0.16196334 -0.46653333 0.00000000
-0.13027149 -0.41311660 0.00000000
-0.00701815 -0.72854149 0.00000000
0.30443418 -0.71748728 0.19022977
0.26774591 -0.53357291 0.16730464
0.11776936 -0.75116557 0.07358977
0.14718434 0.15949751 0.09197011
-0.20969535 -0.55253363 0.00000000
-0.14126788 -0.21955852 0.00000000
-0.37706968 -0.77143717 0.00000000
-0.77643627 -0.77303815 -0.00000007
-0.00374074 0.11046632 0.00000000
0.33756924 0.09439317 0.21093459
-0.35614452 -0.20360890 0.00000000
-0.68522012 0.11388677 -0.00000171
-0.03354149 -0.26733449 0.00000000
-0.17817387 -0.78561395 0.00000000
0.34662524 -0.73663014 0.21659344
-0.12925695 0.48125377 0.00000000
-0.53008395 -0.45770776 -0.00000004
-0.23745032 -0.69649893 0.00000000
-0.23113684 -0.10117868 0.00000000
0.07763696 -0.05897758 0.04851250
0.44102764 -0.66600549 0.27558205
-0.76126182 -0.30228207 -0.00000124
0.51824778 -0.68561172 0.32383409
-0.27756998 -0.26157138 0.00000000
-0.55327910 -0.32039058 -0.00000038
0.40805691 0.09518944 0.25497970
-0.09525920 -0.73733604 0.00000000
0.40848431 -0.34062898 0.25524691
0.05461491 0.56338733 0.03412686
-0.42317247 -0.23390611 0.00000000
0.00535373 -0.06632474 0.00334535
0.28885061 -0.48929539 0.18049218
-0.74461287 -0.30160698 -0.00000123
-0.07135164 0.71991414 -0.00000016
0.39691278 -0.45166692 0.24801628
-0.13633361 -0.14782652 0.00000000
-0.33143494 -0.15070271 0.00000000
-0.53668058 -0.23918729 -0.00000045
0.24912679 -0.21575002 0.15567023
0.03795608 -0.23249811 0.02371737
-0.67740047 -0.19242004 -0.00000114
0.34315607 -0.22633731 0.21442568
-0.00683770 -0.33931908 0.00000000
0.65004921 -0.65570337 0.40619227
0.59885073 -0.45322311 0.37419978
-0.79602551 -0.36967257 -0.00000108
0.25004762 -0.61368966 0.15624562
-0.07862931 0.52526009 0.00000000
-0.22646774 -0.63383991 0.00000000
-0.79044944 -0.76868546 -0.00000008
-0.21394734 -0.01857522 0.00000000
0.27116790 -0.13378645 0.16944291
0.41875812 -0.32299358 0.26166663
-0.02119699 -0.71661276 0.00000000
0.00081999 -0.66352725 0.00051238
0.57675016 0.11895198 0.36038983
-0.14107670 0.65312344 -0.00000034
-0.22860676 -0.07986333 0.00000000
-0.19667344 -0.62339753 0.00000000
-0.72384077 -0.13668282 -0.00000143
-0.17194870 0.61828578 -0.00000041
0.04564291 -0.26723856 0.02852058
-0.26221931 -0.46788189 0.00000000
0.44911316 -0.60480320 0.28063440
-0.60597187 0.12256518 -0.00000139
-0.11575751 0.48701108 0.00000000
0.66422594 0.00282115 0.41505015
-0.04982850 -0.59017056 0.00000000
-0.71685910 -0.72790277 -0.00000018
0.03520032 -0.12904269 0.02199539
-0.57220274 -0.71464944 0.00000000
0.14402720 -0.18633623 0.08999734
0.55091625 -0.21941130 0.34424725
0.31458578 -0.21064745 0.19657315
-0.68658412 0.04393186 -0.00000159
0.24573897 0.06416129 0.15355331
-0.62741250 -0.53556764 -0.00000032
-0.10163842 0.64775848 -0.00000016
0.46363732 -0.30592221 0.28970996
-0.76340520 -0.32203010 -0.00000119
-0.51241904 -0.20838650 -0.00000040
-0.13187829 0.08940888 0.00000000
0.38576159 0.15734521 0.24104816
-0.59750986 0.14401388 -0.00000139
-0.45620736 -0.25434089 -0.00000008
-0.46346971 0.08620971 -0.00000072
0.10241075 -0.39993599 0.06399273
-0.39658406 -0.27456629 0.00000000
0.54081035 -0.65930605 0.33793259
0.11716476 -0.68029809 0.07321197
0.10391599 -0.02253761 0.06493331
-0.67632461 -0.22409323 -0.00000108
0.08154751 -0.33709964 0.05095606
-0.12466574 -0.04492086 0.00000000
0.56776649 -0.30316636 0.35477638
0.12369382 0.62806892 0.07729169
0.26787078 0.17088559 0.16738261
0.52912205 -0.67128950 0.33062902
-0.66855353 -0.78592199 -0.00000004
-0.65018338 -0.00380915 -0.00000135
-0.00941094 0.48734742 0.00000000
-0.21172790 0.43493405 -0.00000026
0.06864021 -0.26992348 0.04289076
-0.53938329 -0.29497498 -0.00000037
0.08777377 0.13799246 0.05484662
0.03374732 -0.25160345 0.02108746
-0.50561416 0.16943339 -0.00000104
0.61700761 -0.15522344 0.38554525
-0.33894342 -0.62188214 0.00000000
-0.02824794 -0.53489929 0.00000000
-0.75807929 -0.04436436 -0.00000174
0.50560790 -0.59589833 0.31593588
0.35044202 0.35793087 0.21897824
0.03099852 0.15055868 0.01936984
0.51780903 -0.67904717 0.32355994
-0.30899224 -0.76796788 0.00000000
0.64972389 -0.73897225 0.40598914
0.15563414 -0.33004135 0.09725008
0.36551231 0.09817018 0.22839516
-0.62335211 -0.75736409 0.00000000
0.14783017 -0.72820473 0.09237367
-0.58174229 -0.54874104 -0.00000010
-0.43079463 0.09499553 -0.00000059
-0.27781233 -0.04560204 0.00000000
0.07437288 -0.13046081 0.04647289
-0.32529789 0.35922924 -0.00000061
0.56280839 -0.11350965 0.35167819
0.21315727 -0.06778453 0.13319418
0.54313719 -0.60488808 0.33938652
-0.07983089 -0.35570672 0.00000000
0.46671540 -0.13377948 0.29163328
-0.63413090 -0.03744262 -0.00000123
-0.02075683 -0.50024444 0.00000000
0.24257927 -0.13908987 0.15157892
-0.24940936 -0.13926420 0.00000000
0.58380514 -0.09032152 0.36479825
-0.12386039 -0.69216329 0.00000000
0.11271179 0.39099589 0.07042948
-0.21395898 0.47740370 -0.00000034
0.63525486 -0.10097410 0.39694723
-0.57677233 -0.50721312 -0.00000015
0.64223403 -0.51358849 0.40130866
-0.21757282 -0.11561822 0.00000000
-0.05415760 -0.11669715 0.00000000
0.23916243 -0.66247022 0.14944386
-0.47613126 0.22192194 -0.00000101
-0.03879965 -0.57940209 0.00000000
-0.58926761 -0.31839937 -0.00000054
-0.30695540 0.11293483 -0.00000010
-0.23878567 -0.10661806 0.00000000
-0.13705765 0.42108530 0.00000000
0.16953073 0.08273455 0.10593356
0.04484909 -0.35543740 0.02802456
0.63691193 -0.22745040 0.39798275
-0.13892277 0.24839902 0.00000000
-0.23288368 -0.54351431 0.00000000
-0.16279288 0.61020231 -0.00000036
0.49263147 0.15473276 0.30782717
0.59537578 -0.04474689 0.37202829
-0.00255401 -0.53656125 0.00000000
0.65232939 -0.27790517 0.40761662
0.39807147 -0.11215372 0.24874026
0.36055493 0.27718437 0.22529744
0.14114308 -0.26184666 0.08819515
0.07797889 0.70152736 0.04872612
0.54501373 -0.01346039 0.34055892
-0.40482447 -0.59443194 0.00000000
-0.53844035 -0.26602465 -0.00000041
0.02494579 -0.41088608 0.01558771
0.25804132 0.01453827 0.16124059
-0.77357340 -0.72647184 -0.00000018
0.25092548 -0.53908962 0.15679418
-0.08588835 0.61578345 -0.00000004
0.29430839 -0.11545771 0.18390255
-0.42860478 -0.53228152 0.00000000
-0.21182850 0.15485349 0.00000000
-0.03717324 -0.79708165 0.00000000
-0.19261666 0.42461714 -0.00000016
-0.51631778 -0.37784711 -0.00000012
-0.54992604 -0.52738321 -0.00000000
0.59389657 -0.41531122 0.37110412
0.01375116 0.38716054 0.00859260
-0.77675349 -0.25616357 -0.00000136
0.44592097 -0.49105918 0.27863970
-0.73499906 -0.16902468 -0.00000142
0.54406363 -0.33182201 0.33996534
-0.05133077 -0.03213835 0.00000000
-0.16943200 -0.31638572 0.00000000
-0.50582218 -0.59291434 0.00000000
0.67201841 -0.76234078 0.41992030
-0.22507955 -0.79284757 0.00000000
-0.77184594 -0.54326493 -0.00000064
-0.39531654 -0.35976151 0.00000000
-0.40800121 -0.51289165 0.00000000
0.50648671 0.18445250 0.31648478
-0.35038659 0.33452198 -0.00000067
-0.12476764 0.13762508 0.00000000
0.41713038 0.20023958 0.26064935
0.38272405 0.32301113 0.23915008
0.10471317 -0.22196691 0.06543143
0.00891706 -0.06827501 0.00557195
0.59716976 -0.58552742 0.37314948
-0.37697485 -0.34914899 0.00000000
0.64452612 0.03328642 0.40274048
0.44676420 0.12616825 0.27916643
0.66830111 -0.58038777 0.41759723
-0.67603135 -0.11658589 -0.00000126
0.05766173 0.71383572 0.03603068
0.25045544 -0.08132799 0.15650044
-0.31415701 -0.20609976 0.00000000
0.31330237 0.13253500 0.19577114
0.51705652 -0.00761718 0.32308951
-0.06473454 -0.77812093 0.00000000
0.53104740 -0.42661750 0.33183202
-0.00735335 -0.54602462 0.00000000
0.09558193 0.17086515 0.05972565
0.28976879 -0.21183369 0.18106593
0.24837302 0.39343613 0.15519913
-0.57448167 -0.26358798 -0.00000057
0.00597734 -0.33451688 0.00373502
-0.58693641 0.05704012 -0.00000119
0.65844315 -0.29333299 0.41143695
0.22707903 -0.40919384 0.14189339
0.07475647 -0.69932312 0.04671258
0.40591085 -0.20784403 0.25363880
-0.65133798 -0.29215300 -0.00000085
0.60280693 -0.50364727 0.37667191
0.63428336 -0.13988340 0.39634019
0.31367293 0.01690308 0.19600272
-0.08563536 0.54188186 0.00000000
0.20508298 -0.36682126 0.12814885
-0.06953918 0.48295081 0.00000000
-0.71431035 0.03885055 -0.00000170
-0.06706161 0.62618107 0.00000000
0.16147053 0.37179896 0.10089702
0.36339456 -0.57344037 0.22707199
0.04591770 -0.69560337 0.02869230
0.62426054 -0.12702525 0.39007732
0.12722886 0.09067178 0.07950065
-0.70734721 -0.31261045 -0.00000105
0.02101924 0.55156505 0.01313415
-0.09921231 0.56166941 -0.00000000
0.58378100 -0.41503856 0.36478329
0.21814327 -0.63097984 0.13630974
-0.24256004 -0.09273699 0.00000000
0.60317999 -0.69982904 0.37690523
0.19820327 -0.43721196 0.12384998
0.27148002 -0.44306898 0.16963793
0.24757089 -0.78602833 0.15469800
-0.05522905 0.37146637 0.00000000
-0.25028709 -0.37949315 0.00000000
-0.25497651 -0.06863814 0.00000000
-0.75609219 -0.03787493 -0.00000175
-0.53029633 0.04805648 -0.00000093
-0.17943153 0.50365871 -0.00000024
-0.60181743 -0.54764146 -0.00000019
0.12655284 -0.01833775 0.07907825
-0.63985980 -0.22006501 -0.00000093
0.53516841 -0.38606587 0.33440706
-0.10008686 -0.65721726 0.00000000
0.03045199 0.01219223 0.01902833
0.54945743 -0.02623158 0.34333563
-0.11511646 0.59684306 -0.00000013
0.32596236 -0.43731260 0.20368198
0.20981672 -0.18335497 0.13110681
-0.20028742 -0.73521954 0.00000000
-0.09121428 0.65028024 -0.00000012
0.28830943 0.31261367 0.18015394
0.27019304 -0.76658607 0.16883375
-0.52462476 0.12536761 -0.00000105
-0.68167102 -0.07084566 -0.00000137
-0.32546249 -0.75230688 0.00000000
0.67467117 -0.37041634 0.42157745
-0.60695511 -0.30173644 -0.00000064
0.00854080 -0.22887336 0.00533683
-0.40829679 -0.42937511 0.00000000
-0.20908292 0.51833975 -0.00000039
0.20010442 -0.08565092 0.12503794
-0.61656553 -0.70803666 0.00000000
0.32120624 0.19583943 0.20070995
-0.67631352 -0.50335270 -0.00000058
0.07092594 0.55860788 0.04431903
-0.05552627 -0.61338311 0.00000000
0.35073087 -0.06309256 0.21915884
0.20709056 -0.50183088 0.12940332
0.58488899 -0.01080935 0.36547551
-0.67182291 -0.60244256 -0.00000039
0.30252597 0.02924471 0.18903738
0.17976844 0.06818725 0.11233072
-0.61461288 -0.67147303 -0.00000002
-0.15974280 0.30851236 0.00000000
-0.56745255 -0.77948368 0.00000000
0.02989300 -0.35397580 0.01867904
0.45837599 -0.58832717 0.28642240
0.18168601 0.17182156 0.11352895
0.52758366 -0.40998504 0.32966766
0.42695028 -0.31529012 0.26678559
-0.67828804 0.06549515 -0.00000160
0.04018042 0.48066148 0.02510727
-0.38574120 0.26832518 -0.00000071
-0.10598638 -0.34985787 0.00000000
0.10718763 0.54286826 0.06697762
0.44997445 -0.07723139 0.28117245
0.19074963 0.35534975 0.11919244
-0.01158141 -0.75421870 0.00000000
0.51898187 -0.45896551 0.32429272
-0.34494817 -0.77262241 0.00000000
0.03362918 0.08209411 0.02101365
-0.19404040 0.47273526 -0.00000025
0.38312864 0.04021558 0.23940298
0.27639833 0.35126007 0.17271110
0.11457513 -0.65267652 0.07159381
0.60857338 -0.25482222 0.38027504
-0.52023232 -0.00097845 -0.00000080
-0.28410468 -0.06639466 0.00000000
0.17761442 -0.66331947 0.11098476
0.65612209 -0.68503237 0.40998709
-0.01183716 0.74824148 0.00000000
0.33657387 -0.19222996 0.21031271
-0.48429370 0.01552448 -0.00000068
0.46446070 -0.25640360 0.29022443
-0.21553022 -0.71054018 0.00000000
-0.43465960 -0.57800102 0.00000000
0.59330297 -0.26737344 0.37073311
-0.10403564 0.62658322 -0.00000014
-0.21426356 0.23181237 0.00000000
0.57018375 -0.50541204 0.35628688
0.65832114 -0.20707344 0.41136059
-0.34340146 -0.72327733 0.00000000
-0.26704669 0.33083805 -0.00000031
0.27629074 -0.36403775 0.17264397
0.10451900 0.07940244 0.06531010
0.16771406 -0.05527301 0.10479839
-0.12261070 0.59924275 -0.00000017
-0.28913054 -0.77129722 0.00000000
-0.23174267 -0.09958547 0.00000000
-0.10059619 0.35897872 0.00000000
0.31800890 -0.16922668 0.19871214
-0.65921098 -0.41966036 -0.00000066
0.30265695 0.16651395 0.18911919
-0.37805748 -0.73617750 0.00000000
-0.38105071 -0.48353437 0.00000000
-0.13124140 0.26080444 0.00000000
-0.35640445 -0.02200210 -0.00000007
0.12805390 0.38577655 0.08001621
0.30854902 0.09758631 0.19280095
-0.25544262 -0.36609006 0.00000000
0.12266776 0.42078322 0.07665060
0.00906643 0.46156365 0.00566528
0.08645064 0.36103630 0.05401984
-0.74686813 -0.40684846 -0.00000098
0.58870018 -0.62759858 0.36785716
0.65601903 -0.73787552 0.40992278
-0.73145807 -0.62864834 -0.00000043
-0.48913145 -0.53535509 0.00000000
-0.12472319 -0.79216754 0.00000000
-0.05881613 -0.74091190 0.00000000
0.21130817 0.44515407 0.13203867
-0.38946903 0.33086401 -0.00000083
0.48643625 -0.63170278 0.30395624
-0.03923534 0.59777814 0.00000000
0.01641059 0.08859415 0.01025438
-0.02870071 -0.66369033 0.00000000
-0.56137806 -0.78294766 0.00000000
-0.54366523 -0.51131904 -0.00000000
0.06954597 0.17301403 0.04345674
0.29454291 -0.20776571 0.18404910
0.09138142 0.53940988 0.05710091
0.42908308 -0.01974564 0.26811820
-0.28221372 -0.40435067 0.00000000
0.38053665 -0.45026350 0.23778345
-0.21649905 -0.06111027 0.00000000
-0.11443511 0.08074720 0.00000000
0.19702366 -0.04937015 0.12311289
0.62686884 -0.08736009 0.39170715
0.37834474 -0.58750319 0.23641381
-0.02246379 -0.43050289 0.00000000
-0.67283171 -0.35435534 -0.00000083
0.61401159 -0.33383074 0.38367319
-0.04752780 0.38057464 0.00000000
0.30808452 -0.73396587 0.19251075
-0.30005026 -0.65968823 0.00000000
0.29038608 -0.62667722 0.18145165
-0.43473110 -0.55502081 0.00000000
0.16818544 -0.45328048 0.10509294
0.01278412 0.12979911 0.00798833
0.27249148 -0.19833452 0.17026997
0.49678701 -0.01701246 0.31042385
-0.06369968 0.68615001 -0.00000007
0.33643755 -0.42546654 0.21022752
-0.19062275 0.02979114 0.00000000
-0.72280693 -0.46114159 -0.00000085
-0.27269623 -0.59424043 0.00000000
0.39206812 -0.55803722 0.24498902
0.09793596 -0.70165080 0.06119660
-0.60467494 -0.53568131 -0.00000022
0.64380479 -0.15434045 0.40228978
0.40182713 -0.07113145 0.25108701
0.39610812 -0.48747614 0.24751347
0.20389447 0.22900216 0.12740619
0.01770828 -0.28117597 0.01106525
0.40371549 -0.35730255 0.25226706
-0.37971190 -0.33848950 0.00000000
0.25723892 -0.17276318 0.16073920
-0.20335352 -0.73903376 0.00000000
-0.48303518 -0.69592792 0.00000000
0.07916593 -0.77491421 0.04946789
-0.13613421 -0.19297664 0.00000000
0.07004580 -0.67516005 0.04376906
-0.59082717 -0.04181398 -0.00000103
-0.13068604 -0.40288553 0.00000000
-0.73764163 -0.37574902 -0.00000106
0.15309191 -0.41591290 0.09566154
-0.56736875 0.13230726 -0.00000124
0.03294841 0.28926688 0.02058826
-0.51393658 -0.35557765 -0.00000015
0.59404528 -0.26165250 0.37119699
0.56299800 -0.69884580 0.35179684
0.01573771 -0.72114140 0.00983392
-0.14422850 0.03571230 0.00000000
0.37187517 0.29503691 0.23237102
0.37415481 -0.62808877 0.23379567
0.46538383 -0.01905381 0.29080120
-0.07473321 0.49642083 0.00000000
0.03847887 0.12895311 0.02404404
0.41476077 -0.55782622 0.25916883
-0.76605904 -0.76268381 -0.00000009
-0.18343571 -0.41672182 0.00000000
0.40167785 -0.14964852 0.25099376
0.54463601 -0.79456615 0.34032315
-0.23468003 0.46806777 -0.00000041
0.63555223 0.00290386 0.39713302
0.42044458 0.21321002 0.26272026
0.51255494 -0.11311165 0.32027668
-0.26299980 -0.56131858 0.00000000
-0.24977092 -0.49886128 0.00000000
0.34164894 -0.37229776 0.21348393
-0.55810702 -0.57274038 0.00000000
-0.64523745 -0.39247543 -0.00000065
0.32924598 0.22720212 0.20573367
-0.67013484 -0.72297770 -0.00000017
0.06499258 0.70886868 0.04061146
-0.00651365 0.25105906 0.00000000
-0.45571631 -0.08642251 -0.00000038
-0.46371335 0.28047693 -0.00000106
0.00644671 0.46138716 0.00402831
-0.09407568 -0.17957717 0.00000000
0.65022624 -0.33699036 0.40630251
0.31061843 -0.60105509 0.19409411
0.32178968 -0.66548854 0.20107460
0.59946597 -0.02513338 0.37458408
0.49951670 -0.26515362 0.31212962
0.33039087 -0.38916978 0.20644920
-0.13665991 0.42080632 0.00000000
-0.12387547 0.27159521 0.00000000
0.17126834 -0.78647739 0.10701933
0.18933298 -0.73055011 0.11830726
0.00436827 0.38089815 0.00272957
-0.24020846 -0.30689818 0.00000000
-0.37170014 0.22675242 -0.00000057
-0.43347013 -0.73696434 0.00000000
0.10143860 -0.70820022 0.06338527
0.65453577 -0.15837175 0.40899521
0.10606395 -0.53929806 0.06627548
0.67159915 -0.47364426 0.41965795
-0.36868700 -0.75846511 0.00000000
0.04521772 -0.62165761 0.02825490
0.52718616 -0.07347023 0.32941914
-0.55476832 -0.63552600 0.00000000
-0.29191884 -0.47053388 0.00000000
0.66823572 -0.14809830 0.41755584
-0.29017749 -0.46252272 0.00000000
-0.39454129 -0.18443371 0.00000000
-0.77702111 -0.46816206 -0.00000083
0.09443606 0.21094655 0.05900964
0.51937437 -0.00052217 0.32453787
-0.56826252 -0.49899414 -0.00000013
0.04964489 -0.02869112 0.03102128
0.41061017 0.05107157 0.25657517
0.66987675 -0.42902583 0.41858166
-0.46350557 0.16646402 -0.00000086
-0.08385671 -0.07617427 0.00000000
0.65006417 -0.07340948 0.40620103
-0.64317030 -0.02140730 -0.00000129
0.47124681 -0.08795678 0.29446477
0.50030655 -0.32304451 0.31262320
-0.13882609 0.41096035 0.00000000
0.28079796 -0.04495482 0.17546038
-0.52501607 -0.33757934 -0.00000023
0.26887301 -0.12080295 0.16800891
0.09487034 0.04615255 0.05928101
-0.64896095 -0.54585218 -0.00000039
0.00446416 -0.69252855 0.00278949
0.55330628 -0.00069423 0.34574062
-0.33326000 -0.34657648 0.00000000
0.18273763 0.10513842 0.11418607
0.12911323 0.47849509 0.08067812
-0.36590514 -0.69946903 0.00000000
-0.42410612 -0.37044424 0.00000000
-0.00655284 0.39487085 0.00000000
0.02261380 -0.09112403 0.01413054
-0.25845250 -0.40268704 0.00000000
-0.08568068 0.63598001 -0.00000008
-0.16579466 -0.79773116 0.00000000
0.08272145 -0.17552739 0.05168961
0.21371964 -0.04023189 0.13354558
0.18495803 -0.74141610 0.11557351
0.42790592 -0.68007469 0.26738277
0.53967369 -0.37939501 0.33722225
0.03878440 -0.65672624 0.02423495
0.14466861 -0.25329700 0.09039812
-0.03927287 -0.43000433 0.00000000
-0.59629339 0.11821753 -0.00000134
0.09781219 0.60306686 0.06111924
-0.67939955 0.11109283 -0.00000168
0.18578225 -0.37253603 0.11608855
0.27588862 -0.22500835 0.17239271
-0.33675447 0.44294634 -0.00000081
0.56885785 -0.48442182 0.35545835
0.18849342 0.51716369 0.11778256
0.61158293 0.06893192 0.38215548
0.43784285 -0.25505319 0.27359194
-0.48260048 0.04964408 -0.00000073
0.51870245 -0.20736270 0.32411805
-0.44428617 -0.65947330 0.00000000
-0.68885702 -0.06244549 -0.00000142
0.23944546 0.15368652 0.14962071
0.36940110 -0.60113895 0.23082525
0.20011301 -0.67597878 0.12504330
-0.43393514 0.27213654 -0.00000092
0.06919683 -0.65323573 0.04323857
-0.24228035 -0.25604591 0.00000000
-0.14925541 0.23850782 0.00000000
0.00630477 0.77381974 0.00393962
0.23775265 -0.55594999 0.14856292
0.13584568 0.13863963 0.08488500
-0.09823215 -0.41906422 0.00000000
-0.04114560 0.43622705 0.00000000
0.64480031 -0.19956033 0.40291187
-0.18089271 0.29859573 0.00000000
-0.42857099 0.00804180 -0.00000043
0.52332324 0.08021547 0.32700530
0.36838382 -0.69058990 0.23018958
-0.56741005 -0.57713795 0.00000000
0.15646112 0.56673235 0.09776677
0.00166928 -0.32306150 0.00104307
-0.04065189 0.41699642 0.00000000
-0.35584414 -0.03512809 -0.00000004
0.07969617 -0.48985586 0.04979922
-0.22941138 -0.46776342 0.00000000
-0.41817045 -0.50075078 0.00000000
-0.38121581 0.11919842 -0.00000042
-0.57098496 -0.44055268 -0.00000024
-0.05362091 0.45929569 0.00000000
0.61028510 -0.53951603 0.38134480
-0.51468867 -0.07912350 -0.00000064
-0.04182656 -0.06660315 0.00000000
-0.40880415 0.21746676 -0.00000071
-0.58342677 -0.11253960 -0.00000088
0.27462137 0.11109733 0.17160082
0.10619556 -0.33365604 0.06635772
-0.41759914 -0.74719596 0.00000000
0.23598324 -0.59657776 0.14745730
0.10057860 0.05051267 0.06284789
0.11566115 0.05742838 0.07227243
0.33421895 -0.50487071 0.20884120
-0.19842106 0.17998137 0.00000000
0.12717062 -0.58359814 0.07946427
-0.16011354 0.30328116 0.00000000
0.03824776 -0.35098273 0.02389962
0.01331204 0.33365440 0.00831821
-0.45461416 -0.53748173 0.00000000
-0.04935341 -0.50848854 0.00000000
-0.23058037 -0.26265562 0.00000000
-0.27658126 -0.53638190 0.00000000
0.05804963 -0.60122138 0.03627309
-0.18175751 -0.50546312 0.00000000
-0.60535109 -0.12138535 -0.00000095
0.43926844 0.11601324 0.27448261
0.08827756 -0.52544051 0.05516142
-0.15344018 0.08220294 0.00000000
-0.19937932 0.10861759 0.00000000
0.37158200 -0.62113547 0.23218802
-0.69955772 -0.01621933 -0.00000154
-0.73830533 -0.16584027 -0.00000144
0.38991621 0.01006695 0.24364428
0.35634342 -0.43591306 0.22266597
0.11880620 0.24875627 0.07423765
-0.21250929 -0.00448060 0.00000000
-0.69926155 -0.71138865 -0.00000022
-0.69522542 -0.25014499 -0.00000111
0.43444890 -0.74888146 0.27147123
-0.08041739 -0.74846190 0.00000000
0.28212005 -0.79614919 0.17628650
0.23442852 0.28576076 0.14648576
-0.36648306 -0.51564723 0.00000000
0.59752345 -0.72675449 0.37337065
0.41007841 -0.69969839 0.25624302
-0.47129229 -0.77361381 0.00000000
0.52175349 -0.30024171 0.32602456
0.62729001 -0.30095214 0.39197040
0.15697436 0.47792235 0.09808750
0.59657639 0.01457347 0.37277848
0.06937816 0.58921915 0.04335188
-0.09920334 -0.41434178 0.00000000
0.01277505 -0.09874253 0.00798266
-0.21790648 -0.16508131 0.00000000
-0.05114429 0.28009793 0.00000000
0.50739229 -0.48257464 0.31705084
0.01306824 0.43344569 0.00816586
-0.42206153 -0.24806996 0.00000000
0.24256197 0.36556524 0.15156803
-0.70279080 -0.00856045 -0.00000157
-0.17781182 0.23445573 0.00000000
0.64386922 -0.28803623 0.40233016
0.07354488 -0.34858295 0.04595551
-0.23554891 0.17904080 0.00000000
-0.20672706 -0.68943572 0.00000000
0.58230400 -0.29593632 0.36386031
-0.62078679 -0.46170363 -0.00000042
-0.45854974 -0.06191814 -0.00000043
-0.10979468 0.56246448 -0.00000005
0.31609291 -0.61798942 0.19751491
0.17020312 -0.45355523 0.10635371
0.08417372 0.63361400 0.05259706
0.16880456 0.19009134 0.10547979
-0.07707760 0.50215334 0.00000000
-0.28039554 -0.09987007 0.00000000
-0.22134477 -0.69339937 0.00000000
0.18503442 -0.68950355 0.11562125
-0.17025588 0.57464653 -0.00000033
0.23957279 -0.69943178 0.14970028
-0.45944849 -0.77250886 0.00000000
0.56405509 -0.29258588 0.35245723
-0.20911121 -0.43717334 0.00000000
0.34478810 0.36059552 0.21544531
-0.60310835 -0.25112879 -0.00000072
0.17026252 0.09737119 0.10639082
0.51407164 -0.57113653 0.32122457
-0.67612624 -0.56016052 -0.00000048
-0.79326230 -0.25477621 -0.00000136
0.33269072 -0.03665793 0.20788623
0.45273057 -0.33002284 0.28289473
0.22868317 0.43418559 0.14289567
-0.05387503 -0.00065889 0.00000000
-0.31916472 -0.64223826 0.00000000
-0.21249585 0.29900503 -0.00000002
-0.05225635 0.04386600 0.00000000
-0.02712155 -0.69865018 0.00000000
-0.12076889 -0.15201423 0.00000000
0.01580729 0.09910232 0.00987740
-0.47106713 -0.73555803 0.00000000
0.26798087 -0.33682740 0.16745144
-0.63324469 -0.74873316 0.00000000
-0.34178236 0.16497400 -0.00000034
0.51817739 -0.55286705 0.32379007
0.17513911 0.46917820 0.10943798
-0.05188955 0.72137916 -0.00000008
-0.10701016 -0.45506862 0.00000000
0.03163133 -0.12904248 0.01976526
-0.73566204 -0.29678893 -0.00000120
-0.00151904 -0.20059697 0.00000000
0.16176549 -0.37810084 0.10108134
-0.14873731 0.29835534 0.00000000
0.65241623 -0.54385000 0.40767124
-0.07931067 -0.21150558 0.00000000
-0.01296950 -0.45194790 0.00000000
0.29084161 0.23881663 0.18173622
0.42374599 -0.15301052 0.26478329
0.18054727 -0.33154288 0.11281739
0.03450041 0.68503571 0.02155804
-0.76715440 -0.78955770 -0.00000003
0.19955511 0.43611228 0.12469463
-0.33085683 0.10159707 -0.00000018
-0.17445759 -0.63599217 0.00000000
0.12866198 0.61568815 0.08039610
0.45459765 0.23690735 0.28406122
-0.17945294 0.25593975 0.00000000
-0.67449814 -0.34261096 -0.00000086
0.04322653 0.27806586 0.02701068
0.34261960 -0.21238761 0.21409047
0.62118971 -0.45283654 0.38815865
0.15949751 -0.66502821 0.09966416
-0.48886526 -0.66611922 0.00000000
-0.30763522 0.05006322 0.00000000
0.31197274 -0.74138010 0.19494036
0.04829934 0.45473471 0.03018049
-0.54609329 -0.75564033 0.00000000
-0.15211235 0.51879299 -0.00000015
0.19253954 -0.00151349 0.12031092
-0.30278423 -0.03050571 0.00000000
-0.04990781 -0.67678428 0.00000000
-0.55607885 -0.60277689 0.00000000
0.22675307 -0.47381651 0.14168970
0.34819266 -0.72577804 0.21757287
0.46659276 -0.62136227 0.29155678
-0.07043200 -0.63968289 0.00000000
-0.07603939 0.29056144 0.00000000
