ply
format ascii 1.0
element vertex 1366
property float x
property float y
property float z
end_header
-0.56302279 0.51989055 -0.00000030
0.43944597 -0.42657134 -0.00000023
-0.40853718 -0.61947882 -0.00000011
0.24275427 0.49977607 0.16927435
0.48878172 0.30698782 0.01245702
-0.03539451 -0.08657014 -0.00000045
0.24546090 -0.58538872 -0.00000013
-0.37103033 -0.16201875 -0.00000040
-0.69001967 0.04551852 -0.00000013
-0.18528545 0.47234082 -0.00000074
-0.64991891 0.05900682 -0.00000017
-0.55971020 0.64356071 -0.00000030
0.46017513 0.22727057 -0.00000088
-0.39637658 0.79576826 -0.00000050
-0.45236605 -0.68742549 -0.00000007
0.01935780 0.09146492 -0.00000056
-0.47717842 -0.31490961 -0.00000029
-0.51011175 -0.71899927 -0.00000005
-0.43568000 0.09689974 -0.00000041
0.50007790 0.20275950 0.28619117
0.44451165 0.02507555 -0.00000065
0.10135552 -0.33637801 -0.00000029
-0.18379441 0.48535025 -0.00000075
-0.08863896 -0.72475570 -0.00000005
-0.04426887 0.73215944 -0.00000094
-0.09503717 -0.51370788 -0.00000018
0.17950635 -0.77516717 -0.00000002
-0.51725918 0.48333931 -0.00000035
-0.42103356 -0.10700428 -0.00000038
0.40201366 0.28243238 0.34036234
-0.60227239 -0.46666363 -0.00000013
0.24153306 0.48982477 0.20218286
-0.04947908 -0.24998295 -0.00000034
0.03177352 0.04757443 -0.00000053
0.57738400 0.21619105 0.01892095
-0.26135525 -0.52549040 -0.00000017
0.25663701 0.02127476 -0.00000051
0.05292667 -0.18884447 -0.00000038
-0.32801110 0.47956079 -0.00000059
-0.21512333 -0.10542672 -0.00000043
-0.30382150 0.28103605 -0.00000058
-0.47355363 -0.15932381 -0.00000032
-0.39949360 0.20090920 -0.00000046
-0.32386482 0.21538121 -0.00000055
0.30945063 0.39681000 0.27610695
-0.41079432 0.30962545 -0.00000047
-0.20274504 0.39297977 -0.00000071
-0.07990371 -0.23515096 -0.00000035
0.21598099 0.49900529 0.25040489
0.34402913 0.34738255 0.31984466
-0.12397431 0.11469986 -0.00000057
-0.12523124 -0.74199158 -0.00000004
-0.63105124 -0.36511728 -0.00000011
-0.33467901 0.34774613 -0.00000056
0.30810693 -0.67087340 -0.00000008
0.54520011 -0.76145673 -0.00000002
-0.77207053 -0.58669019 0.00000000
-0.73668301 -0.07832876 -0.00000005
-0.53847635 0.60896814 -0.00000033
0.06241336 -0.48947710 -0.00000019
-0.63978142 -0.36520380 -0.00000010
-0.07370113 -0.51694185 -0.00000018
-0.09188992 0.71417695 -0.00000089
0.47743568 0.14746824 -0.00000081
-0.65214032 -0.35481533 -0.00000009
-0.25763208 -0.35439053 -0.00000028
-0.36873102 -0.66073996 -0.00000009
-0.01727460 0.47018194 -0.00000079
-0.27698532 0.57598007 -0.00000065
-0.78492373 -0.58626854 0.00000000
-0.35621870 -0.07771766 -0.00000045
0.60849315 -0.35446805 -0.00000042
0.31724620 -0.18248481 -0.00000039
0.62555373 -0.53648335 -0.00000024
-0.78070509 -0.74895614 0.00000000
-0.39727804 0.78323728 -0.00000050
-0.35468531 0.44367379 -0.00000056
0.28695005 0.37445030 -0.00000085
0.09369174 -0.30905336 -0.00000031
0.51704204 -0.57769626 -0.00000014
0.14917447 0.44168609 -0.00000078
-0.11093381 -0.54912639 -0.00000016
0.72310221 -0.41106769 -0.00000048
-0.59925848 -0.05695089 -0.00000020
0.54806536 0.01381908 -0.00000075
0.23558418 -0.63132632 -0.00000011
-0.48855850 -0.33495447 -0.00000027
0.09652515 0.44375673 -0.00000078
0.73303270 -0.46174636 -0.00000042
0.61373532 -0.03239755 -0.00000077
-0.51220763 0.38200873 -0.00000036
0.66431522 -0.78228468 -0.00000002
0.30788693 -0.60758150 -0.00000012
-0.24995205 0.13524158 -0.00000058
-0.42213088 0.24127492 -0.00000045
-0.39598221 -0.30737692 -0.00000031
-0.44687799 0.17741108 -0.00000041
-0.15158176 0.74413174 -0.00000081
-0.54398608 -0.09925747 -0.00000025
0.08528192 0.50818270 -0.00000082
0.52398211 -0.53147870 -0.00000017
0.09639905 -0.77772856 -0.00000001
0.33622372 -0.45749381 -0.00000021
0.11410778 0.33240980 -0.00000071
-0.63864762 -0.74460369 -0.00000003
0.30825430 0.38838422 -0.00000089
-0.72932178 -0.65138417 0.00000000
-0.70510370 0.26158157 -0.00000012
0.60081577 -0.32587752 -0.00000044
-0.13749932 -0.45086989 -0.00000022
0.12165809 -0.08249869 -0.00000045
-0.40450141 0.79849195 -0.00000049
0.56974107 -0.29684076 -0.00000044
-0.62171537 0.47341746 -0.00000022
0.06860595 -0.62848920 -0.00000011
0.13796374 -0.62981504 -0.00000011
-0.31640095 -0.34903219 -0.00000028
-0.24107838 -0.35249263 -0.00000028
0.58979684 0.15116017 0.17390883
-0.60981083 0.72461349 -0.00000024
0.75345767 -0.24553469 -0.00000069
-0.08947126 -0.32171351 -0.00000030
0.04145619 -0.33555749 -0.00000029
-0.12525111 -0.63423842 -0.00000010
0.04331941 -0.76357377 -0.00000002
-0.58446842 -0.41510436 -0.00000015
0.22575042 -0.59929633 -0.00000013
0.09152736 0.17949110 -0.00000061
0.52677065 -0.67716128 -0.00000008
0.16098157 0.34616762 -0.00000072
0.02512476 -0.53527570 -0.00000017
0.44490680 -0.03506643 -0.00000058
-0.26694497 0.18278839 -0.00000060
-0.68376476 0.35491273 -0.00000015
0.11067801 0.54816324 -0.00000085
-0.02225265 0.19353507 -0.00000062
-0.76287800 -0.77104831 0.00000000
-0.55648834 -0.78938174 -0.00000001
-0.15664567 -0.41089150 -0.00000024
-0.12274564 0.10241589 -0.00000056
-0.33664855 -0.46496195 -0.00000021
-0.67851323 -0.36801210 -0.00000006
-0.34997353 -0.39816976 -0.00000025
-0.45557293 -0.23891772 -0.00000032
-0.04438561 0.17337351 -0.00000061
0.13687730 0.18624014 -0.00000062
0.31339499 -0.15991221 -0.00000040
0.52984434 -0.07307182 -0.00000063
0.64244813 -0.09934420 -0.00000073
0.04639697 -0.55386662 -0.00000015
-0.33636546 0.50527078 -0.00000058
-0.04903856 -0.53535128 -0.00000017
0.00687097 -0.18777367 -0.00000038
-0.17136924 -0.34756777 -0.00000028
-0.39650673 0.04750751 -0.00000044
0.05925994 -0.13124906 -0.00000042
0.34667277 0.22612704 -0.00000076
-0.70811975 -0.48797339 -0.00000001
-0.06007361 -0.11003966 -0.00000043
-0.40036705 -0.50284022 -0.00000019
0.06813930 -0.27771950 -0.00000033
-0.26127967 0.42751083 -0.00000065
0.72271430 -0.26392743 -0.00000064
-0.34351489 -0.29613993 -0.00000031
0.29296225 0.33641800 -0.00000082
-0.63039613 -0.66011411 -0.00000006
-0.33324885 -0.31088504 -0.00000031
-0.49625880 -0.31853828 -0.00000027
0.55518466 -0.65900123 -0.00000009
-0.74495625 -0.11349263 -0.00000004
0.27978635 -0.68411726 -0.00000007
-0.74205923 0.20050626 -0.00000007
-0.59516662 0.00902960 -0.00000022
-0.61105508 0.52569425 -0.00000024
-0.55303216 0.38257092 -0.00000031
-0.78998899 -0.44806364 0.00000000
-0.02731936 -0.21819475 -0.00000036
-0.47467336 -0.66516244 -0.00000008
0.59889132 0.16527845 0.10553500
-0.75672466 0.19669327 -0.00000005
-0.49359649 -0.70196187 -0.00000006
-0.05822185 -0.36682177 -0.00000027
-0.02058822 -0.08911531 -0.00000044
0.11125448 -0.00871748 -0.00000049
0.35487187 -0.48787087 -0.00000020
0.50638765 -0.37248284 -0.00000029
0.67524809 -0.68025398 -0.00000014
-0.70472330 -0.20576280 -0.00000006
0.02427856 -0.55772334 -0.00000015
-0.22818531 0.06085360 -0.00000054
-0.08266085 -0.36296162 -0.00000027
-0.63750720 0.29457369 -0.00000020
0.17801899 -0.49789777 -0.00000019
-0.63499129 -0.16990779 -0.00000014
0.29656133 0.16916128 -0.00000064
0.27794448 -0.19984262 -0.00000038
-0.15896253 -0.42985916 -0.00000023
0.68544799 -0.09053594 -0.00000078
-0.50345469 -0.46757829 -0.00000021
-0.22528122 0.60048705 -0.00000072
0.47558513 -0.79456168 -0.00000000
0.50739181 -0.42316705 -0.00000024
-0.37294006 -0.22021972 -0.00000036
-0.47907582 0.75489092 -0.00000040
0.19495298 0.41623536 -0.00000080
0.25703105 0.35471445 -0.00000080
-0.66591913 -0.06998584 -0.00000013
0.61033708 -0.22383504 -0.00000056
-0.01446661 0.17449670 -0.00000061
-0.75969541 0.75720948 -0.00000005
0.44391972 0.26293126 -0.00000090
-0.49200070 0.68058300 -0.00000038
0.31788862 -0.13180836 -0.00000042
0.22112834 -0.18711238 -0.00000038
-0.21735515 -0.39158496 -0.00000026
-0.42191729 0.29389158 -0.00000046
0.12997860 0.27410153 -0.00000067
-0.61987305 -0.19674648 -0.00000016
-0.66273195 -0.04853191 -0.00000014
0.70048261 -0.64671946 -0.00000019
-0.66115659 -0.21801762 -0.00000011
0.06716560 -0.03982592 -0.00000048
0.45561117 -0.66694689 -0.00000008
0.58707738 -0.70595300 -0.00000006
0.21955632 -0.08241772 -0.00000045
-0.10492207 0.38867933 -0.00000074
0.54449207 -0.72121590 -0.00000005
-0.68999594 0.64911216 -0.00000014
-0.51359874 0.68496931 -0.00000036
0.09526850 0.69077802 0.04109644
-0.19580325 -0.32795343 -0.00000030
-0.13418043 -0.19160204 -0.00000038
0.55273300 0.04049922 -0.00000078
0.08934074 0.54495108 -0.00000084
-0.76264334 -0.03031166 -0.00000003
0.15392485 -0.43878826 -0.00000023
-0.37018690 -0.70716482 -0.00000006
-0.50230497 0.23255049 -0.00000036
0.00848300 0.25123873 -0.00000066
-0.40297580 -0.76257402 -0.00000002
0.70463651 -0.06365438 -0.00000083
-0.07485228 -0.30757159 -0.00000031
-0.39670989 -0.38512370 -0.00000026
0.30515775 0.42570695 0.20363586
-0.73298925 0.67536330 -0.00000008
0.21068837 -0.46537164 -0.00000021
-0.49137819 0.60293865 -0.00000039
-0.64709157 -0.11300162 -0.00000014
-0.65041733 0.12089900 -0.00000018
0.19898696 -0.03772468 -0.00000048
-0.12693432 -0.66595525 -0.00000008
-0.44114667 0.74036467 -0.00000045
0.49297288 -0.24173398 -0.00000041
-0.76463950 0.12675378 -0.00000004
0.48139152 -0.77786702 -0.00000001
-0.72125906 0.71390712 -0.00000010
0.63677508 -0.54806995 -0.00000024
0.29615837 0.33285519 -0.00000082
-0.55822110 0.68633038 -0.00000030
-0.41442642 0.14200908 -0.00000044
-0.50006837 0.25249329 -0.00000037
0.65706819 -0.64222133 -0.00000016
0.42097634 -0.59079671 -0.00000013
0.77198511 -0.30778292 -0.00000062
-0.39546320 -0.50502551 -0.00000018
0.36445153 -0.66419995 -0.00000008
-0.11895669 0.17496157 -0.00000061
0.24355012 -0.17050081 -0.00000039
0.06138447 0.39591181 -0.00000075
-0.44319043 -0.28582582 -0.00000032
0.08022775 -0.24824791 -0.00000034
0.46861383 -0.27091992 -0.00000036
0.44047779 -0.71899110 -0.00000005
0.26377204 -0.49452344 -0.00000019
0.36047843 -0.49944291 -0.00000019
-0.65348369 0.21713732 -0.00000018
-0.72719866 -0.32120249 -0.00000002
0.38248253 -0.28976923 -0.00000032
-0.39443055 0.21386474 -0.00000047
0.18272015 0.47650245 -0.00000085
-0.77010572 0.39211300 -0.00000004
0.26458338 0.22557500 -0.00000067
0.21967821 -0.03150142 -0.00000048
-0.59055042 -0.00989891 -0.00000022
0.16145293 0.56707293 -0.00000092
0.67796153 -0.43472812 -0.00000041
-0.46343583 0.04456417 -0.00000037
-0.69176841 -0.57282645 -0.00000001
0.24537319 0.45920709 0.28105590
0.03977697 0.29379094 -0.00000068
0.50478816 -0.46527714 -0.00000021
-0.66784948 -0.73948908 -0.00000001
-0.09712466 0.37494135 -0.00000073
0.61532462 0.10352394 -0.00000091
-0.44159845 0.43429717 -0.00000045
0.79221141 -0.22007017 -0.00000072
-0.56735754 0.41851684 -0.00000029
-0.27632084 -0.71457082 -0.00000005
0.36582336 0.27018678 -0.00000083
-0.77347004 -0.11052882 -0.00000001
0.02704635 0.22573724 -0.00000064
-0.75807548 -0.78728122 0.00000000
-0.33482429 -0.27463409 -0.00000033
-0.26687321 -0.78030086 -0.00000001
-0.66966903 -0.73563284 -0.00000000
-0.44940183 -0.40932649 -0.00000024
-0.79895747 -0.17588764 0.00000000
-0.32107323 -0.64185709 -0.00000010
0.40639368 0.35291654 -0.00000096
-0.34595892 0.07515028 -0.00000050
-0.20111035 -0.49524823 -0.00000019
-0.14585011 -0.47780100 -0.00000020
-0.61527240 -0.58276403 -0.00000009
0.30710638 0.29489580 -0.00000079
0.37588432 0.27834719 0.42935869
-0.13573918 -0.07819801 -0.00000045
-0.10142790 -0.62305671 -0.00000011
-0.32511479 -0.01852228 -0.00000049
0.20308802 0.42544910 -0.00000082
-0.75661004 0.78182364 -0.00000005
-0.02961884 -0.31727192 -0.00000030
-0.47655898 -0.73437011 -0.00000004
-0.54101652 0.38919026 -0.00000032
-0.75212789 -0.48384476 0.00000000
-0.18345442 0.07909314 -0.00000055
0.67866606 0.07275869 -0.00000095
-0.47021827 -0.53962654 -0.00000016
-0.56521755 0.51203710 -0.00000029
0.55628818 -0.14358972 -0.00000059
-0.30628991 0.44653538 -0.00000061
0.05158985 -0.43087149 -0.00000023
-0.45643997 0.23026726 -0.00000041
-0.03192405 -0.23017217 -0.00000036
-0.63563704 -0.50250810 -0.00000008
0.31890202 0.11906397 -0.00000061
-0.72220600 -0.66572034 0.00000000
0.53003240 -0.04390419 -0.00000067
0.61312163 0.03513115 -0.00000084
0.08957562 0.56863606 -0.00000086
-0.24767663 0.22224951 -0.00000063
-0.34559926 -0.15137151 -0.00000041
-0.50298959 0.66664404 -0.00000037
-0.53740674 0.19903725 -0.00000032
-0.59451509 0.41437417 -0.00000026
-0.64338708 -0.50010782 -0.00000008
0.52292246 -0.77221692 -0.00000002
-0.07129030 0.10308867 -0.00000056
0.35334164 0.39529982 0.15127407
-0.00775900 0.18554731 -0.00000062
-0.61019349 -0.54552430 -0.00000010
0.78068709 -0.60511386 -0.00000024
0.51551288 -0.06087425 -0.00000063
-0.00577521 -0.39095601 -0.00000026
-0.37532261 -0.12504001 -0.00000042
-0.63279539 -0.77079803 -0.00000002
-0.23418000 -0.69947213 -0.00000006
-0.43293712 0.61819643 -0.00000046
-0.14917447 0.14444207 -0.00000059
-0.29648000 -0.32640597 -0.00000030
-0.08870608 -0.11182943 -0.00000043
0.51667160 -0.50229329 -0.00000019
-0.11497438 -0.58893704 -0.00000013
0.26569989 0.23364943 -0.00000068
-0.19807345 0.69656080 -0.00000075
0.41342315 -0.43010113 -0.00000023
-0.69043577 -0.35968825 -0.00000005
-0.70094281 -0.20573378 -0.00000007
0.12399989 0.28430900 -0.00000068
-0.66188484 0.48552781 -0.00000017
0.68268478 -0.05096460 -0.00000082
0.48390144 0.27166846 0.13086614
0.79013062 -0.06894627 -0.00000091
-0.79828429 0.79829085 -0.00000000
0.16731977 0.49448928 -0.00000085
0.49214202 0.21660882 -0.00000090
-0.02880514 -0.40484971 -0.00000025
-0.51238656 -0.24589162 -0.00000026
0.65960121 -0.63369876 -0.00000017
-0.67230058 -0.03432730 -0.00000013
0.22348145 0.28832930 -0.00000069
-0.19615293 0.14066909 -0.00000059
0.74255860 -0.02529195 -0.00000091
-0.76646447 0.32287681 -0.00000004
-0.42015168 0.59971082 -0.00000047
0.44358632 0.33431292 0.06509448
-0.59389716 -0.69086593 -0.00000007
0.47947890 -0.14807425 -0.00000050
-0.63990247 -0.68726039 -0.00000005
-0.11417827 -0.76347268 -0.00000002
0.38150421 0.08436898 -0.00000064
-0.22268280 0.69323319 -0.00000072
0.06193233 -0.60711551 -0.00000012
-0.45477083 -0.00266818 -0.00000037
0.04225929 0.29457727 -0.00000068
-0.23979157 0.08168758 -0.00000055
-0.65798819 -0.12493668 -0.00000013
-0.74698198 -0.60514867 0.00000000
0.30598617 0.30452108 -0.00000080
-0.23203658 0.32409620 -0.00000067
0.60680836 -0.38089022 -0.00000039
0.51018864 -0.52952397 -0.00000017
-0.54095286 -0.46605259 -0.00000019
0.27062815 -0.27024150 -0.00000033
0.14080052 0.22324833 -0.00000064
-0.39245546 0.42047793 -0.00000051
-0.10765612 -0.75310141 -0.00000003
-0.64000285 -0.44347274 -0.00000009
0.10373585 -0.03077866 -0.00000048
0.08734021 -0.54163504 -0.00000016
0.24737975 -0.43768725 -0.00000023
0.70684564 -0.08005570 -0.00000082
0.79691750 -0.04859755 -0.00000094
-0.70670819 -0.48257625 -0.00000001
-0.57320327 -0.08249100 -0.00000023
0.06099505 -0.52039862 -0.00000017
-0.37045050 -0.59097689 -0.00000013
-0.18824777 -0.59838921 -0.00000013
-0.07775139 0.22285844 -0.00000064
0.17339663 -0.45597252 -0.00000022
-0.62807935 -0.55469775 -0.00000008
-0.62851834 -0.56341875 -0.00000008
-0.13854469 0.70410049 -0.00000083
0.30978104 -0.75808734 -0.00000003
-0.40482727 -0.63780862 -0.00000010
-0.44685021 -0.30748326 -0.00000031
-0.53314573 -0.10694895 -0.00000027
0.55469269 -0.22298555 -0.00000050
0.33005050 0.25359672 -0.00000077
0.34780523 -0.33060271 -0.00000029
-0.21396627 0.46991009 -0.00000071
-0.10452186 -0.56918234 -0.00000014
-0.52688277 -0.50799155 -0.00000018
0.00246811 0.28831908 -0.00000068
0.01482480 -0.34798342 -0.00000028
0.32277718 -0.75560778 -0.00000003
-0.69299883 0.09845509 -0.00000013
-0.60541922 0.58217776 -0.00000024
-0.49044210 0.42639416 -0.00000039
-0.46214178 -0.23081496 -0.00000032
-0.59831500 0.54129082 -0.00000025
-0.68200654 0.77935845 -0.00000015
-0.77120119 0.69173539 -0.00000004
-0.48009673 0.46083853 -0.00000040
-0.73919582 0.24181163 -0.00000008
0.48727214 -0.09050974 -0.00000057
-0.56220347 -0.39924961 -0.00000018
-0.73053342 0.06749559 -0.00000009
-0.18971579 -0.00391807 -0.00000050
0.68916148 -0.54166847 -0.00000030
0.27184203 -0.60587251 -0.00000012
0.31071594 0.41180992 0.22819784
-0.68501157 0.21985418 -0.00000014
-0.13110162 0.67161191 -0.00000084
0.34654143 0.02040509 -0.00000054
-0.56651849 0.34622669 -0.00000029
0.53724194 0.17920971 -0.00000091
-0.63090330 -0.46902451 -0.00000009
0.18677874 -0.16531724 -0.00000040
-0.44751182 -0.75852311 -0.00000003
0.51127309 -0.40752965 -0.00000026
0.72402990 -0.72044021 -0.00000010
-0.24040659 0.46915567 -0.00000068
-0.65637606 0.58164692 -0.00000018
-0.60959196 0.20291539 -0.00000024
0.30056566 -0.07301261 -0.00000045
0.43819332 -0.76668203 -0.00000002
-0.63785708 -0.35066363 -0.00000011
0.08601083 0.59728014 -0.00000088
-0.42588812 -0.55881709 -0.00000015
-0.51254195 0.25875771 -0.00000035
-0.58966452 0.17838885 -0.00000026
-0.21821944 -0.02277232 -0.00000049
-0.61172569 0.25712836 -0.00000024
-0.07939562 -0.24525711 -0.00000035
-0.62416261 -0.26063538 -0.00000014
0.54664332 0.08243510 -0.00000082
0.15111385 0.27945802 -0.00000067
0.32557583 0.40470925 -0.00000093
0.62188476 -0.08380434 -0.00000072
0.16902260 -0.50464863 -0.00000018
-0.77397233 0.17636269 -0.00000003
0.55925435 -0.65946597 -0.00000009
0.44839033 -0.21829186 -0.00000039
0.07347078 0.69181085 0.10225929
-0.37575799 0.53745997 -0.00000053
-0.78643847 -0.13673843 0.00000000
-0.49470031 0.68006617 -0.00000038
-0.39589670 0.06637936 -0.00000044
-0.70328861 0.35085583 -0.00000012
0.38966709 0.33784634 0.21350724
0.18402517 -0.23720191 -0.00000035
-0.53781092 0.59187138 -0.00000033
0.13808987 0.48783487 -0.00000081
-0.03805613 -0.44081467 -0.00000022
0.77304560 -0.63558406 -0.00000021
0.19378273 -0.06161798 -0.00000046
-0.56044573 -0.40495208 -0.00000018
0.30855343 0.32045126 0.50366354
-0.13097841 -0.47903770 -0.00000020
-0.56689900 0.72733361 -0.00000029
-0.54553491 -0.17338488 -0.00000024
-0.05880140 -0.41024455 -0.00000024
-0.48225477 -0.26492462 -0.00000029
0.73305446 -0.64643872 -0.00000019
0.31617016 0.31141138 0.50785547
-0.59581119 -0.40057242 -0.00000014
-0.23738191 0.16036007 -0.00000060
-0.23178247 -0.45925534 -0.00000021
-0.06266427 0.53670788 -0.00000084
-0.14590360 0.74682093 -0.00000082
0.70293707 -0.70614296 -0.00000012
0.68700635 -0.69843197 -0.00000013
-0.59535474 -0.49199292 -0.00000013
0.20056482 -0.30421951 -0.00000031
-0.48158020 0.31193244 -0.00000040
-0.61173421 -0.42674825 -0.00000012
0.19937351 0.49239972 0.31877854
-0.79022592 0.07273062 -0.00000001
0.17041644 -0.38461810 -0.00000026
0.42281854 -0.03332238 -0.00000056
-0.64669561 0.30063087 -0.00000019
-0.43013203 0.29003012 -0.00000045
0.20006381 0.44327828 -0.00000083
0.24929662 -0.21237125 -0.00000037
-0.14708303 0.41459617 -0.00000076
0.03308559 -0.53251129 -0.00000017
0.38586199 -0.31880736 -0.00000030
0.79256499 -0.36699548 -0.00000054
0.36750466 0.28200319 0.44327214
-0.14100286 0.30862734 -0.00000069
0.31638753 0.46486628 0.05521349
-0.55719429 0.50956655 -0.00000030
0.09916678 0.65374798 0.13868599
0.35714644 0.25729302 -0.00000080
0.49212357 -0.33098757 -0.00000032
0.07663706 0.33657098 -0.00000071
0.54604834 -0.61297286 -0.00000012
0.48575243 -0.55147892 -0.00000016
0.53239709 -0.23023975 -0.00000047
0.79196036 -0.23423004 -0.00000071
-0.47654289 0.68993407 -0.00000040
0.78642905 -0.40163156 -0.00000050
-0.52855527 0.35592791 -0.00000034
-0.32663810 -0.14520296 -0.00000041
-0.12293953 0.22956549 -0.00000064
0.47952494 -0.17544375 -0.00000047
0.74317533 -0.17065486 -0.00000076
-0.13743503 -0.32828283 -0.00000029
0.46897995 -0.12349709 -0.00000052
-0.26095060 0.77830642 -0.00000067
0.74715471 -0.43339017 -0.00000046
0.31230241 0.20788682 -0.00000070
0.03626357 0.25758794 -0.00000066
-0.32475883 -0.12083192 -0.00000042
0.13543718 0.58240724 -0.00000091
0.26590979 -0.64880192 -0.00000009
0.40207881 0.16578206 -0.00000075
-0.50743479 0.10539994 -0.00000033
-0.21062694 -0.03550057 -0.00000048
0.18920425 0.08816123 -0.00000056
0.10687334 -0.58885068 -0.00000013
0.25074393 0.34529489 -0.00000078
-0.18746756 -0.09519606 -0.00000044
-0.47351763 -0.23172878 -0.00000031
0.23580252 -0.01812784 -0.00000049
-0.61214662 -0.38377637 -0.00000013
-0.37527481 -0.18633446 -0.00000038
-0.34006685 -0.66714460 -0.00000008
-0.16264614 0.25877205 -0.00000066
0.04465180 0.63744134 -0.00000090
-0.11624452 -0.33624920 -0.00000029
-0.54747343 -0.29759324 -0.00000021
-0.18190446 -0.41654235 -0.00000024
-0.14659075 0.10758843 -0.00000057
-0.58844662 -0.76518893 -0.00000002
-0.39389634 0.66937590 -0.00000051
0.07884792 -0.08638561 -0.00000045
-0.71195352 0.42394346 -0.00000011
0.78232694 -0.11071902 -0.00000086
-0.56899583 -0.21531020 -0.00000021
0.37899625 0.34182110 -0.00000092
-0.12701333 0.06839117 -0.00000054
0.26965150 -0.32983127 -0.00000029
-0.58073622 -0.75448281 -0.00000003
0.72162390 -0.60533869 -0.00000024
-0.65919614 0.51622158 -0.00000018
-0.77282071 -0.13641731 -0.00000000
0.10324252 -0.75044334 -0.00000003
0.34698355 -0.68228346 -0.00000007
-0.08007134 -0.07757900 -0.00000045
-0.29357126 -0.53451908 -0.00000017
-0.10118818 0.02307402 -0.00000051
-0.68240565 -0.43713483 -0.00000005
-0.01338305 0.17040992 -0.00000061
-0.21900369 0.73523629 -0.00000073
-0.46992916 0.37345600 -0.00000041
0.49587399 -0.46164116 -0.00000021
0.29425222 0.44696617 0.17313893
0.28851941 -0.56232417 -0.00000015
0.70974845 -0.06442863 -0.00000083
0.09487150 -0.00002123 -0.00000050
-0.15177332 0.10335335 -0.00000056
-0.23601827 -0.43442759 -0.00000023
-0.73580742 0.58392072 -0.00000008
-0.68226367 -0.76113045 0.00000000
-0.55135620 0.20786478 -0.00000030
-0.06300369 -0.07077156 -0.00000046
0.08806636 -0.05989016 -0.00000046
0.67844719 0.06096150 -0.00000094
-0.39929885 -0.53499258 -0.00000017
0.77618623 -0.00091606 -0.00000097
-0.71986413 -0.36951250 -0.00000002
0.06665696 -0.14894772 -0.00000041
-0.38938218 0.73761910 -0.00000051
0.38801759 -0.17079321 -0.00000039
-0.55953878 0.00518522 -0.00000026
0.08683767 -0.51677912 -0.00000018
-0.45793766 0.71897417 -0.00000043
-0.30073273 -0.55230325 -0.00000015
0.60913414 0.15824515 0.09608131
0.33790106 -0.08419903 -0.00000045
-0.46623969 0.69015539 -0.00000042
0.00411419 0.18459371 -0.00000062
0.14316592 0.21318257 -0.00000063
-0.39079711 -0.34739527 -0.00000028
-0.72360504 -0.05900019 -0.00000007
-0.62234604 -0.43484280 -0.00000011
-0.77984214 0.29774335 -0.00000003
0.37666091 0.17995071 -0.00000074
-0.47988379 -0.26770186 -0.00000029
0.15539417 -0.43472612 -0.00000023
0.56359768 0.22328337 -0.00000099
-0.02951870 -0.20067260 -0.00000037
0.77557015 -0.47537148 -0.00000041
0.25411859 0.29146066 -0.00000073
-0.79814726 0.58204985 -0.00000000
-0.01953396 0.25869578 -0.00000066
-0.75299704 -0.52519506 0.00000000
0.22517589 -0.04488277 -0.00000047
-0.37499413 0.59060961 -0.00000053
0.24429476 0.23217756 -0.00000065
0.76161259 -0.03174969 -0.00000093
0.75837243 -0.67250073 -0.00000016
0.31543124 0.36863142 -0.00000088
-0.18851368 0.00308344 -0.00000050
-0.13728017 -0.29735467 -0.00000031
0.62474650 -0.62205261 -0.00000015
0.38813338 0.41181967 -0.00000100
0.10894732 0.42613742 -0.00000077
-0.68041086 0.41338450 -0.00000015
-0.14633319 0.06941875 -0.00000054
-0.77477825 -0.48929176 0.00000000
0.13911942 0.42712504 -0.00000077
-0.58175045 -0.13777155 -0.00000021
0.28617311 -0.08439699 -0.00000045
0.66481209 -0.61566287 -0.00000020
-0.68896776 -0.22232002 -0.00000008
-0.09372910 -0.79749888 -0.00000000
0.23488171 -0.73444098 -0.00000004
0.08927205 0.12963232 -0.00000058
0.36013317 -0.18969767 -0.00000038
0.40252000 -0.66001624 -0.00000009
-0.62860918 -0.37358007 -0.00000011
-0.63460672 0.40257859 -0.00000021
-0.71481293 -0.27878445 -0.00000004
0.22232389 0.56352967 0.04166481
-0.56390876 0.61424232 -0.00000030
-0.51495010 -0.60569656 -0.00000012
-0.77292383 -0.20458059 0.00000000
0.59288496 -0.58867580 -0.00000015
0.37135866 -0.38329065 -0.00000026
0.66983658 -0.35265660 -0.00000048
-0.70682520 -0.31045368 -0.00000004
-0.42833784 -0.36999443 -0.00000027
-0.31555423 -0.74032700 -0.00000004
-0.13077033 0.45511338 -0.00000078
0.37970933 -0.09729227 -0.00000045
0.76536536 -0.42509076 -0.00000047
-0.78621274 0.01499164 -0.00000002
-0.06262032 0.19115625 -0.00000062
-0.42979527 -0.00398636 -0.00000039
-0.29735824 -0.18383329 -0.00000039
0.22767724 -0.26569656 -0.00000033
-0.53349215 0.37860250 -0.00000033
0.33844885 0.24052812 -0.00000076
-0.05817660 -0.27281126 -0.00000033
-0.06652888 -0.69888139 -0.00000006
-0.42576149 -0.24746163 -0.00000035
0.02012592 -0.11117785 -0.00000043
-0.79709452 0.39127171 -0.00000000
0.45627716 -0.41970205 -0.00000024
-0.45486641 0.73913217 -0.00000043
0.51450336 -0.11396969 -0.00000057
0.36389649 0.39768311 0.11316441
-0.45725849 -0.02399370 -0.00000036
0.66038197 -0.42018032 -0.00000040
-0.20211941 -0.72312081 -0.00000005
-0.68335342 -0.10376984 -0.00000011
-0.38810590 0.17056791 -0.00000047
0.62452435 -0.69115746 -0.00000008
0.21903986 -0.35996637 -0.00000028
-0.10521718 0.03178740 -0.00000052
-0.76082468 -0.31000376 0.00000000
-0.72061592 -0.44209677 -0.00000000
0.59747922 0.03566698 -0.00000082
0.31252077 0.47589850 -0.00000099
0.06301360 0.30874962 -0.00000069
-0.56722319 -0.27251983 -0.00000020
0.28891966 -0.45923659 -0.00000021
-0.01709456 0.24356219 -0.00000065
-0.00639421 -0.28294048 -0.00000032
0.53168643 0.21643056 0.15281893
-0.32362592 -0.41645619 -0.00000024
0.41768697 -0.37528941 -0.00000027
-0.64380974 0.18797234 -0.00000020
-0.70093000 -0.16184197 -0.00000008
-0.18593299 0.02344977 -0.00000051
-0.59929913 0.15915424 -0.00000024
0.11749358 0.23593488 -0.00000065
-0.28882667 -0.77676094 -0.00000001
0.42090917 -0.44829994 -0.00000022
0.10300041 0.62416041 -0.00000092
0.06411716 0.44824782 -0.00000078
0.69834536 -0.25075078 -0.00000062
0.31277487 0.17090265 -0.00000066
-0.32333955 0.72157973 -0.00000060
0.42764664 -0.40038824 -0.00000025
-0.71919054 -0.41159078 -0.00000001
0.29520896 0.50415689 -0.00000100
0.68490398 -0.52105504 -0.00000032
-0.25184035 -0.09882332 -0.00000044
-0.14044662 -0.24404693 -0.00000035
0.30528706 -0.61985385 -0.00000011
0.24698652 0.53667134 -0.00000098
-0.60402274 0.16730827 -0.00000024
-0.49894121 0.77831048 -0.00000038
0.71662164 -0.08874966 -0.00000082
0.19533043 -0.00887184 -0.00000049
-0.40834773 0.11211486 -0.00000044
-0.22142681 0.55723339 -0.00000072
-0.60498405 0.21104491 -0.00000024
0.75724053 -0.40713865 -0.00000049
0.33207059 0.40922046 0.17292491
-0.56965780 -0.71884871 -0.00000005
-0.23825286 -0.14375158 -0.00000041
0.51832318 0.21125931 -0.00000092
0.61113989 -0.72151500 -0.00000005
-0.56492817 0.79658043 -0.00000029
-0.18426695 -0.77838820 -0.00000001
-0.28390065 -0.52635366 -0.00000017
0.60216463 -0.38691297 -0.00000038
-0.06223033 -0.01913094 -0.00000049
-0.08654761 0.24575976 -0.00000065
-0.47931194 -0.74397409 -0.00000004
0.29815981 0.36631879 0.39917541
0.34242514 -0.07540982 -0.00000045
0.09353458 -0.25870359 -0.00000034
0.09060665 -0.67723989 -0.00000008
-0.57123959 -0.32288566 -0.00000018
-0.28435230 0.14303775 -0.00000058
0.71977127 -0.10902376 -0.00000080
0.35184133 0.14335176 -0.00000067
0.55410475 -0.29241461 -0.00000043
0.59853274 -0.50131822 -0.00000025
0.19508936 0.32216582 -0.00000070
0.30019680 -0.54315543 -0.00000016
-0.27096158 0.59285444 -0.00000066
-0.34366548 -0.04249335 -0.00000047
0.49144578 -0.42243755 -0.00000024
-0.31172055 -0.52897608 -0.00000017
-0.47081196 0.45982307 -0.00000041
0.60723901 -0.10254127 -0.00000068
-0.35685393 -0.36271998 -0.00000027
0.02280098 0.01586894 -0.00000051
0.03587068 -0.39655715 -0.00000025
-0.02648574 0.14921317 -0.00000059
0.43684113 -0.05063692 -0.00000056
0.14193486 0.36357474 -0.00000073
0.53342593 0.00845051 -0.00000072
-0.08460142 -0.12399113 -0.00000042
-0.76892793 0.17812528 -0.00000004
-0.53086162 0.54983735 -0.00000034
-0.66565078 -0.40086803 -0.00000007
0.11381733 0.31398931 -0.00000070
-0.11728207 -0.79290038 -0.00000000
-0.23061624 -0.14184146 -0.00000041
0.31877947 -0.40882912 -0.00000024
-0.58460891 -0.64058572 -0.00000010
-0.30902618 0.09680997 -0.00000054
0.78368282 -0.49189678 -0.00000039
-0.24915279 -0.22249214 -0.00000036
-0.17997301 -0.75555164 -0.00000003
0.23592408 -0.69129866 -0.00000007
0.06352855 -0.65230376 -0.00000009
0.59406483 -0.45789975 -0.00000029
0.40872967 0.31495279 0.22479147
-0.45274130 0.64435077 -0.00000043
0.45298937 -0.08050091 -0.00000054
0.38063723 0.02511134 -0.00000058
0.34772974 -0.41753140 -0.00000024
-0.68078047 -0.02739808 -0.00000012
-0.71767259 -0.47377995 -0.00000000
-0.76059890 -0.54897606 0.00000000
-0.71633148 0.76978362 -0.00000010
0.70085239 -0.37070253 -0.00000050
0.30158100 -0.76465356 -0.00000002
0.18741038 0.22898738 -0.00000064
-0.58043230 0.24494913 -0.00000027
-0.19869678 -0.06575298 -0.00000046
0.26568359 0.43918985 -0.00000090
0.23251635 -0.60712236 -0.00000012
0.48134944 0.31553826 0.00916347
0.70885187 -0.17009045 -0.00000072
0.16223881 -0.24584705 -0.00000035
0.45923352 -0.48080966 -0.00000020
-0.02723561 -0.67296004 -0.00000008
0.20475107 0.52473956 -0.00000092
0.59936482 -0.57374680 -0.00000017
-0.55497897 0.53021777 -0.00000031
0.03000760 -0.14289762 -0.00000041
-0.01370852 -0.24478909 -0.00000035
0.46912405 0.21292837 0.34741324
0.34935954 0.41275448 0.11159028
-0.28591964 0.52756470 -0.00000064
0.32350412 0.05427064 -0.00000055
-0.19341435 0.67556286 -0.00000076
0.37309679 -0.39961195 -0.00000025
-0.50479490 -0.68844235 -0.00000007
-0.69524616 -0.22910485 -0.00000007
-0.45570031 0.24624947 -0.00000041
0.20544013 -0.38091826 -0.00000026
0.09752927 -0.00102908 -0.00000050
0.23418476 -0.22875188 -0.00000036
0.51273215 -0.12031075 -0.00000057
-0.34427217 -0.65220654 -0.00000009
0.25227323 -0.21051294 -0.00000037
-0.55402809 -0.53716129 -0.00000016
0.65798098 -0.76770926 -0.00000003
-0.52854508 -0.63628781 -0.00000010
-0.36626145 -0.01231950 -0.00000046
-0.01485399 0.59339678 -0.00000087
-0.10002171 -0.23851182 -0.00000035
-0.10806779 -0.23360422 -0.00000035
0.46201280 -0.15230651 -0.00000048
0.15394214 0.38603708 -0.00000074
-0.42917302 0.62685400 -0.00000046
-0.57145864 -0.51361144 -0.00000015
-0.40918770 -0.51334226 -0.00000018
0.50095457 -0.76058823 -0.00000002
-0.31533676 0.79334533 -0.00000061
0.62961042 -0.41077855 -0.00000038
-0.53577244 0.36575085 -0.00000033
-0.59421265 0.74837327 -0.00000026
-0.09954382 -0.68694699 -0.00000007
-0.42341873 0.69960791 -0.00000047
-0.23169480 -0.07719511 -0.00000045
0.41382411 0.35667726 0.08688508
0.25548404 0.52918428 -0.00000098
-0.59171253 -0.19304180 -0.00000019
-0.43268627 0.76918262 -0.00000046
-0.44042382 -0.62359887 -0.00000011
0.64565891 0.10389992 -0.00000095
0.36348045 -0.39091319 -0.00000026
-0.73351032 0.65604353 -0.00000008
0.07497003 0.29764083 -0.00000069
0.40155503 0.32910147 -0.00000093
0.59914863 -0.17012747 -0.00000060
-0.08976418 -0.14549249 -0.00000041
0.40916750 -0.11315847 -0.00000046
0.62950361 -0.34031892 -0.00000045
-0.09106103 0.69255352 -0.00000088
0.24874376 -0.63551712 -0.00000010
-0.53343594 -0.32242599 -0.00000023
-0.75398451 -0.27111697 0.00000000
-0.18695351 0.46370170 -0.00000074
-0.08388430 -0.66414028 -0.00000008
-0.60013938 -0.64580220 -0.00000010
-0.31480700 -0.74235570 -0.00000004
0.79610991 -0.05101276 -0.00000094
0.14188281 0.63386512 0.07143125
-0.74074876 -0.31347555 -0.00000001
-0.77350628 -0.06982366 -0.00000002
0.57342082 -0.15000553 -0.00000060
-0.75416225 0.28253970 -0.00000006
0.18993659 -0.01171017 -0.00000049
0.61597526 -0.07557188 -0.00000072
-0.70022947 -0.04732386 -0.00000010
-0.73700190 -0.47568396 0.00000000
-0.01806095 0.51408392 -0.00000082
0.26622620 0.49496827 0.11429884
0.00060468 0.10649278 -0.00000057
-0.39958841 0.58467013 -0.00000050
-0.46737507 -0.53423458 -0.00000017
-0.66157037 -0.72400367 -0.00000002
-0.52861327 -0.45989934 -0.00000021
-0.66669673 -0.78929090 0.00000000
-0.45194077 -0.07557188 -0.00000036
-0.31213176 0.57283592 -0.00000061
0.47179082 -0.78425902 -0.00000001
0.29142413 0.49282840 -0.00000098
-0.49805641 0.41684419 -0.00000038
0.21229243 0.19123571 -0.00000062
0.06877945 0.01768311 -0.00000051
0.18295592 0.45191464 -0.00000082
-0.42739314 -0.11029195 -0.00000038
0.12773758 0.62899357 -0.00000095
-0.46758914 -0.14323169 -0.00000033
-0.70505732 -0.66307467 0.00000000
0.15065099 0.35052985 -0.00000072
-0.55180037 0.29704461 -0.00000031
0.26505473 0.39768982 0.40428275
-0.72421783 -0.01191166 -0.00000008
-0.16151614 -0.18126321 -0.00000039
-0.38386074 -0.14534058 -0.00000041
0.52001429 0.21230526 -0.00000093
0.26826817 0.40408859 -0.00000086
0.40994880 -0.38998181 -0.00000026
0.39595890 -0.13600369 -0.00000042
-0.07092541 -0.56028616 -0.00000015
-0.33107275 0.63432926 -0.00000059
0.06095489 0.47002026 -0.00000079
-0.53379095 0.07095602 -0.00000030
-0.65356022 -0.68230253 -0.00000003
0.08684363 -0.75045353 -0.00000003
-0.45128575 -0.22068885 -0.00000033
0.38497218 -0.12113025 -0.00000043
-0.03298107 -0.54011321 -0.00000016
0.20401450 0.48733431 0.32002872
-0.10542424 0.67052180 -0.00000086
-0.68681526 0.71206760 -0.00000014
0.73974764 -0.41091797 -0.00000049
-0.44680598 -0.10671435 -0.00000036
-0.54037565 -0.52427250 -0.00000017
0.22694749 -0.07609259 -0.00000045
-0.07663436 0.07647238 -0.00000055
-0.11555985 -0.73328626 -0.00000004
-0.44109476 -0.43776175 -0.00000023
-0.27549270 0.34089151 -0.00000062
-0.44612771 0.75273550 -0.00000044
-0.16758235 0.51466686 -0.00000077
0.61146247 0.05415456 -0.00000086
0.18324503 0.07435103 -0.00000055
0.47504506 0.05284933 -0.00000071
-0.07629628 0.43899173 -0.00000077
-0.45899072 0.13205996 -0.00000039
0.11243149 0.16898042 -0.00000061
-0.02294519 -0.41796121 -0.00000024
0.46910974 0.00176350 -0.00000065
-0.50015241 -0.60573000 -0.00000012
0.44958073 -0.30195528 -0.00000031
0.17676555 -0.60984606 -0.00000012
0.00272668 -0.12491730 -0.00000042
-0.69746351 0.70999700 -0.00000013
0.16188030 -0.32657456 -0.00000030
-0.21544054 0.29605296 -0.00000068
-0.42207268 0.09704632 -0.00000042
0.46255562 0.26056418 0.22644883
0.48312676 0.11532183 -0.00000078
-0.19373123 -0.16739714 -0.00000040
-0.53648484 -0.00948863 -0.00000028
-0.19495966 -0.21271685 -0.00000037
-0.66977388 -0.73862088 -0.00000000
0.22227548 -0.36867884 -0.00000027
-0.09696154 -0.79411173 -0.00000000
0.57564956 -0.12920097 -0.00000062
-0.50898224 -0.60139763 -0.00000012
0.40800807 -0.55906743 -0.00000015
0.36673465 0.14440237 -0.00000069
-0.28179398 -0.39735112 -0.00000025
0.05955649 0.51678437 -0.00000082
-0.45561376 0.40211761 -0.00000043
0.74072528 -0.45188513 -0.00000044
-0.10024188 -0.59531188 -0.00000013
0.78732538 -0.52783430 -0.00000034
0.05534424 -0.01669431 -0.00000049
0.02315165 -0.74595380 -0.00000003
0.17884719 0.53187889 -0.00000090
-0.51718897 -0.60925728 -0.00000012
-0.72951955 0.39887947 -0.00000009
-0.40519288 0.38670892 -0.00000049
0.40196219 0.38718829 -0.00000099
-0.47393581 -0.53467053 -0.00000017
0.29287854 0.42103380 -0.00000091
0.56105363 -0.70306528 -0.00000006
-0.59548515 -0.20414533 -0.00000018
-0.79485774 -0.21178149 0.00000000
-0.57927161 0.55802906 -0.00000028
0.05778871 0.62731189 -0.00000089
-0.66258115 0.79033685 -0.00000017
-0.07800154 0.76095212 -0.00000090
-0.45157015 0.18855220 -0.00000041
0.73503286 -0.36992943 -0.00000054
-0.52301937 0.73580378 -0.00000035
-0.66393930 -0.08200180 -0.00000013
0.31976995 0.42000639 -0.00000094
-0.70619398 0.52824700 -0.00000012
0.42912874 -0.67899281 -0.00000008
-0.27943003 -0.03660580 -0.00000048
0.12506889 0.66046977 -0.00000098
-0.05053154 0.18126830 -0.00000061
0.59441638 -0.40061736 -0.00000035
0.52141899 -0.14678000 -0.00000055
0.22794020 0.49532670 0.22601449
-0.19874179 -0.24406995 -0.00000035
-0.50560039 -0.41753453 -0.00000024
0.03221106 0.63245904 -0.00000090
-0.02100326 0.63622952 -0.00000090
-0.75049633 0.26416051 -0.00000006
-0.44744253 -0.44893587 -0.00000022
0.47891644 0.25283083 0.20103636
-0.48737839 0.25526944 -0.00000038
0.24696486 0.43805197 -0.00000088
0.61331552 -0.01438198 -0.00000079
-0.10352548 -0.25676420 -0.00000034
-0.46185571 0.39318228 -0.00000042
-0.43038967 0.43297085 -0.00000046
0.30045742 0.22657299 -0.00000071
0.70825821 -0.42238322 -0.00000045
-0.43811733 -0.33971900 -0.00000029
0.19935711 -0.54508060 -0.00000016
0.28131327 0.38683209 0.38837487
0.07160140 0.12265272 -0.00000058
0.72100925 0.05819027 -0.00000098
-0.45373037 0.08484128 -0.00000038
0.56202662 0.20189548 -0.00000096
-0.03759863 0.73706847 -0.00000095
0.64361143 -0.71119148 -0.00000007
-0.01279538 0.56397098 -0.00000085
0.05336385 0.58982635 -0.00000087
-0.68463343 -0.28055239 -0.00000007
0.54165244 -0.39588854 -0.00000030
0.47865829 -0.33818954 -0.00000030
0.47018060 -0.10593913 -0.00000054
-0.11008868 -0.33380926 -0.00000029
-0.79119790 -0.65458465 0.00000000
0.36097100 -0.69522446 -0.00000007
0.52175409 -0.79208046 -0.00000000
0.79448068 -0.17862807 -0.00000078
0.34904549 0.09139098 -0.00000062
0.47778440 0.22984029 0.27209008
0.38786152 -0.47273257 -0.00000020
-0.70387197 -0.31859356 -0.00000004
0.50257146 -0.63938344 -0.00000010
0.35880446 0.31074810 -0.00000086
0.09898520 -0.45809191 -0.00000021
-0.22761780 -0.35489908 -0.00000028
-0.60271657 0.05120296 -0.00000022
-0.24297851 0.44041631 -0.00000067
-0.00643183 0.25667304 -0.00000066
-0.39794314 -0.61721957 -0.00000011
-0.79835844 -0.17475994 0.00000000
0.47937670 0.10034934 -0.00000076
-0.77567387 0.34559467 -0.00000003
-0.35277227 0.66980648 -0.00000056
-0.10138803 -0.45149040 -0.00000022
0.58091134 -0.27650529 -0.00000047
0.09133337 -0.43468034 -0.00000023
0.60014921 -0.43696076 -0.00000032
-0.40957618 -0.68396562 -0.00000007
0.07233904 -0.21944261 -0.00000036
0.23399778 -0.03930039 -0.00000048
-0.59352338 -0.42948011 -0.00000014
-0.30476269 -0.36879995 -0.00000027
-0.28855181 -0.40963319 -0.00000024
0.24592178 -0.47675288 -0.00000020
-0.68334246 0.46768296 -0.00000015
-0.33271220 0.75608164 -0.00000058
0.38770327 -0.58255935 -0.00000014
-0.69930857 0.18126203 -0.00000013
-0.19234826 -0.45350271 -0.00000022
-0.59346604 -0.48154998 -0.00000013
-0.13630681 0.38375244 -0.00000074
-0.46008083 -0.55218065 -0.00000015
0.08393255 0.53204286 -0.00000083
0.79646266 -0.07629357 -0.00000090
0.17910935 -0.71041137 -0.00000006
0.55192256 -0.22135077 -0.00000050
-0.00083883 -0.15159455 -0.00000041
0.24719569 -0.37097922 -0.00000027
-0.12051684 -0.67467159 -0.00000008
-0.11512273 0.08455320 -0.00000055
0.73105162 -0.56421810 -0.00000029
0.65688962 -0.00632010 -0.00000084
-0.78090692 -0.73249912 0.00000000
0.45340705 0.21612719 -0.00000086
0.46755674 0.01092363 -0.00000066
-0.42105621 -0.04985584 -0.00000040
-0.71113044 -0.61095142 0.00000000
-0.44742292 0.13660175 -0.00000040
-0.05312699 0.36061615 -0.00000073
-0.11675893 -0.71604216 -0.00000005
-0.44713891 0.05728202 -0.00000039
0.36832044 -0.73503602 -0.00000004
0.62391067 -0.27605632 -0.00000052
-0.16446222 0.08361976 -0.00000055
-0.73803216 0.13976571 -0.00000008
0.35647738 -0.48172092 -0.00000020
0.44001240 -0.15454385 -0.00000045
0.52060372 -0.41198885 -0.00000026
-0.25255349 0.40991008 -0.00000066
-0.34415939 0.36588663 -0.00000055
-0.75211346 -0.44092807 0.00000000
0.00965733 0.65698040 -0.00000091
0.39708367 0.23208718 -0.00000082
-0.70516086 -0.20391975 -0.00000006
-0.46964094 -0.09250882 -0.00000034
0.29832605 0.41202375 0.26406226
-0.02074364 0.59479374 -0.00000087
0.25914440 0.24352948 -0.00000068
0.45053244 -0.46182799 -0.00000021
0.50483018 -0.09836758 -0.00000058
-0.14180528 0.48597491 -0.00000079
0.31766179 0.30467451 0.52330530
-0.42431638 0.54054439 -0.00000047
-0.04906865 -0.33927396 -0.00000029
0.19479915 -0.04320061 -0.00000047
0.47103071 -0.68405485 -0.00000007
0.22667263 0.33481294 -0.00000075
0.11345928 -0.37778261 -0.00000026
0.24316901 0.15386507 -0.00000060
-0.26833302 0.66119540 -0.00000066
-0.23733538 -0.22407849 -0.00000036
0.61814576 -0.71915400 -0.00000005
0.23022893 -0.15610117 -0.00000040
-0.17016435 -0.24511778 -0.00000035
0.32475728 0.39689019 0.23078528
-0.36484879 0.38026404 -0.00000053
0.56986040 -0.54907578 -0.00000017
0.65560710 -0.78729779 -0.00000001
0.58098191 -0.46821550 -0.00000027
0.69046432 -0.53457081 -0.00000031
0.07910172 -0.62350899 -0.00000011
-0.34234691 0.16415863 -0.00000052
-0.23635300 -0.20657831 -0.00000037
0.05561711 0.19577587 -0.00000062
-0.21581438 -0.04989449 -0.00000047
0.47120351 0.17688610 -0.00000084
-0.64012963 -0.33824649 -0.00000011
-0.69528145 0.66927582 -0.00000013
-0.43638548 -0.52234328 -0.00000017
-0.18956631 0.54654181 -0.00000075
-0.71260178 -0.78616112 0.00000000
0.35408425 0.33941326 -0.00000089
-0.57499331 -0.00350705 -0.00000024
-0.62052637 -0.26671016 -0.00000014
0.28709269 0.28916821 -0.00000076
-0.37720326 -0.14890550 -0.00000041
-0.67460895 0.55957407 -0.00000016
0.69576937 -0.77267098 -0.00000003
0.28224814 0.49606907 -0.00000098
0.78903782 -0.10650015 -0.00000087
0.35141537 -0.79940784 -0.00000000
0.31547680 -0.19812931 -0.00000038
-0.51881909 -0.00906114 -0.00000030
0.53656477 0.18380728 -0.00000092
-0.12761596 -0.37815309 -0.00000026
-0.74950325 0.43599206 -0.00000006
0.14493631 0.62956393 -0.00000097
-0.52926117 0.13984507 -0.00000031
0.20732920 -0.76263726 -0.00000002
0.29812315 -0.78353143 -0.00000001
-0.74819487 0.66808254 -0.00000006
0.27870977 -0.12589380 -0.00000042
-0.49770451 -0.27659398 -0.00000027
0.05997518 -0.39341888 -0.00000025
0.41189402 0.32911909 0.17374358
-0.56952518 0.47193453 -0.00000029
0.20439291 -0.39368796 -0.00000025
0.36072317 0.29102445 -0.00000084
-0.44182178 0.72719163 -0.00000045
0.14176308 0.20353368 -0.00000063
-0.60249090 0.00606810 -0.00000021
-0.18350770 0.25857317 -0.00000066
-0.64597660 -0.52681488 -0.00000007
-0.25617617 0.68404853 -0.00000068
-0.48841351 0.30361390 -0.00000039
-0.07245073 0.26904893 -0.00000067
0.15721183 -0.31822211 -0.00000030
-0.77618790 -0.02030768 -0.00000002
-0.15920520 0.60400128 -0.00000079
0.13294981 -0.11952652 -0.00000043
-0.78609842 0.25685617 -0.00000002
0.41984680 -0.58049983 -0.00000014
0.00862424 -0.22214665 -0.00000036
-0.70243549 -0.28501832 -0.00000005
0.45231232 -0.57787937 -0.00000014
-0.65064621 -0.17466874 -0.00000013
-0.12901013 0.51775163 -0.00000081
0.16558641 -0.12817858 -0.00000042
0.34678325 -0.60593152 -0.00000012
0.01126436 -0.15710716 -0.00000040
-0.57439768 -0.40920961 -0.00000017
0.33031899 -0.60100847 -0.00000012
0.64523345 -0.36374557 -0.00000045
-0.16626288 0.33077249 -0.00000071
0.14907762 -0.32067296 -0.00000030
-0.25357002 0.64176327 -0.00000068
0.54246187 -0.20448902 -0.00000051
0.72633743 -0.23952685 -0.00000067
0.07913978 0.31969327 -0.00000070
0.33707514 0.02355206 -0.00000053
-0.41715932 -0.69481784 -0.00000007
0.39295301 0.02617973 -0.00000059
0.43830168 0.26570278 0.28275347
-0.15254967 -0.37220007 -0.00000027
0.75493449 -0.71201062 -0.00000011
-0.53439426 -0.58505344 -0.00000013
0.28337798 0.47314677 -0.00000095
-0.66471767 0.39783859 -0.00000017
0.24295552 -0.75879651 -0.00000003
-0.70241815 -0.31125990 -0.00000005
0.51883721 -0.07153843 -0.00000062
0.40510121 -0.07496177 -0.00000050
0.64742512 -0.01228884 -0.00000082
-0.74653596 -0.55588549 0.00000000
0.08630044 -0.76225644 -0.00000002
-0.68609762 0.07274658 -0.00000013
0.48390085 -0.52191234 -0.00000017
-0.60190415 0.70429689 -0.00000025
0.73211038 -0.53651023 -0.00000033
0.36236402 0.31934148 -0.00000087
-0.15379155 0.16828381 -0.00000061
-0.60751969 0.76094645 -0.00000024
0.16983369 0.41586548 -0.00000077
-0.33127496 0.67230427 -0.00000059
-0.37730157 0.24585710 -0.00000050
0.27114522 0.12467689 -0.00000058
-0.36456692 -0.19038664 -0.00000038
0.69586605 -0.72312969 -0.00000010
0.34747276 -0.54727995 -0.00000016
-0.38887689 -0.31860057 -0.00000030
0.03663325 -0.35732982 -0.00000028
-0.01046137 0.71106052 -0.00000094
-0.38865072 0.71828723 -0.00000051
0.21521211 -0.35849303 -0.00000028
0.46743232 -0.23940001 -0.00000039
-0.58032584 -0.76384181 -0.00000002
0.15226123 -0.77376592 -0.00000002
0.22683635 0.53047723 -0.00000095
-0.60699254 -0.52567744 -0.00000011
0.53138763 -0.08818859 -0.00000062
-0.62218201 0.37941486 -0.00000022
0.73758799 -0.42830825 -0.00000046
-0.29287243 -0.02204929 -0.00000049
-0.64258957 -0.13833417 -0.00000014
0.20860463 -0.78615475 -0.00000001
-0.51383322 -0.46653819 -0.00000021
0.59763491 -0.03685683 -0.00000074
0.16952667 0.05494446 -0.00000053
0.25184652 0.24025309 -0.00000067
0.37993139 -0.48976108 -0.00000019
0.28945661 0.00133106 -0.00000050
-0.53835577 0.25282034 -0.00000033
0.56564587 -0.38133070 -0.00000034
0.37626246 0.34854895 -0.00000092
0.31321853 0.03146105 -0.00000052
0.21993686 -0.27982634 -0.00000033
0.52614903 -0.23692627 -0.00000046
0.76989877 -0.33596087 -0.00000058
-0.37150648 -0.31460065 -0.00000030
-0.02529794 0.10984498 -0.00000057
0.41376334 0.29054955 0.28184482
-0.54480809 -0.04294351 -0.00000026
-0.71774787 -0.11039005 -0.00000007
-0.77123165 -0.03240567 -0.00000002
0.01105414 0.20777139 -0.00000063
-0.70969373 0.69918895 -0.00000011
-0.53477246 -0.75723809 -0.00000003
-0.56318432 -0.28300172 -0.00000020
0.04416176 0.36444521 -0.00000073
-0.61230659 -0.60125214 -0.00000009
0.11102131 0.07759890 -0.00000055
-0.51836020 -0.04158289 -0.00000029
-0.03390583 -0.13004567 -0.00000042
0.29918888 0.01421113 -0.00000051
-0.59466678 -0.38544053 -0.00000015
0.24335538 -0.23996127 -0.00000035
0.56996971 -0.68951499 -0.00000007
0.13176396 -0.44985321 -0.00000022
-0.48537070 0.21154082 -0.00000037
-0.54139173 -0.40769532 -0.00000020
0.52294600 -0.58045667 -0.00000014
-0.16194476 0.60629469 -0.00000079
0.75645125 -0.57336092 -0.00000028
0.03402854 0.23887472 -0.00000065
-0.43475792 -0.65010744 -0.00000009
-0.22099529 0.45615056 -0.00000070
-0.09729103 0.10848730 -0.00000057
0.20364635 0.50636089 0.26507050
-0.47335786 -0.18231931 -0.00000032
0.13638616 -0.04625521 -0.00000047
0.06610381 0.32619348 -0.00000070
0.40417695 -0.76448888 -0.00000002
0.31323239 -0.05139194 -0.00000047
0.42192841 -0.77826947 -0.00000001
-0.12760966 -0.41820425 -0.00000024
-0.72386050 0.29148918 -0.00000010
-0.38594955 0.34670696 -0.00000051
-0.26738620 -0.77319121 -0.00000002
-0.22547737 -0.14210266 -0.00000041
0.13942547 -0.21177343 -0.00000037
-0.65275943 -0.54074341 -0.00000006
0.31440729 -0.41741449 -0.00000024
-0.25948367 -0.48293656 -0.00000020
0.05715477 -0.48272052 -0.00000020
0.18092000 0.21135744 -0.00000063
-0.35287383 0.45601508 -0.00000056
0.06443421 0.37034324 -0.00000073
0.39443588 -0.65196955 -0.00000009
-0.67960405 0.40491271 -0.00000015
-0.40942606 0.20227596 -0.00000045
-0.21030612 -0.01458010 -0.00000049
-0.19671907 -0.46034729 -0.00000021
-0.42569035 -0.71384370 -0.00000005
0.33638176 0.30034932 -0.00000083
0.29229030 0.36010695 0.43476087
-0.12414268 -0.66565681 -0.00000008
0.20735551 0.45052066 -0.00000085
0.14169066 -0.67699462 -0.00000008
0.37363619 -0.60661441 -0.00000012
0.52574193 0.12957232 -0.00000085
0.17172121 0.56381452 -0.00000093
-0.19960782 0.08705606 -0.00000055
-0.09591573 -0.15690762 -0.00000040
0.19551978 -0.73424572 -0.00000004
0.38117602 -0.13199022 -0.00000042
0.39145935 -0.00131273 -0.00000056
0.18472902 -0.77115870 -0.00000002
-0.67105752 -0.23743150 -0.00000009
-0.11532193 0.25200149 -0.00000066
-0.19837520 0.76110035 -0.00000075
0.26944685 0.21835548 -0.00000067
0.32739335 -0.57930642 -0.00000014
0.73016137 -0.57744867 -0.00000028
-0.51830626 -0.04143782 -0.00000029
-0.16917966 -0.62999672 -0.00000011
0.39932656 -0.58417064 -0.00000013
-0.65155071 0.61078489 -0.00000019
0.46249521 -0.36386091 -0.00000027
-0.78475380 0.10527674 -0.00000002
-0.39074934 -0.62320179 -0.00000011
0.00031317 0.02246350 -0.00000051
-0.59013826 0.57509553 -0.00000026
-0.54366332 -0.21890987 -0.00000023
-0.64306998 -0.13375486 -0.00000014
0.46033421 0.28222618 -0.00000094
0.34153020 0.34537375 0.33312210
-0.30105382 0.17038770 -0.00000056
0.12408834 -0.20372128 -0.00000037
-0.24847212 -0.76386869 -0.00000002
0.36607996 0.31703481 0.34428331
0.20641620 -0.06760353 -0.00000046
-0.55560261 0.03653285 -0.00000027
-0.71496224 0.33987463 -0.00000011
0.41042727 -0.31124929 -0.00000031
0.08609311 -0.74444461 -0.00000003
0.77444887 -0.17732982 -0.00000078
-0.20832708 -0.11454989 -0.00000043
0.13616072 0.25673410 -0.00000066
-0.53596556 0.11578692 -0.00000030
-0.14873713 -0.61036044 -0.00000012
-0.67144305 0.36328223 -0.00000016
-0.15198565 -0.77233821 -0.00000002
-0.12648153 -0.75925702 -0.00000003
-0.55537605 -0.20987882 -0.00000022
0.60941732 0.03256807 -0.00000083
