ply
format ascii 1.0
element vertex 1179
property float x
property float y
property float z
end_header
-0.16010864 -0.77589726 -0.00000086
-0.03711455 -0.55294108 0.00000086
-0.74453050 -0.57929319 -0.00000055
-0.77877802 -0.62038928 -0.00000045
-0.32245666 -0.37429547 -0.00000008
-0.75771528 -0.53433758 -0.00000066
-0.68826717 -0.56005311 -0.00000042
-0.00163360 0.52761364 0.00000058
-0.25701362 0.22844243 0.00000426
-0.73306519 -0.46620366 -0.00000083
-0.52392590 -0.01866472 0.00000125
-0.42915383 -0.32547054 -0.00000051
-0.28563255 -0.68210036 -0.00000121
-0.45366001 -0.30966064 -0.00000059
-0.51292068 -0.06858544 0.00000140
-0.04473897 -0.40271610 0.00000147
-0.07113344 0.66053969 0.00000623
-0.71728873 -0.51030666 -0.00000072
-0.38741228 -0.79407990 -0.00000231
-0.15853092 0.46782136 0.00000530
-0.43982059 -0.26571488 -0.00000032
-0.54885513 -0.48222303 0.00000118
-0.04955274 -0.60967934 0.00000053
-0.48023611 -0.33929282 0.00000192
-0.26876429 -0.42924783 -0.00000000
-0.63232148 -0.36990389 0.00000015
-0.69405216 -0.38953793 -0.00000057
-0.49237937 -0.00825277 0.00000161
-0.44979197 -0.46351978 -0.00000124
-0.48965088 -0.69446290 -0.00000249
-0.56591249 0.21959069 0.00000064
-0.19120868 0.36939612 0.00000497
-0.03640322 -0.54965818 0.00000088
-0.07408743 0.71532112 0.00000625
-0.17479020 0.09524742 -0.00000446
-0.52740204 0.11163698 0.00000114
-0.77552390 0.02016053 -0.00000169
-0.37622872 0.00895943 0.00000297
-0.54456329 -0.42789355 0.00000121
-0.01261232 -0.03188436 0.00000336
-0.66343808 -0.39087480 -0.00000021
-0.06708367 0.57785797 0.00000375
-0.46402627 -0.73423672 -0.00000251
-0.37502992 0.12465455 0.00000293
-0.46756694 0.10340821 0.00000185
-0.24875690 0.33311918 0.00000431
-0.06584301 -0.70803744 0.00000000
-0.37245449 -0.14819829 0.00000060
-0.24031496 0.40545559 0.00000437
-0.02308308 -0.58209360 0.00000081
-0.40213445 -0.52905190 -0.00000124
-0.00236594 0.05333938 -0.00001066
-0.50769252 -0.37033910 0.00000161
-0.28878462 0.01037193 -0.00000304
-0.51588374 -0.02529990 0.00000135
-0.68334621 -0.01869341 -0.00000062
-0.00806063 -0.05561107 0.00000321
-0.67257446 0.03099154 -0.00000052
-0.00185561 0.67050767 0.00000398
-0.14893948 -0.36242986 0.00000102
-0.03299731 0.67835754 0.00000511
-0.17709224 -0.62523550 -0.00000030
-0.09549254 0.15209980 -0.00000551
-0.10993203 0.33632568 -0.00000069
-0.26573721 -0.51991516 -0.00000038
-0.19056405 -0.40150431 0.00000059
-0.35274369 -0.52259147 -0.00000092
-0.29849216 0.46953985 0.00000366
-0.29882181 -0.13583142 0.00000110
-0.69869983 -0.68257964 -0.00000029
-0.54098070 -0.33896202 0.00000120
-0.71239907 -0.65776896 -0.00000036
-0.72252554 -0.72582304 -0.00000019
-0.12887083 -0.00747207 0.00000269
-0.26641485 -0.29722857 0.00000059
-0.09836708 -0.33408302 0.00000144
-0.50527585 -0.63789600 -0.00000234
-0.15833443 0.30702749 0.00000007
-0.53221214 0.11895530 0.00000108
-0.70265210 -0.50219774 -0.00000061
-0.37989235 0.13901453 0.00000286
-0.29323199 0.45291433 0.00000373
-0.07298941 0.10348157 -0.00000734
-0.09236079 -0.16024309 0.00000224
-0.29665485 -0.36788741 0.00000010
-0.20671123 -0.32043314 0.00000085
-0.75236148 -0.68384713 -0.00000029
-0.22743481 -0.23889443 0.00000108
-0.32400426 -0.65954959 -0.00000134
-0.61945361 0.06216660 0.00000009
-0.02779890 0.12882341 -0.00000810
-0.67094475 -0.32372180 -0.00000033
-0.37206018 -0.02430660 0.00000303
-0.22646037 0.23733577 0.00000047
-0.44167677 -0.74961323 -0.00000245
-0.25128460 0.18811464 0.00000005
-0.63452119 -0.27850723 0.00000008
-0.06927378 0.62350971 0.00000490
-0.33685178 0.19893351 0.00000334
-0.07433856 0.02567077 -0.00000915
-0.64672309 -0.58143723 0.00000008
-0.16837759 -0.47400263 0.00000041
-0.56955606 0.20298666 0.00000061
-0.59755778 -0.77222812 -0.00000349
-0.16915363 -0.36364299 0.00000089
-0.11987766 0.56595653 0.00000571
-0.25012785 -0.33775201 0.00000051
-0.39797804 -0.65963387 -0.00000179
-0.04724563 0.03453867 -0.00000975
-0.22965306 -0.53165787 -0.00000021
-0.23962937 0.08869965 -0.00000266
-0.29433817 0.45424333 0.00000371
-0.07729949 -0.58463597 0.00000048
-0.29637599 -0.56958961 -0.00000078
-0.07870311 -0.43951145 0.00000110
-0.31225252 0.28839386 0.00000358
-0.04002878 -0.69598621 0.00000021
-0.00386234 -0.22388251 0.00000250
-0.66552430 -0.51786268 -0.00000017
-0.50630546 0.20846827 0.00000135
-0.21408585 -0.21375595 0.00000127
-0.32617757 0.33041388 0.00000340
-0.27217823 0.22727244 0.00000408
-0.51825333 -0.39010456 0.00000150
-0.09572878 -0.70022506 -0.00000014
-0.71701998 -0.12139332 -0.00000097
-0.32822403 -0.37166601 -0.00000011
-0.22358358 0.42359769 0.00000456
-0.40459099 -0.73252910 -0.00000215
-0.03591721 -0.50959390 0.00000105
-0.29593718 -0.78809679 -0.00000173
-0.72414517 0.06858790 -0.00000114
-0.09385346 0.34493178 -0.00000098
-0.11319121 0.38321164 0.00000052
-0.08410145 0.20493348 -0.00000459
-0.47308823 0.10687350 0.00000178
-0.45215979 -0.61117363 -0.00000190
-0.27062836 0.36051437 0.00000404
-0.68623680 -0.10774932 -0.00000061
-0.01138397 0.62185037 0.00000311
-0.28833860 -0.41875249 -0.00000007
-0.19324690 -0.25351125 0.00000122
-0.39274046 0.32440186 0.00000262
-0.28464609 -0.39009160 0.00000008
-0.63543707 -0.11589283 -0.00000001
-0.12673953 0.22455622 -0.00000284
-0.69235802 -0.63036358 -0.00000042
-0.62815279 -0.06006407 0.00000005
-0.01095805 0.25515071 -0.00000561
-0.07947990 -0.46905017 0.00000097
-0.09450443 -0.09342935 0.00000252
-0.62556654 -0.01780531 0.00000006
-0.59533036 -0.41205883 0.00000060
-0.32653573 -0.59072870 -0.00000106
-0.01077379 -0.54472339 0.00000105
-0.26010564 -0.38517591 0.00000024
-0.01880635 0.16504975 -0.00000751
-0.73371929 -0.09598877 -0.00000118
-0.71514684 -0.71872801 -0.00000020
-0.72442770 -0.57721299 -0.00000056
-0.35153887 -0.30436254 0.00000005
-0.45839453 0.25962663 0.00000188
-0.45640004 -0.75465286 -0.00000256
-0.07355071 -0.66158551 0.00000016
-0.38710508 0.25774717 0.00000272
-0.13881010 0.43671131 0.00000256
-0.14040586 0.16072312 -0.00000395
-0.00116618 -0.36193180 0.00000191
-0.77314997 -0.39658329 -0.00000101
-0.61266619 -0.43165407 0.00000041
-0.00905328 -0.78350914 0.00000007
-0.71936178 0.00807314 -0.00000106
-0.00463608 0.55513060 0.00000132
-0.32575908 -0.74842912 -0.00000174
-0.75205481 -0.36990684 -0.00000108
-0.27413139 -0.17267722 0.00000109
-0.43732265 -0.43431643 -0.00000104
-0.62682277 -0.47016832 0.00000026
-0.08191837 -0.12214728 0.00000247
-0.24342747 0.34168836 0.00000437
-0.77469808 -0.71446019 -0.00000021
-0.67737031 -0.01238896 -0.00000055
-0.60729527 -0.40018374 0.00000046
-0.18906121 -0.07280349 0.00000204
-0.72472078 -0.26222074 -0.00000099
-0.43825430 -0.50388789 -0.00000135
-0.14977871 0.19015084 -0.00000296
-0.05779794 0.38910985 -0.00000101
-0.41672096 -0.44377202 -0.00000096
-0.45646003 -0.69639724 -0.00000230
-0.27672753 0.24712929 0.00000402
-0.42780218 -0.75039309 -0.00000236
-0.43293646 0.10625401 0.00000226
-0.56657231 0.19887243 0.00000064
-0.24546887 0.49806255 0.00000427
-0.25682870 0.35698000 0.00000420
-0.68080354 0.03771451 -0.00000062
-0.27689549 0.08166641 -0.00000170
-0.49743572 0.13432243 0.00000149
-0.15383844 0.38153917 0.00000170
-0.28738070 -0.29657406 0.00000047
-0.02690656 -0.15765858 0.00000265
-0.44683346 -0.71053785 -0.00000231
-0.16157238 0.46040434 0.00000527
-0.77174550 -0.18729478 -0.00000153
-0.07067547 -0.63308829 0.00000030
-0.11623158 0.22220105 -0.00000322
-0.69190133 -0.14781173 -0.00000066
-0.25638545 -0.71765053 -0.00000119
-0.13741674 -0.32845163 0.00000123
-0.33693203 0.31421280 0.00000328
-0.59559834 -0.70379019 -0.00000317
-0.79388028 -0.65957481 -0.00000035
-0.62794727 -0.19919185 0.00000012
-0.08974008 -0.62750512 0.00000021
-0.18539687 -0.20279570 0.00000149
-0.09987996 -0.60260618 0.00000026
-0.14588253 0.24334691 -0.00000182
-0.72300833 -0.38607451 -0.00000091
-0.58716995 -0.62715364 -0.00000279
-0.44199434 -0.08252874 0.00000224
-0.33806664 0.27343094 0.00000329
-0.69812196 -0.67507249 -0.00000031
-0.62658876 -0.47697920 0.00000027
-0.02830727 0.28673330 -0.00000434
-0.00909082 -0.78552991 0.00000001
-0.40285635 0.03442226 0.00000264
-0.11696068 -0.52863669 0.00000048
-0.15883635 0.29838431 -0.00000012
-0.18165559 -0.27409616 0.00000120
-0.75210148 -0.49641454 -0.00000076
-0.57547945 -0.60924095 -0.00000264
-0.65012729 -0.71053213 0.00000010
-0.18793455 -0.42154378 0.00000052
-0.39989370 0.35652637 0.00000252
-0.65075988 -0.27799320 -0.00000011
-0.52903169 -0.41906869 0.00000138
-0.05700769 -0.14216742 0.00000253
-0.58307594 -0.05479648 0.00000057
-0.24238008 -0.38187736 0.00000037
-0.22111197 0.10875056 -0.00000274
-0.34024364 -0.55436605 -0.00000098
-0.20135249 -0.04579304 0.00000208
-0.71943408 -0.16874883 -0.00000097
-0.09058739 -0.44385150 0.00000101
-0.42117870 0.26601663 0.00000232
-0.63864219 -0.69044465 0.00000023
-0.13163023 -0.22403370 0.00000173
-0.29077098 0.16545773 0.00000390
-0.53223056 -0.59963572 -0.00000234
-0.15560015 0.61837190 0.00000526
-0.48539671 0.00606721 0.00000169
-0.72453219 -0.64110357 -0.00000040
-0.21686661 -0.16074537 0.00000149
-0.64376354 -0.41114697 0.00000003
-0.02160531 -0.39650497 0.00000163
-0.01032185 -0.52297515 0.00000121
-0.23480339 0.13156050 -0.00000179
-0.52373111 -0.02027364 0.00000125
-0.50882977 -0.21123651 0.00000152
-0.60361129 -0.37257662 0.00000049
-0.24233048 -0.21084423 0.00000111
-0.16859210 -0.79043019 -0.00000098
-0.21554095 0.47153011 0.00000463
-0.08540083 0.58345962 0.00000443
-0.76388812 -0.07268847 -0.00000154
-0.66685092 0.09416346 -0.00000048
-0.13128473 -0.39747292 0.00000097
-0.17259669 -0.08070056 0.00000211
-0.21964654 -0.05603448 0.00000193
-0.74490154 -0.24002725 -0.00000124
-0.03167694 0.50384891 0.00000092
-0.25509283 0.00188690 -0.00000426
-0.30545473 -0.23291814 0.00000064
-0.39866257 0.35378417 0.00000254
-0.68426031 -0.47118604 -0.00000041
-0.01282833 -0.78391904 -0.00000001
-0.38168073 -0.28374961 -0.00000005
-0.79024577 -0.75632906 -0.00000011
-0.62348992 0.09785195 0.00000002
-0.16156185 -0.32306606 0.00000111
-0.74287176 -0.04974394 -0.00000131
-0.68102938 -0.02912617 -0.00000059
-0.03003507 -0.55233485 0.00000090
-0.59647131 -0.48988497 0.00000063
-0.37946925 -0.27464801 0.00000001
-0.46419764 -0.48515752 -0.00000142
-0.71790290 -0.78879046 -0.00000003
-0.46601355 -0.25597373 0.00000204
-0.29107109 0.04689895 -0.00000210
-0.39597371 0.14490288 0.00000267
-0.41920683 -0.20643415 0.00000257
-0.33367392 0.41532895 0.00000327
-0.71872514 0.07855754 -0.00000108
-0.40365422 -0.59941596 -0.00000156
-0.79076767 -0.23794667 -0.00000141
-0.52914906 -0.15680932 0.00000126
-0.56880903 0.22732042 0.00000060
-0.62799674 -0.18513627 0.00000011
-0.13156742 0.60335952 0.00000555
-0.32095620 -0.69041318 -0.00000146
-0.02140385 -0.03977461 0.00000320
-0.11716867 -0.54397082 0.00000041
-0.73128563 -0.24503703 -0.00000107
-0.40653574 -0.34561151 -0.00000047
-0.25035298 0.28784779 0.00000431
-0.53405124 0.01987807 0.00000111
-0.55719268 -0.07616907 0.00000089
-0.49272275 -0.00993868 0.00000161
-0.43500611 -0.17754067 0.00000237
-0.30753011 0.40799150 0.00000358
-0.18395121 0.44015336 0.00000502
-0.17084239 -0.30215454 0.00000115
-0.11538133 -0.28030607 0.00000158
-0.64337897 -0.49510109 0.00000008
-0.00123430 -0.05263233 0.00000326
-0.21673118 -0.43990272 0.00000027
-0.55051190 -0.00438787 0.00000093
-0.20597880 -0.22563837 0.00000127
-0.43880969 -0.37201637 -0.00000078
-0.67378193 -0.57588691 -0.00000024
-0.02986788 0.47239336 0.00000012
-0.42170501 0.08979194 0.00000240
-0.29221889 -0.60861266 -0.00000093
-0.24977341 -0.20192878 0.00000111
-0.50667882 -0.54490781 -0.00000194
-0.00002629 -0.23429093 0.00000247
-0.44516587 -0.09331195 0.00000221
-0.48773664 0.21896873 0.00000156
-0.75091064 -0.05976992 -0.00000139
-0.48820728 0.30149329 0.00000151
-0.25756678 -0.35970992 0.00000037
-0.49531135 0.17958517 0.00000149
-0.30371848 -0.42647582 -0.00000020
-0.13676605 0.44790488 0.00000277
-0.25129190 0.45813614 0.00000422
-0.44018567 -0.44782281 -0.00000112
-0.58354473 -0.79621553 -0.00000351
-0.17649218 0.44285303 0.00000510
-0.19264004 -0.13905679 0.00000173
-0.30373210 0.30482832 0.00000368
-0.09138468 0.43233490 0.00000103
-0.09629748 -0.40624332 0.00000114
-0.31411979 -0.07863728 0.00000126
-0.65357208 0.13841914 -0.00000035
-0.33916789 -0.36986554 -0.00000017
-0.17124599 0.16306061 -0.00000296
-0.67493236 0.11414410 -0.00000059
-0.33318755 0.31881228 0.00000332
-0.03077495 -0.48891404 0.00000118
-0.56985694 -0.61781323 -0.00000264
-0.29731888 0.30950415 0.00000375
-0.74629033 -0.64699775 -0.00000038
-0.06632477 -0.43064368 0.00000122
-0.16195427 -0.47345203 0.00000045
-0.50145841 -0.43841922 -0.00000144
-0.57613516 -0.50223005 0.00000087
-0.32803819 -0.56634474 -0.00000096
-0.26733208 0.32650903 0.00000409
-0.03646766 -0.69229180 0.00000025
-0.35652757 0.08041728 0.00000317
-0.79910958 -0.73249584 -0.00000017
-0.39062172 -0.41259110 -0.00000066
-0.65309656 -0.28896567 -0.00000014
-0.27200341 0.17869237 0.00000411
-0.16313365 -0.44019207 0.00000059
-0.00119390 0.49303913 -0.00000025
-0.27818868 0.16845211 0.00000404
-0.06472515 0.06058163 -0.00000861
-0.56125402 -0.75542420 -0.00000319
-0.35010454 -0.70926821 -0.00000172
-0.70197666 -0.78690052 -0.00000003
-0.00254230 0.10380338 -0.00000946
-0.13298601 0.32568067 -0.00000025
-0.43103269 0.02495857 0.00000232
-0.27418852 -0.30389497 0.00000052
-0.43067011 -0.72280270 -0.00000226
-0.75408363 -0.22456203 -0.00000135
-0.02379518 -0.12987565 0.00000279
-0.15247820 -0.70312983 -0.00000050
-0.44981176 -0.73180372 -0.00000242
-0.48134163 0.19307749 0.00000165
-0.20600703 -0.14611275 0.00000162
-0.19523849 -0.77601165 -0.00000107
-0.16532347 -0.29763123 0.00000120
-0.77145511 -0.38535497 -0.00000104
-0.48134717 0.27831253 0.00000160
-0.32548627 0.06224863 0.00000354
-0.06959662 0.70558071 0.00000623
-0.12815408 -0.70802742 -0.00000037
-0.31793690 -0.40626961 -0.00000020
-0.72797561 -0.13255382 -0.00000109
-0.25212139 -0.29435951 0.00000069
-0.68694770 -0.01093424 -0.00000067
-0.17640714 -0.68609047 -0.00000057
-0.60302466 0.01645295 0.00000030
-0.03633309 0.50301111 0.00000104
-0.09081983 0.52032191 0.00000310
-0.52581149 0.23471978 0.00000110
-0.15923221 0.46027115 0.00000530
-0.55915773 -0.33712062 0.00000099
-0.61800927 -0.11118556 0.00000019
-0.05920897 -0.07619699 0.00000281
-0.04882206 0.58137882 0.00000328
-0.65590668 -0.47397417 -0.00000008
-0.39637959 0.39842591 0.00000258
-0.27214241 -0.02635773 0.00000174
-0.68066299 -0.48299512 -0.00000036
-0.61097723 -0.38321266 0.00000040
-0.67895716 -0.59687448 -0.00000029
-0.63776201 -0.60297447 0.00000020
-0.26473272 0.07690603 -0.00000218
-0.41862178 0.11576037 0.00000242
-0.07084046 0.23741142 -0.00000422
-0.44628409 -0.20387198 0.00000225
-0.45574164 -0.06476483 0.00000207
-0.29240876 -0.58954126 -0.00000084
-0.15929498 -0.75334686 -0.00000076
-0.16284205 -0.05209191 0.00000229
-0.14446083 -0.25890908 0.00000150
-0.17150311 0.62801290 0.00000507
-0.08917893 0.57294327 0.00000430
-0.59181052 -0.20082691 0.00000054
-0.53609693 0.02645681 0.00000108
-0.27160925 -0.52962089 -0.00000046
-0.12786314 -0.09129611 0.00000233
-0.35992113 -0.26427513 0.00000017
-0.23569752 0.49147028 0.00000438
-0.15552717 0.18963194 -0.00000280
-0.22642666 -0.43944943 0.00000021
-0.54456413 -0.03456863 0.00000101
-0.68068856 0.11485823 -0.00000062
-0.30343547 -0.00536896 0.00000165
-0.12446032 0.67284936 0.00000562
-0.44809642 0.02345607 0.00000212
-0.58333325 0.13000058 0.00000048
-0.57165819 0.16735861 0.00000060
-0.08605182 -0.66259521 0.00000008
-0.17561664 0.06248323 -0.00000522
-0.45905182 -0.07430750 0.00000204
-0.39808559 0.26446033 0.00000259
-0.18056145 0.06565930 -0.00000499
-0.29945666 -0.43385521 -0.00000021
-0.35726485 0.38460854 0.00000301
-0.07055348 0.20963795 -0.00000489
-0.57254422 0.01762216 0.00000066
-0.01413149 -0.24361941 0.00000243
-0.39845210 -0.14792876 0.00000278
-0.77358025 -0.08667007 -0.00000165
-0.55679995 -0.50234044 0.00000110
-0.58749712 -0.74109441 -0.00000329
-0.31944397 -0.33982453 0.00000009
-0.72664911 -0.22987241 -0.00000103
-0.06748372 -0.34336391 0.00000159
-0.01079118 -0.59396005 0.00000084
-0.22894093 -0.49675921 -0.00000006
-0.41163370 0.03349400 0.00000254
-0.40281537 0.07467140 0.00000263
-0.05004859 -0.56053203 0.00000075
-0.14403678 -0.65102226 -0.00000022
-0.42282328 -0.04754365 0.00000245
-0.07037943 0.58079541 0.00000392
-0.29618046 0.02337415 -0.00000251
-0.62117559 -0.65912753 0.00000042
-0.22533327 0.12632567 -0.00000220
-0.32148555 0.19966143 0.00000352
-0.73422152 0.05634146 -0.00000118
-0.03330135 -0.51211327 0.00000106
-0.06285642 0.24550205 -0.00000427
-0.73386055 -0.55045122 -0.00000062
-0.77631170 0.01556791 -0.00000173
-0.01074107 -0.10243639 0.00000305
-0.22880402 -0.18221229 0.00000132
-0.47115073 -0.50546521 -0.00000156
-0.01935293 0.60118908 0.00000286
-0.37260759 -0.17967811 0.00000047
-0.67033494 -0.25825551 -0.00000035
-0.23400140 -0.68674618 -0.00000092
-0.33696443 0.08918084 0.00000339
-0.59083641 0.20554096 0.00000038
-0.39316905 -0.70935696 -0.00000198
-0.26404017 0.12529974 -0.00000106
-0.64302248 -0.70832860 0.00000019
-0.60117269 -0.00209016 0.00000033
-0.50892341 0.14565969 0.00000135
-0.53872174 -0.66638213 -0.00000267
-0.54265046 0.07440469 0.00000098
-0.13732554 0.52455533 0.00000552
-0.00550638 -0.43927765 0.00000154
-0.09669284 0.63726163 0.00000594
-0.00703616 -0.29861179 0.00000215
-0.53802156 -0.65468377 -0.00000261
-0.37512931 -0.58735913 -0.00000133
-0.78467053 -0.65834433 -0.00000035
-0.15666319 -0.28338447 0.00000131
-0.06063612 -0.48900530 0.00000099
-0.64432055 -0.76695436 -0.00000374
-0.41100442 -0.59702611 -0.00000159
-0.16044442 0.03390560 -0.00000635
-0.69564408 -0.69013327 -0.00000027
-0.50133514 -0.10388878 0.00000156
-0.15979499 0.06875597 -0.00000554
-0.23912604 0.30152589 0.00000444
-0.41001567 -0.43900287 -0.00000090
-0.05303860 0.04854805 -0.00000925
-0.13983135 0.31138977 -0.00000038
-0.68816924 -0.42881453 -0.00000048
-0.12894976 0.10409283 -0.00000564
-0.13112108 0.27895203 -0.00000142
-0.59391361 -0.67614174 -0.00000304
-0.32700112 -0.27718896 0.00000031
-0.06069902 0.54155403 0.00000269
-0.63581729 -0.24918766 0.00000005
-0.74611050 -0.17395224 -0.00000128
-0.00272258 0.13482399 -0.00000872
-0.53949296 -0.76762676 -0.00000311
-0.35636184 -0.73152751 -0.00000185
-0.68512130 -0.08552391 -0.00000061
-0.36231768 -0.73342454 -0.00000190
-0.31717071 -0.16921501 0.00000085
-0.11652105 -0.75389743 -0.00000050
-0.39752626 0.08840693 0.00000268
-0.08787430 -0.71059853 -0.00000014
-0.12125822 -0.59610766 0.00000016
-0.29497829 -0.60945439 -0.00000095
-0.48540890 -0.35608724 0.00000187
-0.51155472 -0.59817290 -0.00000220
-0.61797041 0.07948604 0.00000010
-0.18055210 -0.42852625 0.00000054
-0.58741528 -0.25963137 0.00000062
-0.37771219 -0.33519092 -0.00000025
-0.45526445 -0.51371819 -0.00000150
-0.17607947 0.23269279 -0.00000116
-0.29361469 0.34223014 0.00000378
-0.74554890 -0.38591391 -0.00000104
-0.23213629 -0.79522693 -0.00000138
-0.04827043 -0.14519434 0.00000257
-0.28047919 0.23111609 0.00000398
-0.42857847 -0.24238943 -0.00000015
-0.45023799 -0.38358834 -0.00000090
-0.23618887 -0.19359656 0.00000123
-0.46965253 -0.52136970 -0.00000162
-0.48610258 -0.54810858 -0.00000183
-0.29681695 0.15154022 0.00000383
-0.72802627 -0.02749764 -0.00000114
-0.56300890 -0.37026384 0.00000096
-0.48953629 -0.51628369 -0.00000171
-0.58778673 -0.38089666 0.00000068
-0.40947178 -0.31363371 -0.00000034
-0.43299073 0.35126168 0.00000214
-0.27410609 -0.22159667 0.00000088
-0.03537835 -0.55869931 0.00000084
-0.13147131 -0.34735388 0.00000119
-0.33430427 0.07652289 0.00000343
-0.29503870 -0.23060033 0.00000071
-0.63368773 0.01575204 -0.00000006
-0.18950564 0.48872885 0.00000493
-0.00200868 0.49258775 -0.00000024
-0.58483177 0.17574826 0.00000044
-0.71106625 0.04917963 -0.00000098
-0.30837131 -0.75836170 -0.00000168
-0.46083692 0.27914816 0.00000184
-0.30928504 -0.25190756 0.00000053
-0.02256535 -0.17982280 0.00000258
-0.32775477 -0.28188357 0.00000029
-0.30435151 0.02880461 -0.00000213
-0.00171984 -0.10685390 0.00000302
-0.33463025 0.44913009 0.00000324
-0.75272477 0.04032599 -0.00000146
-0.28395811 -0.30901840 0.00000043
-0.13354309 0.56502080 0.00000555
-0.69784546 -0.74200016 -0.00000014
-0.43099487 -0.08473437 0.00000237
-0.49361649 -0.56491941 -0.00000195
-0.28188226 0.49337402 0.00000384
-0.29954702 0.01760500 -0.00000254
-0.08444967 0.54548627 0.00000350
-0.07787799 0.12759313 -0.00000662
-0.36875835 0.33884671 0.00000290
-0.12578191 0.55413806 0.00000564
-0.33721673 -0.70852822 -0.00000164
-0.67448211 0.04419651 -0.00000055
-0.70559835 0.08493957 -0.00000093
-0.64851081 -0.28323615 -0.00000008
-0.30828354 -0.26103309 0.00000050
-0.13456947 0.39242393 0.00000138
-0.73441452 -0.11134211 -0.00000118
-0.69395322 -0.34207693 -0.00000059
-0.70627826 -0.64943874 -0.00000038
-0.21621834 -0.77628154 -0.00000120
-0.10473852 0.28517288 -0.00000207
-0.53068817 -0.45510513 0.00000138
-0.74240535 -0.47931057 -0.00000080
-0.10037647 0.61827433 0.00000591
-0.40250814 -0.58345664 -0.00000148
-0.19202480 -0.47689196 0.00000025
-0.53331971 -0.39912695 0.00000132
-0.43918103 -0.26477456 -0.00000031
-0.79261345 -0.40160584 -0.00000100
-0.18646678 -0.46977490 0.00000032
-0.71383107 -0.61426610 -0.00000046
-0.67956555 0.01440682 -0.00000059
-0.37952587 0.24116974 0.00000282
-0.17369264 0.53143674 0.00000509
-0.77629125 -0.07338985 -0.00000169
-0.39669487 -0.10970573 0.00000279
-0.29436722 0.20805414 0.00000383
-0.10759782 -0.72619683 -0.00000033
-0.01361280 -0.49446493 0.00000134
-0.18326005 0.49067077 0.00000500
-0.60780609 -0.50550586 0.00000050
-0.22807737 -0.39103523 0.00000041
-0.54598266 -0.45266297 0.00000120
-0.00944297 -0.41701740 0.00000162
-0.57977355 -0.00459849 0.00000059
-0.08055933 0.47039628 0.00000160
-0.52272844 0.14572102 0.00000118
-0.09805836 -0.34438869 0.00000140
-0.12721179 0.11857515 -0.00000534
-0.16963121 -0.23112847 0.00000146
-0.30202878 -0.32278508 0.00000026
-0.22999750 -0.03401041 0.00000196
-0.36133090 -0.51460952 -0.00000093
-0.54688060 0.24497399 0.00000085
-0.18551470 -0.75459301 -0.00000092
-0.06520873 0.63033706 0.00000494
-0.57003260 0.07948983 0.00000066
-0.00336997 -0.78979057 0.00000004
-0.63852262 -0.50655311 0.00000014
-0.33231917 -0.14643167 0.00000085
-0.25401759 0.02984076 -0.00000363
-0.27100822 0.23972341 0.00000409
-0.21976206 -0.70823169 -0.00000092
-0.05819669 0.64613706 0.00000510
-0.55091327 -0.70104098 -0.00000289
-0.24005435 -0.06550097 0.00000176
-0.00972208 -0.78123331 0.00000008
-0.40735891 0.14843243 0.00000254
-0.28150925 -0.59553629 -0.00000080
-0.21961778 0.02002301 -0.00000490
-0.36100635 -0.20984730 0.00000040
-0.61964977 -0.34751952 0.00000029
-0.11932307 0.44745201 0.00000223
-0.39397937 -0.20139074 0.00000024
-0.34393740 0.23413377 0.00000324
-0.27599508 -0.24285634 0.00000077
-0.20867774 0.01588927 -0.00000533
-0.22561055 -0.49988571 -0.00000005
-0.21290542 -0.00203590 0.00000221
-0.23156001 -0.09573047 0.00000168
-0.66010135 -0.34861070 -0.00000019
-0.42187044 -0.42011687 -0.00000088
-0.39093679 -0.05937973 0.00000283
-0.67184377 0.07115955 -0.00000053
-0.01173052 -0.30733025 0.00000216
-0.43740487 -0.25425208 0.00000238
-0.39168838 -0.48934636 -0.00000100
-0.51700515 -0.18172006 0.00000141
-0.20115881 -0.67257887 -0.00000066
-0.01178871 -0.26135853 0.00000229
-0.77732992 -0.07559419 -0.00000170
-0.12948723 -0.20079081 0.00000184
-0.26238161 -0.36495349 0.00000032
-0.22827235 0.16490147 -0.00000119
-0.00065765 -0.63054073 0.00000074
-0.21975929 -0.35915357 0.00000060
-0.04927063 0.06115813 -0.00000906
-0.54914683 0.05233188 0.00000092
-0.58310658 -0.02813005 0.00000056
-0.56862742 -0.78884375 -0.00000338
-0.62352097 -0.50187224 0.00000032
-0.05962961 -0.00041755 0.00000314
-0.27777085 0.35316160 0.00000396
-0.46979254 -0.23426865 0.00000199
-0.05409042 0.55562228 0.00000283
-0.75366992 -0.55949020 -0.00000060
-0.72424406 -0.57810968 -0.00000055
-0.64547050 0.07795265 -0.00000022
-0.38019246 -0.20793310 0.00000030
-0.00511860 -0.26739845 0.00000233
-0.21699844 -0.22170509 0.00000122
-0.18153235 -0.07787617 0.00000206
-0.50355011 0.26664767 0.00000135
-0.71331429 -0.31144711 -0.00000083
-0.54272974 0.01484409 0.00000101
-0.76603174 -0.31028095 -0.00000122
-0.66568083 0.10564808 -0.00000047
-0.05346734 -0.54896390 0.00000078
-0.09842480 -0.46706206 0.00000086
-0.03908457 -0.52159488 0.00000098
-0.12708700 -0.17310417 0.00000198
-0.14345911 -0.79648298 -0.00000085
-0.22865433 -0.77677327 -0.00000128
-0.01280905 -0.04499503 0.00000330
-0.69363487 -0.71208793 -0.00000022
-0.33309570 0.22909123 0.00000337
-0.23976436 0.51277047 0.00000433
-0.42996445 -0.73547477 -0.00000231
-0.46405044 -0.18618399 0.00000203
-0.35607499 -0.68487376 -0.00000165
-0.02451273 0.11012306 -0.00000864
-0.18210499 -0.62333125 -0.00000033
-0.33252653 -0.72051144 -0.00000166
-0.35138363 0.05456010 0.00000324
-0.24909484 0.07585288 -0.00000268
-0.15977713 0.11919831 -0.00000435
-0.21351168 -0.13376310 0.00000163
-0.12654154 -0.35209909 0.00000120
-0.40759626 -0.55630046 -0.00000139
-0.60008198 0.09513568 0.00000030
-0.53163320 0.08499764 0.00000111
-0.38085508 -0.54693544 -0.00000119
-0.56872195 -0.05508900 0.00000074
-0.28820100 -0.27406517 0.00000056
-0.01860545 -0.26503718 0.00000223
-0.16773707 -0.46789595 0.00000044
-0.76640248 -0.43910280 -0.00000090
-0.03280706 -0.41978678 0.00000147
-0.79020423 -0.73285049 -0.00000017
-0.74152619 -0.50640869 -0.00000073
-0.09260167 -0.19733036 0.00000208
-0.45523867 -0.61508054 -0.00000194
-0.30472884 -0.42342266 -0.00000019
-0.27774212 0.23311557 0.00000402
-0.20351936 0.57114637 0.00000472
-0.12393849 -0.58122188 0.00000021
-0.48101732 -0.52644843 -0.00000171
-0.16631553 0.62731278 0.00000518
-0.08206268 0.53780872 0.00000325
-0.74612099 -0.55305207 -0.00000062
-0.69439995 0.00855457 -0.00000076
-0.50114036 -0.01488540 0.00000151
-0.54428244 0.20898423 0.00000090
-0.14719492 0.06148193 -0.00000610
-0.38954878 -0.27356970 -0.00000005
-0.19637415 -0.57308573 -0.00000019
-0.30027270 -0.52358651 -0.00000060
-0.62988240 0.11995784 -0.00000006
-0.34977058 -0.03472116 0.00000330
-0.46966252 0.14592846 0.00000181
-0.36921042 0.30316618 0.00000291
-0.29581919 0.24183318 0.00000380
-0.53943551 -0.03830484 0.00000108
-0.13947853 -0.62085593 -0.00000006
-0.58319235 -0.68178296 -0.00000300
-0.07574662 -0.34872323 0.00000152
-0.20264404 -0.06055101 0.00000201
-0.79602051 -0.50178152 -0.00000075
-0.33817726 -0.23664553 0.00000042
-0.70410609 -0.27389112 -0.00000074
-0.02511341 -0.39205760 0.00000163
-0.19428474 -0.48695487 0.00000020
-0.78414690 -0.24105272 -0.00000140
-0.60191709 -0.17953558 0.00000041
-0.49883670 -0.10760052 0.00000159
-0.69678205 -0.24062862 -0.00000067
-0.00001785 0.08249955 -0.00001004
-0.18763085 0.50455302 0.00000494
-0.54627550 -0.07836146 0.00000102
-0.20294701 -0.19109869 0.00000144
-0.29530168 -0.11712984 0.00000121
-0.56577379 -0.48477194 0.00000098
-0.78966069 -0.79628587 -0.00000001
-0.01794948 0.29836428 -0.00000437
-0.40465891 -0.27634680 -0.00000015
-0.32070267 -0.69065434 -0.00000146
-0.69237292 -0.14748636 -0.00000067
-0.11826370 0.56897497 0.00000572
-0.00342814 -0.39509436 0.00000175
-0.17571826 0.05626410 -0.00000536
-0.15563107 -0.11773991 0.00000205
-0.54549134 -0.28612143 0.00000113
-0.47813994 -0.01005892 0.00000178
-0.55850655 -0.13659544 0.00000090
-0.55167365 -0.70020401 -0.00000289
-0.05880939 -0.61138529 0.00000047
-0.06124667 0.01332560 -0.00000984
-0.20624217 -0.38889569 0.00000055
-0.68103462 -0.38291046 -0.00000042
-0.42132750 -0.69928300 -0.00000210
-0.04262384 -0.21622568 0.00000230
-0.03182025 0.35172749 -0.00000269
-0.48087758 -0.14493138 0.00000182
-0.50286961 -0.14108078 0.00000156
-0.28041390 -0.55821437 -0.00000063
-0.04494472 -0.22924571 0.00000223
-0.20459391 -0.36846498 0.00000065
-0.13297512 -0.63291967 -0.00000007
-0.73776597 -0.36745363 -0.00000108
-0.09258606 -0.17164133 0.00000219
-0.24023198 -0.28404421 0.00000081
-0.33453360 -0.67912585 -0.00000149
-0.42501047 -0.21348083 0.00000250
-0.19219042 0.30329838 0.00000100
-0.48141062 0.27202874 0.00000161
-0.52455246 -0.47131491 -0.00000173
-0.77313137 -0.12280124 -0.00000162
-0.62442571 -0.10475937 0.00000011
-0.43601787 0.19280593 0.00000218
-0.34299237 0.45656559 0.00000314
-0.46602240 -0.30721921 0.00000207
-0.60297590 -0.35779086 0.00000049
-0.45658302 -0.23099041 0.00000214
-0.21057139 -0.08090092 0.00000188
-0.43958104 0.00175526 0.00000223
-0.09567345 0.01574774 -0.00000874
-0.01544412 -0.43751767 0.00000149
-0.12217281 -0.30200124 0.00000144
-0.02735216 0.18787299 -0.00000671
-0.15499127 -0.67769545 -0.00000040
-0.31770477 0.13528460 0.00000359
-0.18161893 -0.63192588 -0.00000036
-0.31659070 -0.40555200 -0.00000019
-0.68595600 -0.50413948 -0.00000042
-0.31761828 0.22590612 0.00000355
-0.54064536 -0.78624147 -0.00000320
-0.27343759 -0.42637736 -0.00000002
-0.09679601 0.68001366 0.00000592
-0.44499069 -0.64788073 -0.00000202
-0.04488675 -0.50773543 0.00000101
-0.29178265 0.44166699 0.00000375
-0.58259147 -0.73797345 -0.00000324
-0.05258121 0.20529711 -0.00000554
-0.73081017 -0.34569368 -0.00000102
-0.33441100 -0.01964614 0.00000140
-0.14134431 -0.13640165 0.00000205
-0.62911534 -0.03753682 0.00000002
-0.16343550 0.32916018 0.00000075
-0.17369758 0.61501008 0.00000514
-0.27419046 -0.34094557 0.00000035
-0.16220179 -0.32393941 0.00000110
-0.06710444 -0.43484771 0.00000119
-0.75751841 0.01322136 -0.00000151
-0.44651100 -0.29504687 -0.00000049
-0.65719318 -0.59049773 -0.00000004
-0.54748219 -0.29747528 0.00000111
-0.73380971 -0.21099564 -0.00000112
-0.75965321 -0.70982265 -0.00000023
-0.74043387 -0.03372562 -0.00000128
-0.57972795 0.11500375 0.00000053
-0.32184210 -0.71397614 -0.00000157
-0.57607859 -0.60497826 -0.00000262
-0.17673007 0.25860459 -0.00000052
-0.33688015 0.04255088 0.00000341
-0.00853004 -0.33297145 0.00000199
-0.18553475 0.08292554 -0.00000443
-0.04146257 -0.22777539 0.00000225
-0.72207385 0.02293522 -0.00000110
-0.01137866 0.08264120 -0.00000969
-0.41708875 -0.75057155 -0.00000230
-0.78520513 -0.61555409 -0.00000046
-0.00973412 0.70463747 0.00000503
-0.25457054 0.19396716 0.00000431
-0.12975708 -0.06674001 0.00000242
-0.41290268 -0.73760235 -0.00000222
-0.09721362 0.50183672 0.00000285
-0.47307995 -0.50744402 -0.00000158
-0.67815048 -0.55842090 -0.00000030
-0.06297092 -0.67995518 0.00000015
-0.54075313 0.25768721 0.00000092
-0.18961009 -0.01776895 0.00000228
-0.11604847 -0.39864352 0.00000106
-0.28767169 0.32635349 0.00000385
-0.67410755 0.12311351 -0.00000056
-0.06792807 0.00419704 -0.00000985
-0.45104268 -0.53600496 -0.00000157
-0.22377171 -0.51717049 -0.00000011
-0.00075953 -0.17405558 0.00000273
-0.22135617 -0.74008393 -0.00000107
-0.22858508 -0.43098620 0.00000023
-0.48828751 -0.30513948 0.00000181
-0.07433929 -0.21586539 0.00000211
-0.24762219 -0.57999498 -0.00000053
-0.68520170 -0.55520672 -0.00000038
-0.55179322 0.14410013 0.00000084
-0.58722335 -0.70580178 -0.00000313
-0.20446226 -0.48570541 0.00000014
-0.08381526 -0.15177031 0.00000233
-0.22353119 0.41870004 0.00000456
-0.54248983 -0.71147513 -0.00000289
-0.11238302 0.40686083 0.00000105
-0.11517653 -0.10061071 0.00000236
-0.00604978 -0.17633002 0.00000269
-0.76761186 -0.61695606 -0.00000046
-0.25648186 -0.25357622 0.00000084
-0.58485740 -0.27507341 0.00000066
-0.33490294 -0.70239115 -0.00000159
-0.04006163 -0.62124354 0.00000054
-0.33202118 0.21261320 0.00000339
-0.11269446 0.01333346 -0.00000828
-0.51773280 -0.10135203 0.00000136
-0.56291372 -0.64015216 -0.00000270
-0.41423354 0.02538205 0.00000252
-0.33620644 -0.72655433 -0.00000171
-0.34056893 -0.72899699 -0.00000174
-0.17804831 -0.42582020 0.00000056
-0.58253384 -0.59160590 0.00000084
-0.02663662 -0.08583021 0.00000296
-0.65859151 -0.77474451 0.00000004
-0.32077441 -0.33928657 0.00000008
-0.00151100 0.57179338 0.00000163
-0.46553901 -0.57335806 -0.00000182
-0.75020587 -0.45197999 -0.00000087
-0.11638621 -0.66054434 -0.00000009
-0.15117329 0.27195081 -0.00000098
-0.40730801 -0.06031194 0.00000264
-0.33722264 -0.02109280 0.00000137
-0.28365955 0.29127568 0.00000392
-0.40339541 -0.35111499 -0.00000047
-0.28759429 0.29097643 0.00000387
-0.38131019 -0.25724447 0.00000007
-0.10153865 0.50157034 0.00000298
-0.17009284 0.33754268 0.00000115
-0.53519529 -0.45642087 0.00000133
-0.01196922 0.35013893 -0.00000332
-0.60176587 -0.37189808 0.00000051
-0.53201789 -0.65254736 -0.00000257
-0.43111983 -0.35229483 -0.00000064
-0.03239935 0.35713559 -0.00000254
-0.72265297 0.07524859 -0.00000111
-0.54052889 -0.00302834 0.00000105
-0.09945452 -0.28396314 0.00000166
-0.04390280 -0.65688568 0.00000036
-0.33852464 -0.66909200 -0.00000147
-0.29137641 -0.06046123 0.00000148
-0.00702513 -0.69955593 0.00000044
-0.54034680 -0.39444110 0.00000124
-0.76814479 -0.30178231 -0.00000125
-0.45660740 -0.11636280 0.00000209
-0.01069139 -0.07666545 0.00000310
-0.37695801 0.42265406 0.00000276
-0.55094212 -0.20334303 0.00000102
-0.68331593 -0.11505966 -0.00000057
-0.06009826 0.46837559 0.00000094
-0.39720726 -0.25554720 -0.00000002
-0.28472477 -0.61392212 -0.00000090
-0.01567673 -0.45252049 0.00000143
-0.62759256 -0.08229357 0.00000006
-0.33125284 -0.03125767 0.00000136
-0.56721437 -0.05302455 0.00000076
-0.21967106 -0.12740687 0.00000162
-0.59301424 -0.74231237 -0.00000333
-0.70016772 -0.65395159 -0.00000037
-0.29620123 0.49381599 0.00000367
-0.71948278 -0.29815972 -0.00000091
-0.36782229 -0.39354733 -0.00000044
-0.05978493 -0.67244071 0.00000020
-0.25307816 -0.65774304 -0.00000091
-0.17563546 0.02063167 -0.00000621
-0.39126834 0.16079533 0.00000272
-0.52229345 -0.32678330 0.00000142
-0.69167447 -0.58376318 -0.00000044
-0.08188555 -0.44590691 0.00000105
-0.00927072 -0.36833388 0.00000189
-0.14951412 -0.06564817 0.00000231
-0.15695891 -0.50023609 0.00000036
-0.55545503 -0.44151279 0.00000108
-0.11851362 0.66990924 0.00000576
-0.03098966 -0.70502353 0.00000023
-0.28901708 -0.27817681 0.00000054
-0.43272173 -0.00121053 0.00000231
-0.52055836 -0.22943909 0.00000139
-0.59679794 -0.61692625 0.00000068
-0.08120344 0.42390099 0.00000052
-0.57537150 -0.55451661 0.00000091
-0.42890635 -0.45476630 -0.00000108
-0.46747023 0.09270119 0.00000186
-0.38035405 -0.73984015 -0.00000203
-0.28517428 0.50645834 0.00000380
-0.08623665 0.42238483 0.00000063
-0.01263892 -0.67454082 0.00000055
-0.23435824 -0.22148986 0.00000112
-0.64155757 0.15401570 -0.00000018
-0.57736474 -0.11887872 0.00000067
-0.40739986 -0.03377742 0.00000262
-0.06595991 -0.41512880 0.00000129
-0.55688709 -0.24452411 0.00000097
-0.45741427 0.01600155 0.00000201
-0.70335966 -0.04986676 -0.00000084
-0.00141197 0.20568784 -0.00000707
-0.44217685 -0.54244691 -0.00000154
-0.51587313 0.01792376 0.00000133
-0.00465069 -0.65516305 0.00000061
-0.00710136 -0.53066015 0.00000114
-0.33984953 0.32963231 0.00000324
-0.74139577 -0.04913455 -0.00000129
-0.67534047 -0.15493174 -0.00000046
-0.07842056 -0.01784679 0.00000295
-0.19827996 0.22202571 -0.00000074
-0.54990959 -0.27042401 0.00000107
-0.00482791 -0.21449357 0.00000256
-0.42277822 -0.06151154 0.00000246
-0.15067136 -0.33813599 0.00000111
-0.38377517 0.16485839 0.00000280
-0.14020883 0.45317569 0.00000299
-0.00499144 0.16017681 -0.00000805
-0.06649357 -0.17060991 0.00000235
-0.28430972 0.38413069 0.00000387
-0.42386580 -0.12752351 0.00000248
-0.34366554 -0.19082172 0.00000059
-0.09604737 0.22636393 -0.00000373
-0.78757918 -0.35567522 -0.00000111
-0.10316333 -0.35336232 0.00000133
-0.73519468 -0.66450256 -0.00000034
-0.00443754 -0.20570619 0.00000260
-0.67396158 0.12307694 -0.00000056
-0.60777277 0.13585550 0.00000019
-0.12072029 0.41926381 0.00000160
-0.26899236 -0.32564417 0.00000045
-0.44097689 -0.57501167 -0.00000168
-0.40952936 0.35719243 0.00000241
-0.23554029 0.02598824 -0.00000427
-0.38184571 0.31956136 0.00000275
-0.25430289 -0.45120645 -0.00000001
-0.72958040 -0.76863056 -0.00000008
-0.22657429 0.23196219 0.00000035
-0.17349812 0.31656063 0.00000075
-0.07312315 0.07717534 -0.00000796
-0.62400061 -0.09269239 0.00000011
-0.41125229 0.17791028 0.00000248
-0.58227003 0.13053553 0.00000049
-0.02550181 -0.74866432 0.00000007
-0.42795214 -0.08531671 0.00000241
-0.07967907 0.00411884 -0.00000950
-0.46624175 -0.74715966 -0.00000258
-0.10049274 0.48234919 0.00000249
-0.61252272 -0.31692499 0.00000035
-0.05637411 0.39539000 -0.00000091
-0.73218966 -0.56999272 -0.00000058
-0.59117091 -0.04254113 0.00000047
-0.36647964 -0.25195158 0.00000019
-0.08451130 -0.49378642 0.00000083
-0.00323360 -0.58291388 0.00000095
-0.31086344 -0.11431288 0.00000112
-0.13785724 -0.30172026 0.00000135
-0.28454903 -0.68790138 -0.00000123
-0.07785367 -0.37633640 0.00000138
-0.30178842 -0.33989441 0.00000019
-0.11694377 0.67970741 0.00000571
-0.17721875 -0.08853901 0.00000204
-0.73295563 -0.17455016 -0.00000113
-0.63705099 -0.60795563 0.00000021
-0.04406196 0.26732761 -0.00000432
-0.04666481 0.70672113 0.00000650
-0.60896492 -0.63593853 0.00000055
-0.27499196 0.51226962 0.00000391
-0.20004705 0.53793544 0.00000478
-0.38865760 -0.36548010 -0.00000044
-0.20961782 0.31250647 0.00000478
-0.54234582 0.19806227 0.00000093
-0.10258433 -0.51979315 0.00000061
-0.03387740 0.59182507 0.00000308
-0.74860036 -0.33076873 -0.00000117
-0.40275446 0.19589080 0.00000257
-0.52176034 -0.36069271 0.00000144
-0.17771377 0.36987609 0.00000215
-0.31181261 0.27124047 0.00000360
-0.33232817 -0.21067037 0.00000057
-0.70100415 -0.68071735 -0.00000030
-0.18843950 -0.23051673 0.00000135
-0.19809642 -0.58578962 -0.00000026
-0.41374135 -0.57963860 -0.00000153
-0.36643901 0.16042852 0.00000301
-0.22385497 0.00589442 -0.00000510
-0.12052253 0.22932935 -0.00000292
-0.59883171 -0.69822723 -0.00000317
-0.06412013 -0.35389316 0.00000156
-0.79994804 -0.61653870 -0.00000046
-0.67089224 -0.78010786 -0.00000005
-0.48247838 0.04424099 0.00000171
-0.45555204 -0.57552505 -0.00000177
-0.13972838 -0.66913891 -0.00000027
-0.22891155 -0.45979452 0.00000011
-0.34008312 0.38781455 0.00000321
-0.58566380 -0.26972982 0.00000065
-0.15170360 -0.67614615 -0.00000037
-0.04890082 0.20680282 -0.00000561
-0.30093631 -0.77287787 -0.00000170
-0.11160650 -0.59562361 0.00000022
-0.67323250 -0.17131917 -0.00000043
-0.57575393 0.10166423 0.00000058
-0.22196761 0.18292372 -0.00000096
-0.39203477 -0.59001541 -0.00000145
-0.66204625 -0.02423857 -0.00000037
-0.50642973 0.03913764 0.00000143
-0.41720259 -0.10954778 0.00000255
-0.08205397 0.03953012 -0.00000858
-0.30930659 -0.73017013 -0.00000156
-0.18352155 0.00422875 -0.00000636
-0.54177344 -0.02418377 0.00000104
-0.67741066 -0.64764768 -0.00000025
-0.05027542 0.65591294 0.00000510
-0.24951898 -0.26481566 0.00000084
-0.36265463 -0.72297716 -0.00000185
-0.79005224 -0.51971531 -0.00000070
-0.59861356 0.06969238 0.00000033
-0.40778661 -0.65261024 -0.00000182
-0.57252800 0.05290337 0.00000064
-0.60937673 -0.65459311 0.00000056
-0.09594076 -0.31835404 0.00000153
-0.53379607 -0.12764028 0.00000119
-0.68042719 -0.57205093 -0.00000032
-0.01699037 -0.05017496 0.00000318
-0.17654747 0.27616948 -0.00000011
-0.36688632 -0.42090029 -0.00000056
-0.33742943 -0.53605169 -0.00000088
-0.53221923 -0.02142798 0.00000115
-0.66157860 -0.61721385 -0.00000008
-0.40569866 0.38980511 0.00000244
-0.04438232 -0.37287971 0.00000160
-0.49786931 -0.42336759 -0.00000136
-0.58530647 -0.79553211 -0.00000351
-0.66267514 0.02267986 -0.00000040
-0.28046894 0.10096546 -0.00000114
-0.39976069 -0.27156287 -0.00000010
-0.04743042 -0.24317329 0.00000215
-0.19964641 -0.06862778 0.00000199
-0.01864543 0.28755552 -0.00000461
-0.64070082 -0.56290621 0.00000014
-0.32543400 0.18383674 0.00000348
-0.52907491 0.14162138 0.00000111
-0.29242125 -0.77626014 -0.00000166
-0.57981437 -0.52933300 0.00000084
-0.57501590 0.09486191 0.00000059
-0.31938982 0.07234563 0.00000361
-0.63392490 -0.63302284 0.00000026
-0.03751263 0.62089956 0.00000388
-0.11312752 0.64134949 0.00000575
-0.12008040 0.32851252 -0.00000057
-0.37594521 0.11254675 0.00000292
-0.20763259 -0.20540085 0.00000135
-0.38430297 -0.78677398 -0.00000226
-0.41508022 -0.42158279 -0.00000085
-0.02049397 -0.10539851 0.00000292
-0.17765839 0.25655019 -0.00000055
-0.45989862 0.16100225 0.00000191
-0.75986695 -0.55720025 -0.00000061
-0.42233559 -0.55819994 -0.00000149
-0.70222062 -0.59170246 -0.00000052
-0.25832728 0.27531555 0.00000422
-0.42947525 -0.35057983 -0.00000063
-0.31963709 0.17293338 0.00000355
-0.14378251 0.33760318 0.00000036
-0.02333311 0.33065858 -0.00000344
-0.02429822 -0.26310065 0.00000220
-0.34019801 -0.21308796 0.00000051
-0.66664124 -0.52554435 -0.00000018
-0.12629589 0.28869414 -0.00000133
-0.18595530 0.08914423 -0.00000427
-0.02220978 -0.06474350 0.00000308
-0.30937752 -0.12512287 0.00000109
-0.04483368 0.20087971 -0.00000588
-0.16152073 -0.29512304 0.00000123
-0.49030039 -0.04190832 0.00000166
-0.15390721 -0.07437275 0.00000225
-0.09737472 0.02826825 -0.00000839
-0.35016027 0.09618684 0.00000323
-0.06003051 -0.44458008 0.00000119
-0.56353444 -0.51741207 0.00000103
-0.54355890 -0.56006521 -0.00000223
-0.22504267 0.56336689 0.00000447
-0.00416267 -0.03753612 0.00000334
-0.55105221 0.05851578 0.00000089
-0.36330372 0.28499120 0.00000299
-0.19138980 -0.57202530 -0.00000016
-0.50545603 0.11183104 0.00000140
-0.79368907 -0.50550127 -0.00000074
-0.39711845 0.38578150 0.00000254
-0.35564351 -0.28534105 0.00000011
-0.56609011 -0.04203799 0.00000077
-0.69080007 0.10126049 -0.00000071
-0.13933305 0.12294673 -0.00000488
-0.25502720 0.31041062 0.00000424
-0.27473381 0.18856068 0.00000407
-0.22818591 -0.76544404 -0.00000123
-0.62956947 0.08809439 -0.00000004
-0.60873437 -0.59118497 0.00000053
-0.02424665 -0.52195966 0.00000107
-0.47426572 -0.04858797 0.00000185
