ply
format ascii 1.0
element vertex 1128
property float x
property float y
property float z
end_header
-0.21604265 -0.57841206 0.00000000
-0.16405132 0.21217827 0.00000000
-0.42582092 -0.56335896 0.00000000
-0.16602671 0.62933147 -0.00000041
-0.11766614 0.27762955 0.00000000
-0.56813073 -0.73934728 0.00000000
-0.14080898 -0.39319414 0.00000000
-0.61159742 -0.73820931 0.00000000
-0.70593029 0.01619676 -0.00000163
-0.34816140 -0.02149317 -0.00000003
-0.47985485 -0.02051332 -0.00000060
-0.08037863 -0.60317117 0.00000000
-0.21377774 -0.69679838 0.00000000
-0.68314558 -0.51601171 -0.00000059
-0.46856529 0.17098042 -0.00000089
-0.05265206 -0.23592952 0.00000000
-0.40208498 0.31483489 -0.00000086
-0.40106285 -0.66543424 0.00000000
-0.31159699 -0.47875234 0.00000000
-0.26069108 -0.73084790 0.00000000
-0.77866954 -0.27288070 -0.00000132
-0.65189403 -0.15619574 -0.00000109
-0.10654969 0.55044138 -0.00000001
-0.68540090 -0.32815686 -0.00000093
-0.15739530 -0.75324231 0.00000000
-0.12221799 -0.78533196 0.00000000
-0.53225583 -0.55560148 0.00000000
-0.32924309 0.44363704 -0.00000078
-0.54485631 -0.43968555 -0.00000013
-0.03501418 0.36943227 0.00000000
-0.55478740 0.20557652 -0.00000132
-0.07885687 0.68465769 -0.00000013
-0.48336416 0.29325116 -0.00000117
-0.54550678 -0.38391408 -0.00000024
-0.26458558 -0.58869165 0.00000000
-0.24203710 -0.25281674 0.00000000
-0.23672506 -0.38539824 0.00000000
-0.34608817 0.31903234 -0.00000063
-0.17367849 -0.40872565 0.00000000
-0.00645829 -0.58910298 0.00000000
-0.46302962 0.25127143 -0.00000101
-0.32412297 -0.58034152 0.00000000
-0.60548067 -0.30340019 -0.00000063
-0.54124486 -0.17148675 -0.00000059
-0.73367482 -0.36784253 -0.00000107
-0.61696082 -0.15936591 -0.00000094
-0.31049308 -0.60742414 0.00000000
-0.39171886 -0.55078107 0.00000000
-0.72407013 -0.41435856 -0.00000094
-0.07977646 -0.30789688 0.00000000
-0.22405168 0.39412108 -0.00000024
-0.30108607 -0.56878942 0.00000000
-0.58441836 -0.32684511 -0.00000050
-0.51936805 -0.48376471 0.00000000
-0.56133777 0.05655209 -0.00000108
-0.58455062 -0.10658942 -0.00000089
-0.16847070 0.23239931 0.00000000
-0.30266115 -0.38858202 0.00000000
-0.61423147 -0.46941519 -0.00000038
-0.23777542 0.47275957 -0.00000044
-0.55526894 0.21507274 -0.00000134
-0.27603918 -0.53322756 0.00000000
-0.77702683 -0.50716978 -0.00000073
-0.06777453 -0.12123927 0.00000000
-0.28329667 -0.77499700 0.00000000
-0.30042788 -0.23222594 0.00000000
-0.06941270 -0.68339086 0.00000000
-0.56265956 -0.68209147 0.00000000
-0.18442513 0.04043290 0.00000000
-0.57997930 0.16379362 -0.00000135
-0.26056296 0.35935077 -0.00000033
-0.07008302 0.26015818 0.00000000
-0.11460540 -0.18457609 0.00000000
-0.37041214 -0.02216244 -0.00000013
-0.31882936 -0.43707621 0.00000000
-0.45547184 -0.00440428 -0.00000052
-0.61394405 -0.13340664 -0.00000097
-0.08652783 -0.64820957 0.00000000
-0.24896210 -0.26685050 0.00000000
-0.26116794 -0.22068492 0.00000000
-0.43337470 -0.29531226 0.00000000
-0.18628348 -0.65180117 0.00000000
-0.56785214 0.11082402 -0.00000121
-0.03231215 0.54731697 0.00000000
-0.24462828 0.33259362 -0.00000022
-0.60735655 -0.40549529 -0.00000046
-0.49717557 -0.44690213 0.00000000
-0.32776031 0.44385365 -0.00000077
-0.22595046 -0.70374006 0.00000000
-0.28971612 0.44356033 -0.00000061
-0.00793471 -0.19218563 0.00000000
-0.10210093 -0.76267296 0.00000000
-0.39380679 -0.78577030 0.00000000
-0.34582680 0.05360631 -0.00000016
-0.38190669 -0.78012311 0.00000000
-0.13139848 -0.76358300 0.00000000
-0.12798153 -0.34086603 0.00000000
-0.19077146 -0.20576052 0.00000000
-0.40923810 -0.26688519 0.00000000
-0.57872993 0.07905158 -0.00000120
-0.11168538 0.31871399 0.00000000
-0.13626261 -0.13310194 0.00000000
-0.22413836 -0.33573070 0.00000000
-0.47298199 -0.60618007 0.00000000
-0.05055254 -0.46558863 0.00000000
-0.19242460 -0.58468306 0.00000000
-0.30958372 0.32985198 -0.00000049
-0.64330769 -0.02333805 -0.00000129
-0.54052114 0.00736245 -0.00000091
-0.73869234 -0.52047408 -0.00000070
-0.52945137 -0.42735717 -0.00000009
-0.21809448 0.17560714 0.00000000
-0.28655133 -0.53727269 0.00000000
-0.70888364 -0.50420606 -0.00000072
-0.31229889 -0.30037013 0.00000000
-0.62963897 -0.55516768 -0.00000029
-0.48049212 -0.59615147 0.00000000
-0.35796949 -0.12937237 0.00000000
-0.49661303 -0.25547805 -0.00000025
-0.25774091 -0.57570714 0.00000000
-0.35231683 0.09769544 -0.00000026
-0.78722018 -0.14219241 -0.00000164
-0.54190284 -0.14899784 -0.00000064
-0.55630451 -0.57181996 0.00000000
-0.10612531 0.66165447 -0.00000021
-0.54530346 -0.44882619 -0.00000012
-0.01077635 0.74881434 0.00000000
-0.39816594 0.06179814 -0.00000039
-0.12707083 -0.03634765 0.00000000
-0.12120005 0.67768061 -0.00000030
-0.16465023 -0.74765426 0.00000000
-0.23999368 -0.02746146 0.00000000
-0.31010044 0.16520868 -0.00000020
-0.53149652 -0.24859527 -0.00000041
-0.46816725 -0.12397400 -0.00000036
-0.14039271 0.48408383 -0.00000004
-0.27147421 -0.20182541 0.00000000
-0.29743585 0.02271775 0.00000000
-0.01969464 0.45751876 0.00000000
-0.47949988 -0.11451024 -0.00000043
-0.55479723 -0.47579351 -0.00000011
-0.46093440 -0.64375800 0.00000000
-0.24330924 0.31655389 -0.00000018
-0.23522244 0.18754531 0.00000000
-0.08172856 0.34446254 0.00000000
-0.27589706 0.20663135 -0.00000013
-0.19923551 0.45787841 -0.00000025
-0.19253425 -0.78286284 0.00000000
-0.77731621 -0.70590794 -0.00000024
-0.39614838 -0.50378102 0.00000000
-0.37019718 -0.21801604 0.00000000
-0.27656832 0.00502685 0.00000000
-0.16914280 -0.02251034 0.00000000
-0.19350982 -0.29127967 0.00000000
-0.03382505 -0.73201364 0.00000000
-0.03120052 0.40091482 0.00000000
-0.23812661 -0.26061553 0.00000000
-0.43967688 0.00596433 -0.00000047
-0.69290322 -0.27372682 -0.00000106
-0.34492284 -0.36392793 0.00000000
-0.76254272 -0.09523710 -0.00000167
-0.29719514 -0.41116416 0.00000000
-0.05360033 0.05172738 0.00000000
-0.21912605 -0.49419755 0.00000000
-0.75446635 -0.71081293 -0.00000022
-0.30571207 -0.50765276 0.00000000
-0.21321362 -0.72209555 0.00000000
-0.02570388 -0.33536786 0.00000000
-0.50033259 0.29837933 -0.00000123
-0.20960653 -0.58833295 0.00000000
-0.72203898 -0.04254323 -0.00000159
-0.04058457 0.35497493 0.00000000
-0.35272044 0.25638232 -0.00000054
-0.10172135 0.40528482 0.00000000
-0.43125379 -0.35350388 0.00000000
-0.24528098 0.52587467 -0.00000056
-0.06604170 -0.36983743 0.00000000
-0.25456619 -0.13781151 0.00000000
-0.18735625 0.04923300 0.00000000
-0.42302302 -0.62692147 0.00000000
-0.68757886 -0.66317266 -0.00000034
-0.41923529 -0.19288480 -0.00000003
-0.36645660 -0.38551354 0.00000000
-0.11846277 -0.19884332 0.00000000
-0.62079656 0.17881802 -0.00000155
-0.56663340 -0.70525306 0.00000000
-0.63155031 -0.06533688 -0.00000117
-0.23898445 -0.14326721 0.00000000
-0.63196504 -0.63057905 -0.00000017
-0.56521457 -0.06503426 -0.00000088
-0.31609488 0.21137439 -0.00000031
-0.52713913 -0.76218700 0.00000000
-0.62826639 -0.12382048 -0.00000105
-0.46959078 -0.56080025 0.00000000
-0.67915291 -0.07259934 -0.00000136
-0.40423521 -0.34978288 0.00000000
-0.21344222 0.32693669 -0.00000007
-0.02652826 -0.41902998 0.00000000
-0.68146807 -0.38567981 -0.00000081
-0.37957606 0.09411927 -0.00000037
-0.47624049 -0.48949242 0.00000000
-0.37688160 0.34970933 -0.00000081
-0.04700156 -0.73006546 0.00000000
-0.68793458 -0.59143490 -0.00000048
-0.31099254 -0.08633855 0.00000000
-0.71876508 -0.32156610 -0.00000108
-0.50936681 -0.24219400 -0.00000033
-0.53443241 -0.47408378 -0.00000003
-0.48236895 -0.44328362 0.00000000
-0.32251459 0.39499995 -0.00000066
-0.08716368 0.39013532 0.00000000
-0.13645977 0.65996832 -0.00000033
-0.33546233 -0.74107021 0.00000000
-0.55230778 0.18843359 -0.00000128
-0.43980354 -0.69535702 0.00000000
-0.79716754 -0.65244329 -0.00000037
-0.67439681 -0.64132518 -0.00000033
-0.08180883 -0.50734532 0.00000000
-0.67206603 0.08112130 -0.00000160
-0.70312655 -0.27126265 -0.00000111
-0.72550094 -0.31518820 -0.00000112
-0.40049800 -0.66895020 0.00000000
-0.45434821 -0.08646570 -0.00000037
-0.36123058 -0.47748679 0.00000000
-0.22004195 -0.67278403 0.00000000
-0.29367852 0.13664311 -0.00000008
-0.11788928 -0.36636785 0.00000000
-0.13443571 -0.70965207 0.00000000
-0.58075005 -0.27695596 -0.00000057
-0.07257052 -0.20308970 0.00000000
-0.79545468 -0.33378354 -0.00000117
-0.27849951 0.21447910 -0.00000015
-0.54475188 -0.78639758 0.00000000
-0.55532968 -0.19359034 -0.00000061
-0.76853788 -0.59866226 -0.00000050
-0.05295383 -0.36025685 0.00000000
-0.19107784 0.10218281 0.00000000
-0.24471447 0.26866314 -0.00000011
-0.12960535 -0.40478268 0.00000000
-0.52956718 -0.46070248 -0.00000003
-0.25753087 -0.13207787 0.00000000
-0.74833840 -0.54858601 -0.00000063
-0.50537580 -0.51354969 0.00000000
-0.25403810 0.12350445 0.00000000
-0.44452271 -0.51296103 0.00000000
-0.01147163 0.14586572 0.00000000
-0.04476607 0.36117139 0.00000000
-0.20397785 -0.25842267 0.00000000
-0.25937197 0.21076830 -0.00000007
-0.38460734 -0.24307220 0.00000000
-0.29252863 0.04286748 0.00000000
-0.75757205 -0.61416876 -0.00000046
-0.55961311 -0.28779235 -0.00000047
-0.64510155 -0.72293919 -0.00000006
-0.25836417 -0.68965465 0.00000000
-0.25183699 -0.44525686 0.00000000
-0.49497840 -0.11330834 -0.00000050
-0.51798844 0.00278539 -0.00000080
-0.60787672 -0.32350644 -0.00000061
-0.42050582 0.11241538 -0.00000058
-0.11598740 -0.71600151 0.00000000
-0.27018625 -0.28062204 0.00000000
-0.32907900 -0.51917052 0.00000000
-0.32156479 -0.71484536 0.00000000
-0.05161636 -0.09801253 0.00000000
-0.05256054 0.28282741 0.00000000
-0.50563467 -0.49130538 0.00000000
-0.76600242 -0.15450862 -0.00000158
-0.10114225 -0.63298202 0.00000000
-0.23278794 -0.46709156 0.00000000
-0.01886468 0.37267560 0.00000000
-0.16539404 0.56468612 -0.00000029
-0.14228263 0.60544717 -0.00000026
-0.22676753 0.18579873 0.00000000
-0.78305513 -0.72461987 -0.00000019
-0.64244437 0.10327160 -0.00000151
-0.42220959 0.00613814 -0.00000040
-0.43840536 -0.46347561 0.00000000
-0.28092968 -0.09639012 0.00000000
-0.32919261 -0.20284490 0.00000000
-0.63237911 0.02732985 -0.00000133
-0.41993213 0.12413510 -0.00000060
-0.43222728 -0.17144774 -0.00000013
-0.52877021 0.07757843 -0.00000098
-0.10227065 -0.69174349 0.00000000
-0.59446019 -0.68070883 0.00000000
-0.58672309 -0.27206668 -0.00000061
-0.65055782 -0.27451798 -0.00000088
-0.66122162 -0.42371434 -0.00000066
-0.29539511 0.23485982 -0.00000026
-0.42046192 -0.07619954 -0.00000025
-0.00218497 -0.46671107 0.00000000
-0.46664131 -0.22308844 -0.00000018
-0.26060462 -0.71281958 0.00000000
-0.24320345 -0.11172320 0.00000000
-0.08297163 0.20047985 0.00000000
-0.41472280 0.17770264 -0.00000067
-0.41006401 -0.60229701 0.00000000
-0.03654346 -0.67587066 0.00000000
-0.25765538 0.20420012 -0.00000005
-0.27151322 0.05213080 0.00000000
-0.53968883 -0.18318576 -0.00000057
-0.64075333 -0.78019232 0.00000000
-0.10654554 -0.50879806 0.00000000
-0.52937371 -0.29862151 -0.00000032
-0.14320093 0.60160226 -0.00000026
-0.47172233 0.24215963 -0.00000103
-0.33439055 0.18389636 -0.00000034
-0.20593242 -0.32188314 0.00000000
-0.23356386 -0.13334928 0.00000000
-0.09482896 0.69284219 -0.00000022
-0.56167382 -0.76802653 0.00000000
-0.07631169 -0.27404717 0.00000000
-0.34904608 -0.06710578 0.00000000
-0.58468604 -0.79716092 0.00000000
-0.79088175 -0.02262842 -0.00000192
-0.64629090 -0.30633163 -0.00000080
-0.44000688 -0.07066902 -0.00000034
-0.55065113 -0.50985163 -0.00000003
-0.63412786 0.06189016 -0.00000140
-0.51815039 -0.69740695 0.00000000
-0.45096007 0.07765644 -0.00000065
-0.11427340 0.06201651 0.00000000
-0.06563765 -0.00805383 0.00000000
-0.04388673 0.16448887 0.00000000
-0.08932807 0.55763441 0.00000000
-0.68435538 -0.38373441 -0.00000083
-0.05631364 0.46994835 0.00000000
-0.41561967 -0.79337931 0.00000000
-0.59040344 -0.18464819 -0.00000078
-0.32499555 0.46170381 -0.00000079
-0.36248410 -0.52321184 0.00000000
-0.73754942 -0.52020240 -0.00000070
-0.54860568 0.01167270 -0.00000095
-0.07776123 -0.26190707 0.00000000
-0.21943198 0.49001321 -0.00000039
-0.04571007 -0.29076266 0.00000000
-0.49464568 -0.40943170 0.00000000
-0.06939020 -0.07692228 0.00000000
-0.08656151 0.42585227 0.00000000
-0.49533361 -0.51098186 0.00000000
-0.02380161 -0.61814988 0.00000000
-0.78923857 -0.20574376 -0.00000149
-0.27359691 0.17431264 -0.00000006
-0.51649278 -0.23774505 -0.00000037
-0.14412944 -0.78778523 0.00000000
-0.13458370 0.30190477 0.00000000
-0.26202577 -0.43620843 0.00000000
-0.69583094 0.10299453 -0.00000172
-0.25175661 -0.74380255 0.00000000
-0.15279521 0.34804535 0.00000000
-0.72858411 0.04215681 -0.00000177
-0.53812712 -0.66107243 0.00000000
-0.43390396 -0.32755566 0.00000000
-0.37957022 -0.74813294 0.00000000
-0.75443047 -0.32156855 -0.00000120
-0.45055777 -0.78212976 0.00000000
-0.18702805 -0.17639686 0.00000000
-0.29703414 -0.64120859 0.00000000
-0.62871087 -0.15516265 -0.00000099
-0.47762391 0.11598828 -0.00000083
-0.68403625 -0.75679386 -0.00000011
-0.11496248 -0.01116614 0.00000000
-0.53643978 -0.71178883 0.00000000
-0.19693226 0.19240682 0.00000000
-0.49293083 -0.26893470 -0.00000021
-0.09978544 0.44144815 0.00000000
-0.57687312 0.12112424 -0.00000126
-0.53075057 0.22802982 -0.00000125
-0.76589531 -0.28461939 -0.00000129
-0.49000585 -0.10554491 -0.00000049
-0.07341593 -0.17554143 0.00000000
-0.16790313 0.54577893 -0.00000027
-0.20889378 -0.37066284 0.00000000
-0.24543037 -0.59623098 0.00000000
-0.39061299 0.11828063 -0.00000046
-0.73172939 -0.44447282 -0.00000089
-0.05974261 -0.25205776 0.00000000
-0.58554822 -0.59216094 -0.00000004
-0.44143665 0.19396548 -0.00000081
-0.14930116 -0.12891665 0.00000000
-0.40605861 0.37994233 -0.00000099
-0.23059371 -0.68014103 0.00000000
-0.42907041 -0.58967727 0.00000000
-0.35466394 -0.49375781 0.00000000
-0.63470393 -0.42498186 -0.00000054
-0.24341007 0.45380130 -0.00000043
-0.27090684 -0.54782939 0.00000000
-0.41948286 -0.30395031 0.00000000
-0.77641034 -0.52644598 -0.00000068
-0.49730408 -0.36605999 -0.00000006
-0.22439533 0.37828863 -0.00000021
-0.60621089 -0.54550958 -0.00000021
-0.13434605 -0.39028075 0.00000000
-0.01131671 0.71905684 0.00000000
-0.23106635 -0.43908986 0.00000000
-0.47341260 -0.77393901 0.00000000
-0.11680481 -0.70455772 0.00000000
-0.14217661 0.29140481 0.00000000
-0.43971336 -0.77715409 0.00000000
-0.74979520 -0.54129708 -0.00000065
-0.12230598 0.58398288 -0.00000014
-0.59389824 -0.05841747 -0.00000102
-0.21173608 0.29947206 -0.00000002
-0.01126088 0.44780886 0.00000000
-0.34131518 0.19332749 -0.00000038
-0.08194632 -0.50019026 0.00000000
-0.45438975 -0.49922866 0.00000000
-0.54306424 0.01956888 -0.00000094
-0.26990649 -0.21378253 0.00000000
-0.30551937 -0.53560519 0.00000000
-0.35009772 0.02800575 -0.00000013
-0.07010559 -0.24199937 0.00000000
-0.54741359 -0.29380029 -0.00000040
-0.62615705 0.02406645 -0.00000130
-0.01197125 -0.59555173 0.00000000
-0.16170901 0.43812555 -0.00000005
-0.53837061 0.05308065 -0.00000098
-0.69523770 -0.53546250 -0.00000061
-0.35738078 -0.30423263 0.00000000
-0.42025238 -0.25802696 0.00000000
-0.14923418 0.59711993 -0.00000028
-0.03103953 0.61264348 0.00000000
-0.02027319 0.09630865 0.00000000
-0.51788473 -0.27360794 -0.00000031
-0.72122407 -0.27443394 -0.00000118
-0.73936313 -0.69976377 -0.00000025
-0.12395578 -0.39024368 0.00000000
-0.42401707 -0.08461664 -0.00000025
-0.63692063 -0.22879635 -0.00000090
-0.39749771 -0.36289382 0.00000000
-0.38307074 0.13750051 -0.00000046
-0.40461397 0.33058727 -0.00000090
-0.03998719 0.75511891 -0.00000002
-0.02755545 -0.70056099 0.00000000
-0.03631621 -0.07056664 0.00000000
-0.47953096 -0.22031590 -0.00000024
-0.26746407 0.46231893 -0.00000054
-0.42215374 -0.58463359 0.00000000
-0.52898729 -0.42893755 -0.00000009
-0.34307462 -0.38777792 0.00000000
-0.55406219 -0.07506412 -0.00000082
-0.19853722 -0.39987758 0.00000000
-0.02756318 -0.12759133 0.00000000
-0.25868911 -0.00466171 0.00000000
-0.02610142 -0.26382139 0.00000000
-0.65058756 -0.58113235 -0.00000034
-0.24249905 -0.58196020 0.00000000
-0.41907662 -0.75358140 0.00000000
-0.17348558 0.06948423 0.00000000
-0.17605861 -0.77514392 0.00000000
-0.47248527 0.32295555 -0.00000117
-0.24613421 -0.57185036 0.00000000
-0.50034600 -0.17116347 -0.00000042
-0.77293253 -0.34416223 -0.00000114
-0.77384746 -0.71201396 -0.00000022
-0.75920576 -0.07406543 -0.00000169
-0.09340781 -0.69993567 0.00000000
-0.43227044 -0.06659408 -0.00000031
-0.23454678 -0.67976511 0.00000000
-0.65198004 0.04356548 -0.00000145
-0.48439556 0.04687380 -0.00000074
-0.73863602 -0.62068057 -0.00000045
-0.15586799 -0.58507377 0.00000000
-0.07580723 0.16409867 0.00000000
-0.22984381 0.29317755 -0.00000008
-0.15061177 0.14689250 0.00000000
-0.73546016 -0.73192966 -0.00000017
-0.43938336 0.08795968 -0.00000062
-0.15050976 -0.15324356 0.00000000
-0.19808009 0.08678976 0.00000000
-0.21230814 0.40027702 -0.00000020
-0.73101604 -0.53844100 -0.00000065
-0.30077896 0.18894994 -0.00000020
-0.37250689 -0.43856746 0.00000000
-0.44454527 -0.30666447 0.00000000
-0.78013808 -0.78165865 -0.00000005
-0.42438161 -0.25314745 0.00000000
-0.11721297 0.42274928 0.00000000
-0.12249372 0.08920760 0.00000000
-0.76666468 -0.59281260 -0.00000052
-0.54729575 -0.40905303 -0.00000020
-0.03489699 -0.66787821 0.00000000
-0.03653990 -0.15794472 0.00000000
-0.01140939 -0.14706551 0.00000000
-0.50727844 -0.10323384 -0.00000057
-0.05810095 -0.65592223 0.00000000
-0.06005069 -0.51015395 0.00000000
-0.11934120 -0.39002940 0.00000000
-0.19286580 0.35318214 -0.00000003
-0.15933912 0.16306221 0.00000000
-0.50114715 0.03021300 -0.00000078
-0.47303867 -0.45047224 0.00000000
-0.04738212 0.28612611 0.00000000
-0.49174809 -0.64659327 0.00000000
-0.41787210 0.34263548 -0.00000097
-0.78135186 -0.05388717 -0.00000183
-0.69690180 -0.48909616 -0.00000070
-0.32416621 -0.35713813 0.00000000
-0.62916028 -0.50076485 -0.00000039
-0.49168903 -0.54667753 0.00000000
-0.36904371 -0.38128579 0.00000000
-0.26817560 -0.71716875 0.00000000
-0.60685503 0.04367545 -0.00000125
-0.39835009 -0.00821011 -0.00000027
-0.10768225 0.08213670 0.00000000
-0.22662409 0.56673229 -0.00000055
-0.00494071 -0.33648610 0.00000000
-0.70889711 0.05790251 -0.00000171
-0.37649533 -0.01903889 -0.00000016
-0.03408995 -0.47902095 0.00000000
-0.00269452 0.26774797 0.00000000
-0.33974946 -0.02460482 0.00000000
-0.19086111 -0.22930931 0.00000000
-0.12304975 -0.37719005 0.00000000
-0.21496549 -0.11427541 0.00000000
-0.33903933 -0.70604229 0.00000000
-0.36765003 -0.52052665 0.00000000
-0.33071575 -0.51934385 0.00000000
-0.46635035 -0.78913224 0.00000000
-0.72086447 0.06096580 -0.00000177
-0.71259886 -0.14851896 -0.00000136
-0.49278697 -0.70141256 0.00000000
-0.70797479 -0.47217470 -0.00000077
-0.49334469 0.19706415 -0.00000104
-0.53044128 0.18944526 -0.00000118
-0.41879338 0.14227311 -0.00000062
-0.02412731 -0.77705175 0.00000000
-0.24731524 -0.31550264 0.00000000
-0.29692510 -0.26780090 0.00000000
-0.70906401 -0.01255255 -0.00000159
-0.17702347 0.25586462 0.00000000
-0.43795723 -0.38437879 0.00000000
-0.37179366 0.39805368 -0.00000088
-0.33242765 -0.42996877 0.00000000
-0.45810938 -0.62195081 0.00000000
-0.18029331 -0.79764450 0.00000000
-0.10047815 -0.72412407 0.00000000
-0.00369036 -0.04147605 0.00000000
-0.74038076 -0.24315134 -0.00000132
-0.25714138 -0.00406555 0.00000000
-0.10933435 -0.75126904 0.00000000
-0.64800447 -0.07467891 -0.00000122
-0.78209871 -0.38980082 -0.00000103
-0.05700883 0.12176950 0.00000000
-0.19548905 0.13604142 0.00000000
-0.37357250 0.16643518 -0.00000047
-0.36723304 -0.76918447 0.00000000
-0.71849090 -0.03181436 -0.00000160
-0.16594778 -0.58436441 0.00000000
-0.38517076 -0.44461116 0.00000000
-0.64333421 0.06405702 -0.00000144
-0.18603294 0.21124993 0.00000000
-0.18786214 -0.52247220 0.00000000
-0.01389437 -0.72596747 0.00000000
-0.15325475 -0.77148765 0.00000000
-0.21681276 0.39176884 -0.00000020
-0.35142848 -0.62868762 0.00000000
-0.68505073 -0.71934396 -0.00000020
-0.76380485 -0.61634827 -0.00000046
-0.33008301 -0.56908894 0.00000000
-0.65714091 0.11497925 -0.00000159
-0.61173940 0.05530758 -0.00000129
-0.61092067 -0.30914894 -0.00000065
-0.06673233 -0.28675413 0.00000000
-0.30595082 -0.51557589 0.00000000
-0.34386516 0.41628417 -0.00000079
-0.15178838 -0.64578223 0.00000000
-0.60287869 -0.02581347 -0.00000111
-0.02122957 0.21383604 0.00000000
-0.04448030 0.28072897 0.00000000
-0.60307723 0.00880402 -0.00000118
-0.63353384 -0.70939839 -0.00000004
-0.06586977 0.64634651 -0.00000001
-0.03264259 0.10846938 0.00000000
-0.05980078 -0.24496716 0.00000000
-0.28292331 0.42481270 -0.00000054
-0.39011419 0.13817886 -0.00000049
-0.65132773 -0.28914651 -0.00000085
-0.09012346 0.46648723 0.00000000
-0.63050681 -0.06767487 -0.00000116
-0.52144444 0.25563282 -0.00000126
-0.29178929 0.30526748 -0.00000037
-0.02611077 0.10164603 0.00000000
-0.05172953 -0.56918430 0.00000000
-0.57652831 0.11632957 -0.00000125
-0.68957978 -0.36327642 -0.00000089
-0.70684868 -0.16729721 -0.00000131
-0.05679456 -0.02093778 0.00000000
-0.61360383 -0.13336667 -0.00000097
-0.16573226 -0.61581880 0.00000000
-0.07261124 0.39911112 0.00000000
-0.57041252 -0.28192851 -0.00000052
-0.55989432 -0.25991249 -0.00000052
-0.68114448 -0.47089139 -0.00000066
-0.00282364 -0.14907138 0.00000000
-0.33503151 0.23841035 -0.00000044
-0.30064198 -0.55102938 0.00000000
-0.19536190 0.39689797 -0.00000012
-0.14421020 0.41730565 0.00000000
-0.78635389 -0.03191805 -0.00000189
-0.37017113 -0.28301245 0.00000000
-0.42126411 -0.38215902 0.00000000
-0.37221563 0.34000528 -0.00000078
-0.05381739 -0.61907017 0.00000000
-0.09601476 -0.78675413 0.00000000
-0.58283722 -0.03063314 -0.00000102
-0.40089294 -0.77001399 0.00000000
-0.66692275 -0.29564303 -0.00000091
-0.04557639 -0.78257567 0.00000000
-0.01038371 -0.65659249 0.00000000
-0.18677507 -0.75411236 0.00000000
-0.41689357 0.01822720 -0.00000040
-0.37803200 -0.52709204 0.00000000
-0.05357200 -0.61327356 0.00000000
-0.76574934 -0.12253353 -0.00000164
-0.04636612 0.60210502 0.00000000
-0.12818030 0.58486402 -0.00000017
-0.39995503 -0.27073753 0.00000000
-0.53878504 -0.00208824 -0.00000088
-0.44663200 0.13409087 -0.00000073
-0.56565177 0.10255880 -0.00000118
-0.27757534 -0.27062592 0.00000000
-0.37155133 0.41148302 -0.00000090
-0.63535881 -0.11706351 -0.00000109
-0.52478063 -0.40227488 -0.00000011
-0.32436240 0.34987551 -0.00000059
-0.19120406 -0.08340907 0.00000000
-0.10147855 0.62752801 -0.00000013
-0.20995404 -0.51443893 0.00000000
-0.51326144 -0.38615242 -0.00000009
-0.48873135 -0.36499077 -0.00000003
-0.76086235 -0.30050546 -0.00000125
-0.60448271 0.06405217 -0.00000128
-0.03031441 -0.50728309 0.00000000
-0.40058604 -0.41793841 0.00000000
-0.40083313 -0.42485249 0.00000000
-0.29307228 -0.09617266 0.00000000
-0.17791685 0.13436927 0.00000000
-0.60767514 -0.45384350 -0.00000038
-0.76685947 -0.48103699 -0.00000080
-0.19373965 0.53233904 -0.00000035
-0.30354995 0.48777273 -0.00000074
-0.16448058 0.62666762 -0.00000040
-0.18330011 -0.72874624 0.00000000
-0.11722270 -0.12317443 0.00000000
-0.00401192 0.50829148 0.00000000
-0.34654817 0.10590014 -0.00000025
-0.26493892 -0.57388949 0.00000000
-0.03939717 -0.42751738 0.00000000
-0.24571516 -0.76024342 0.00000000
-0.67939836 -0.53971380 -0.00000053
-0.17004381 -0.52232826 0.00000000
-0.05030619 0.61723632 0.00000000
-0.72038811 -0.34909961 -0.00000104
-0.37190503 -0.52352118 0.00000000
-0.36148956 -0.16844384 0.00000000
-0.33460808 0.25549379 -0.00000047
-0.49122059 -0.55444896 0.00000000
-0.02076450 0.63346529 0.00000000
-0.42544299 0.27719691 -0.00000089
-0.10644853 -0.76813132 0.00000000
-0.38447008 0.11756392 -0.00000043
-0.74025506 -0.39739048 -0.00000101
-0.69047731 -0.34242907 -0.00000093
-0.16286521 -0.68062931 0.00000000
-0.54050916 -0.03143528 -0.00000084
-0.63508493 -0.32828927 -0.00000072
-0.65121460 -0.66996002 -0.00000018
-0.22132710 -0.38175482 0.00000000
-0.64742386 -0.17384675 -0.00000104
-0.35371968 -0.11221153 0.00000000
-0.68956411 -0.69937485 -0.00000025
-0.45441163 0.06638443 -0.00000064
-0.68913043 -0.03831962 -0.00000146
-0.49375632 -0.75437772 0.00000000
-0.65334314 -0.10960679 -0.00000118
-0.28700110 -0.07281203 0.00000000
-0.47207275 -0.73874968 0.00000000
-0.50408626 0.24585280 -0.00000117
-0.41475260 -0.05411659 -0.00000026
-0.72841948 -0.69305122 -0.00000027
-0.64061314 -0.21697687 -0.00000094
-0.30290782 -0.63541144 0.00000000
-0.30805159 -0.00192350 0.00000000
-0.14674576 -0.49502829 0.00000000
-0.77719361 -0.37762624 -0.00000106
-0.71373087 -0.78658599 -0.00000003
-0.46742252 0.20456883 -0.00000094
-0.04111564 -0.10797174 0.00000000
-0.60679305 -0.61980867 -0.00000008
-0.29292127 -0.29012537 0.00000000
-0.07064288 -0.35781521 0.00000000
-0.25051588 0.19804215 -0.00000001
-0.20881689 0.26938313 0.00000000
-0.79248887 -0.28760386 -0.00000128
-0.02640215 0.58775115 0.00000000
-0.46084955 -0.14010136 -0.00000030
-0.11613398 0.41363713 0.00000000
-0.40389210 0.05322713 -0.00000040
-0.52051657 -0.37555358 -0.00000014
-0.41975769 0.02866425 -0.00000043
-0.05444852 -0.35636353 0.00000000
-0.13524008 0.35456702 0.00000000
-0.37675098 -0.21855855 0.00000000
-0.29303759 -0.37645504 0.00000000
-0.22241338 -0.65758741 0.00000000
-0.06851290 -0.52407521 0.00000000
-0.46822572 -0.07503556 -0.00000045
-0.51284820 -0.08550660 -0.00000062
-0.60504955 -0.76557863 0.00000000
-0.41653481 0.00856738 -0.00000038
-0.52908456 -0.05891867 -0.00000074
-0.25452578 -0.25438109 0.00000000
-0.37175313 -0.18633740 0.00000000
-0.15365650 -0.32447374 0.00000000
-0.55360156 -0.70307916 0.00000000
-0.73762113 -0.65089774 -0.00000037
-0.10891449 -0.39844027 0.00000000
-0.32904622 -0.62904543 0.00000000
-0.71566302 -0.34464586 -0.00000103
-0.03391187 0.13335004 0.00000000
-0.71387273 -0.56299615 -0.00000059
-0.20640086 -0.40757400 0.00000000
-0.01211090 0.77089781 -0.00000000
-0.78356564 0.00262874 -0.00000193
-0.48226357 -0.53340971 0.00000000
-0.45640638 -0.06303860 -0.00000042
-0.28057203 0.15133601 -0.00000005
-0.69822389 -0.09395169 -0.00000140
-0.41369277 0.14250827 -0.00000060
-0.67866135 -0.35331053 -0.00000086
-0.36614418 -0.62337917 0.00000000
-0.11912873 -0.15655404 0.00000000
-0.65382051 -0.60142040 -0.00000031
-0.31869495 0.00529814 0.00000000
-0.12549186 -0.73730612 0.00000000
-0.10543407 0.67360568 -0.00000023
-0.22709654 0.52381843 -0.00000048
-0.01454861 0.31050694 0.00000000
-0.17980608 -0.22747654 0.00000000
-0.44404411 0.31425279 -0.00000104
-0.13027059 -0.19798052 0.00000000
-0.34293413 -0.13918556 0.00000000
-0.60973048 -0.29817301 -0.00000066
-0.10136187 -0.14421371 0.00000000
-0.46268237 -0.61434817 0.00000000
-0.35640258 -0.34945077 0.00000000
-0.54118764 -0.51307857 0.00000000
-0.40609643 0.33638126 -0.00000091
-0.70398897 -0.54608417 -0.00000062
-0.16517159 0.27393907 0.00000000
-0.20516519 0.03533147 0.00000000
-0.10027902 0.58400863 -0.00000005
-0.11853020 0.14193679 0.00000000
-0.38697073 -0.01476162 -0.00000021
-0.32035729 0.16188806 -0.00000024
-0.45836210 -0.09150390 -0.00000038
-0.12478581 0.49315631 0.00000000
-0.24434850 0.46455199 -0.00000045
-0.39888802 -0.29360464 0.00000000
-0.09088390 0.27339408 0.00000000
-0.55780506 -0.75598717 0.00000000
-0.54802591 -0.42097121 -0.00000018
-0.77669632 -0.18823768 -0.00000153
-0.43326977 0.05132718 -0.00000053
-0.49869207 -0.63044620 0.00000000
-0.32128945 -0.42861584 0.00000000
-0.15024096 -0.39889106 0.00000000
-0.04753701 0.69333285 -0.00000001
-0.29598397 0.10486692 -0.00000003
-0.29679164 0.27373394 -0.00000034
-0.13811122 -0.36900562 0.00000000
-0.51054490 0.05597961 -0.00000086
-0.05252622 -0.56832528 0.00000000
-0.46747145 0.01909662 -0.00000061
-0.50126249 0.06440129 -0.00000084
-0.00684943 -0.09207692 0.00000000
-0.74358475 -0.27260232 -0.00000128
-0.07511362 0.56094730 0.00000000
-0.05403195 0.65073627 0.00000000
-0.03462432 0.51497686 0.00000000
-0.40557805 -0.54205406 0.00000000
-0.77829993 -0.00244535 -0.00000190
-0.71858704 -0.16181701 -0.00000137
-0.72857541 -0.54393589 -0.00000064
-0.42406076 -0.03348095 -0.00000034
-0.13097939 -0.10258414 0.00000000
-0.57012290 -0.30199596 -0.00000049
-0.37139666 -0.73300433 0.00000000
-0.20641008 -0.74374199 0.00000000
-0.32147896 -0.41282248 0.00000000
-0.73236156 -0.07998487 -0.00000157
-0.09957009 -0.60260689 0.00000000
-0.67743951 -0.10125351 -0.00000130
-0.72416729 -0.66953135 -0.00000033
-0.16123594 0.38416234 0.00000000
-0.31405416 -0.07398702 0.00000000
-0.60912710 0.17875519 -0.00000150
-0.16233417 0.54460001 -0.00000024
-0.04125352 -0.69806290 0.00000000
-0.26817483 0.09048225 0.00000000
-0.40666816 -0.40735614 0.00000000
-0.66884685 -0.41163984 -0.00000071
-0.74617738 -0.59225565 -0.00000052
-0.72837025 -0.61394972 -0.00000047
-0.56045651 0.04439095 -0.00000106
-0.57832569 -0.32723653 -0.00000048
-0.18847257 0.39320046 -0.00000009
-0.00987341 0.51167983 0.00000000
-0.33906204 -0.42972159 0.00000000
-0.15178870 -0.32740349 0.00000000
-0.47140759 -0.28827620 -0.00000009
-0.13246126 0.26885325 0.00000000
-0.12593400 -0.40254223 0.00000000
-0.45912343 0.01772979 -0.00000058
-0.38280398 -0.23108651 0.00000000
-0.19039077 -0.28834227 0.00000000
-0.72782505 -0.31626353 -0.00000113
-0.68376797 -0.21224855 -0.00000113
-0.61077988 -0.71402293 0.00000000
-0.22546984 -0.46260786 0.00000000
-0.19290455 -0.06236662 0.00000000
-0.72728026 -0.56326985 -0.00000059
-0.14327392 -0.48506677 0.00000000
-0.32219639 0.00812658 0.00000000
-0.35099503 -0.13163844 0.00000000
-0.07804475 0.22488037 0.00000000
-0.03871408 0.11271644 0.00000000
-0.69701630 -0.14594668 -0.00000130
-0.44701925 -0.79971123 0.00000000
-0.31001738 -0.68931729 0.00000000
-0.27329212 0.08300545 0.00000000
-0.60659724 -0.57472038 -0.00000016
-0.11244898 -0.69362986 0.00000000
-0.21735033 0.45444444 -0.00000032
-0.55450541 -0.22597094 -0.00000055
-0.19366401 0.13506313 0.00000000
-0.51311749 -0.02535036 -0.00000073
-0.04637208 -0.22404478 0.00000000
-0.57468581 -0.68507135 0.00000000
-0.54199815 -0.76808560 0.00000000
-0.77826154 -0.14593343 -0.00000164
-0.56058627 -0.00346930 -0.00000097
-0.61134708 -0.68817502 0.00000000
-0.38710865 0.11207968 -0.00000044
-0.45623279 0.23413223 -0.00000095
-0.10685731 -0.49730355 0.00000000
-0.73530006 -0.69403172 -0.00000026
-0.60277981 -0.23081435 -0.00000075
-0.02892044 0.28450838 0.00000000
-0.20132107 0.39648265 -0.00000015
-0.54223293 -0.70596743 0.00000000
-0.38308164 -0.28769517 0.00000000
-0.11848169 -0.30733147 0.00000000
-0.17696352 -0.06601075 0.00000000
-0.06384438 -0.78819740 0.00000000
-0.25685057 -0.24071261 0.00000000
-0.50497603 -0.30020335 -0.00000021
-0.50636733 0.02949484 -0.00000080
-0.68733233 -0.10469380 -0.00000133
-0.28455615 -0.09190813 0.00000000
-0.09517409 -0.06754880 0.00000000
-0.32879838 0.12090516 -0.00000020
-0.24471761 -0.78087240 0.00000000
-0.45556700 0.15013370 -0.00000080
-0.10323155 -0.44222921 0.00000000
-0.74170536 -0.27005321 -0.00000127
-0.77795881 -0.77315766 -0.00000007
-0.57349044 -0.66755331 0.00000000
-0.01607022 -0.74090797 0.00000000
-0.17077406 -0.39050820 0.00000000
-0.49944171 -0.22010116 -0.00000033
-0.32238343 0.02005698 0.00000000
-0.00227433 -0.48557010 0.00000000
-0.21094285 -0.67546600 0.00000000
-0.48643669 0.14225538 -0.00000091
-0.05512344 -0.08993791 0.00000000
-0.33184099 -0.36847678 0.00000000
-0.37068743 -0.57337356 0.00000000
-0.59983587 -0.08286659 -0.00000100
-0.21686319 0.58209598 -0.00000054
-0.63082004 -0.53554982 -0.00000033
-0.36945519 -0.00138022 -0.00000016
-0.17543957 0.58021855 -0.00000036
-0.10085642 0.48077157 0.00000000
-0.13635001 -0.34160259 0.00000000
-0.42855015 0.20810881 -0.00000078
-0.15777023 -0.47875234 0.00000000
-0.06245699 0.27926838 0.00000000
-0.54903120 -0.46207282 -0.00000011
-0.36783370 0.23197085 -0.00000057
-0.61278301 -0.08635876 -0.00000105
-0.23970623 0.36473244 -0.00000025
-0.53712678 0.13706078 -0.00000112
-0.31358069 0.11767222 -0.00000013
-0.05619777 0.52855468 0.00000000
-0.62156522 -0.49942309 -0.00000036
-0.03535881 -0.42120597 0.00000000
-0.06494347 0.24738236 0.00000000
-0.38409048 0.13634411 -0.00000047
-0.04108742 -0.75831491 0.00000000
-0.12772433 -0.34802413 0.00000000
-0.79422271 -0.01660835 -0.00000195
-0.08467228 -0.27044412 0.00000000
-0.23668057 0.00288287 0.00000000
-0.55872583 0.05167741 -0.00000106
-0.58526236 -0.74788278 0.00000000
-0.60001051 0.13733661 -0.00000139
-0.42530990 -0.56231338 0.00000000
-0.00423224 -0.14551178 0.00000000
-0.29422167 -0.06503125 0.00000000
-0.47983891 -0.12118365 -0.00000042
-0.15324210 -0.17790759 0.00000000
-0.36617011 -0.37713555 0.00000000
-0.35297957 0.40277952 -0.00000080
-0.19617949 0.15036951 0.00000000
-0.11705252 0.59990352 -0.00000015
-0.61315560 0.05800459 -0.00000131
-0.50483054 -0.71525043 0.00000000
-0.25573289 0.53839689 -0.00000054
-0.70488471 -0.24404149 -0.00000116
-0.74210995 -0.41582227 -0.00000096
-0.24222422 0.55120915 -0.00000059
-0.25733605 -0.16816200 0.00000000
-0.76825547 -0.67879575 -0.00000030
-0.38295862 -0.50141531 0.00000000
-0.47354996 -0.47808146 0.00000000
-0.25372005 -0.08946533 0.00000000
-0.61446553 -0.49328023 -0.00000034
-0.63461268 -0.12536211 -0.00000107
-0.47834086 -0.57468599 0.00000000
-0.08138056 -0.03853619 0.00000000
-0.38461813 -0.34880728 0.00000000
-0.46314043 -0.78357309 0.00000000
-0.09667818 0.02696060 0.00000000
-0.17157039 0.03592994 0.00000000
-0.20191993 -0.31416759 0.00000000
-0.45363152 -0.22201851 -0.00000013
-0.73984540 -0.35571423 -0.00000111
-0.21620420 -0.74136484 0.00000000
-0.24655382 0.37939292 -0.00000031
-0.19307539 -0.28474453 0.00000000
-0.62000698 0.17912614 -0.00000154
-0.20584285 -0.24696636 0.00000000
-0.25543490 -0.29598945 0.00000000
-0.37698054 0.03556860 -0.00000026
-0.53097212 -0.68674880 0.00000000
-0.74213040 -0.61318666 -0.00000047
-0.34201017 -0.69047338 0.00000000
-0.11442505 -0.01618957 0.00000000
-0.76959467 0.01184190 -0.00000189
-0.61095566 -0.78186297 0.00000000
-0.77452981 -0.39095703 -0.00000102
-0.17380251 -0.60471851 0.00000000
-0.47613096 -0.04643254 -0.00000054
-0.31757709 0.18284141 -0.00000026
-0.42963079 0.32280248 -0.00000099
-0.05265232 0.07704028 0.00000000
-0.40312830 -0.58998185 0.00000000
-0.19987094 0.17248520 0.00000000
-0.14072514 0.06820750 0.00000000
-0.56475574 0.05235837 -0.00000109
-0.08230053 0.58655477 0.00000000
-0.35741410 -0.75620341 0.00000000
-0.18543868 -0.40385988 0.00000000
-0.72297311 -0.57389313 -0.00000057
-0.02717755 0.71298403 0.00000000
-0.50624514 0.16958714 -0.00000105
-0.59005332 -0.00547031 -0.00000109
-0.51146609 -0.47588348 0.00000000
-0.64344734 -0.58693761 -0.00000029
-0.64481503 -0.51739633 -0.00000042
-0.61482972 -0.68607235 0.00000000
-0.25587037 0.06133163 0.00000000
-0.48929739 -0.65201402 0.00000000
-0.67753780 0.04713147 -0.00000156
-0.27720836 -0.72566831 0.00000000
-0.65111482 -0.37717766 -0.00000070
-0.50979257 -0.66906977 0.00000000
-0.27516529 -0.61472028 0.00000000
-0.29393399 -0.49779055 0.00000000
-0.21590786 0.22449508 0.00000000
-0.54239422 -0.62693429 0.00000000
-0.50184649 -0.65074766 0.00000000
-0.39972824 -0.49540904 0.00000000
-0.22169986 -0.24826603 0.00000000
-0.24716672 0.02868198 0.00000000
-0.49876145 0.29503328 -0.00000124
-0.04612227 0.36036938 0.00000000
-0.03044420 0.47420585 0.00000000
-0.33384618 0.14604925 -0.00000027
-0.33098635 -0.27797726 0.00000000
-0.36316574 0.41642836 -0.00000087
-0.30244762 0.07334600 -0.00000001
-0.26120058 0.05708491 0.00000000
-0.36882234 -0.30318466 0.00000000
-0.09230222 -0.38660842 0.00000000
-0.04638132 0.10963983 0.00000000
-0.38523418 0.24866566 -0.00000067
-0.08717528 0.13768634 0.00000000
-0.42660305 -0.51856178 0.00000000
-0.05604806 0.54889029 0.00000000
-0.53351569 -0.28020275 -0.00000037
-0.04308126 0.66717213 0.00000000
-0.12657721 -0.46878192 0.00000000
-0.18441507 -0.77512622 0.00000000
-0.45588675 0.03043907 -0.00000059
-0.23894948 -0.77337694 0.00000000
-0.59229583 -0.45516255 -0.00000031
-0.21429558 0.15763372 0.00000000
-0.31624001 0.03587054 0.00000000
-0.16702709 -0.48202482 0.00000000
-0.38519308 -0.28897315 0.00000000
-0.44269344 -0.00811088 -0.00000046
-0.51011634 -0.38790211 -0.00000008
-0.61832267 0.01855016 -0.00000126
-0.36230308 0.25349364 -0.00000058
-0.68822265 -0.02427943 -0.00000148
-0.73196834 -0.17656487 -0.00000140
-0.72246391 -0.28965804 -0.00000116
-0.40903503 -0.35145652 0.00000000
-0.70159537 -0.65050334 -0.00000037
-0.40341419 0.17460489 -0.00000062
-0.78329301 -0.62308818 -0.00000044
-0.48802251 -0.28181359 -0.00000017
-0.22398561 -0.65699846 0.00000000
-0.13955785 0.30386224 0.00000000
-0.37911716 -0.07638602 -0.00000007
-0.32163304 -0.73135310 0.00000000
-0.18794458 -0.54915178 0.00000000
-0.14659664 -0.41902068 0.00000000
-0.60911942 -0.02132657 -0.00000115
-0.07705712 -0.01774970 0.00000000
-0.11100933 -0.78549802 0.00000000
-0.39688453 -0.78757650 0.00000000
-0.45383435 -0.77265680 0.00000000
-0.78009075 -0.01379044 -0.00000189
-0.43242645 -0.79454386 0.00000000
-0.35719550 0.03382285 -0.00000017
-0.77994651 -0.10433032 -0.00000173
-0.03966990 0.11256371 0.00000000
-0.34536186 -0.45122001 0.00000000
-0.12015830 -0.29284289 0.00000000
-0.75941992 -0.47536710 -0.00000081
-0.67885858 -0.08355874 -0.00000134
-0.07417805 -0.14568731 0.00000000
-0.12208378 0.07353578 0.00000000
-0.22425486 0.02487976 0.00000000
-0.26821944 -0.34806332 0.00000000
-0.38647261 -0.67645782 0.00000000
-0.10040344 -0.03039892 0.00000000
-0.59345645 -0.34168845 -0.00000051
-0.12118570 -0.43027729 0.00000000
-0.23219134 -0.37364596 0.00000000
-0.45457953 -0.02125246 -0.00000049
-0.20256522 -0.13651468 0.00000000
-0.44637135 -0.28085440 0.00000000
-0.62954921 -0.24768020 -0.00000083
-0.60057706 -0.13643570 -0.00000091
-0.19356586 -0.71550697 0.00000000
-0.23953354 0.37841699 -0.00000028
-0.30548307 -0.71471000 0.00000000
-0.41125065 -0.41393328 0.00000000
-0.64615226 0.06256208 -0.00000145
-0.03775348 -0.27745223 0.00000000
-0.48107502 -0.76458126 0.00000000
-0.13318402 0.41101316 0.00000000
-0.70161563 -0.18069194 -0.00000126
-0.03492246 -0.24362096 0.00000000
-0.66297323 -0.72260171 -0.00000014
-0.19016594 0.36238119 -0.00000004
-0.10222365 0.53344047 0.00000000
-0.72268975 0.04135069 -0.00000174
-0.30603611 -0.49956498 0.00000000
-0.02764677 0.04497249 0.00000000
-0.69411558 -0.42888629 -0.00000079
-0.56082708 -0.53700328 -0.00000003
-0.76489776 -0.40309373 -0.00000099
-0.16342501 -0.26191315 0.00000000
-0.10620661 0.39082822 0.00000000
-0.60885572 -0.18053675 -0.00000087
-0.41269189 -0.78809786 0.00000000
-0.06073474 -0.01330791 0.00000000
-0.12577355 -0.44566885 0.00000000
-0.37187907 -0.69432473 0.00000000
-0.36649194 0.11794091 -0.00000036
-0.42236176 0.20619628 -0.00000075
-0.35804227 0.16342156 -0.00000040
-0.63718247 0.03386803 -0.00000137
-0.22605702 0.41899785 -0.00000029
-0.44974166 -0.15433834 -0.00000023
-0.22837634 -0.62372559 0.00000000
-0.12760068 0.20368949 0.00000000
-0.56190771 -0.35111231 -0.00000036
-0.10344502 0.64585263 -0.00000017
-0.45734921 0.19942392 -0.00000089
-0.37837833 0.31020603 -0.00000075
-0.36322951 -0.46913776 0.00000000
-0.62307692 -0.61534911 -0.00000016
-0.05148207 0.48873669 0.00000000
-0.76873749 -0.32078922 -0.00000120
-0.08872819 -0.77248234 0.00000000
-0.68654251 -0.48498151 -0.00000066
-0.14928477 0.03724214 0.00000000
-0.42131060 -0.05949487 -0.00000028
-0.75982076 -0.56448615 -0.00000059
-0.65686715 -0.49166840 -0.00000052
-0.52258658 0.14517091 -0.00000107
-0.22841372 -0.47942510 0.00000000
-0.04587035 -0.20457435 0.00000000
-0.46844497 -0.17527108 -0.00000028
-0.66894412 -0.27668110 -0.00000095
-0.00743530 0.02906204 0.00000000
-0.43824455 -0.71181500 0.00000000
-0.76754951 -0.67194277 -0.00000032
-0.29142889 -0.43154472 0.00000000
-0.26701257 -0.52178109 0.00000000
-0.04186533 0.25089464 0.00000000
-0.34336135 -0.17710009 0.00000000
-0.19387797 -0.65394139 0.00000000
-0.55147004 -0.51630414 -0.00000003
-0.16019142 -0.15871119 0.00000000
-0.23319729 -0.57977009 0.00000000
-0.70886105 -0.53084558 -0.00000067
-0.59461641 -0.26835847 -0.00000065
-0.24114943 0.42560145 -0.00000037
-0.69286585 -0.28510365 -0.00000104
