ply
format ascii 1.0
element vertex 1369
property float x
property float y
property float z
end_header
0.55243421 0.11806526 -0.00000144
-0.09050042 0.44225714 -0.00000078
0.00398017 -0.01520525 -0.00000049
-0.34325632 0.15812364 -0.00000052
-0.37595892 0.34002465 -0.00000051
0.00027991 -0.28524360 -0.00000032
-0.00842517 -0.02241372 -0.00000049
-0.76960522 0.06983566 0.02555563
-0.61550218 -0.29490927 -0.00000014
-0.26134464 0.39716199 -0.00000065
0.09987054 -0.36310923 -0.00000027
0.07590450 -0.23817179 -0.00000035
-0.25174320 0.71147627 0.10575488
-0.46915913 0.71111983 0.24639675
0.19270712 0.24167399 -0.00000065
-0.26779881 -0.52394640 -0.00000017
0.71768731 -0.43739095 -0.00000088
0.00949786 0.60248470 -0.00000088
-0.69087225 0.01845434 -0.00000012
0.75930315 -0.29874730 -0.00000125
0.22450578 0.43162715 -0.00000100
-0.56148213 0.61913431 0.24661526
-0.66940469 -0.16498481 -0.00000011
-0.35395318 0.30147341 -0.00000053
-0.28923374 -0.46223632 -0.00000021
0.17016973 -0.68187380 -0.00000007
-0.35506698 0.38819069 -0.00000055
-0.10033400 0.61457849 -0.00000086
0.56429410 -0.71675795 -0.00000005
0.59167212 -0.52873087 -0.00000030
-0.23203561 0.65740454 0.05795029
-0.08682922 -0.54198289 -0.00000016
-0.25738934 0.70422065 0.10471204
0.57850152 -0.19114675 -0.00000092
-0.00121725 -0.41789874 -0.00000024
-0.70058429 -0.58721131 0.00000000
-0.13741446 -0.42363212 -0.00000024
0.42243695 -0.68704093 -0.00000007
-0.48897955 0.44019714 0.08369768
0.40706179 -0.22377370 -0.00000036
-0.58247489 0.29639497 0.05110244
-0.20421556 -0.53186911 -0.00000017
0.02232530 -0.40092352 -0.00000025
-0.56156915 0.64579672 0.26394740
0.20183492 0.25753167 -0.00000066
0.28832415 0.32446751 -0.00000100
0.50440311 -0.38679248 -0.00000030
0.43301263 -0.37655380 -0.00000026
-0.77697200 -0.34219646 0.00000000
-0.79803222 -0.22373544 0.00000000
-0.55374414 0.71346444 0.30272204
0.29863292 0.38811815 -0.00000115
0.18816411 -0.06759611 -0.00000046
0.23529349 -0.08256713 -0.00000045
0.10162256 -0.79265088 -0.00000000
-0.78137767 -0.32099080 0.00000000
-0.22964162 -0.59653157 -0.00000013
-0.37817520 -0.26867360 -0.00000033
-0.31270573 0.14455235 -0.00000055
0.79774249 -0.07275069 -0.00000182
0.09041180 -0.05290766 -0.00000047
0.38740674 0.12755708 -0.00000093
-0.50549901 0.46733284 0.11198337
-0.43227151 -0.69855839 -0.00000006
-0.73497874 -0.17514303 -0.00000004
0.32891139 0.07435998 -0.00000064
-0.33358908 -0.12645590 -0.00000042
-0.28504136 -0.64321578 -0.00000010
0.01130187 0.52624696 -0.00000083
-0.53265953 0.52385485 0.16620421
-0.44589406 0.50445843 0.09741808
-0.36902878 -0.50177586 -0.00000019
-0.34296465 0.12406344 -0.00000051
-0.26603651 0.59126931 0.03712947
0.59479451 -0.49579495 -0.00000038
0.51150632 -0.03916515 -0.00000100
0.00155658 0.12574328 -0.00000058
0.56860048 -0.33224326 -0.00000061
-0.71538907 0.02194677 -0.00000009
-0.39314687 0.65144444 0.15847898
-0.52260089 0.44746497 0.11019125
0.77240705 -0.19464064 -0.00000151
0.26824111 -0.35695618 -0.00000028
0.69484627 -0.09326404 -0.00000148
-0.55333680 -0.46317524 -0.00000018
0.53844017 -0.58736479 -0.00000013
-0.40402842 -0.48867640 -0.00000019
-0.36181042 0.61688155 0.11578003
-0.72777653 0.16368265 0.05925990
0.31700304 0.30133525 -0.00000104
0.11026071 0.50247353 -0.00000081
0.02927889 0.69470590 -0.00000093
0.50887370 0.10057305 -0.00000126
0.02744082 -0.61044663 -0.00000012
-0.22832184 0.27737460 -0.00000066
0.24810484 -0.30545905 -0.00000031
0.55050415 -0.28675732 -0.00000064
-0.78793991 -0.24359141 0.00000000
0.40312433 -0.57192093 -0.00000014
-0.05588020 -0.60542506 -0.00000012
0.45298064 0.15838806 -0.00000120
-0.03412017 -0.34894320 -0.00000028
-0.31023905 0.14540698 -0.00000055
0.63570505 -0.60282886 -0.00000030
-0.38009283 0.60675222 0.12106274
0.31917399 0.16694555 -0.00000079
0.16374499 0.40400496 -0.00000075
0.04648527 -0.65916586 -0.00000009
0.24099684 -0.22247998 -0.00000036
-0.23005031 0.64459622 0.04836502
0.16214490 -0.20397764 -0.00000037
-0.77991122 -0.03008723 -0.00000002
-0.64750993 -0.48333758 -0.00000007
-0.03442946 -0.08475564 -0.00000045
0.23992670 0.53968072 -0.00000126
0.06301977 -0.19594140 -0.00000038
0.47444722 0.23430024 -0.00000142
0.09585095 -0.27560002 -0.00000033
0.35511190 -0.00221582 -0.00000057
0.26862568 -0.12598626 -0.00000042
0.55791616 -0.15135555 -0.00000093
-0.00809644 0.72802132 -0.00000096
0.77953082 -0.23379467 -0.00000142
-0.00252648 -0.76715630 -0.00000002
-0.17368472 -0.45208657 -0.00000022
-0.67635971 0.04355804 -0.00000014
-0.08556142 0.03449609 -0.00000052
-0.74237984 -0.46644545 0.00000000
0.26025870 -0.51597404 -0.00000018
-0.60426754 -0.24615292 -0.00000016
-0.23022902 -0.46842447 -0.00000021
-0.58396757 -0.02927699 -0.00000023
0.10469801 -0.20169520 -0.00000037
0.64015710 -0.53053617 -0.00000045
-0.62973297 -0.39383838 -0.00000011
-0.08965183 0.52604240 -0.00000083
0.50386137 0.03604185 -0.00000112
-0.46611926 -0.08310063 -0.00000034
0.50399661 -0.05715956 -0.00000094
0.10305300 -0.69493157 -0.00000007
-0.11266896 -0.60962474 -0.00000012
-0.67672580 -0.16713680 -0.00000010
0.06891583 -0.68152177 -0.00000007
-0.16330908 0.04353995 -0.00000053
0.34962064 -0.22350477 -0.00000036
0.18749225 0.07615749 -0.00000055
-0.09647622 0.62657738 -0.00000087
-0.28920740 0.71556491 0.13267870
-0.39639014 -0.00086817 -0.00000043
0.06055855 0.23887365 -0.00000065
-0.58248281 0.58422500 0.23760325
-0.05748076 0.12650567 -0.00000058
0.28722751 0.05494308 -0.00000053
-0.68733937 0.05625590 -0.00000013
-0.63366896 -0.20688155 -0.00000014
0.09766774 -0.77936238 -0.00000001
-0.47046128 -0.47307748 -0.00000020
0.27793410 -0.66995043 -0.00000008
-0.51038307 -0.08039212 -0.00000029
-0.45783988 -0.50685227 -0.00000018
-0.42749473 0.33122483 -0.00000046
-0.12078826 -0.19697285 -0.00000038
0.33687314 0.02472072 -0.00000057
-0.03914508 -0.08970442 -0.00000044
-0.24962245 0.04032426 -0.00000053
-0.41561222 -0.21740893 -0.00000036
-0.29615417 -0.76868737 -0.00000002
-0.78353989 -0.25972849 0.00000000
-0.67010391 0.16808465 0.02474392
0.56767005 -0.15612152 -0.00000095
0.36198768 -0.47661257 -0.00000020
-0.62238234 -0.16379464 -0.00000016
0.27357593 -0.04356075 -0.00000047
-0.37739134 0.29103935 -0.00000050
-0.53321117 -0.73134857 -0.00000004
0.54271376 -0.29889971 -0.00000059
0.22223318 -0.68822390 -0.00000007
-0.20347707 -0.15573898 -0.00000040
-0.44577312 -0.49876797 -0.00000019
-0.33994472 -0.54955500 -0.00000016
-0.30175456 0.31637070 -0.00000059
0.67542773 -0.09105078 -0.00000142
-0.37674358 -0.49274740 -0.00000019
-0.18243161 0.27375761 -0.00000067
0.45935747 0.01464693 -0.00000094
-0.41722065 -0.73787361 -0.00000004
0.23025367 -0.16278113 -0.00000040
-0.70724529 0.49163425 0.25844851
-0.76248449 -0.75677532 0.00000000
0.51629466 0.02948036 -0.00000115
-0.60864407 0.24042220 0.03179177
0.25865233 -0.40661699 -0.00000025
-0.70080984 -0.07420363 -0.00000009
0.33662638 -0.28717166 -0.00000032
0.07071517 0.47988677 -0.00000080
-0.66889334 -0.18575773 -0.00000011
-0.07689424 -0.62188154 -0.00000011
-0.04265408 0.02967777 -0.00000052
-0.32047305 0.10355361 -0.00000053
-0.16830499 0.03413118 -0.00000052
0.67252034 -0.49861091 -0.00000062
-0.38213897 -0.27909577 -0.00000033
0.39290205 -0.64749062 -0.00000010
0.78741890 -0.04211423 -0.00000188
-0.29095224 -0.41419235 -0.00000024
-0.47006607 0.65318632 0.20944677
0.48188615 -0.50584650 -0.00000018
-0.74407446 -0.71208531 0.00000000
0.06076159 0.18495701 -0.00000062
-0.06855569 0.58023024 -0.00000086
0.09603227 -0.73964995 -0.00000004
0.34054750 -0.52875906 -0.00000017
0.01219386 0.50553018 -0.00000082
-0.02353729 -0.19363181 -0.00000038
0.38351586 -0.76080811 -0.00000002
-0.73824292 0.38069946 0.20665397
-0.57773578 -0.66454893 -0.00000008
0.20312963 -0.30794644 -0.00000031
-0.49165386 -0.29490030 -0.00000028
-0.34092528 -0.30493295 -0.00000031
-0.40388706 -0.16324310 -0.00000039
0.49938586 -0.52122247 -0.00000017
-0.04899806 0.47836632 -0.00000080
-0.64455080 0.69112861 0.34708714
0.58207119 -0.01954123 -0.00000126
-0.21068768 0.68449891 0.06167355
-0.58475184 0.09497669 -0.00000025
0.39288843 -0.34076628 -0.00000029
-0.39801317 -0.62271905 -0.00000011
-0.43805501 0.07728839 -0.00000040
0.45293528 -0.13413452 -0.00000063
0.44448519 0.11208828 -0.00000108
0.48568320 0.05893297 -0.00000111
0.37102759 -0.66761637 -0.00000008
0.51785952 0.24743330 -0.00000158
-0.43346313 0.09496781 -0.00000041
0.08253121 -0.07296390 -0.00000045
-0.27844536 -0.54627776 -0.00000016
-0.52822888 -0.41703498 -0.00000021
-0.50451088 0.07090694 -0.00000033
-0.74339592 0.06281064 0.00402191
-0.22399470 0.42253259 -0.00000069
-0.67783618 0.36376119 0.15653937
-0.07298615 -0.39537546 -0.00000025
-0.62364662 -0.65345252 -0.00000007
0.25456238 -0.36439374 -0.00000027
-0.11032798 -0.30808458 -0.00000031
0.70569766 -0.33963031 -0.00000104
-0.30734766 0.00120800 -0.00000050
-0.03622966 0.05893352 -0.00000054
-0.21297589 0.26458356 -0.00000067
-0.11266402 0.52768660 -0.00000083
0.53516567 0.23016487 -0.00000160
-0.25858369 -0.55988961 -0.00000015
-0.32472473 0.66070729 0.12014726
-0.10937621 -0.19076009 -0.00000038
-0.65687400 -0.50170320 -0.00000006
-0.38463214 0.40288377 -0.00000052
-0.16197418 0.77161866 0.08655866
0.57720226 -0.66331613 -0.00000009
-0.76531351 0.15353291 0.07700512
0.64454162 0.06734433 -0.00000163
-0.35347438 0.01045425 -0.00000048
0.53741336 -0.45997337 -0.00000026
0.07756531 -0.53527671 -0.00000017
0.76146901 -0.20830823 -0.00000147
0.69040430 -0.05285000 -0.00000155
-0.17040001 -0.29034123 -0.00000032
0.15474229 -0.24176022 -0.00000035
0.59521645 -0.70040476 -0.00000006
0.56227154 -0.53321826 -0.00000020
0.02683022 -0.30224457 -0.00000031
-0.06102773 -0.04944360 -0.00000047
-0.03573258 0.39322054 -0.00000075
-0.35351744 0.16219401 -0.00000051
-0.19860698 -0.24481145 -0.00000035
0.10983932 -0.39226413 -0.00000025
0.54178411 0.23799998 -0.00000164
0.42911008 -0.65508205 -0.00000009
0.43462467 -0.27487397 -0.00000033
0.19340727 -0.07580180 -0.00000045
0.72891760 -0.29337507 -0.00000120
-0.35370237 -0.31445697 -0.00000030
0.14075361 -0.70295393 -0.00000006
-0.35953581 -0.37104797 -0.00000027
0.69063431 -0.07047578 -0.00000151
-0.58604735 -0.01533176 -0.00000023
0.68511093 -0.59796262 -0.00000047
0.14205572 -0.01086585 -0.00000049
-0.26205030 0.18682440 -0.00000061
-0.59215552 0.02492468 -0.00000023
-0.58494276 0.26954040 0.03530147
-0.64327180 0.48463586 0.21246287
-0.53587306 0.33222076 0.04412016
0.48123908 -0.54896694 -0.00000016
-0.02589855 0.03237116 -0.00000052
-0.01099381 0.64945728 -0.00000091
-0.67795610 -0.21229111 -0.00000009
0.19847986 0.35176787 -0.00000076
-0.17207664 -0.36984318 -0.00000027
-0.47905397 0.27337247 -0.00000039
-0.40532449 0.52234656 0.08272186
0.47849873 -0.33513549 -0.00000032
0.36311665 -0.71898323 -0.00000005
0.04670147 0.36068481 -0.00000073
0.10402990 -0.39341375 -0.00000025
-0.16875896 0.48256382 -0.00000076
-0.32680300 -0.19860853 -0.00000038
0.49255529 -0.26860866 -0.00000049
0.02140697 0.75135517 -0.00000097
-0.54125983 -0.10758521 -0.00000026
0.34042498 -0.49884927 -0.00000019
0.52613354 -0.35265964 -0.00000044
0.65403414 -0.27476019 -0.00000100
0.01299452 0.13366632 -0.00000058
-0.73490590 0.07957983 0.00938626
0.74086314 -0.22333258 -0.00000138
-0.15275428 0.42154408 -0.00000076
-0.59073806 -0.44448006 -0.00000014
-0.15667659 0.69780183 0.03529719
0.40495181 -0.65277106 -0.00000009
-0.65862203 -0.11570087 -0.00000013
0.41676834 -0.20693673 -0.00000037
-0.25747210 -0.39516616 -0.00000025
0.11243296 0.06515136 -0.00000054
0.24402209 0.04544402 -0.00000053
0.67261446 0.05613996 -0.00000170
-0.43080133 -0.68725371 -0.00000007
0.26083198 0.28606519 -0.00000083
0.09142966 0.27563843 -0.00000067
-0.49204186 -0.23470107 -0.00000029
0.59916210 -0.20240770 -0.00000096
0.71823841 -0.06226398 -0.00000162
0.60869342 0.11658746 -0.00000162
0.23244774 -0.27809665 -0.00000033
0.02160609 0.50648338 -0.00000082
-0.03747572 0.44756287 -0.00000078
-0.45362037 -0.62373626 -0.00000011
0.31644475 0.34111345 -0.00000112
-0.17838469 0.74721515 0.08137962
-0.30272111 -0.64499986 -0.00000010
-0.25742882 0.45601273 -0.00000066
-0.12863497 0.71232176 0.02653597
-0.09119182 0.44907305 -0.00000078
-0.18777156 0.36925840 -0.00000072
0.38565430 -0.00404450 -0.00000067
-0.32326195 0.06684573 -0.00000052
0.66623056 0.02464201 -0.00000162
0.50095224 -0.52052635 -0.00000017
-0.50311345 0.01876625 -0.00000032
0.09881842 -0.43268308 -0.00000023
0.22609727 -0.79497308 -0.00000000
-0.72564781 -0.07264160 -0.00000007
0.56322128 0.04188587 -0.00000132
0.25351039 -0.51801771 -0.00000018
-0.35132205 -0.02064244 -0.00000047
0.39508608 -0.38346165 -0.00000026
-0.36347011 -0.67961431 -0.00000008
0.13042472 -0.11176994 -0.00000043
0.25002906 0.26697734 -0.00000076
-0.65024841 -0.42354360 -0.00000008
-0.41184682 0.24375942 -0.00000046
-0.47609201 0.30783024 -0.00000040
0.47883821 -0.03256240 -0.00000091
0.15743640 -0.58635432 -0.00000013
0.32390267 0.42289898 -0.00000130
0.50496751 -0.41615027 -0.00000024
0.77061367 -0.19776225 -0.00000151
-0.24185494 -0.39549190 -0.00000025
0.28096873 -0.07515600 -0.00000045
-0.32941851 -0.40499490 -0.00000025
-0.22407125 -0.47645223 -0.00000020
-0.33351156 0.04338208 -0.00000051
-0.14125372 -0.44279170 -0.00000022
-0.25008321 -0.24507603 -0.00000035
-0.41540495 0.29023463 -0.00000046
-0.74044549 -0.75865310 0.00000000
-0.43236601 -0.60155517 -0.00000012
0.16351992 0.48110485 -0.00000090
-0.48995119 0.54137260 0.14988223
-0.38593817 0.60952944 0.12664962
-0.03363200 0.01947694 -0.00000051
-0.37516308 -0.03871535 -0.00000045
0.23486657 0.25498903 -0.00000069
0.37366706 0.42200783 -0.00000146
0.48967206 -0.40432549 -0.00000025
-0.47050408 0.34550044 0.01036956
-0.75884837 -0.44028461 0.00000000
-0.51910353 -0.61054105 -0.00000012
-0.74713075 -0.30113706 -0.00000000
-0.59583920 0.43757167 0.15123484
-0.03984980 -0.24641316 -0.00000035
-0.53641313 0.48113847 0.14095888
0.50813693 -0.69551438 -0.00000007
-0.67680740 0.03339118 -0.00000014
0.59192061 -0.71432203 -0.00000005
-0.33290571 -0.77851725 -0.00000001
-0.59204638 0.41862351 0.13650018
-0.76401514 -0.67942274 0.00000000
-0.46424469 -0.45166507 -0.00000022
-0.12394012 0.02018850 -0.00000051
-0.17111801 0.37355581 -0.00000073
-0.40950423 0.09442845 -0.00000043
-0.42843652 0.04146883 -0.00000040
0.77899271 -0.04931008 -0.00000184
-0.71384007 -0.54820102 0.00000000
0.30547315 -0.36069030 -0.00000027
-0.58719039 0.64360410 0.27912775
-0.64279979 -0.65231889 -0.00000005
-0.20212188 -0.07895814 -0.00000045
-0.24776600 -0.11534115 -0.00000043
0.53914833 -0.22937076 -0.00000072
0.15112580 0.21999809 -0.00000064
-0.18501294 -0.51618749 -0.00000018
0.12402623 0.20012619 -0.00000063
-0.72383744 0.40109202 0.21053314
-0.65313959 -0.53348416 -0.00000006
-0.60564405 -0.26740420 -0.00000016
0.49532640 -0.61549908 -0.00000012
0.05315155 0.21464176 -0.00000063
0.24035941 0.20823281 -0.00000063
0.42173246 0.08304021 -0.00000095
-0.25101420 0.18055639 -0.00000061
0.41169789 -0.33399549 -0.00000029
0.55395222 0.01777469 -0.00000125
-0.22727147 0.09394397 -0.00000056
-0.64367539 -0.53715640 -0.00000007
-0.73104757 -0.12321251 -0.00000005
0.07195472 0.39154425 -0.00000074
-0.26061925 -0.06450890 -0.00000046
0.58285993 0.11551797 -0.00000153
0.27838379 0.18565804 -0.00000069
-0.71438211 -0.45115745 -0.00000001
0.45109141 -0.75874126 -0.00000003
0.30568451 -0.54044503 -0.00000016
0.23791789 0.37395629 -0.00000093
-0.53614676 -0.50281137 -0.00000019
-0.68452698 0.65854901 0.35187963
-0.48000774 0.33574086 0.01020376
-0.46961749 -0.63589627 -0.00000010
-0.53347856 0.69887996 0.28014123
-0.55726320 0.66141528 0.27127731
-0.10057920 0.69110495 -0.00000087
-0.14895910 -0.34114355 -0.00000029
-0.02332534 0.11068696 -0.00000057
0.10329547 0.57811713 -0.00000090
0.69855583 -0.27394503 -0.00000114
-0.29968163 -0.16858926 -0.00000039
-0.17345554 -0.41558489 -0.00000024
-0.71386170 0.32311609 0.15354627
-0.25820518 -0.43644872 -0.00000023
-0.54002649 -0.14501910 -0.00000025
-0.12352858 0.12199416 -0.00000058
-0.70211780 -0.66381687 0.00000000
0.25957811 0.38641533 -0.00000102
-0.14791662 -0.79021347 -0.00000001
0.22104697 -0.66446167 -0.00000008
0.26084599 -0.04277247 -0.00000047
-0.41562578 -0.64459205 -0.00000010
-0.16601557 -0.62593544 -0.00000011
-0.16111431 0.43182692 -0.00000076
0.19453067 0.05132885 -0.00000053
0.24666391 -0.61501926 -0.00000012
-0.49347219 -0.17418545 -0.00000030
-0.11604209 0.57095629 -0.00000083
0.00062677 -0.69747847 -0.00000006
-0.28107500 -0.76291072 -0.00000002
0.07561315 -0.79494029 -0.00000000
0.56386268 0.19265725 -0.00000162
-0.04361249 -0.31670353 -0.00000030
-0.35772902 -0.41758412 -0.00000024
0.74902028 -0.76829875 -0.00000008
0.58801270 -0.48264235 -0.00000038
-0.35221863 -0.05301789 -0.00000047
0.44171238 -0.03578928 -0.00000078
0.12585738 0.32453412 -0.00000070
-0.17606340 -0.57732534 -0.00000014
-0.03709083 -0.77184558 -0.00000002
0.12649679 0.20474176 -0.00000063
-0.29214567 0.68536663 0.11501576
0.33831215 -0.15065642 -0.00000041
-0.39313829 -0.12254454 -0.00000041
0.79201478 -0.62855589 -0.00000043
-0.69691080 0.28947952 0.12076892
0.04484798 0.19367687 -0.00000062
-0.17489402 0.27130044 -0.00000067
0.01473309 -0.05376833 -0.00000047
0.19477858 0.08029530 -0.00000055
-0.51415730 0.67529750 0.25234208
-0.36707649 -0.45346728 -0.00000022
-0.01551361 0.45559090 -0.00000078
0.28329748 -0.53995979 -0.00000016
-0.12586568 -0.28075424 -0.00000032
-0.66177940 -0.33667922 -0.00000009
-0.40280482 0.70930135 0.20222478
0.51350969 0.01437511 -0.00000111
-0.78029972 -0.59709686 0.00000000
0.39936578 -0.04704437 -0.00000063
0.30339232 0.14652707 -0.00000070
-0.19461375 -0.24170209 -0.00000035
-0.27194533 -0.38620639 -0.00000026
-0.10369641 0.70878094 0.00808314
-0.33052936 -0.79372865 -0.00000000
0.12413071 -0.69102865 -0.00000007
-0.40055448 0.67026508 0.17547338
0.38726574 0.38406169 -0.00000143
0.66439551 -0.63666904 -0.00000032
-0.43273959 0.23297223 -0.00000043
0.29425618 0.15915041 -0.00000069
0.78573096 -0.49855563 -0.00000075
0.60126501 -0.05292603 -0.00000126
-0.08932445 0.65745211 -0.00000088
0.76492149 -0.16661490 -0.00000156
0.18085527 0.01682151 -0.00000051
-0.25524691 0.63400120 0.05782594
-0.17330430 0.00850946 -0.00000051
0.35435376 -0.44423443 -0.00000022
0.03119237 0.55590618 -0.00000085
-0.31113902 -0.10437897 -0.00000043
-0.60362881 0.49187160 0.19146489
-0.11825934 -0.67926049 -0.00000008
-0.11487235 0.65866333 -0.00000085
0.36235523 0.29494861 -0.00000117
0.49605933 0.24625260 -0.00000151
-0.13140386 0.30576405 -0.00000069
-0.44467905 0.69195276 0.21811593
0.25859669 0.53165585 -0.00000130
-0.08777381 0.62742013 -0.00000087
-0.33366606 0.61404920 0.09570898
-0.26855588 -0.36235434 -0.00000027
0.70191503 -0.50710642 -0.00000070
-0.67565179 0.17713833 0.03420478
0.09893741 -0.02456068 -0.00000048
-0.23993912 -0.61303514 -0.00000012
0.07823373 0.40768445 -0.00000075
-0.11793687 -0.37094474 -0.00000027
0.58493000 -0.36115396 -0.00000061
-0.20697817 -0.65246135 -0.00000009
-0.33354256 -0.26626593 -0.00000033
0.63675630 -0.36655432 -0.00000076
-0.21757780 -0.16100658 -0.00000040
-0.01246883 -0.73322338 -0.00000004
-0.29106370 -0.72142166 -0.00000005
0.60564649 -0.71964270 -0.00000005
0.51842290 -0.29245722 -0.00000053
-0.66433400 -0.64904690 -0.00000003
0.00880308 0.30760881 -0.00000069
0.08902017 -0.02706286 -0.00000048
0.65677536 -0.74769890 -0.00000008
-0.69477677 0.20707060 0.06599069
0.32093418 -0.44502199 -0.00000022
-0.29106298 -0.47769615 -0.00000020
-0.78672981 -0.62678957 0.00000000
-0.24758188 0.39870182 -0.00000066
0.21232042 0.26289445 -0.00000066
0.36754793 -0.66956931 -0.00000008
0.67801851 -0.63369095 -0.00000037
0.06918662 0.61977047 -0.00000089
0.39870241 -0.76069677 -0.00000002
-0.45604324 0.42862970 0.05486209
-0.79215193 -0.16465893 0.00000000
-0.60014874 0.29649270 0.06261731
-0.03603741 -0.53542888 -0.00000017
-0.55772942 -0.46207419 -0.00000017
0.32780775 -0.35913032 -0.00000028
0.67344004 -0.04665651 -0.00000150
-0.78241855 -0.72003680 0.00000000
-0.45743752 0.08184051 -0.00000038
0.14062987 -0.04080991 -0.00000047
-0.02530905 0.78087813 0.00400729
-0.73131287 0.42737108 0.23240399
-0.74836612 -0.77051049 0.00000000
0.47592843 -0.00160029 -0.00000096
-0.38966039 -0.45561552 -0.00000022
0.22894268 -0.60660064 -0.00000012
0.17045994 -0.30220568 -0.00000031
0.17005470 -0.17327414 -0.00000039
0.25982422 -0.11185773 -0.00000043
0.50818747 -0.74091661 -0.00000004
-0.66562724 -0.01702000 -0.00000014
0.64455348 -0.39661047 -0.00000073
-0.66039211 -0.29365900 -0.00000010
0.35311601 -0.01294426 -0.00000054
-0.66754329 0.44435099 0.20208706
-0.58799565 0.12012838 -0.00000025
-0.04817607 0.07780542 -0.00000055
0.10909760 -0.44917443 -0.00000022
-0.47861809 -0.40942180 -0.00000024
-0.12924632 -0.05876764 -0.00000046
0.47853595 -0.28293633 -0.00000042
-0.72265631 -0.38089937 -0.00000001
0.07988569 0.47572702 -0.00000080
-0.34201634 0.09359917 -0.00000051
-0.04845699 0.45162639 -0.00000078
-0.00436701 0.70711100 -0.00000094
0.03049036 0.25329131 -0.00000066
0.29205090 0.01612795 -0.00000051
-0.56315327 -0.71694905 -0.00000005
0.67011601 -0.58665115 -0.00000044
0.09959429 0.11695618 -0.00000057
-0.21003252 -0.11761222 -0.00000043
-0.40209052 0.60415041 0.13363014
0.61807847 -0.39392930 -0.00000065
-0.51499021 0.12142731 -0.00000033
-0.30919594 0.27727538 -0.00000057
-0.60591650 0.36549282 0.11106195
-0.46840888 0.65195811 0.20757720
-0.47699597 -0.40907973 -0.00000024
0.22249277 -0.19424294 -0.00000038
0.57649481 -0.65133381 -0.00000009
0.61060566 0.11938036 -0.00000163
0.12360719 -0.44098896 -0.00000022
0.61971694 -0.79694891 -0.00000000
-0.51667756 -0.77462858 -0.00000002
-0.70922208 0.25657403 0.10742527
0.38250673 -0.73400980 -0.00000004
-0.16151629 -0.26621357 -0.00000033
0.19442242 -0.23972429 -0.00000035
0.09884439 0.05842727 -0.00000054
-0.38785377 0.33408791 -0.00000050
-0.06813297 0.04592756 -0.00000053
0.12183648 0.57584852 -0.00000095
-0.22028109 -0.47812855 -0.00000020
0.40827212 0.13252227 -0.00000100
-0.30743900 -0.48645627 -0.00000020
0.49684474 0.02103426 -0.00000107
-0.59360904 0.46069640 0.16477312
-0.33067077 -0.56335002 -0.00000015
0.56223780 -0.12127772 -0.00000100
-0.60281926 -0.03372302 -0.00000020
0.13813892 -0.35529336 -0.00000028
0.04407508 0.73209828 -0.00000101
-0.17693660 0.46331081 -0.00000075
-0.30407110 -0.37984401 -0.00000026
-0.58058614 0.65757728 0.28390244
-0.58779627 0.39298856 0.11713661
-0.61049986 0.24240635 0.03427983
-0.35910419 0.69856697 0.16695406
0.18930347 -0.05294107 -0.00000047
0.03145296 0.63536447 -0.00000090
-0.42841378 0.45260426 0.05249390
0.04255163 -0.41462046 -0.00000024
0.21558762 0.22108580 -0.00000064
-0.61437523 0.21559855 0.01942115
-0.22609931 0.73112404 0.10186980
-0.00928141 -0.01339858 -0.00000049
0.65962225 -0.05703133 -0.00000144
0.79025626 -0.67465752 -0.00000031
-0.46183771 0.16624407 -0.00000039
-0.27989951 0.58548588 0.04236456
0.00563852 -0.53304213 -0.00000017
0.34250548 -0.79366547 -0.00000000
0.04815621 0.62022036 -0.00000089
-0.59602964 0.23459870 0.01984519
0.38995442 -0.49128136 -0.00000019
-0.40876332 0.21642521 -0.00000046
0.06072068 0.01375340 -0.00000051
0.34644464 -0.50515020 -0.00000018
-0.41536856 -0.22136588 -0.00000036
-0.49880189 0.12633634 -0.00000034
0.26841685 0.19017301 -0.00000067
-0.36693543 -0.19354343 -0.00000038
-0.05506283 -0.19663061 -0.00000038
-0.58156562 0.23588607 0.01130755
0.42712030 -0.67859495 -0.00000008
0.63214606 -0.68129539 -0.00000013
0.56348628 -0.51967657 -0.00000023
0.28274950 0.33876041 -0.00000101
-0.55109578 0.67155856 0.27385348
-0.55970281 -0.37411931 -0.00000019
0.50508040 -0.68773848 -0.00000007
-0.07386224 0.58050287 -0.00000086
-0.51572675 0.38681200 0.06643812
0.23072629 -0.40241957 -0.00000025
-0.55131382 -0.38362151 -0.00000020
0.17207447 0.40912008 -0.00000079
-0.03127741 0.44781795 -0.00000078
0.01257082 -0.00175845 -0.00000050
-0.43919337 -0.25386140 -0.00000034
0.73021263 -0.47239214 -0.00000082
-0.70091075 0.35084188 0.16311936
0.52326661 -0.20488693 -0.00000071
-0.49439138 -0.24247976 -0.00000028
0.49383172 -0.58449966 -0.00000013
0.07182506 0.64223391 -0.00000092
-0.26207519 0.40882447 -0.00000065
-0.77392238 0.03572760 0.00625313
-0.06869254 -0.34205154 -0.00000029
0.28987670 -0.03232110 -0.00000048
-0.13563681 -0.03074888 -0.00000048
0.60683274 -0.48939869 -0.00000043
-0.65209919 -0.00232871 -0.00000016
-0.22668591 -0.73310715 -0.00000004
-0.40410390 -0.09562749 -0.00000040
-0.11608003 0.30797577 -0.00000069
0.06627196 -0.11398201 -0.00000043
-0.38759053 -0.49644220 -0.00000019
-0.21681888 0.07850652 -0.00000055
-0.76509655 -0.69165379 0.00000000
0.06246958 0.33017635 -0.00000071
-0.34164917 -0.55255771 -0.00000015
0.18264322 0.27781776 -0.00000067
-0.43795049 0.71043193 0.22572966
-0.71406257 -0.28138739 -0.00000004
0.19000632 -0.62737995 -0.00000011
-0.13773064 -0.61123520 -0.00000012
-0.67412812 0.07200477 -0.00000015
0.40565446 -0.77937543 -0.00000001
-0.43704504 -0.53263009 -0.00000017
-0.37330431 -0.08001596 -0.00000044
-0.06741283 -0.28975233 -0.00000032
-0.33983043 -0.26217923 -0.00000034
-0.79962885 -0.03096998 0.00000000
-0.43893841 -0.15656932 -0.00000036
-0.04905032 -0.38943982 -0.00000026
-0.43089163 0.05299698 -0.00000040
0.14145423 0.56981790 -0.00000100
0.48014677 0.05313704 -0.00000108
0.52748895 -0.22291639 -0.00000069
-0.66658527 -0.38145885 -0.00000007
-0.42840874 0.71201569 0.22057334
-0.13183092 0.27451628 -0.00000067
0.29945701 0.09845503 -0.00000059
0.34656352 -0.16643171 -0.00000040
-0.24617031 0.02094596 -0.00000051
0.15129150 -0.16481063 -0.00000040
-0.02845082 0.15181984 -0.00000059
0.62461543 -0.78453028 -0.00000001
-0.71793479 0.45035225 0.23862630
-0.56591070 -0.48703009 -0.00000016
0.02172446 0.18679604 -0.00000062
-0.61692762 -0.55406797 -0.00000009
-0.76867014 -0.21715838 0.00000000
-0.79950446 -0.74921960 0.00000000
0.11556397 0.57312346 -0.00000093
-0.22041652 -0.19876914 -0.00000038
-0.76809788 -0.37272394 0.00000000
0.27818757 -0.25530130 -0.00000034
0.67205018 -0.57399195 -0.00000047
-0.58618426 0.31037894 0.06256660
-0.09553513 -0.62093544 -0.00000011
-0.32643408 0.17515901 -0.00000054
0.52173203 -0.16423643 -0.00000079
0.23861937 -0.68027097 -0.00000007
-0.15084679 -0.18070774 -0.00000039
-0.48296389 -0.23080619 -0.00000030
0.74417108 -0.60401726 -0.00000049
-0.53956014 0.64145094 0.24687099
0.39836979 0.24771535 -0.00000120
-0.06121878 -0.15007535 -0.00000041
-0.45222172 -0.24963987 -0.00000033
0.30162930 -0.36986229 -0.00000027
-0.24059208 -0.57631755 -0.00000014
0.32216588 -0.79544383 -0.00000000
-0.73569709 0.36343199 0.19381626
0.65545762 -0.07113639 -0.00000140
0.25174642 0.40182576 -0.00000103
0.19716600 -0.67199194 -0.00000008
-0.43363309 0.68797499 0.20838143
-0.31076851 -0.40357378 -0.00000025
-0.74132800 -0.54815155 0.00000000
0.37452158 -0.15824975 -0.00000040
0.62212265 -0.72410786 -0.00000005
0.59010726 -0.28676859 -0.00000077
-0.09108470 -0.34971038 -0.00000028
-0.10336689 0.58746600 -0.00000085
0.58533925 0.04515961 -0.00000140
0.72324413 -0.19108380 -0.00000138
0.08315290 0.58652651 -0.00000087
-0.20433736 -0.36654484 -0.00000027
0.48560256 -0.41275978 -0.00000024
-0.25681338 0.38586381 -0.00000065
-0.42373744 0.66644484 0.18801931
-0.68584865 0.53463072 0.27244398
-0.23954627 -0.17829430 -0.00000039
0.42110407 -0.52190071 -0.00000017
-0.37117463 0.59917980 0.11037777
-0.33652976 -0.06315276 -0.00000046
0.55999386 0.17029101 -0.00000156
0.50855362 -0.40027139 -0.00000029
-0.55846775 -0.19604710 -0.00000022
-0.14244053 -0.12023575 -0.00000042
-0.67528415 0.68263257 0.36149561
-0.15272899 0.56257701 -0.00000079
-0.01058842 0.44616035 -0.00000078
-0.78379542 -0.29702589 0.00000000
-0.27107036 -0.59176242 -0.00000013
-0.47367108 -0.50536013 -0.00000018
0.56882578 0.21292531 -0.00000168
0.63064218 -0.51040620 -0.00000046
0.66414541 -0.33233145 -0.00000092
0.50652897 -0.50450933 -0.00000018
0.21545878 0.23855393 -0.00000065
-0.01862455 0.38880774 -0.00000074
0.71775562 -0.60196537 -0.00000050
0.22582138 0.45655489 -0.00000105
-0.03992054 -0.34454659 -0.00000028
0.23337965 -0.62526083 -0.00000011
0.22210139 -0.78204888 -0.00000001
-0.43703371 -0.37952837 -0.00000026
0.06722635 0.26249269 -0.00000066
-0.70005769 -0.13516192 -0.00000008
0.57420647 0.03148201 -0.00000134
-0.68638736 0.38757488 0.17750970
-0.14425801 -0.27862316 -0.00000033
-0.55718839 0.35528693 0.07287650
0.07856544 -0.05101389 -0.00000047
0.27336547 -0.24387315 -0.00000035
0.70152217 -0.01330908 -0.00000166
-0.46472231 -0.69929940 -0.00000006
-0.44592756 0.54386181 0.12297055
0.74406856 -0.23768964 -0.00000136
-0.11960897 0.60445577 -0.00000084
-0.25643316 0.51046896 -0.00000067
-0.71884245 -0.78572708 0.00000000
-0.75338709 -0.09449814 -0.00000003
-0.07953689 -0.26580900 -0.00000033
0.11946277 -0.43958879 -0.00000023
-0.64380348 0.54473436 0.25174779
-0.42029426 0.47682884 0.06292889
-0.31355116 -0.53811264 -0.00000016
-0.50438792 0.65227073 0.23109210
0.16535021 -0.50116527 -0.00000019
-0.48375672 -0.09741634 -0.00000032
-0.40135807 -0.48315793 -0.00000020
-0.37992015 -0.13298713 -0.00000042
0.58875918 -0.12035590 -0.00000109
0.58630604 -0.52820098 -0.00000029
-0.79124731 0.02608944 0.01123368
0.32107070 -0.79786199 -0.00000000
-0.37828320 0.07074431 -0.00000046
-0.42169660 0.57574737 0.12793016
0.03633854 -0.59497392 -0.00000013
-0.70311099 0.38681194 0.18785122
0.53792369 -0.47234386 -0.00000024
0.28557476 0.19561221 -0.00000074
-0.47457179 -0.25186896 -0.00000030
0.02373527 -0.70209777 -0.00000006
0.27461976 -0.15561561 -0.00000040
0.21045688 0.09414995 -0.00000056
0.50079060 -0.32407445 -0.00000041
0.21890169 -0.63522184 -0.00000010
-0.18682697 -0.52121270 -0.00000017
-0.21613391 0.35863480 -0.00000069
-0.27805576 0.38260880 -0.00000063
-0.47540700 0.05652095 -0.00000036
-0.03376385 -0.37398151 -0.00000027
0.41463187 -0.10244956 -0.00000057
-0.09231326 0.73484999 0.01759860
-0.20461544 0.03871423 -0.00000052
-0.51255882 0.04049651 -0.00000031
0.56157994 -0.29769123 -0.00000066
-0.28819785 0.64819825 0.08837483
-0.12910022 0.74917752 0.05071767
-0.21812612 0.70086515 0.07709760
0.14136401 -0.62935191 -0.00000011
-0.45553353 0.49792999 0.09943383
-0.20459685 -0.49412152 -0.00000019
0.56925899 -0.37395248 -0.00000053
0.31368530 -0.09770308 -0.00000044
-0.15785728 0.13357341 -0.00000058
-0.68235546 -0.15760425 -0.00000010
0.39691144 -0.71819550 -0.00000005
0.66878295 -0.10816422 -0.00000137
0.08239353 -0.47936299 -0.00000020
-0.56726635 0.45912191 0.14668453
0.41234514 -0.01379108 -0.00000073
-0.57611328 0.58051497 0.23107228
0.49700171 0.10560106 -0.00000124
-0.70780575 0.36632180 0.17761686
0.18717307 -0.72755164 -0.00000005
-0.76086485 -0.67060059 0.00000000
0.28481379 -0.18475625 -0.00000038
-0.49544111 -0.66741377 -0.00000008
0.05256099 0.63980222 -0.00000090
-0.42294607 -0.68494707 -0.00000007
0.24622221 -0.20207825 -0.00000037
-0.19470927 0.00732718 -0.00000050
0.14767390 -0.10907429 -0.00000043
0.54399073 -0.28890908 -0.00000062
0.21423073 0.47021839 -0.00000104
0.77990866 -0.78564286 -0.00000004
-0.06506741 0.27096790 -0.00000067
0.46792212 -0.03013863 -0.00000088
-0.56278640 0.05135436 -0.00000026
-0.31238115 0.47755206 -0.00000061
-0.07610431 -0.76063830 -0.00000002
-0.40012506 -0.35730508 -0.00000028
0.26566648 -0.41518942 -0.00000024
0.03020522 -0.73535955 -0.00000004
-0.37369773 0.16487947 -0.00000049
0.62973702 0.09586032 -0.00000164
-0.46053401 -0.40483609 -0.00000025
-0.28037730 0.62571812 0.06874194
-0.11301746 -0.78105187 -0.00000001
-0.27408719 0.59908313 0.04740865
0.03101331 -0.70482165 -0.00000006
-0.36414647 -0.27442473 -0.00000033
-0.27088773 -0.72828096 -0.00000004
-0.17831732 -0.45181969 -0.00000022
0.59119606 -0.31997392 -0.00000071
0.53465146 -0.18258312 -0.00000079
-0.44166192 0.55233431 0.12569632
-0.59097862 -0.10335467 -0.00000020
-0.50353098 0.52980161 0.15118383
0.01100632 0.12856410 -0.00000058
0.44741496 -0.25548491 -0.00000037
-0.58590293 -0.10489376 -0.00000021
0.48285237 -0.53596902 -0.00000017
0.17716792 0.35867983 -0.00000072
-0.22877720 0.00953263 -0.00000051
-0.65929800 0.53548372 0.25579339
-0.34602216 -0.78437465 -0.00000001
0.60414177 -0.11833566 -0.00000114
-0.18651125 0.34781581 -0.00000072
0.13440420 0.26779726 -0.00000067
0.20573528 -0.33644667 -0.00000029
0.19601627 -0.27771327 -0.00000033
0.32541022 0.44610599 -0.00000135
0.59090471 -0.13064285 -0.00000108
-0.27015379 0.23849778 -0.00000061
-0.26680899 0.50145584 -0.00000066
-0.61014700 0.66537833 0.30811077
0.24915072 0.33655533 -0.00000089
-0.08842370 -0.04041558 -0.00000047
0.07057011 -0.67136413 -0.00000008
-0.31097499 0.36013126 -0.00000059
0.14023975 -0.13566917 -0.00000042
0.15487929 0.38727424 -0.00000074
-0.27904266 0.15734205 -0.00000058
0.59629285 -0.24105026 -0.00000088
-0.26218683 0.75785184 0.14257047
-0.07861987 0.28653857 -0.00000068
-0.45347971 -0.42850950 -0.00000023
-0.08470512 -0.56525433 -0.00000015
-0.16498756 -0.79107207 -0.00000001
0.38863206 0.07268939 -0.00000083
-0.01255848 -0.74218184 -0.00000004
0.17793877 -0.26500049 -0.00000033
-0.38474795 -0.79376334 -0.00000000
-0.38874418 -0.11962547 -0.00000042
0.50955421 0.24445830 -0.00000155
-0.19045350 0.46696329 -0.00000074
-0.26479170 0.13675146 -0.00000059
-0.30385518 -0.68701869 -0.00000007
0.27048436 -0.28636029 -0.00000032
0.28038058 -0.03348960 -0.00000048
-0.47477061 -0.03887919 -0.00000034
-0.72324711 -0.15610354 -0.00000005
-0.55769265 0.33940163 0.06291060
0.20020419 0.30216980 -0.00000069
0.69651145 -0.12284373 -0.00000143
-0.09185869 -0.64443427 -0.00000010
-0.20875219 -0.22649294 -0.00000036
-0.62197059 0.38599107 0.13474548
-0.75540847 -0.17773329 -0.00000002
-0.27423397 -0.36154234 -0.00000027
-0.41590887 -0.64636219 -0.00000010
-0.37285757 -0.71488243 -0.00000005
0.47467640 -0.25328821 -0.00000046
-0.67095459 0.41975173 0.18835869
0.47577906 0.19196303 -0.00000134
-0.59069163 -0.52933329 -0.00000013
-0.02283104 -0.44016716 -0.00000022
-0.33810607 -0.58878547 -0.00000013
-0.78527492 -0.16631614 0.00000000
0.18062495 -0.39757061 -0.00000025
-0.77223057 -0.24081498 0.00000000
0.35314801 -0.25404400 -0.00000034
-0.78718835 0.07310529 0.03906688
-0.20682289 0.31191009 -0.00000069
-0.39281639 0.09077932 -0.00000045
-0.25128600 -0.75598603 -0.00000003
-0.02809403 -0.34191862 -0.00000029
-0.68691289 0.31374833 0.13001546
-0.03627374 0.69108528 -0.00000093
-0.55500150 -0.10758957 -0.00000024
-0.47077489 0.44420329 0.07449794
0.68480682 -0.00559445 -0.00000162
-0.28790870 -0.00961544 -0.00000049
-0.21072809 0.21739176 -0.00000064
-0.15317041 -0.24930684 -0.00000034
0.72784728 -0.00488677 -0.00000176
-0.56698823 0.56464934 0.21487974
0.62914515 -0.39192119 -0.00000069
0.42676970 -0.76115185 -0.00000002
-0.55237561 -0.61352813 -0.00000012
-0.12160596 -0.43330568 -0.00000023
0.20153794 0.09285831 -0.00000056
-0.17437480 0.49978855 -0.00000076
-0.31439498 -0.50928354 -0.00000018
-0.50371999 -0.16380823 -0.00000029
-0.74589050 -0.65066969 0.00000000
0.21320733 0.53346145 -0.00000116
0.04886384 -0.33735830 -0.00000029
-0.56038886 0.13549516 -0.00000028
-0.53684187 0.27793869 0.00957672
0.05822253 -0.33950153 -0.00000029
-0.78599811 -0.01749370 -0.00000001
-0.38299918 -0.49153048 -0.00000019
-0.46940970 -0.68806893 -0.00000007
0.11770434 -0.00713715 -0.00000050
-0.01113615 0.22403723 -0.00000064
0.65960288 0.07749982 -0.00000170
-0.73707765 -0.27031982 -0.00000002
-0.02350136 -0.71096939 -0.00000006
-0.70645058 0.28183559 0.12199733
0.29138118 -0.43940023 -0.00000023
-0.04837617 0.76773816 0.01043950
-0.57583922 0.49931079 0.17827904
0.06019582 -0.04790456 -0.00000047
0.67767566 -0.16353613 -0.00000129
-0.05181499 0.15816166 -0.00000060
0.51262975 -0.26612732 -0.00000056
0.22230291 -0.29233772 -0.00000032
-0.50714976 -0.47447881 -0.00000020
-0.39176196 0.40582737 -0.00000051
-0.54641002 0.56650543 0.20274891
-0.40986359 -0.75555646 -0.00000003
0.37953213 0.29352069 -0.00000123
0.32591444 -0.12758149 -0.00000042
0.12384541 0.03159309 -0.00000052
-0.76904893 0.20205702 0.11086584
0.04148615 -0.10920653 -0.00000043
-0.18825951 -0.23869821 -0.00000035
-0.43850946 -0.15457144 -0.00000036
0.28674394 -0.72935772 -0.00000004
0.22698575 0.09219003 -0.00000056
0.04528301 0.55015492 -0.00000084
0.00479701 0.51578212 -0.00000082
0.47556195 -0.78194332 -0.00000001
-0.75841326 0.11061885 0.04472876
0.73346984 -0.71604854 -0.00000021
0.77590817 -0.72565579 -0.00000019
-0.30662030 0.36420462 -0.00000059
-0.37981901 -0.42621022 -0.00000023
-0.53968984 0.28303400 0.01472341
-0.00868046 0.43560755 -0.00000077
-0.09825570 0.70237428 0.00040682
0.64616340 -0.43327680 -0.00000066
-0.51946044 -0.40131783 -0.00000023
-0.17381063 0.65753192 0.02030675
-0.20064779 -0.75902569 -0.00000003
0.20401593 0.25932759 -0.00000066
0.16160801 0.13755295 -0.00000059
-0.53631705 0.70739079 0.28749496
0.55645710 -0.36018944 -0.00000052
0.05583895 0.74063379 -0.00000101
0.46046174 -0.40596959 -0.00000025
-0.01346458 0.60235590 -0.00000088
-0.04588574 0.01057699 -0.00000051
0.46416783 -0.71238369 -0.00000005
-0.27204603 0.74876380 0.14307012
-0.43793195 0.50510710 0.09267944
-0.63946074 -0.33315301 -0.00000011
-0.20044684 0.56221050 -0.00000074
-0.42652848 0.25695115 -0.00000045
-0.39399186 -0.21892250 -0.00000036
0.13466316 -0.25260973 -0.00000034
0.57767004 -0.44543728 -0.00000042
-0.21243532 0.41302299 -0.00000070
-0.20127206 -0.19223945 -0.00000038
0.75072271 -0.14125291 -0.00000157
-0.09767449 -0.52298945 -0.00000017
-0.31579885 0.29311937 -0.00000057
0.72649843 -0.40648276 -0.00000097
-0.63910729 0.30516711 0.09348044
0.30337358 0.04589305 -0.00000053
-0.48232597 -0.49332112 -0.00000019
0.03777190 0.37300488 -0.00000073
-0.52076703 0.01518555 -0.00000030
-0.56296420 0.23641755 -0.00000030
-0.67873216 0.67605501 0.35946783
-0.12465433 -0.19725943 -0.00000038
-0.58165854 0.63643777 0.27090007
-0.19923247 -0.57908118 -0.00000014
0.07303977 -0.52341098 -0.00000017
0.04516162 0.08949933 -0.00000056
-0.60007834 -0.17648873 -0.00000018
0.01564026 -0.35861868 -0.00000028
-0.63330799 -0.79780334 -0.00000000
0.02378973 0.74151736 -0.00000096
-0.25871116 0.52817041 -0.00000067
0.33418092 0.29313955 -0.00000108
0.69891167 -0.23054306 -0.00000123
-0.45243484 -0.57837075 -0.00000014
0.38672945 0.40867728 -0.00000147
-0.21595895 0.26104185 -0.00000066
-0.23197591 -0.59937292 -0.00000013
-0.68632591 -0.11136623 -0.00000010
-0.25660464 0.69254833 0.09664059
0.39734873 -0.29458350 -0.00000032
0.58888996 -0.43584383 -0.00000047
0.05449918 -0.12751365 -0.00000042
-0.18055549 0.63503122 0.01009801
-0.73582822 -0.02855219 -0.00000006
-0.03579555 -0.20698167 -0.00000037
-0.14069462 -0.70683682 -0.00000006
-0.29702619 -0.77154696 -0.00000002
0.32697079 0.11115721 -0.00000070
-0.07496674 0.55064946 -0.00000084
-0.15164252 -0.61161971 -0.00000012
0.47671556 -0.59553730 -0.00000013
-0.66197276 0.61912668 0.31172237
0.28323761 0.19464855 -0.00000073
-0.59895295 -0.30028197 -0.00000016
-0.03145604 -0.76355326 -0.00000002
0.32726780 -0.14638568 -0.00000041
0.16798253 0.61481291 -0.00000118
-0.55858439 0.32388371 0.05343381
-0.50057721 -0.10901758 -0.00000030
-0.33619457 0.41427925 -0.00000057
-0.50774086 -0.27739170 -0.00000026
-0.72879875 -0.15480603 -0.00000005
0.51453203 -0.75937331 -0.00000003
0.31334189 0.22068930 -0.00000087
0.27814126 -0.32630739 -0.00000030
0.08108906 0.23951602 -0.00000065
0.79665178 -0.02810330 -0.00000193
-0.46196374 -0.60016066 -0.00000012
0.31143394 -0.19276704 -0.00000038
0.35023364 -0.20689879 -0.00000037
-0.62755632 -0.41327378 -0.00000011
0.00037838 -0.01095621 -0.00000049
-0.56416702 0.37053975 0.08728101
0.67058450 -0.06914115 -0.00000145
0.68062729 -0.62724727 -0.00000039
-0.79919434 -0.12399360 0.00000000
0.49719980 -0.10910661 -0.00000082
-0.18330519 -0.70995092 -0.00000006
0.69742787 -0.04502824 -0.00000158
-0.04945981 0.49556494 -0.00000081
-0.39921042 -0.22332937 -0.00000036
0.11079529 -0.60609114 -0.00000012
0.26964501 0.40655974 -0.00000110
0.74510515 -0.31819871 -0.00000120
-0.68986696 0.34104446 0.14961563
-0.63125616 0.34702137 0.11551218
0.65585494 0.14331289 -0.00000182
-0.00520451 -0.53775001 -0.00000016
0.35163578 -0.44892469 -0.00000022
-0.05633111 0.36194533 -0.00000073
-0.50474280 0.27711430 -0.00000037
0.43498522 -0.48323387 -0.00000020
0.04606046 0.17591216 -0.00000061
0.73641247 -0.58073634 -0.00000055
-0.53012472 0.66762173 0.25771460
-0.13747814 0.35765013 -0.00000072
0.38279095 0.28079009 -0.00000121
-0.08617109 0.77935332 0.04245430
0.10383700 -0.79214984 -0.00000000
-0.67772812 -0.76149583 0.00000000
-0.22078077 0.41806284 -0.00000069
0.09596028 0.35326463 -0.00000072
-0.03692276 0.04915739 -0.00000053
-0.36175796 0.14746378 -0.00000049
0.20436233 -0.05621067 -0.00000046
0.35152015 0.24792798 -0.00000105
-0.70576900 0.43307289 0.21954753
-0.65594381 0.19051880 0.03010491
-0.11615977 0.28994447 -0.00000068
-0.08241543 0.55079281 -0.00000084
0.56022727 0.21168418 -0.00000165
-0.59358048 -0.52141780 -0.00000012
0.71060973 -0.79453957 -0.00000001
0.41613522 0.30636969 -0.00000137
0.71035409 -0.77404356 -0.00000006
0.08116733 0.53704166 -0.00000084
-0.26684776 0.42375284 -0.00000065
0.05386831 0.57763344 -0.00000086
-0.52714789 0.67114544 0.25806895
-0.25409505 0.53297532 -0.00000068
0.61827707 -0.41176000 -0.00000062
-0.50060385 -0.43199629 -0.00000023
-0.04217815 -0.48131865 -0.00000020
0.01072875 0.58418828 -0.00000087
-0.08069922 0.76307124 0.02835900
-0.19353245 0.24961460 -0.00000066
0.05338615 -0.03041153 -0.00000048
-0.54135680 -0.18066664 -0.00000024
-0.26825634 0.21256828 -0.00000061
-0.05721955 -0.18487409 -0.00000038
-0.76628464 -0.30642828 0.00000000
-0.17832378 -0.56503987 -0.00000015
0.51728868 0.16140749 -0.00000141
0.51845056 -0.20914444 -0.00000069
-0.41488332 0.47909713 0.06089262
-0.57687664 0.52873254 0.19801480
-0.01615047 0.12537269 -0.00000058
-0.12445181 0.32813963 -0.00000071
-0.77736455 -0.02482711 -0.00000002
0.52269828 0.15671319 -0.00000142
0.17753449 0.61161029 -0.00000120
0.12844211 0.48080862 -0.00000080
0.32837519 -0.70188159 -0.00000006
-0.26157296 0.17195284 -0.00000061
-0.78000623 -0.16994767 0.00000000
-0.71452600 0.49559724 0.26573375
0.05357671 -0.05034261 -0.00000047
0.06373211 0.10631393 -0.00000057
-0.76837796 -0.43550208 0.00000000
0.17108355 0.50788844 -0.00000098
-0.44403297 -0.60152978 -0.00000012
-0.38104013 -0.51584566 -0.00000018
-0.65160936 -0.15541974 -0.00000013
-0.08305303 0.26662046 -0.00000067
0.02766562 -0.61589652 -0.00000012
-0.56123650 -0.18901171 -0.00000022
-0.46995422 -0.12396029 -0.00000033
-0.22602639 0.36077902 -0.00000068
0.68336755 -0.13354301 -0.00000137
0.34124318 0.07523255 -0.00000068
-0.02018074 0.54625881 -0.00000084
0.16254108 0.50610185 -0.00000095
-0.08970701 0.12896883 -0.00000058
-0.71977752 0.24502397 0.10678084
0.00628248 0.51847601 -0.00000082
-0.17309427 0.11599171 -0.00000057
-0.15512313 -0.74951875 -0.00000003
-0.52430683 -0.73267007 -0.00000004
0.08024730 -0.54029828 -0.00000016
0.68664533 -0.18428528 -0.00000128
0.78561080 -0.24052788 -0.00000140
0.54433733 0.03736193 -0.00000125
-0.44702640 0.49234021 0.09029996
-0.49179730 0.66397500 0.23051779
-0.10849337 -0.23702164 -0.00000035
-0.24300970 0.25542295 -0.00000064
-0.45478675 0.72526586 0.24625012
0.14532012 -0.49966982 -0.00000019
0.01409178 0.13694376 -0.00000059
-0.39914158 0.08412833 -0.00000044
-0.11959037 -0.57941180 -0.00000014
-0.38670394 -0.17385451 -0.00000039
0.14526203 -0.15914790 -0.00000040
0.54654086 -0.18635719 -0.00000083
-0.67712712 -0.62167722 -0.00000002
0.24879114 0.06521017 -0.00000054
-0.55686814 -0.68130368 -0.00000007
-0.23778324 -0.16716249 -0.00000040
-0.73137343 0.22220489 0.09950900
-0.01735444 -0.78169137 -0.00000001
-0.35012904 0.05755366 -0.00000049
0.12063305 -0.14774232 -0.00000041
-0.55594712 0.39571789 0.09826882
0.68747926 -0.68995249 -0.00000028
-0.47106662 0.70030278 0.24062386
0.20875868 -0.71053845 -0.00000006
-0.10733785 -0.11159589 -0.00000043
-0.13514610 0.77375066 0.07055704
0.03252372 -0.75533432 -0.00000003
-0.07333408 0.36382824 -0.00000073
-0.04336714 0.33075196 -0.00000071
0.12326218 0.44705296 -0.00000078
-0.58307415 0.38695547 0.11016793
-0.20758086 0.26906785 -0.00000067
-0.00513691 -0.11171355 -0.00000043
0.24187778 0.31865853 -0.00000084
-0.64615017 -0.43567047 -0.00000008
-0.57033414 0.51567906 0.18531772
0.24802366 0.50053275 -0.00000121
0.51995820 -0.35197946 -0.00000042
-0.47518724 0.07465424 -0.00000036
0.42003354 -0.50931549 -0.00000018
-0.41505292 0.29497346 -0.00000046
0.73380244 -0.76453716 -0.00000009
0.24027663 -0.49609718 -0.00000019
0.50042415 -0.07129842 -0.00000090
-0.72760642 -0.42321780 0.00000000
0.31016263 -0.21449167 -0.00000037
-0.55867255 -0.15387116 -0.00000023
-0.14576228 -0.70178878 -0.00000006
0.19221182 -0.79821074 -0.00000000
0.00361625 -0.78995693 -0.00000001
-0.14807189 -0.76021856 -0.00000002
0.09694590 0.29881853 -0.00000069
0.11831009 0.51339173 -0.00000082
-0.61197621 0.09676703 -0.00000022
-0.38782921 0.66900200 0.16640975
0.26458657 -0.15179987 -0.00000041
-0.70926201 0.26735637 0.11443739
-0.10006054 0.20002492 -0.00000063
0.03808869 0.57851678 -0.00000086
0.68584836 -0.08655856 -0.00000147
0.07821572 0.25505736 -0.00000066
0.10558959 0.22828092 -0.00000064
0.60925233 -0.35707545 -0.00000069
0.17224710 -0.60046959 -0.00000012
0.01851125 0.07933117 -0.00000055
-0.30451688 0.30223018 -0.00000058
-0.06587660 -0.40111682 -0.00000025
0.65588868 -0.43735147 -0.00000069
-0.32341418 0.05251491 -0.00000052
0.31882313 0.19558871 -0.00000084
0.39825740 -0.74019021 -0.00000004
-0.73485446 0.17820643 0.07325643
-0.56183881 -0.66230643 -0.00000009
-0.03792052 0.45590696 -0.00000078
-0.35867000 0.16016838 -0.00000050
0.74838555 -0.54536057 -0.00000064
-0.15179701 -0.46171033 -0.00000021
-0.22428706 0.60153198 0.01672803
-0.48599815 0.16058531 -0.00000036
-0.21594980 0.11490409 -0.00000057
-0.54046738 -0.01497742 -0.00000027
0.07347988 0.28225765 -0.00000068
0.60369110 -0.35481104 -0.00000068
-0.62864280 -0.66810614 -0.00000006
-0.65462774 0.56040740 0.26891649
-0.37105685 0.47979027 0.03294497
0.21692856 -0.02789047 -0.00000048
-0.07356654 -0.24750988 -0.00000035
-0.68845373 -0.63656473 -0.00000000
-0.29886398 -0.49761441 -0.00000019
0.21479329 0.48300803 -0.00000107
0.03446030 0.58438456 -0.00000087
-0.29458931 -0.43320206 -0.00000023
0.26264322 -0.70708948 -0.00000006
0.59640682 0.00408545 -0.00000136
-0.71357489 0.00327642 -0.00000009
0.25776237 0.24004856 -0.00000073
-0.31430706 0.64488631 0.10314613
-0.39924502 -0.39391974 -0.00000025
-0.52451140 0.43368769 0.10250235
-0.54976606 -0.51879209 -0.00000017
-0.26089889 0.56712008 0.01815351
0.48050216 0.20407328 -0.00000138
-0.27724242 -0.12417725 -0.00000042
0.47742853 -0.58910811 -0.00000013
-0.57024890 0.25179395 0.01428228
-0.48586491 -0.71645474 -0.00000005
0.32345480 -0.11946694 -0.00000043
-0.55251193 -0.65980268 -0.00000009
-0.23747689 -0.67459786 -0.00000008
-0.15816575 -0.26436704 -0.00000033
0.53977126 -0.65749502 -0.00000009
-0.57139295 -0.07597961 -0.00000023
0.44947571 -0.54718053 -0.00000016
0.06092014 0.05487823 -0.00000053
-0.46769121 0.66492516 0.21551409
-0.64894032 0.37281138 0.14368062
-0.03818980 -0.09471942 -0.00000044
0.16318211 -0.60600811 -0.00000012
-0.52929044 -0.66191542 -0.00000009
0.54119658 -0.34427974 -0.00000050
-0.56018817 -0.37259266 -0.00000019
-0.36314014 -0.46159375 -0.00000021
0.24645223 -0.56233078 -0.00000015
-0.20544107 0.68050879 0.05568874
0.49540859 -0.70428485 -0.00000006
-0.75091863 -0.21240868 -0.00000001
0.02103109 -0.58924216 -0.00000013
-0.42536512 0.54209578 0.10850311
0.56680465 -0.64117998 -0.00000010
-0.53770149 -0.04418390 -0.00000027
0.78544652 -0.57863027 -0.00000055
-0.68733460 0.58932269 0.30884409
-0.45073107 -0.71310043 -0.00000005
-0.08992031 0.01077145 -0.00000051
-0.15812862 -0.18800804 -0.00000038
-0.33580706 -0.10841202 -0.00000043
0.46925977 0.07666328 -0.00000109
0.45129505 -0.14002478 -0.00000061
0.49230000 -0.10387340 -0.00000081
-0.10462681 0.49327555 -0.00000081
-0.44208476 0.05069382 -0.00000039
-0.71205789 -0.47905597 -0.00000001
-0.43724781 -0.41736269 -0.00000024
-0.68860453 0.58244103 0.30520803
