ply
format ascii 1.0
element vertex 1367
property float x
property float y
property float z
end_header
0.17995863 0.49129957 -0.00000097
-0.06101359 0.30470514 -0.00000069
0.45733550 -0.25196287 -0.00000041
-0.00135504 0.51226324 -0.00000082
-0.02761901 0.07171176 -0.00000054
0.05311038 -0.64005876 -0.00000010
-0.48094973 0.48513210 0.33162501
0.33281434 -0.60962963 -0.00000012
-0.01622065 -0.66351616 -0.00000009
-0.14088416 0.65933615 0.00043774
0.23517650 0.10655032 -0.00000057
0.13653530 0.65841556 -0.00000108
-0.55099779 -0.65171111 -0.00000009
-0.09159308 0.09752767 -0.00000056
-0.11949321 -0.73013234 -0.00000004
-0.07167165 0.63253987 -0.00000089
-0.67356259 -0.32105535 -0.00000008
-0.04855141 0.57626951 -0.00000086
-0.48508808 0.44384542 0.25744852
-0.05039631 -0.30739161 -0.00000031
-0.31818607 -0.43229640 -0.00000023
-0.16891751 -0.66264397 -0.00000009
-0.27935380 -0.31548804 -0.00000030
-0.49572599 -0.22554307 -0.00000028
-0.39418763 0.01261121 -0.00000044
0.45461330 0.20053282 -0.00000129
0.06717755 -0.08188616 -0.00000045
0.61330831 -0.06229118 -0.00000128
-0.20715499 -0.44997346 -0.00000022
-0.02337689 0.26390275 -0.00000066
-0.58952266 0.34648743 0.27157924
-0.43876821 -0.09087323 -0.00000037
-0.01270734 -0.10081485 -0.00000044
0.14660019 0.64427924 -0.00000117
-0.37057590 0.49998686 0.14089572
-0.26717669 -0.27208886 -0.00000033
-0.65343845 -0.14632332 -0.00000013
0.42950821 -0.12870082 -0.00000056
-0.70917284 0.14215820 0.10249684
0.10795316 0.23194605 -0.00000064
0.01038483 -0.44680384 -0.00000022
0.43700328 -0.53896058 -0.00000016
0.66815490 0.12582737 -0.00000173
-0.30089438 0.15764721 -0.00000056
-0.23624921 0.09185912 -0.00000056
0.08452405 -0.71873254 -0.00000005
0.26787347 -0.18918179 -0.00000038
-0.75339097 -0.32521698 0.00000000
0.43234333 0.19584604 -0.00000121
-0.26382780 -0.53946871 -0.00000016
0.12163984 -0.47074458 -0.00000021
0.53050590 -0.15072875 -0.00000084
-0.44707206 0.13509980 -0.00000040
0.46549007 -0.25276434 -0.00000044
-0.34255716 -0.65708208 -0.00000009
-0.71377391 -0.30860195 -0.00000004
-0.53143799 0.18259025 -0.00000032
0.66142601 0.02561959 -0.00000161
0.45322865 0.06740373 -0.00000102
-0.00761221 0.39727131 -0.00000075
0.16463763 -0.40725955 -0.00000025
0.51660025 -0.28039730 -0.00000055
-0.76897794 -0.22816920 0.00000000
-0.45026228 0.21757093 -0.00000041
0.50006664 -0.16075522 -0.00000073
-0.52020049 0.45048496 0.34081751
0.15850846 -0.59668541 -0.00000013
-0.13740490 0.70754975 0.08976130
-0.59473753 -0.69944048 -0.00000006
0.78225231 -0.24500443 -0.00000139
-0.35386178 0.25220305 -0.00000052
-0.31507623 0.19545083 -0.00000055
0.06231295 0.39798093 -0.00000075
0.28389019 -0.22052827 -0.00000036
0.17393036 0.52786863 -0.00000103
0.02352271 0.77087033 -0.00000093
0.60461980 -0.52128357 -0.00000036
-0.51497841 0.27805641 -0.00000036
0.74492234 -0.58714223 -0.00000053
0.05949408 0.66298431 -0.00000092
0.68062085 0.09562266 -0.00000180
-0.57847542 0.40433496 0.36502832
0.50547588 -0.49623731 -0.00000019
0.27760720 0.34576100 -0.00000100
-0.25568983 -0.13513665 -0.00000042
0.09911726 -0.05909306 -0.00000046
-0.20110889 -0.28689170 -0.00000032
0.59268618 -0.06054377 -0.00000122
-0.57056886 -0.14081109 -0.00000022
-0.57538933 0.43743253 0.42495418
0.03844845 -0.37111232 -0.00000027
-0.64466715 -0.25317535 -0.00000012
-0.30498657 -0.36076328 -0.00000027
0.08242405 -0.17762913 -0.00000039
-0.00561345 -0.58665341 -0.00000013
0.11500444 -0.53031033 -0.00000017
0.36179277 -0.16674601 -0.00000040
0.03399144 0.07415078 -0.00000055
0.49083650 -0.28724161 -0.00000045
0.65333593 -0.47774449 -0.00000060
-0.55591404 -0.28823656 -0.00000021
-0.53898877 -0.02741558 -0.00000027
-0.33364943 0.48434129 0.03592208
-0.52932543 -0.49234682 -0.00000019
-0.20336621 -0.10995409 -0.00000043
-0.23459701 -0.05368895 -0.00000047
0.48244643 -0.66001284 -0.00000009
-0.35704827 0.16286340 -0.00000050
-0.36415714 -0.77491367 -0.00000002
0.64310163 -0.26272497 -0.00000099
0.08563437 -0.44874558 -0.00000022
-0.54962909 -0.23843345 -0.00000022
-0.00744170 0.74758488 -0.00000097
-0.53071952 -0.16148217 -0.00000026
0.11151877 0.62187856 -0.00000101
-0.23816985 0.64043993 0.15696307
0.60907465 -0.34808123 -0.00000071
-0.12378386 -0.04501434 -0.00000047
0.09533774 -0.69356841 -0.00000007
0.78834587 -0.44756845 -0.00000088
0.40317979 -0.64761162 -0.00000010
0.17458867 0.48081547 -0.00000094
0.39207059 -0.10860638 -0.00000048
-0.68150800 -0.21880384 -0.00000009
0.26707175 0.13902153 -0.00000059
-0.00082830 -0.34270737 -0.00000029
0.19008748 0.60532516 -0.00000123
0.52254695 0.10795842 -0.00000132
-0.25809258 0.66592568 0.24763323
-0.16957997 -0.75838113 -0.00000003
-0.69820845 0.19187912 0.17988394
-0.23666920 -0.00628579 -0.00000050
0.26802635 -0.47779492 -0.00000020
0.16625476 0.02193056 -0.00000051
-0.09032341 -0.03053435 -0.00000048
-0.07428436 0.49482828 -0.00000081
-0.70001626 0.18538339 0.17052335
-0.29233617 -0.66001612 -0.00000009
0.36411500 -0.76418424 -0.00000002
0.68749732 -0.47819787 -0.00000071
-0.00682631 -0.34938553 -0.00000028
0.65045345 -0.64173388 -0.00000027
0.02899761 0.32802117 -0.00000071
0.41425332 -0.48337650 -0.00000020
-0.69349986 0.07099139 -0.00000013
-0.38409317 -0.71309870 -0.00000005
-0.30616358 0.24707410 -0.00000057
-0.18737206 -0.06183116 -0.00000046
-0.50146061 -0.07941879 -0.00000030
0.38934666 0.10258009 -0.00000089
0.59756637 0.05962742 -0.00000147
-0.74211192 0.09741984 0.07893681
-0.24740387 0.65604901 0.20656897
0.48986989 -0.70645106 -0.00000006
-0.00958852 0.11675141 -0.00000057
-0.29819590 0.14697506 -0.00000056
-0.30596006 -0.29841170 -0.00000031
0.54096180 -0.42083430 -0.00000035
-0.04010581 0.09166287 -0.00000056
-0.37777770 0.37537792 -0.00000052
-0.08765638 0.75358438 0.08234540
-0.51688564 -0.73615295 -0.00000004
0.31714627 -0.77149898 -0.00000002
0.33292347 0.29936838 -0.00000109
0.34033635 -0.46131536 -0.00000021
0.13915698 0.61734533 -0.00000109
-0.00440719 0.00764780 -0.00000050
-0.43587863 -0.39409381 -0.00000025
-0.50226516 -0.61702240 -0.00000011
0.34934568 0.41748166 -0.00000137
0.39604586 -0.63860160 -0.00000010
0.63041127 -0.36150411 -0.00000075
0.46657524 -0.18241076 -0.00000058
-0.09548525 -0.51633233 -0.00000018
-0.44925728 0.19225530 -0.00000041
-0.17209648 -0.09768570 -0.00000044
0.10927127 -0.19561854 -0.00000038
0.07912329 -0.37048191 -0.00000027
0.27457470 -0.21229172 -0.00000037
0.54280531 -0.37261012 -0.00000045
0.01994737 -0.64807618 -0.00000009
0.43091735 -0.50508076 -0.00000018
0.36334378 -0.24041885 -0.00000035
0.54837060 -0.35282469 -0.00000051
-0.28540289 0.07800800 -0.00000055
0.32377946 0.01863567 -0.00000051
-0.21686143 -0.50268334 -0.00000019
-0.39174026 -0.60436243 -0.00000012
-0.61841440 -0.51542139 -0.00000010
0.43237895 -0.57831222 -0.00000014
0.20736206 0.40262282 -0.00000089
-0.74141985 -0.35917464 0.00000000
-0.60777128 -0.79251641 -0.00000000
-0.45478788 -0.17760620 -0.00000034
-0.50792933 -0.42274573 -0.00000023
0.18757129 0.09821727 -0.00000056
-0.32335421 -0.62235337 -0.00000011
-0.49229306 -0.64762521 -0.00000010
-0.54427838 -0.43741429 -0.00000019
0.31153312 -0.65367699 -0.00000009
-0.56616753 -0.13906585 -0.00000022
0.33829251 0.01760266 -0.00000056
-0.51508021 0.03687651 -0.00000031
0.18676975 -0.31879964 -0.00000030
-0.31694049 0.48961940 0.01309744
0.54830056 -0.64770395 -0.00000010
0.48367420 -0.79059684 -0.00000001
-0.54006708 -0.54941350 -0.00000016
-0.31490955 -0.03866015 -0.00000048
0.53307784 -0.17376865 -0.00000081
-0.47900948 0.42516351 0.20800772
0.05493232 0.20230499 -0.00000063
-0.04318508 0.18145604 -0.00000061
-0.11569108 0.52296358 -0.00000083
-0.09186065 -0.77003932 -0.00000002
-0.68061632 -0.47670069 -0.00000004
-0.35139740 0.03203606 -0.00000048
0.19679561 0.25370350 -0.00000066
-0.13763064 0.47468427 -0.00000079
0.40316343 0.09043961 -0.00000091
0.10528853 -0.68522114 -0.00000007
-0.60655063 -0.66372067 -0.00000008
-0.26796412 0.49263391 -0.00000066
-0.71247792 -0.73565662 0.00000000
0.57905847 -0.29769495 -0.00000071
0.38506055 -0.32921457 -0.00000029
-0.29494387 0.56292599 0.11555062
0.62709910 -0.03048859 -0.00000139
0.63223922 -0.57242465 -0.00000035
-0.23316592 -0.55254692 -0.00000015
0.47092795 0.30264330 -0.00000154
0.01304260 0.48468298 -0.00000080
-0.57028824 0.43695942 0.41382384
0.30303353 0.27702886 -0.00000095
0.11610795 -0.16193835 -0.00000040
-0.35708708 -0.14242429 -0.00000041
-0.50091988 0.49954557 0.40028113
-0.06944051 0.44582951 -0.00000078
-0.02830071 -0.75952053 -0.00000003
-0.44955245 0.01174215 -0.00000038
-0.75012428 0.05996534 0.02014816
-0.66513997 -0.78603935 0.00000000
-0.47966981 -0.34860873 -0.00000028
0.04995494 0.56751043 -0.00000085
-0.46688545 0.37180084 0.07724689
-0.30768690 0.55268043 0.12053755
-0.39064091 0.34585017 -0.00000050
-0.16784789 -0.73700100 -0.00000004
-0.18470925 -0.49770623 -0.00000019
0.74996936 -0.35959396 -0.00000110
0.21013211 -0.31593856 -0.00000030
-0.78081936 -0.57043982 0.00000000
0.60070252 -0.61955416 -0.00000015
0.29705796 0.08068422 -0.00000055
-0.19163811 -0.07386559 -0.00000045
0.18824148 0.14896426 -0.00000059
0.02200834 -0.22437771 -0.00000036
-0.42456707 0.09479924 -0.00000042
0.74482924 -0.27336162 -0.00000129
0.01769703 0.40703395 -0.00000075
0.31749251 0.30599508 -0.00000105
0.34087226 -0.27460259 -0.00000033
-0.40093181 -0.17278633 -0.00000039
0.77994984 -0.54386199 -0.00000064
-0.11879267 0.08084561 -0.00000055
-0.26577437 0.57676083 0.08493090
0.31366625 -0.42414722 -0.00000023
-0.37417850 0.52696872 0.20196548
-0.03990701 0.25744435 -0.00000066
-0.02877349 0.26694298 -0.00000067
-0.29371873 0.20773625 -0.00000058
0.77805299 -0.20007835 -0.00000150
0.52482980 -0.07019662 -0.00000098
0.76186907 -0.03587542 -0.00000181
0.21138626 -0.58375877 -0.00000014
0.63393450 -0.38518906 -0.00000072
0.44482353 -0.50730681 -0.00000018
0.01607938 -0.73728579 -0.00000004
0.59148926 -0.36635125 -0.00000062
0.08936236 -0.43004364 -0.00000023
-0.55892384 -0.15939490 -0.00000023
0.37396035 0.09701855 -0.00000083
0.40775844 0.38936105 -0.00000150
0.26107451 -0.77162582 -0.00000002
-0.05431281 -0.40650907 -0.00000025
-0.30583644 0.39804101 -0.00000060
-0.52238828 0.43436947 0.31300715
0.16026978 -0.39357904 -0.00000025
0.66098976 -0.52744025 -0.00000053
0.61018229 0.00653593 -0.00000141
-0.35739711 0.29618838 -0.00000053
0.30661246 -0.18419801 -0.00000038
-0.40638256 0.29835588 -0.00000047
0.05004658 -0.13638939 -0.00000041
-0.62696165 0.18664055 0.02716110
-0.37063852 -0.46734488 -0.00000021
-0.68965572 0.02166948 -0.00000012
0.07289717 0.59144622 -0.00000087
-0.36336181 -0.10687290 -0.00000043
0.44377169 -0.40843144 -0.00000024
-0.34768423 0.26681656 -0.00000053
0.37997261 -0.01080772 -0.00000063
-0.67848796 -0.23364632 -0.00000009
-0.41680899 -0.09474258 -0.00000039
0.36067322 -0.58689469 -0.00000013
0.50956231 -0.04130536 -0.00000099
-0.46278736 0.45298925 0.23117720
-0.72329527 -0.63133103 0.00000000
-0.56143570 0.30665329 0.13595738
-0.21124911 -0.64145535 -0.00000010
0.22331376 0.57596391 -0.00000127
0.65700269 0.01559722 -0.00000157
-0.48453438 -0.72763020 -0.00000005
0.26797134 0.40255076 -0.00000108
0.26333106 -0.18287808 -0.00000039
0.40631875 -0.78346676 -0.00000001
-0.40846586 0.05148978 -0.00000043
-0.50326306 0.16025995 -0.00000035
0.34179303 -0.19523247 -0.00000038
-0.07301382 0.25691810 -0.00000066
0.12482441 0.31568280 -0.00000070
0.02859996 -0.36156169 -0.00000027
-0.20591867 -0.77504778 -0.00000002
0.45424849 -0.57505119 -0.00000014
0.01026733 -0.03709588 -0.00000048
0.14158332 0.02164716 -0.00000051
0.72632748 -0.09816925 -0.00000157
-0.21880552 0.66815943 0.17364635
-0.18895613 0.33727702 -0.00000071
0.25448015 0.48623574 -0.00000120
0.04117153 0.01367948 -0.00000051
0.25658551 -0.13507234 -0.00000042
-0.72519505 -0.20484383 -0.00000004
0.61856872 0.16519271 -0.00000174
0.21448365 0.51941341 -0.00000114
-0.45376721 -0.05557344 -0.00000036
-0.32748368 0.11234339 -0.00000052
-0.27896535 0.02790169 -0.00000052
-0.18922323 0.31524590 -0.00000070
0.38522086 -0.21646245 -0.00000036
0.34167454 0.10607887 -0.00000074
-0.45332190 -0.05994068 -0.00000036
-0.33860269 0.13979101 -0.00000052
-0.26131466 -0.06105448 -0.00000046
-0.12643090 0.67490131 0.00265787
0.53064072 -0.63704932 -0.00000010
-0.68286163 0.21328905 0.19199041
-0.02713443 0.75648755 -0.00000096
-0.45291495 0.44253626 0.19059230
0.36654481 0.43056464 -0.00000145
0.16382034 -0.79136878 -0.00000001
-0.58481711 -0.50469947 -0.00000014
0.55655164 -0.35105231 -0.00000054
-0.01641953 0.24980560 -0.00000066
-0.00708232 0.31269255 -0.00000070
-0.56547594 -0.21797526 -0.00000021
0.22693202 0.09343745 -0.00000056
-0.12505266 0.71269113 0.07536292
-0.09725684 -0.70370877 -0.00000006
-0.72406697 -0.54730433 0.00000000
0.47898227 -0.27577224 -0.00000043
-0.61258882 0.09644261 -0.00000022
0.60927051 0.17033303 -0.00000172
0.27127564 -0.22195207 -0.00000036
-0.25897580 -0.24098656 -0.00000035
-0.31615439 0.52119470 0.07457581
0.13129973 0.30850601 -0.00000069
0.43809310 -0.24558204 -0.00000036
-0.01773190 -0.22552897 -0.00000036
0.36925200 0.16385172 -0.00000094
-0.00748127 0.70828271 -0.00000094
0.26974484 0.49175885 -0.00000126
-0.56462240 0.34457225 0.21803527
0.25170955 0.02069368 -0.00000051
-0.27898118 -0.79351968 -0.00000000
-0.01344250 -0.00277260 -0.00000050
-0.04561406 -0.60782117 -0.00000012
-0.08592811 -0.08303339 -0.00000045
-0.55019855 -0.01214186 -0.00000026
-0.61970842 -0.34841803 -0.00000013
-0.46832940 0.18832684 -0.00000039
-0.48069263 0.47390598 0.30869570
0.30009407 0.45536566 -0.00000129
0.15995352 -0.74816990 -0.00000003
-0.13350037 -0.04478181 -0.00000047
-0.02240155 -0.10307060 -0.00000044
-0.57915550 -0.00787269 -0.00000023
0.12999021 0.64614314 -0.00000112
-0.13815857 0.65972972 -0.00000083
-0.16233863 -0.33612299 -0.00000029
-0.02258333 -0.56816238 -0.00000014
-0.15430073 -0.62194729 -0.00000011
0.38074991 -0.69339299 -0.00000007
-0.47666830 -0.33312565 -0.00000028
-0.28221422 0.35601157 -0.00000062
-0.13131718 -0.19023091 -0.00000038
0.01230053 0.25861847 -0.00000066
-0.20584108 -0.73824632 -0.00000004
-0.59805036 -0.05690928 -0.00000021
-0.62374306 -0.17484197 -0.00000016
-0.40675250 0.37791520 -0.00000049
0.06553229 0.62403560 -0.00000089
-0.58287746 0.31879926 0.20302391
0.58804196 -0.41713122 -0.00000051
-0.18003634 0.41653079 -0.00000074
-0.32186002 0.57294315 0.18929774
-0.50121611 -0.14370860 -0.00000029
0.30051300 0.00370864 -0.00000050
-0.62883407 -0.68750864 -0.00000006
0.58018792 -0.31946653 -0.00000067
0.09980604 -0.00274774 -0.00000050
0.06569675 -0.00707411 -0.00000050
0.20512512 0.53301555 -0.00000114
-0.45286372 0.55401844 0.41309363
0.60575813 -0.02489012 -0.00000133
0.59319705 -0.53024685 -0.00000030
0.08918283 -0.52768672 -0.00000017
-0.46492752 0.21817379 -0.00000040
-0.62753040 -0.21817239 -0.00000014
-0.79316431 -0.00452867 -0.00000001
-0.33937716 0.49679384 0.07222367
0.15781403 -0.21831997 -0.00000036
-0.48554221 0.12191612 -0.00000036
0.70097989 0.09450538 -0.00000180
0.11845597 0.14593460 -0.00000059
0.09252881 0.35572916 -0.00000072
0.28074512 -0.74448246 -0.00000003
-0.28188893 0.47469479 -0.00000064
0.09446816 0.35512406 -0.00000072
0.56520557 -0.62309009 -0.00000011
0.18983690 0.49900106 -0.00000102
-0.56580675 -0.25622094 -0.00000020
0.34921926 0.05162112 -0.00000066
0.12091067 0.26762319 -0.00000067
-0.36909413 0.41699496 -0.00000054
0.42783928 0.05539600 -0.00000092
-0.59006214 0.14363679 -0.00000025
0.78321260 -0.27324334 -0.00000132
-0.53226781 -0.67289019 -0.00000008
-0.06311977 0.47109473 -0.00000079
-0.42458615 -0.13745046 -0.00000038
-0.03508196 -0.25767764 -0.00000034
0.35085428 0.38994306 -0.00000132
0.10254420 -0.66793066 -0.00000008
0.06495782 -0.72622001 -0.00000005
-0.17724802 0.20083135 -0.00000063
-0.10861764 -0.66587406 -0.00000008
0.39158073 -0.46542427 -0.00000021
-0.26745057 0.28073961 -0.00000062
0.32297072 0.38342664 -0.00000122
-0.34232193 0.33088505 -0.00000055
0.14524083 -0.75212091 -0.00000003
0.44154832 -0.64649385 -0.00000010
-0.58158916 -0.10533182 -0.00000021
0.34856397 0.03071120 -0.00000061
0.42542735 0.02145664 -0.00000084
-0.29224819 0.29630858 -0.00000060
-0.40478221 -0.61620766 -0.00000011
0.79426986 -0.71004975 -0.00000022
-0.08394715 -0.11550288 -0.00000043
-0.27646396 -0.46683666 -0.00000021
0.26285112 0.06741126 -0.00000054
-0.26230708 -0.29671052 -0.00000031
0.71340001 -0.62961543 -0.00000043
0.12629838 0.13083047 -0.00000058
0.66566426 -0.57837880 -0.00000044
-0.43448260 -0.49632549 -0.00000019
0.23571298 -0.35699740 -0.00000028
-0.47448581 0.16174699 -0.00000038
-0.12297907 0.31158689 -0.00000069
0.40476024 -0.73927575 -0.00000004
0.27704805 0.24692006 -0.00000081
0.31999311 0.25498888 -0.00000096
0.67036790 0.09719034 -0.00000177
-0.16577166 0.06192994 -0.00000054
-0.72627681 -0.15986288 -0.00000005
0.22693011 -0.29953510 -0.00000031
-0.03395184 -0.39186296 -0.00000026
0.01362343 -0.74563938 -0.00000003
0.66604507 -0.19066831 -0.00000120
0.73647439 -0.46615401 -0.00000083
-0.29462045 -0.51912618 -0.00000018
-0.52895719 0.00336952 -0.00000029
0.25899065 0.25202292 -0.00000076
0.09604780 0.37241200 -0.00000073
-0.05319056 -0.55881369 -0.00000015
0.34502593 -0.54944569 -0.00000016
-0.22452699 0.06405066 -0.00000054
-0.00452457 0.74787843 -0.00000097
0.25688946 -0.53048289 -0.00000017
-0.40937924 -0.29931438 -0.00000031
0.24381717 -0.16796435 -0.00000040
0.24508888 0.52269536 -0.00000124
-0.08130755 0.09663153 -0.00000056
-0.01452920 -0.17095384 -0.00000039
-0.16950236 -0.23841330 -0.00000035
0.57858676 -0.62038738 -0.00000011
-0.20149954 -0.35843998 -0.00000028
-0.35405090 0.14110741 -0.00000050
-0.05363830 0.04357502 -0.00000053
-0.69931161 -0.74287218 0.00000000
0.01585066 0.68028158 -0.00000093
0.52619982 -0.43611458 -0.00000027
-0.75020325 0.08927158 0.07882313
-0.12033990 0.56527424 -0.00000083
0.72962087 -0.75799698 -0.00000011
-0.20156074 -0.63842773 -0.00000010
0.22672598 0.25592217 -0.00000066
-0.00135663 -0.13890788 -0.00000041
0.49811506 -0.48855299 -0.00000019
0.46629533 -0.77455133 -0.00000002
-0.30643222 0.55006891 0.11281771
0.30807519 -0.21418075 -0.00000037
0.31783065 -0.05083509 -0.00000047
-0.05162021 0.73756295 -0.00000093
-0.44940436 0.46854085 0.23550732
0.25070691 -0.37353316 -0.00000027
0.53457403 0.14793174 -0.00000144
-0.00237434 -0.10620521 -0.00000043
0.01241509 -0.00480301 -0.00000050
-0.46902370 0.18504854 -0.00000039
0.46290630 -0.40296954 -0.00000025
-0.25986072 0.65765482 0.23464879
-0.07080597 0.31200066 -0.00000070
0.26610088 -0.16703694 -0.00000040
-0.41265625 0.06448390 -0.00000043
0.19701412 0.40761295 -0.00000087
-0.41107884 0.52941042 0.28052244
-0.04361768 0.23793364 -0.00000065
-0.67090142 -0.56003731 -0.00000004
-0.01653979 0.04711991 -0.00000053
0.45728624 -0.78864557 -0.00000001
-0.22285689 -0.45487189 -0.00000022
-0.48736772 -0.43555975 -0.00000023
0.04236171 -0.39340645 -0.00000025
0.46139947 -0.17869626 -0.00000057
0.02768976 0.47566786 -0.00000080
-0.58754021 0.23608212 0.04716864
-0.05657346 -0.26985803 -0.00000033
0.00386791 0.51148623 -0.00000082
-0.24775009 0.43399453 -0.00000067
-0.63189572 -0.33338398 -0.00000012
-0.12030908 -0.15425137 -0.00000040
0.04065155 0.47879294 -0.00000080
-0.77742082 -0.39891586 0.00000000
0.14656889 -0.59345084 -0.00000013
0.42592514 0.29710639 -0.00000138
-0.05046527 -0.44173244 -0.00000022
-0.01107989 -0.01564510 -0.00000049
-0.62832922 0.24513738 0.14669555
-0.57603788 -0.72949761 -0.00000004
0.42846122 0.09782327 -0.00000100
0.10020627 -0.37678653 -0.00000026
-0.00887824 0.29083571 -0.00000068
0.15549095 -0.15700372 -0.00000040
-0.36824366 0.28317848 -0.00000051
-0.01985414 -0.26247197 -0.00000034
0.61620677 -0.53441596 -0.00000037
0.62955201 -0.63656622 -0.00000021
0.04316927 -0.48864502 -0.00000019
0.64049006 -0.55284292 -0.00000041
0.51008159 -0.53101945 -0.00000017
-0.56972522 0.12232448 -0.00000027
-0.29618040 0.58214438 0.15639417
0.31917891 -0.73884159 -0.00000004
-0.52940279 0.06755976 -0.00000030
-0.17976646 -0.59340972 -0.00000013
-0.42353982 0.03504366 -0.00000041
0.07068665 0.40021804 -0.00000075
0.27328652 -0.66028124 -0.00000009
0.33403179 -0.48407379 -0.00000020
-0.37203315 -0.17408086 -0.00000039
0.38144380 0.22930539 -0.00000111
0.11103108 -0.37141767 -0.00000027
-0.14806148 0.50063348 -0.00000079
-0.22880977 0.00584062 -0.00000050
0.60630482 -0.49965468 -0.00000041
-0.66786158 -0.09432789 -0.00000012
0.67608011 0.09231135 -0.00000178
0.01487172 0.00578248 -0.00000050
0.15995122 0.32309335 -0.00000070
0.16113207 0.02555290 -0.00000052
-0.68298382 0.19165474 0.14903599
0.76670295 -0.65875447 -0.00000035
-0.29487193 -0.12032025 -0.00000042
-0.51332307 -0.77177602 -0.00000002
-0.04102652 -0.26646891 -0.00000033
0.64017349 -0.59289002 -0.00000033
-0.06736707 0.32497069 -0.00000070
-0.17207658 0.07317969 -0.00000055
-0.28980809 -0.55069232 -0.00000016
0.26595286 0.00693086 -0.00000050
-0.44111344 0.37272975 0.02764119
-0.45802775 0.55676138 0.42888206
-0.38686955 -0.06068122 -0.00000043
-0.00722484 0.63168472 -0.00000089
-0.29122382 -0.27080834 -0.00000033
-0.29829851 0.36130905 -0.00000060
0.52792805 -0.22696534 -0.00000069
0.65409768 0.13611054 -0.00000180
0.18804309 0.43750402 -0.00000089
0.02198832 0.07195111 -0.00000054
0.66776550 -0.43949017 -0.00000072
0.16508976 0.23057652 -0.00000064
0.49091816 0.00543224 -0.00000102
0.12855951 -0.61330265 -0.00000012
-0.61171401 -0.05709375 -0.00000019
0.30647519 -0.03319716 -0.00000048
0.27367222 -0.15107407 -0.00000041
0.38222712 -0.12383689 -0.00000042
-0.06115448 -0.74646175 -0.00000003
0.25408939 -0.25623113 -0.00000034
-0.44256374 0.53361201 0.35178009
0.01637212 -0.01814530 -0.00000049
-0.31841087 -0.60277265 -0.00000012
-0.27520314 0.41671380 -0.00000064
-0.61896497 -0.18219645 -0.00000016
-0.41331005 -0.12203236 -0.00000039
-0.71713036 -0.10402370 -0.00000007
0.10874378 -0.41669205 -0.00000024
-0.63058001 0.05022648 -0.00000019
-0.11857977 -0.76390737 -0.00000002
0.61285055 -0.49567196 -0.00000043
-0.21457531 -0.41220164 -0.00000024
-0.64058232 -0.49416542 -0.00000008
-0.18836325 0.18945581 -0.00000062
-0.17605816 0.63053483 0.01316261
-0.27793777 0.41663212 -0.00000063
0.63204992 -0.54003227 -0.00000041
-0.51295811 0.17883651 -0.00000034
-0.37687138 0.50977284 0.17300640
0.78189141 -0.55065858 -0.00000062
-0.53572172 0.49385458 0.45840877
-0.19215734 -0.58237910 -0.00000014
-0.09393098 0.67655706 -0.00000088
-0.08573149 -0.12881944 -0.00000042
0.21623567 -0.75218296 -0.00000003
-0.15899023 0.11342135 -0.00000057
0.72058612 -0.66288728 -0.00000034
-0.56219202 0.34309894 0.21024051
0.05156774 -0.62916821 -0.00000011
0.03656069 0.24860813 -0.00000066
-0.55934197 -0.30539510 -0.00000020
-0.13642135 -0.35880768 -0.00000028
-0.51133949 0.44326448 0.30870649
-0.32004380 -0.27424121 -0.00000033
0.66463006 0.05489732 -0.00000167
-0.46476233 0.07180807 -0.00000037
-0.26385418 -0.26876256 -0.00000033
0.73742014 -0.51566029 -0.00000071
0.45567608 0.22160235 -0.00000133
0.73573726 -0.37384987 -0.00000106
-0.06206336 -0.23203576 -0.00000035
0.00258662 0.53560001 -0.00000083
0.19071643 -0.60380632 -0.00000012
0.46879479 0.16551086 -0.00000126
-0.63991976 0.16439842 0.00862328
0.78463840 -0.77026206 -0.00000007
-0.30378777 -0.47272617 -0.00000020
0.44001833 -0.38124108 -0.00000026
-0.47341403 0.36761689 0.08192858
-0.56809288 -0.66760111 -0.00000008
-0.48647940 0.43493286 0.24243034
0.46075606 -0.64614773 -0.00000010
0.27371949 0.30249253 -0.00000091
0.52499962 -0.76120842 -0.00000002
-0.33546045 0.54891127 0.16846856
0.43612123 0.05972397 -0.00000095
-0.13856404 -0.77466822 -0.00000002
-0.48286718 0.04935030 -0.00000035
0.45520204 -0.55461603 -0.00000015
0.70871639 -0.38061744 -0.00000097
-0.03426886 -0.44498995 -0.00000022
-0.51315582 -0.73666251 -0.00000004
0.11944703 -0.11550130 -0.00000043
0.19431424 -0.15108113 -0.00000041
-0.08525134 0.75740552 0.08517304
-0.44720894 0.18902275 -0.00000041
0.32615104 -0.33909461 -0.00000029
0.37222472 -0.73436022 -0.00000004
0.49552280 -0.71227807 -0.00000005
0.35455209 -0.58480108 -0.00000013
0.02101832 -0.70686704 -0.00000006
-0.70939445 -0.34041303 -0.00000003
0.69834065 -0.00448912 -0.00000167
0.60975009 -0.27498040 -0.00000085
-0.63652676 0.16445392 0.00195916
0.05861442 0.19645724 -0.00000062
-0.31136888 0.38982308 -0.00000059
-0.09708927 -0.00155947 -0.00000050
-0.23058614 -0.09368448 -0.00000044
0.33234447 -0.07755282 -0.00000045
0.52109390 0.05606361 -0.00000122
-0.39673474 -0.73287594 -0.00000004
0.29249287 -0.03385065 -0.00000048
-0.03841742 -0.49930653 -0.00000019
-0.09005852 -0.10098640 -0.00000044
-0.11919703 -0.42646489 -0.00000023
-0.45878032 -0.78880942 -0.00000001
-0.51322120 -0.43939173 -0.00000023
-0.50583267 -0.30474544 -0.00000026
0.29643399 -0.63530856 -0.00000010
-0.63178605 -0.28585953 -0.00000013
-0.55315757 0.44646227 0.39859277
0.05703872 0.03176686 -0.00000052
0.42914748 -0.56782037 -0.00000015
0.73913741 -0.16907354 -0.00000148
-0.49531573 0.21418966 -0.00000036
0.73055750 -0.57535452 -0.00000056
0.14173485 -0.44524819 -0.00000022
-0.53614694 -0.72659713 -0.00000005
-0.01293675 0.07080604 -0.00000054
-0.10071838 0.65200442 -0.00000087
-0.56261462 -0.11227220 -0.00000023
-0.10745959 -0.12163807 -0.00000042
0.16541421 0.06916559 -0.00000054
-0.47498259 -0.21950583 -0.00000031
0.66085190 -0.39349473 -0.00000079
-0.04725533 0.72589779 -0.00000094
0.19552761 -0.55544651 -0.00000015
0.38601840 -0.46283403 -0.00000021
-0.21608528 -0.37084988 -0.00000027
-0.22284478 -0.76620686 -0.00000002
0.44839916 -0.27075687 -0.00000035
-0.04951715 0.10946918 -0.00000057
0.06242617 0.02910294 -0.00000052
-0.56278461 0.07213632 -0.00000027
-0.26637769 0.37165880 -0.00000064
-0.02207032 -0.31431293 -0.00000030
-0.36063930 -0.28662109 -0.00000032
0.33248669 -0.26619098 -0.00000033
-0.79969126 -0.72299528 0.00000000
0.71101511 -0.47997925 -0.00000078
-0.22919026 -0.14002135 -0.00000041
-0.45437533 0.18311247 -0.00000040
-0.21539006 0.48892036 -0.00000071
0.79110163 -0.33031538 -0.00000117
-0.03063115 0.32815677 -0.00000071
-0.52833259 -0.71309990 -0.00000005
0.36444291 -0.66243613 -0.00000009
0.11404336 -0.37322465 -0.00000027
-0.30255070 0.56294829 0.13078415
-0.17608409 -0.48012361 -0.00000020
0.03567273 0.22855194 -0.00000064
-0.76349616 -0.36290985 0.00000000
-0.29207912 -0.19976789 -0.00000038
-0.35348532 0.21377802 -0.00000052
-0.41269326 -0.46109292 -0.00000021
-0.56117958 -0.57925791 -0.00000014
0.61370844 -0.69645715 -0.00000006
-0.40555918 0.19386528 -0.00000046
-0.78281844 -0.40949628 0.00000000
0.32262665 -0.33111611 -0.00000029
0.20234382 0.59327167 -0.00000124
-0.07092390 0.17125760 -0.00000061
0.16060436 -0.03519179 -0.00000048
0.70495552 -0.47797164 -0.00000076
0.07148864 0.57312047 -0.00000086
0.19332027 -0.47328758 -0.00000020
0.47831029 0.07420638 -0.00000112
0.25342074 -0.30029142 -0.00000031
0.20298426 -0.64122659 -0.00000010
0.48972434 0.18014120 -0.00000136
-0.15382609 0.06887256 -0.00000054
0.38262433 0.12625191 -0.00000091
0.31475845 -0.14610806 -0.00000041
0.42220092 -0.26810667 -0.00000033
0.18652231 0.41836929 -0.00000085
-0.19425593 0.42506230 -0.00000072
-0.19650137 -0.47536778 -0.00000020
-0.60371709 -0.20021512 -0.00000017
0.17838554 -0.71751499 -0.00000005
0.34251970 -0.12996712 -0.00000042
0.50411993 -0.06640365 -0.00000092
-0.72341400 0.11246365 0.07164029
0.04014504 -0.59670269 -0.00000013
-0.09286348 0.66105092 -0.00000088
0.69127965 -0.09815789 -0.00000146
-0.75144398 -0.04673401 -0.00000004
0.67419130 -0.10586863 -0.00000139
-0.59984058 0.15829317 -0.00000024
0.70372272 -0.08950618 -0.00000152
-0.48888716 0.10849436 -0.00000035
0.68449372 -0.33781192 -0.00000097
-0.64712441 -0.68559158 -0.00000004
-0.48879278 0.33648029 0.05046408
0.31641993 0.30189976 -0.00000104
-0.42168126 0.34204993 -0.00000047
0.16667715 0.44194040 -0.00000083
0.41502485 -0.59564418 -0.00000013
0.09888557 0.37862071 -0.00000074
0.30323750 -0.41406557 -0.00000024
-0.04799629 -0.69680494 -0.00000006
-0.26461050 0.49735010 -0.00000066
-0.33184174 -0.01881658 -0.00000049
-0.59917641 0.23304045 0.06432979
-0.25809187 -0.64344209 -0.00000010
0.72928852 -0.17747252 -0.00000143
-0.63538957 -0.27450693 -0.00000013
-0.01335751 -0.14790179 -0.00000041
0.65410668 -0.60565370 -0.00000035
0.44450507 -0.32853228 -0.00000029
0.53464532 -0.21019135 -0.00000074
-0.08697929 -0.71015608 -0.00000006
-0.14187625 0.62625694 -0.00000082
0.53545660 -0.34715462 -0.00000048
-0.49635065 -0.00247509 -0.00000032
-0.54246861 -0.62309080 -0.00000011
0.58826047 -0.69672447 -0.00000006
0.59406233 -0.21330473 -0.00000092
-0.36122906 -0.41815072 -0.00000024
-0.57560384 -0.56657314 -0.00000014
0.39713511 -0.79546875 -0.00000000
-0.31067070 -0.20033880 -0.00000037
0.10510969 -0.78438520 -0.00000001
-0.72738683 -0.42337638 0.00000000
0.55052507 -0.69744116 -0.00000006
-0.03427695 -0.57438171 -0.00000014
0.21367709 -0.28580743 -0.00000032
0.33677220 -0.57637411 -0.00000014
0.70466197 0.05139271 -0.00000180
0.18208548 -0.37381089 -0.00000027
-0.15058920 -0.62218273 -0.00000011
0.09854786 0.16385655 -0.00000060
-0.66189158 -0.45940971 -0.00000006
0.54951060 -0.46545851 -0.00000029
-0.07696271 -0.24124543 -0.00000035
-0.20821330 -0.06387556 -0.00000046
-0.66828841 -0.59436196 -0.00000003
0.33615389 -0.30830055 -0.00000031
-0.17790025 -0.13962591 -0.00000041
-0.06322554 -0.39799607 -0.00000025
0.37350267 -0.10447677 -0.00000043
0.53525186 -0.55508882 -0.00000015
-0.64161855 -0.48854521 -0.00000008
-0.12319846 -0.54140103 -0.00000016
-0.77895337 -0.58697295 0.00000000
0.29748359 0.47180030 -0.00000131
-0.24961588 -0.78204310 -0.00000001
0.65346068 0.01207449 -0.00000155
-0.48892987 0.13157851 -0.00000036
0.00489483 -0.57697374 -0.00000014
-0.48433498 0.35685974 0.08225566
-0.77109557 -0.40326637 0.00000000
-0.11368471 -0.78003025 -0.00000001
-0.46529597 0.42182255 0.17395404
-0.45134008 0.46638277 0.23506337
0.31632823 -0.20232010 -0.00000037
0.32582664 0.30547518 -0.00000108
0.17449653 0.14892122 -0.00000059
0.37825370 -0.60232443 -0.00000012
-0.08508500 0.40553084 -0.00000075
-0.28851622 -0.43649450 -0.00000023
0.34832287 -0.47313255 -0.00000020
-0.11419767 0.21249776 -0.00000063
-0.18487881 -0.13086559 -0.00000042
-0.10683310 0.20645007 -0.00000063
-0.60768765 0.18980254 -0.00000024
0.62839437 -0.79955047 -0.00000000
0.48848531 -0.36356053 -0.00000029
0.32603392 -0.26811379 -0.00000033
-0.05519434 -0.31195271 -0.00000031
0.30982918 -0.74841791 -0.00000003
-0.74645674 -0.75327659 0.00000000
-0.08971173 -0.53836101 -0.00000016
0.27626786 -0.45404685 -0.00000022
-0.15381061 -0.31802440 -0.00000030
0.36760867 -0.07832635 -0.00000046
-0.64410496 0.12613061 -0.00000019
0.53463340 -0.03476284 -0.00000108
-0.23431996 0.23747063 -0.00000065
-0.66414052 0.21492875 0.15788288
0.09729050 -0.42511916 -0.00000023
-0.16382512 0.71577048 0.15893127
-0.01469929 -0.04029402 -0.00000047
0.40899116 -0.33742321 -0.00000029
-0.61898577 0.31090289 0.25935641
-0.32737383 0.35639948 -0.00000057
-0.59448409 -0.52139497 -0.00000012
0.52757335 0.17365891 -0.00000147
-0.37318581 0.55957234 0.26508507
-0.31887919 -0.23333728 -0.00000035
-0.46251965 -0.33702642 -0.00000029
-0.17450014 0.32976040 -0.00000071
-0.44880748 -0.19487953 -0.00000034
0.02692110 0.65092605 -0.00000091
-0.18390670 0.64929581 0.06629534
-0.46330303 -0.01115257 -0.00000036
-0.14868721 0.20262240 -0.00000063
0.40753704 0.02505040 -0.00000079
-0.01970089 -0.28922886 -0.00000032
-0.44642672 0.19563033 -0.00000041
0.44436175 -0.44649479 -0.00000022
0.51189888 -0.60183465 -0.00000012
-0.44146773 -0.07926159 -0.00000037
-0.07668027 0.76150388 0.07624200
-0.69049931 -0.75447929 0.00000000
0.03185787 0.11083529 -0.00000057
-0.44651687 0.04160502 -0.00000038
-0.57308507 0.40584451 0.35727924
0.16919142 -0.51678342 -0.00000018
0.52729464 -0.70924038 -0.00000006
0.08879617 -0.76369703 -0.00000002
-0.24136804 -0.45801297 -0.00000021
0.29923391 0.27841553 -0.00000094
0.78196037 -0.72266746 -0.00000019
-0.32182333 0.52156138 0.08662752
0.08105310 -0.52340597 -0.00000017
-0.32328129 0.18692011 -0.00000054
0.28688681 0.39714050 -0.00000113
-0.62585413 -0.74550885 -0.00000003
0.13050719 -0.21561255 -0.00000037
0.59127772 -0.56178790 -0.00000024
0.49874300 -0.52847910 -0.00000017
-0.31279421 0.57829309 0.18187794
-0.54329675 -0.58538568 -0.00000013
-0.10592843 0.65200830 -0.00000086
-0.31385380 0.51516581 0.05794395
-0.00911823 -0.35252219 -0.00000028
-0.74302161 -0.09341932 -0.00000004
-0.61065000 0.09481714 -0.00000022
0.01530241 0.58587039 -0.00000087
0.19622234 -0.42638046 -0.00000023
0.58317828 -0.60688943 -0.00000012
-0.44574714 0.51788366 0.32673073
-0.09808008 0.64927852 -0.00000087
0.19054644 -0.61602873 -0.00000011
0.57385987 -0.71085525 -0.00000006
0.70869976 -0.78116924 -0.00000005
-0.11152215 0.53650546 -0.00000083
0.59671921 -0.63924354 -0.00000010
-0.32576403 0.38590121 -0.00000058
0.08120184 0.57515144 -0.00000086
-0.00606745 0.41649845 -0.00000076
0.52869266 0.07783814 -0.00000128
-0.70682722 -0.14236163 -0.00000007
-0.28781825 -0.24947216 -0.00000034
0.34293765 -0.66620141 -0.00000008
-0.52561700 -0.62097186 -0.00000011
0.37173012 -0.54602551 -0.00000016
0.28696698 -0.22612119 -0.00000036
0.49198797 -0.77896178 -0.00000001
-0.45488080 0.19183037 -0.00000040
-0.65132833 0.03503024 -0.00000017
0.71169776 -0.25652438 -0.00000122
-0.16222826 -0.43647352 -0.00000023
-0.07650826 0.70974672 -0.00000090
-0.07966485 0.23080052 -0.00000064
-0.71383643 0.16485541 0.15712962
0.41404465 -0.00115140 -0.00000076
-0.75786012 -0.27261728 0.00000000
0.71706575 -0.21688814 -0.00000131
-0.56395698 0.38872713 0.30487314
0.03740980 -0.22190946 -0.00000036
-0.07397082 -0.11272234 -0.00000043
-0.00362634 0.60029304 -0.00000088
-0.71946663 -0.40910575 -0.00000001
0.36252153 -0.53761631 -0.00000016
0.46121547 -0.70201612 -0.00000006
-0.09842924 0.03374467 -0.00000052
-0.78635585 -0.57107246 0.00000000
-0.52577239 0.04173419 -0.00000030
0.50817257 -0.30039230 -0.00000048
-0.20243149 -0.40979207 -0.00000024
-0.30353335 0.35922757 -0.00000060
0.06796881 0.69702488 -0.00000102
-0.20011197 0.61952722 0.03921287
0.06018926 -0.39283073 -0.00000025
-0.02049412 -0.14834557 -0.00000041
-0.49864092 -0.68165684 -0.00000007
0.29919043 -0.46657711 -0.00000021
0.30977175 0.30428946 -0.00000102
-0.55312473 -0.29978237 -0.00000021
-0.13667266 0.11013707 -0.00000057
-0.18852811 0.54495811 -0.00000075
0.13625740 -0.36130103 -0.00000027
-0.22013406 -0.63277966 -0.00000010
-0.12322573 -0.62244207 -0.00000011
0.00904108 -0.14620125 -0.00000041
-0.27101406 -0.35871914 -0.00000028
0.22686052 -0.26110896 -0.00000034
0.34539035 0.32449597 -0.00000118
-0.44785604 0.34509909 -0.00000044
-0.17732075 -0.15660124 -0.00000040
-0.27635023 -0.40270641 -0.00000025
0.17148799 -0.46484953 -0.00000021
0.59305537 -0.53459930 -0.00000029
0.39245433 0.31134206 -0.00000130
0.40571290 -0.47786519 -0.00000020
-0.75597340 -0.53971088 0.00000000
0.72394717 -0.52493811 -0.00000069
0.57490796 -0.30074087 -0.00000069
-0.49628949 -0.18375829 -0.00000029
-0.04669986 0.64158696 -0.00000090
-0.31968135 -0.01325280 -0.00000049
0.76022637 -0.78334725 -0.00000004
0.19068377 0.55895180 -0.00000114
0.03404459 -0.67107034 -0.00000008
-0.09235409 0.46962172 -0.00000079
0.16094504 0.54752010 -0.00000102
-0.48912701 -0.57096648 -0.00000014
-0.26348945 -0.71990806 -0.00000005
0.36229128 0.18651836 -0.00000096
-0.20589869 0.64659595 0.10481716
-0.01051397 0.57357842 -0.00000086
-0.38554186 -0.34101647 -0.00000029
0.35823745 0.04800474 -0.00000068
-0.58118874 -0.43517292 -0.00000015
0.12214780 0.42237815 -0.00000076
-0.49191213 0.48898578 0.36120930
-0.73129463 -0.17178908 -0.00000004
-0.50342500 -0.28697249 -0.00000026
-0.25509274 0.32710892 -0.00000064
0.18401811 0.60259306 -0.00000120
-0.57079709 0.45888078 0.45861173
-0.34369755 -0.61920917 -0.00000011
-0.13327859 0.44566515 -0.00000078
0.63156271 -0.03825993 -0.00000139
-0.08197289 -0.70177758 -0.00000006
-0.50624275 -0.23920196 -0.00000027
0.15249956 0.35504824 -0.00000072
-0.51876724 0.34016711 0.11767757
0.50564355 -0.34276557 -0.00000039
-0.35185245 0.02182297 -0.00000048
-0.38426515 0.59508324 0.35811496
0.50023115 -0.20804957 -0.00000063
-0.69356799 -0.36860678 -0.00000005
-0.42159477 -0.46752018 -0.00000021
-0.43839639 0.38492584 0.04656842
-0.20372546 -0.71833205 -0.00000005
-0.59341329 0.01266290 -0.00000022
-0.51272595 0.46810970 0.36108503
-0.67352682 -0.54291451 -0.00000004
0.09069415 -0.47205007 -0.00000020
0.05819732 0.52948642 -0.00000083
-0.31955224 -0.55342853 -0.00000015
-0.37517670 0.44320723 0.03670750
-0.24787597 0.60737699 0.11032502
0.13449477 -0.76951599 -0.00000002
0.19214609 -0.26225489 -0.00000034
0.01528769 0.61938572 -0.00000089
0.68750232 -0.17071852 -0.00000131
0.10773624 -0.20910849 -0.00000037
-0.04886539 0.36086339 -0.00000073
0.56023210 -0.50137287 -0.00000025
-0.56719309 0.16996881 -0.00000028
-0.55589670 -0.08008602 -0.00000025
-0.58415931 -0.30444252 -0.00000017
0.19226301 -0.75580835 -0.00000003
0.22485982 0.06508653 -0.00000054
-0.56677049 -0.66285133 -0.00000009
-0.29206857 -0.46150944 -0.00000021
0.56375527 -0.29364386 -0.00000067
0.21723592 0.32815176 -0.00000077
-0.34249407 -0.79541367 -0.00000000
0.06503261 -0.05029730 -0.00000047
-0.29046357 0.04265196 -0.00000053
0.71983892 -0.34133428 -0.00000108
0.19162470 0.05849037 -0.00000054
0.10486628 -0.72122884 -0.00000005
-0.17298436 -0.17842224 -0.00000039
-0.24360436 0.37842572 -0.00000066
0.23461828 -0.15233564 -0.00000040
0.55080116 0.09472312 -0.00000139
0.57923847 -0.01675760 -0.00000126
-0.35362661 0.62212050 0.35092390
0.53383917 0.04868834 -0.00000124
0.54291642 -0.16415261 -0.00000086
0.51526016 0.15939581 -0.00000140
0.15712076 0.21303667 -0.00000063
-0.63975543 -0.44000927 -0.00000009
0.64624053 -0.30945247 -0.00000090
-0.46880883 -0.12137643 -0.00000033
-0.33698234 -0.21529000 -0.00000037
0.67336625 -0.19183061 -0.00000122
0.22796750 -0.47304377 -0.00000020
0.64573747 -0.45931494 -0.00000061
-0.45192254 0.51391411 0.33113536
0.24383250 -0.15209387 -0.00000040
0.02063036 0.58285469 -0.00000086
0.26372328 -0.05625591 -0.00000046
-0.29939765 -0.49167478 -0.00000019
-0.06604856 0.54017311 -0.00000084
-0.08506012 -0.42395514 -0.00000024
0.62912732 0.09966428 -0.00000165
-0.46292067 -0.43043682 -0.00000023
0.19947432 -0.56737304 -0.00000015
0.37199581 0.37949964 -0.00000137
0.67605269 -0.56182563 -0.00000051
0.45992443 -0.11060428 -0.00000070
-0.47428727 -0.14437714 -0.00000032
0.46251678 -0.21569680 -0.00000050
0.13615742 0.48178315 -0.00000082
-0.36380106 -0.02985360 -0.00000046
-0.04237511 -0.15649819 -0.00000040
0.52421892 -0.59455365 -0.00000013
-0.19792728 -0.26175967 -0.00000034
-0.48461851 0.41045392 0.18983619
-0.58101642 0.40232790 0.36609444
-0.03420614 0.19255701 -0.00000062
0.48053953 -0.15052986 -0.00000068
-0.54063314 -0.37493372 -0.00000021
0.43401867 -0.64090055 -0.00000010
0.08052933 -0.37607834 -0.00000026
0.00218042 -0.40785331 -0.00000025
-0.01931687 0.66480970 -0.00000092
0.61339474 -0.78688419 -0.00000001
-0.43488732 0.54560292 0.36039510
0.76812571 -0.25119877 -0.00000137
0.29544672 0.41799101 -0.00000120
0.02872970 0.05609097 -0.00000054
-0.56383425 0.06322359 -0.00000026
0.78495818 -0.70369035 -0.00000024
-0.61594522 0.21377093 0.05933661
-0.59575891 -0.02202311 -0.00000021
0.17729712 0.21466443 -0.00000063
-0.17660342 -0.47613728 -0.00000020
0.36414233 0.13270746 -0.00000086
-0.12632883 0.60409790 -0.00000083
-0.01290383 0.75220960 -0.00000097
-0.75562650 -0.00822438 -0.00000005
-0.76567590 -0.39620787 0.00000000
0.03308904 0.56966430 -0.00000086
-0.19386958 -0.27387291 -0.00000033
-0.15432917 0.65559262 0.01980932
-0.45795065 -0.55691808 -0.00000015
0.10321783 -0.24838500 -0.00000034
-0.44957903 -0.72124916 -0.00000005
-0.45293456 0.19929042 -0.00000041
0.28354260 -0.33320531 -0.00000029
0.35545495 -0.60517931 -0.00000012
0.00104475 0.64160067 -0.00000090
0.60726827 -0.52935028 -0.00000035
0.10584898 0.03827792 -0.00000052
-0.55218184 -0.66995686 -0.00000008
0.60778916 -0.28326419 -0.00000083
-0.57229877 0.19251209 -0.00000028
-0.31634429 0.47803563 -0.00000060
0.21106362 -0.78326035 -0.00000001
0.51677847 -0.58374012 -0.00000014
-0.46538913 -0.16933420 -0.00000033
-0.11758334 -0.18688928 -0.00000038
0.47479925 -0.67954177 -0.00000008
-0.78481370 0.02419334 0.01798673
0.43140122 -0.41076523 -0.00000024
-0.39788276 0.43053901 0.05675075
-0.34390199 -0.08912730 -0.00000044
-0.71896070 -0.12487585 -0.00000006
0.05511268 -0.11102896 -0.00000043
0.34291613 0.06673825 -0.00000067
0.67692208 -0.40882224 -0.00000081
0.02537841 -0.08786171 -0.00000045
-0.00633868 -0.36676297 -0.00000027
0.15422188 -0.21505460 -0.00000037
-0.02615831 0.71447897 -0.00000095
-0.16894273 0.23741636 -0.00000065
0.14451614 -0.15068834 -0.00000041
-0.65387052 -0.75590509 -0.00000002
0.10945365 0.58293355 -0.00000093
0.30177885 -0.33655414 -0.00000029
0.57355583 -0.46480906 -0.00000037
0.18587591 -0.59587634 -0.00000013
-0.08696869 -0.17538010 -0.00000039
0.59860802 -0.44625789 -0.00000048
-0.50421619 -0.10730717 -0.00000030
-0.20921718 -0.18109244 -0.00000039
-0.28271344 -0.02367984 -0.00000049
-0.62959224 -0.65330374 -0.00000006
-0.18097369 0.41908783 -0.00000074
-0.19042303 0.63344467 0.04765603
0.09281903 -0.09818054 -0.00000044
0.00939825 -0.30674201 -0.00000031
-0.05350942 0.73128015 -0.00000093
-0.37750781 -0.60094839 -0.00000012
0.21048909 0.31326938 -0.00000072
-0.65853655 -0.17632075 -0.00000012
-0.03286074 0.37168437 -0.00000073
0.26882881 -0.54542714 -0.00000016
0.32493159 -0.01482330 -0.00000049
-0.37172845 0.23584136 -0.00000050
-0.02465206 -0.51065993 -0.00000018
0.47772339 -0.01610963 -0.00000094
-0.78902531 -0.15934247 0.00000000
0.30638808 -0.78960788 -0.00000001
-0.28222641 -0.14770640 -0.00000041
-0.23116469 0.66813380 0.19827352
0.11969870 -0.70291370 -0.00000006
-0.40696073 0.06949368 -0.00000043
0.54448164 0.18916211 -0.00000155
-0.63502198 -0.72862273 -0.00000004
0.55718458 -0.33312622 -0.00000057
-0.36490151 0.05686929 -0.00000047
-0.09277228 -0.66171443 -0.00000009
-0.11472268 -0.47694325 -0.00000020
-0.42817917 0.37822372 0.01278463
0.02705110 0.30292782 -0.00000069
-0.20720887 0.63816893 0.09060651
-0.51632792 -0.51634145 -0.00000018
-0.57782012 -0.39017254 -0.00000017
0.40126976 -0.32984546 -0.00000029
0.10686168 -0.65026581 -0.00000009
-0.59033477 0.22323775 0.02710166
0.27108365 -0.64682287 -0.00000010
0.08596553 0.12687594 -0.00000058
-0.68508875 -0.39451593 -0.00000005
-0.52531254 0.42813516 0.30639771
0.33620045 -0.13094141 -0.00000042
-0.31008393 0.44858503 -0.00000060
-0.75343472 -0.31533712 0.00000000
0.23297784 -0.00217492 -0.00000050
-0.02566611 0.68100077 -0.00000093
0.55082822 -0.00299697 -0.00000120
0.54502916 0.02953471 -0.00000124
0.69914412 -0.20235136 -0.00000128
-0.68328106 -0.44912738 -0.00000004
-0.62249911 0.19269302 0.03033582
0.03820105 -0.04321705 -0.00000047
-0.35445517 -0.38392013 -0.00000026
-0.24616621 -0.53890449 -0.00000016
-0.56702381 -0.05451292 -0.00000024
-0.13384978 0.56110555 -0.00000081
0.32215443 -0.57203579 -0.00000014
-0.48708525 0.26834887 -0.00000038
0.36733264 -0.25064662 -0.00000034
-0.49846515 0.50599825 0.40826413
-0.41532013 0.46934941 0.16906375
-0.49176967 -0.68818158 -0.00000007
-0.29495728 0.08168633 -0.00000055
-0.63106298 -0.39878696 -0.00000011
0.63305777 -0.60760546 -0.00000028
0.29070345 0.21461923 -0.00000079
-0.21814473 -0.40818357 -0.00000024
0.04278308 -0.57478130 -0.00000014
0.18184815 -0.72323549 -0.00000005
0.50176531 -0.61633307 -0.00000011
-0.01193083 -0.11702316 -0.00000043
-0.61165565 0.09693049 -0.00000022
-0.09588312 0.16534348 -0.00000060
-0.11221875 -0.75530595 -0.00000003
0.10962078 0.35759336 -0.00000072
-0.42341405 -0.47973028 -0.00000020
-0.46754414 0.41211215 0.15905383
-0.52603483 0.35965964 0.17111093
0.31211680 0.17635711 -0.00000078
-0.01448751 0.59625435 -0.00000087
0.47489488 0.19558498 -0.00000134
-0.30939776 0.48726010 -0.00000061
-0.25761011 0.55047816 0.01614884
0.53492242 -0.26703888 -0.00000063
-0.31406489 0.57628000 0.18039553
0.48322240 0.22078390 -0.00000142
-0.25919992 -0.05699054 -0.00000046
-0.01422196 0.70126867 -0.00000094
0.66766405 -0.78824151 -0.00000003
-0.25020573 -0.16821624 -0.00000039
-0.24590100 0.62072855 0.13304137
-0.61602086 -0.49877831 -0.00000010
0.17110351 0.34168950 -0.00000071
-0.06273695 0.46070495 -0.00000079
-0.38683915 -0.35238865 -0.00000028
-0.10991711 0.73588163 0.09144667
-0.43043894 -0.49020544 -0.00000019
0.52210569 -0.32618287 -0.00000047
-0.42502216 0.36569574 -0.00000047
-0.34963444 -0.52484846 -0.00000017
0.15509608 0.56223506 -0.00000103
0.19793224 -0.18422604 -0.00000038
0.46131772 -0.62823558 -0.00000011
-0.53040850 0.46270040 0.38559189
-0.34590784 -0.12529984 -0.00000042
-0.10488032 0.58126187 -0.00000085
0.46455610 -0.54975057 -0.00000016
0.70499390 -0.46550867 -0.00000079
0.20559070 0.27640039 -0.00000067
0.12290292 -0.70385486 -0.00000006
0.73172641 -0.09888758 -0.00000159
-0.19631068 0.12036732 -0.00000058
-0.50825304 -0.76907545 -0.00000002
-0.01105393 -0.41815412 -0.00000024
-0.24435449 -0.04700048 -0.00000047
0.36727533 -0.06277200 -0.00000049
0.03014978 -0.77955616 -0.00000001
0.29981405 -0.02122478 -0.00000049
-0.50597060 0.35472956 0.12120337
0.57568079 -0.33900943 -0.00000062
0.44223708 -0.44347265 -0.00000022
-0.50809574 -0.31583184 -0.00000025
0.11785585 -0.02184818 -0.00000049
-0.24829713 0.58451897 0.06552414
-0.73543376 -0.45859486 0.00000000
0.34616441 -0.63042647 -0.00000011
0.68253285 -0.34893993 -0.00000094
-0.67869627 -0.16118012 -0.00000010
0.69746953 -0.12315351 -0.00000143
-0.64888847 -0.68997753 -0.00000003
-0.22643729 0.59907693 0.05094399
-0.66067207 -0.41070884 -0.00000007
-0.27108461 -0.47686398 -0.00000020
0.00173114 -0.69094843 -0.00000007
0.05147982 0.67628038 -0.00000092
-0.40377125 -0.32607678 -0.00000030
0.00792232 -0.44847268 -0.00000022
-0.04513081 -0.24717432 -0.00000035
0.05282416 -0.00115744 -0.00000050
-0.09862683 0.40807348 -0.00000076
0.60602534 -0.05508890 -0.00000127
0.03725211 0.62891883 -0.00000089
0.35266715 0.10565599 -0.00000077
-0.03381978 -0.43023598 -0.00000023
-0.00050409 -0.21985959 -0.00000036
-0.31490183 -0.12581103 -0.00000042
-0.02796407 0.17175665 -0.00000061
0.17528643 -0.55519044 -0.00000015
-0.73386163 -0.10705928 -0.00000005
-0.65963173 0.25518847 0.22926868
0.13591303 -0.51980621 -0.00000018
0.11447998 0.22624043 -0.00000064
0.68970096 -0.39898217 -0.00000087
0.66943234 0.03055280 -0.00000164
-0.06653312 -0.21583256 -0.00000037
0.55215764 0.15699016 -0.00000151
-0.49091098 0.52228546 0.42570192
0.23801194 -0.40854254 -0.00000024
0.11724468 0.31195089 -0.00000069
-0.31577751 -0.05594327 -0.00000047
-0.72916400 -0.22344057 -0.00000003
0.11162997 -0.00333818 -0.00000050
0.27626944 -0.05646367 -0.00000046
-0.04430902 0.60722768 -0.00000088
0.10306617 0.42437670 -0.00000077
-0.53273219 0.51487803 0.49441832
0.45244294 0.17794085 -0.00000123
0.00477759 0.45873436 -0.00000079
-0.28907907 0.61530572 0.20842987
0.51223648 -0.07572929 -0.00000093
0.27465102 -0.39189911 -0.00000026
-0.73425293 -0.29270443 -0.00000002
0.14019015 0.18677706 -0.00000062
0.66576296 -0.30498239 -0.00000098
-0.18244319 -0.78316861 -0.00000001
-0.38317254 0.46119985 0.08860009
0.11974809 -0.43891674 -0.00000023
0.37834388 0.00347288 -0.00000066
-0.74339861 -0.28923586 -0.00000001
-0.12550434 -0.70256531 -0.00000006
-0.47108623 0.01618739 -0.00000035
0.16621703 0.35720095 -0.00000072
-0.11931304 -0.12464170 -0.00000042
-0.54828691 -0.22198842 -0.00000023
-0.37613145 0.47020867 0.09252912
-0.35731536 -0.07137934 -0.00000046
-0.16080400 -0.54419547 -0.00000016
-0.03155135 -0.32335997 -0.00000030
-0.34868604 0.29276425 -0.00000054
0.69985557 -0.48189455 -0.00000074
0.04246568 0.37718591 -0.00000074
0.12115805 0.18304203 -0.00000061
-0.67605740 -0.62375432 -0.00000002
0.31365958 0.14687634 -0.00000073
-0.54772621 0.32545593 0.14612707
-0.29251674 0.39691609 -0.00000061
0.18399560 -0.61294603 -0.00000012
0.26012045 -0.35224044 -0.00000028
-0.35054016 -0.79159677 -0.00000001
-0.28109884 0.33169252 -0.00000061
0.27586514 0.00501663 -0.00000050
-0.01907722 -0.36128762 -0.00000027
