ply
format ascii 1.0
element vertex 1391
property float x
property float y
property float z
end_header
0.00000168 -0.55477417 0.18607743
0.00000202 0.16657463 0.22265907
-0.70985824 -0.48819664 -0.00000075
0.00000058 0.58613306 0.06398451
0.00000292 -0.68054372 0.32253987
0.00000042 0.61000705 0.04587184
0.00000022 0.50846565 0.02443091
0.00000246 -0.32950419 0.27145940
-0.20167942 0.33516294 -0.00000004
-0.76052833 -0.48255491 -0.00000079
-0.43496048 -0.71946383 0.00000000
-0.44960079 -0.07483032 -0.00000037
-0.43987012 0.26730821 -0.00000094
0.00000416 0.42469484 0.37069896
0.00000463 0.00560903 0.45776507
0.00000574 -0.79155439 0.63400298
-0.08979790 -0.39737746 0.00000000
0.00000016 -0.04662237 0.01763223
0.00000501 -0.28406882 0.52293199
0.00000179 0.12940060 0.19746609
-0.65034670 0.01775625 -0.00000139
0.00000127 0.07474409 0.13984109
0.00000465 -0.14366476 0.47762957
0.00000176 0.23502161 0.19415379
0.00000063 0.58016843 0.06984354
0.00000014 -0.47093040 0.01502331
0.00000317 -0.45674098 0.35062525
-0.23581389 0.38683096 -0.00000028
-0.36246043 0.16210443 -0.00000042
-0.41212440 -0.72808737 0.00000000
0.00000371 0.24195470 0.35724464
0.00000534 0.30862415 0.47693425
-0.42886311 0.29249936 -0.00000093
0.00000161 -0.24040757 0.17812710
-0.45924219 -0.61183929 0.00000000
-0.16322419 -0.33983436 0.00000000
0.00000436 0.35019243 0.39500636
-0.46953225 -0.79352260 0.00000000
-0.24682015 -0.29827517 0.00000000
0.00000052 0.55148238 0.05728399
0.00000080 -0.49497452 0.08891105
0.00000410 0.42059249 0.36650699
0.00000243 -0.35225961 0.26792896
0.00000713 0.01263836 0.65242517
0.00000097 0.17689767 0.10745002
-0.55452871 -0.24780227 -0.00000051
0.00000535 -0.36845684 0.55978268
-0.30243215 -0.60707480 0.00000000
-0.43389159 -0.15246549 -0.00000017
0.00000819 -0.02138111 0.73969638
0.00000416 -0.49082211 0.45930395
0.00000740 -0.18355267 0.69713980
-0.79341930 -0.21001451 -0.00000147
0.00000457 -0.66554821 0.50437957
-0.45813420 -0.74887377 0.00000000
-0.21124032 -0.08601058 0.00000000
0.00000197 -0.37075368 0.21715219
0.00000382 -0.28514498 0.42164159
0.00000498 0.15014449 0.46806997
-0.30178797 -0.71791059 0.00000000
-0.72114885 -0.61372179 -0.00000047
-0.63267720 -0.33232158 -0.00000070
-0.52432126 -0.15626311 -0.00000055
0.00000389 -0.58423269 0.42930353
0.00000544 -0.21882921 0.54822004
-0.56490308 -0.30569276 -0.00000046
0.00000078 0.07184606 0.08578867
-0.31024918 -0.40960929 0.00000000
0.00000145 -0.71536601 0.16055600
-0.43302581 -0.62828946 0.00000000
-0.16336481 0.36807081 0.00000000
0.00000429 -0.02533726 0.43537754
0.00000572 0.07332499 0.53459328
-0.70313889 -0.53649342 -0.00000064
-0.75756383 -0.09328572 -0.00000165
0.00000168 0.11922385 0.18571578
-0.09340543 -0.30056989 0.00000000
0.00000428 0.27802381 0.39753735
0.00000514 -0.62423766 0.56741142
0.00000104 -0.64311391 0.11438624
-0.12393855 0.66405874 -0.00000029
-0.27514538 0.08809252 0.00000000
0.00000402 -0.36251149 0.44413412
-0.10980907 0.44027022 0.00000000
-0.58913988 -0.46110770 -0.00000028
0.00000604 -0.78989530 0.66447908
0.00000014 0.07099141 0.01525487
-0.70186031 -0.10237798 -0.00000140
-0.49319437 -0.01155721 -0.00000067
-0.42674857 0.25653628 -0.00000086
-0.40647686 -0.55240244 0.00000000
0.00000665 -0.71553850 0.72261840
0.00000566 0.00598721 0.53836924
0.00000161 0.32309601 0.17739537
0.00000785 -0.41895521 0.78648484
-0.07603446 0.50523245 0.00000000
-0.43035388 0.17553797 -0.00000073
0.00000145 0.01550535 0.15965632
-0.38016105 -0.17148262 0.00000000
0.00000585 -0.32657310 0.59395474
-0.21165855 -0.75433093 0.00000000
-0.35975838 0.33305606 -0.00000071
0.00000062 -0.42796710 0.06870747
0.00000161 -0.05416251 0.17747667
-0.24087010 -0.05957012 0.00000000
-0.07538259 0.03118186 0.00000000
0.00000199 -0.70374441 0.22028939
-0.04810640 0.13970143 0.00000000
0.00000138 0.08462089 0.15283680
-0.15911925 -0.71001375 0.00000000
-0.07266468 0.20742296 0.00000000
0.00000104 0.54597145 0.11240694
0.00000277 0.22772799 0.28541467
0.00000675 0.17916469 0.60272360
-0.15551829 -0.72119665 0.00000000
-0.75523221 -0.46784866 -0.00000083
0.00000106 -0.00536858 0.11761733
-0.69248980 -0.37946936 -0.00000087
-0.26517382 0.21200787 -0.00000009
-0.09893124 -0.74483383 0.00000000
0.00000580 -0.79522538 0.64089215
0.00000377 0.30938172 0.35417259
-0.33532402 -0.69244045 0.00000000
-0.30248359 -0.78671098 0.00000000
-0.44363934 0.00133361 -0.00000048
0.00000023 -0.07967810 0.02544562
0.00000576 -0.30070418 0.58368224
-0.59563076 -0.48389795 -0.00000027
-0.04418516 0.64968455 0.00000000
0.00000236 -0.08265197 0.26020554
0.00000248 -0.48524585 0.27406952
0.00000094 0.35581791 0.10436242
0.00000133 -0.37906423 0.14734328
-0.22913656 0.33514696 -0.00000016
-0.62537014 -0.56488431 -0.00000026
0.00000548 0.14018282 0.50771415
0.00000152 0.17989673 0.16840635
-0.57548201 -0.33208045 -0.00000045
-0.53795028 0.12595180 -0.00000110
-0.41446567 0.32742059 -0.00000093
0.00000518 -0.75927258 0.57264751
-0.24030498 -0.02248365 0.00000000
-0.12853749 0.42453712 0.00000000
0.00000167 -0.20338346 0.18500175
0.00000451 0.01182823 0.44825062
0.00000423 0.06661706 0.41959742
-0.50534236 -0.09657777 -0.00000057
0.00000005 0.37641177 0.00512280
0.00000676 0.14958169 0.60703278
-0.05292814 0.01050975 0.00000000
0.00000481 -0.69371897 0.53079289
-0.01471750 0.64997452 0.00000000
0.00000469 -0.54311889 0.51826710
0.00000863 -0.05855620 0.77836633
-0.37793955 0.17848389 -0.00000051
0.00000288 0.47961178 0.26358727
0.00000421 -0.19304675 0.44915345
0.00000005 0.38548353 0.00569883
0.00000243 0.06759033 0.26873046
0.00000714 0.11849043 0.64046967
-0.02656382 0.08081768 0.00000000
0.00000083 -0.01519432 0.09187381
0.00000128 0.42084795 0.14103188
0.00000299 -0.48225397 0.33060634
0.00000809 0.05449570 0.72208124
-0.13474496 0.17027166 0.00000000
-0.19403689 -0.61249477 0.00000000
0.00000215 -0.69292772 0.23758455
0.00000445 0.40237057 0.39592272
-0.08725435 0.62308311 -0.00000006
0.00000569 -0.57613665 0.61157477
-0.73427951 0.06194668 -0.00000177
-0.38058943 0.28404611 -0.00000071
-0.46079594 -0.17229587 -0.00000025
-0.53766435 -0.04160542 -0.00000081
-0.13620640 0.53910863 -0.00000012
-0.47479722 -0.71117216 0.00000000
0.00000573 -0.31608868 0.58294231
0.00000098 0.43289661 0.10845647
-0.53100830 -0.24007411 -0.00000043
-0.35708922 -0.27324957 0.00000000
0.00000370 0.35337320 0.34336686
0.00000666 -0.44200394 0.67073363
-0.41412839 -0.67661667 0.00000000
0.00000277 -0.50419223 0.30609849
-0.07602646 0.11899325 0.00000000
0.00000317 -0.10229234 0.34999818
-0.56088006 -0.56282705 0.00000000
0.00000080 0.29423991 0.08796833
0.00000006 -0.45559642 0.00633702
-0.70000833 -0.11595307 -0.00000137
-0.57177454 -0.23119913 -0.00000062
0.00000373 -0.25904328 0.41228291
-0.01314710 -0.40332329 0.00000000
0.00000226 -0.72538972 0.25008759
-0.72926795 -0.54847825 -0.00000063
0.00000702 -0.41289625 0.69513130
-0.09086991 -0.35613489 0.00000000
-0.56892520 -0.36512908 -0.00000037
0.00000320 -0.57986128 0.35324806
0.00000151 -0.24369285 0.16669418
-0.06843841 -0.10149534 0.00000000
-0.40646851 -0.18614987 0.00000000
0.00000687 0.16924717 0.61330110
0.00000108 0.31030157 0.11883497
-0.46421576 -0.26595864 -0.00000010
-0.54449332 -0.47773731 -0.00000007
-0.01502535 -0.65522981 0.00000000
0.00000296 -0.12074743 0.32653710
0.00000223 -0.28684509 0.24596384
0.00000467 -0.51656497 0.51528853
0.00000678 0.00379280 0.62600595
0.00000636 -0.09597949 0.60565794
-0.37229258 -0.28468323 0.00000000
-0.64564562 -0.79739010 0.00000000
0.00000393 -0.29349598 0.43369731
0.00000418 -0.63381952 0.46180913
-0.35731390 -0.39656562 0.00000000
-0.06688192 -0.35341319 0.00000000
-0.51022273 0.03821071 -0.00000083
-0.72812611 -0.52551848 -0.00000069
0.00000077 0.51092529 0.08453310
0.00000272 -0.54210049 0.30083236
0.00000424 -0.34363937 0.46843961
0.00000406 0.42800778 0.36224112
0.00000542 -0.36396214 0.56490207
-0.33416203 0.27303508 -0.00000049
-0.20648459 -0.59556997 0.00000000
-0.62511396 -0.03932636 -0.00000118
0.00000659 -0.58271664 0.68278366
-0.44833076 -0.45997050 0.00000000
0.00000671 -0.14682481 0.63898939
0.00000418 -0.44788259 0.46171972
0.00000115 -0.70230162 0.12686782
-0.73744833 -0.79035670 -0.00000002
0.00000149 -0.18759575 0.16510515
0.00000497 -0.02807278 0.48829323
-0.62825644 -0.35258153 -0.00000064
0.00000009 -0.35042959 0.00982548
0.00000432 -0.59585476 0.47737294
0.00000219 -0.36995566 0.24169190
0.00000056 0.03578433 0.06234068
0.00000324 0.09455010 0.33894745
0.00000503 0.09187041 0.47854158
-0.45600396 0.05859705 -0.00000064
0.00000696 -0.67307407 0.75138015
-0.11655680 -0.07572401 0.00000000
0.00000284 -0.44388986 0.31355774
-0.58939022 -0.28380236 -0.00000060
-0.47854403 0.05093929 -0.00000072
-0.48950389 -0.22090909 -0.00000028
-0.02885935 0.45260334 0.00000000
0.00000226 -0.40568778 0.24990848
-0.74868929 0.00016979 -0.00000178
-0.42929173 -0.36808714 0.00000000
0.00000490 -0.11027590 0.49276191
0.00000052 -0.30117199 0.05716720
-0.61015081 -0.67641521 0.00000000
-0.33588937 0.13055573 -0.00000025
-0.74608237 -0.72990108 -0.00000018
0.00000541 -0.28822193 0.55427265
0.00000114 0.21308446 0.12592506
0.00000738 0.02159011 0.67111582
-0.14577168 0.09840330 0.00000000
-0.30178094 -0.11503404 0.00000000
-0.15457362 -0.72899169 0.00000000
0.00000285 0.27129695 0.28697801
-0.37470570 0.05733181 -0.00000029
0.00000288 -0.62354583 0.31796485
-0.45817679 -0.57360041 0.00000000
0.00000081 -0.16231915 0.08956863
0.00000643 -0.28118879 0.63344711
-0.34313253 -0.02006905 -0.00000001
-0.07220613 0.62836808 -0.00000000
-0.07584129 0.13017602 0.00000000
-0.01650382 -0.49938414 0.00000000
0.00000597 -0.42358151 0.61477453
-0.04808252 -0.37078670 0.00000000
-0.28730336 0.50683516 -0.00000071
0.00000740 -0.42221746 0.72613209
-0.07725254 -0.13551348 0.00000000
-0.12783332 -0.14208925 0.00000000
0.00000305 -0.24065693 0.33657506
0.00000766 -0.47192004 0.77831072
-0.26458284 -0.61806482 0.00000000
-0.23415524 0.24941838 -0.00000003
-0.63131362 -0.23269822 -0.00000087
0.00000352 -0.13912620 0.38857770
0.00000559 0.03627371 0.52962124
-0.43904793 0.31014121 -0.00000101
-0.01188181 -0.30711657 0.00000000
-0.24377787 -0.12175047 0.00000000
-0.66323894 -0.37233505 -0.00000076
0.00000284 -0.42329741 0.31323090
-0.42993972 -0.19797944 -0.00000007
-0.07230276 0.59758037 0.00000000
0.00000697 0.06322531 0.63386440
-0.47848356 -0.48276550 0.00000000
0.00000006 -0.40850890 0.00681644
-0.03407434 0.71926677 -0.00000000
0.00000296 -0.31041381 0.32642508
-0.32039490 0.06294617 -0.00000006
-0.07833176 0.69982833 -0.00000016
-0.60453147 -0.78852147 0.00000000
0.00000073 -0.27627939 0.08049657
-0.05787054 -0.11427088 0.00000000
-0.43801007 -0.57656413 0.00000000
-0.22275208 0.05553209 0.00000000
-0.11627729 -0.27677289 0.00000000
0.00000260 -0.27842799 0.28672299
-0.61134714 -0.70968974 0.00000000
-0.70761782 -0.29716101 -0.00000108
-0.48187208 0.23383623 -0.00000106
-0.14715321 0.17184903 0.00000000
-0.54306942 -0.41527379 -0.00000017
0.00000629 0.04114282 0.58360040
-0.12531613 0.08419680 0.00000000
0.00000042 -0.22861341 0.04619258
-0.55684811 -0.09704158 -0.00000079
-0.35529590 -0.75494897 0.00000000
0.00000459 0.19931813 0.43100435
0.00000762 -0.44360423 0.76289618
-0.00388256 0.56113434 0.00000000
-0.78828979 -0.18900168 -0.00000153
-0.39641714 0.37062588 -0.00000093
0.00000261 0.11814436 0.28682721
-0.17841767 0.43800175 -0.00000012
-0.65129828 -0.73091036 -0.00000007
-0.56711644 -0.02588554 -0.00000096
-0.69435567 -0.11604206 -0.00000134
0.00000317 0.30820781 0.30718207
0.00000507 0.21181859 0.46713448
0.00000267 -0.66118252 0.29485914
0.00000202 0.55746323 0.18681712
-0.47718030 0.23394048 -0.00000104
-0.06004580 0.20211907 0.00000000
0.00000635 -0.00095455 0.59310853
-0.68870932 -0.62126547 -0.00000043
0.00000496 -0.36974561 0.52926457
0.00000192 0.27111918 0.21251830
-0.47171697 -0.23896594 -0.00000018
0.00000635 -0.02687094 0.59666067
0.00000183 -0.54605085 0.20171665
-0.05075024 0.05537957 0.00000000
-0.39608198 -0.32972243 0.00000000
-0.54976428 0.20527680 -0.00000129
0.00000586 -0.07248815 0.56382430
0.00000134 -0.17230047 0.14808844
0.00000029 -0.23665161 0.03201994
0.00000176 -0.03812547 0.19462398
-0.14168043 -0.72314161 0.00000000
-0.38923571 -0.34148628 0.00000000
-0.48098227 -0.09743036 -0.00000047
-0.41651171 0.24101289 -0.00000079
0.00000147 -0.69240028 0.16199630
-0.08281542 -0.09961078 0.00000000
-0.10745537 0.68751144 -0.00000018
0.00000620 -0.21290399 0.60682690
-0.52235073 -0.56948358 0.00000000
0.00000249 -0.09846645 0.27467853
0.00000154 0.04822963 0.16973369
-0.11758855 0.20005825 0.00000000
-0.32240528 -0.03013440 0.00000000
0.00000623 -0.59803826 0.65627235
-0.68815207 -0.35008222 -0.00000090
-0.72769654 -0.28538394 -0.00000119
0.00000168 -0.70647234 0.18582965
-0.03835784 -0.63104308 0.00000000
0.00000107 0.14207155 0.11862691
-0.02365130 -0.38792717 0.00000000
0.00000027 0.69591886 0.02985987
-0.23506136 0.25950938 -0.00000005
-0.76422715 -0.06207782 -0.00000174
0.00000642 -0.00546080 0.59899879
-0.63803315 0.07122917 -0.00000143
-0.13268152 -0.78469580 0.00000000
-0.63613069 -0.68188655 -0.00000010
0.00000565 -0.69327694 0.62257212
0.00000232 0.21271107 0.25233459
0.00000490 -0.38497761 0.52623093
-0.08296592 -0.68136317 0.00000000
-0.48777968 -0.34556058 -0.00000006
0.00000005 -0.48089188 0.00542346
0.00000221 -0.34309515 0.24370176
-0.17759812 -0.59069955 0.00000000
-0.07837765 0.07015721 0.00000000
0.00000294 -0.66115487 0.32470506
0.00000283 0.16720589 0.29767296
-0.08464598 -0.09253144 0.00000000
-0.14706694 -0.66390562 0.00000000
0.00000585 -0.44714123 0.60828763
-0.43814081 0.02765425 -0.00000050
-0.45745936 0.20126522 -0.00000089
0.00000098 -0.64129627 0.10846065
-0.46736914 0.02881217 -0.00000063
0.00000524 -0.76480043 0.57875305
-0.79875237 -0.43747979 -0.00000091
-0.60309172 -0.69910663 0.00000000
0.00000144 -0.06246608 0.15948899
-0.15099420 -0.17230494 0.00000000
-0.31089225 -0.15859169 0.00000000
-0.52496123 -0.13707078 -0.00000058
-0.68291503 0.05757855 -0.00000160
-0.18959029 0.54103154 -0.00000035
0.00000125 -0.29151154 0.13783297
0.00000475 0.30102897 0.43117756
-0.31891438 -0.39522269 0.00000000
0.00000029 0.50364137 0.03150514
0.00000528 -0.42674237 0.56130576
0.00000205 -0.74169701 0.22623086
0.00000110 -0.10377723 0.12151187
-0.71287704 -0.47481313 -0.00000079
-0.59279680 0.14461258 -0.00000137
0.00000290 -0.12303476 0.32005364
0.00000526 -0.51644719 0.57084358
0.00000142 0.52947658 0.14411639
-0.38983116 0.27827859 -0.00000074
0.00000666 -0.19985279 0.64132154
0.00000493 0.05116907 0.47552785
0.00000563 0.27235642 0.50398338
0.00000714 -0.62919217 0.76116210
-0.18125331 -0.34058684 0.00000000
-0.21114500 0.14052017 0.00000000
0.00000667 -0.06042268 0.62510812
0.00000525 -0.05788029 0.51380301
0.00000875 -0.04092699 0.78533161
-0.02536177 -0.53510869 0.00000000
0.00000366 0.47507083 0.32492092
-0.01618629 -0.01285984 0.00000000
0.00000563 -0.10400555 0.54907298
-0.03693574 -0.65866870 0.00000000
-0.47336224 -0.16750546 -0.00000031
-0.62353277 0.12948832 -0.00000148
0.00000809 -0.07066201 0.73711330
0.00000065 -0.33461225 0.07165556
-0.43645021 -0.32112268 0.00000000
0.00000378 0.21299952 0.36643165
-0.44371974 -0.55182666 0.00000000
-0.49803671 0.26920947 -0.00000119
0.00000228 0.49957386 0.21472210
-0.66740489 -0.27000159 -0.00000096
-0.64904475 -0.39483127 -0.00000066
0.00000174 -0.40575817 0.19273478
0.00000130 -0.75796223 0.14338757
-0.37645695 -0.32145068 0.00000000
-0.20166573 -0.76418179 0.00000000
-0.39614066 0.23977000 -0.00000070
-0.12878445 -0.22875047 0.00000000
-0.60638326 0.11691383 -0.00000138
0.00000604 -0.78397393 0.66359413
0.00000205 -0.11812319 0.22651894
-0.33549806 -0.70848072 0.00000000
0.00000265 -0.78580129 0.29307523
0.00000129 -0.37899286 0.14218506
-0.62443423 -0.63597894 -0.00000013
-0.15964387 -0.10267433 0.00000000
-0.14796039 0.45856389 -0.00000003
-0.11864348 -0.04163795 0.00000000
0.00000346 0.47875655 0.30907273
-0.40821016 -0.76153046 0.00000000
-0.28980699 -0.32118449 0.00000000
0.00000793 -0.23856750 0.74544036
0.00000408 -0.71074885 0.45054004
0.00000245 -0.46196401 0.27096987
0.00000702 -0.55530918 0.71819526
-0.68305594 -0.52017415 -0.00000058
-0.48958385 -0.49920970 0.00000000
0.00000419 -0.14255458 0.44189408
0.00000118 -0.62298679 0.13041885
-0.73220867 -0.41215873 -0.00000097
0.00000332 0.46918300 0.29910079
0.00000614 -0.05999803 0.58376956
0.00000050 0.23019998 0.05545726
-0.68673974 -0.76789892 -0.00000008
-0.56075495 -0.63085431 0.00000000
-0.54432070 -0.16867788 -0.00000061
-0.78517497 -0.18743579 -0.00000153
0.00000039 0.27633998 0.04301676
0.00000077 -0.58018458 0.08491262
0.00000776 -0.31433356 0.74124038
0.00000604 -0.24865589 0.59894139
-0.18443267 -0.19471902 0.00000000
0.00000058 0.56403124 0.06453943
-0.07410009 0.02055420 0.00000000
0.00000624 -0.49711135 0.64468932
0.00000228 -0.04810062 0.25130257
0.00000415 -0.61690968 0.45879498
-0.24247868 -0.27751997 0.00000000
0.00000804 -0.27407438 0.76270229
-0.00218821 -0.04023869 0.00000000
0.00000037 -0.56849903 0.04084168
0.00000186 -0.16204242 0.20541367
-0.02526202 -0.04467527 0.00000000
-0.29064015 0.24201541 -0.00000025
0.00000008 0.34044051 0.00848446
-0.67184669 -0.23979275 -0.00000103
-0.10566430 -0.05762522 0.00000000
-0.01601640 0.73334211 0.00000000
-0.34290966 0.04187943 -0.00000012
0.00000392 -0.37326109 0.43342122
0.00000142 0.49038827 0.14849000
-0.11927128 0.31741023 0.00000000
0.00000142 0.40758029 0.15656838
0.00000102 -0.77791667 0.11284261
-0.20017225 0.36159891 -0.00000008
0.00000220 -0.37464294 0.24261391
-0.58028150 0.05767918 -0.00000116
0.00000472 -0.21982770 0.49205405
0.00000481 0.12175341 0.45803714
-0.34566271 -0.74956995 0.00000000
-0.76197976 -0.23563877 -0.00000141
0.00000630 -0.64336848 0.66708243
-0.03739594 -0.78516084 0.00000000
-0.62298232 -0.26921549 -0.00000077
0.00000043 0.54490715 0.04720834
0.00000017 -0.29740170 0.01925076
0.00000064 -0.22716875 0.07038211
0.00000080 -0.32370606 0.08881073
0.00000256 -0.57576817 0.28312901
0.00000511 -0.00487141 0.49714863
-0.64869159 -0.16569059 -0.00000106
0.00000817 -0.23532160 0.76719069
-0.36047298 0.32220134 -0.00000069
-0.25448492 -0.02841680 0.00000000
-0.15814678 0.48419833 -0.00000012
0.00000240 0.36555040 0.24020025
0.00000348 -0.67021126 0.38408288
-0.41251931 -0.73949105 0.00000000
-0.55586869 0.24391560 -0.00000139
-0.25094768 -0.78115839 0.00000000
0.00000231 0.01757935 0.25522652
-0.04296768 0.55868423 0.00000000
-0.49331099 -0.58063239 0.00000000
-0.09687364 -0.24096164 0.00000000
0.00000049 -0.75739008 0.05413836
-0.76832503 -0.34824312 -0.00000113
-0.02573558 -0.40327018 0.00000000
-0.12230207 0.30541483 0.00000000
-0.64684981 0.12295965 -0.00000156
-0.62160915 -0.78787673 0.00000000
0.00000380 -0.15342596 0.41254318
-0.01994617 0.41252673 0.00000000
-0.72137922 -0.03478794 -0.00000160
0.00000412 -0.23475072 0.44707981
0.00000749 -0.25296721 0.71266615
0.00000298 -0.04270288 0.32902789
-0.21999344 0.25124553 0.00000000
0.00000502 -0.46152943 0.54482716
0.00000312 -0.44072527 0.34415355
-0.60618120 -0.45778748 -0.00000036
0.00000274 -0.14602968 0.30252686
-0.13117886 -0.34295145 0.00000000
0.00000476 -0.10212953 0.48136961
-0.35608241 0.24153490 -0.00000053
-0.52541459 0.09405694 -0.00000099
-0.35812303 -0.27361336 0.00000000
-0.34537885 -0.57097071 0.00000000
-0.20597875 0.43066159 -0.00000023
-0.54169488 -0.07833055 -0.00000076
-0.22802912 -0.30299050 0.00000000
0.00000644 -0.49007988 0.65952528
-0.15119988 -0.40826502 0.00000000
0.00000087 0.68296158 0.08237679
0.00000586 0.03315151 0.55099058
-0.78547478 -0.72846359 -0.00000018
-0.50574428 0.06937647 -0.00000087
0.00000676 -0.08047906 0.63446862
0.00000268 0.53525913 0.24160406
0.00000114 0.40777558 0.12544674
-0.50935274 0.10160966 -0.00000094
-0.30311763 0.29929388 -0.00000041
-0.43773723 -0.34673396 0.00000000
-0.63572925 -0.59647697 -0.00000024
0.00000665 -0.70040435 0.71793681
-0.11589541 -0.72803682 0.00000000
0.00000348 0.25338641 0.33844733
0.00000609 0.17153324 0.55178517
0.00000376 -0.60292524 0.41496351
-0.11744683 -0.28969282 0.00000000
-0.78870523 -0.18767451 -0.00000153
0.00000113 0.46833473 0.12498577
-0.66400009 0.08095464 -0.00000156
-0.20780244 0.40523598 -0.00000019
0.00000819 -0.17580365 0.75819522
-0.25384909 -0.69552094 0.00000000
-0.75027287 0.03526485 -0.00000185
0.00000226 0.55628026 0.20611934
0.00000419 0.03358278 0.42041260
0.00000149 -0.20525382 0.16464755
-0.27882203 -0.38477898 0.00000000
-0.12193141 -0.15514234 0.00000000
0.00000671 -0.40330088 0.66979539
0.00000571 0.27024302 0.51031446
-0.16927560 -0.29440209 0.00000000
0.00000011 -0.70479083 0.01246606
0.00000027 -0.13943812 0.02958919
0.00000840 -0.18265092 0.77989411
0.00000344 -0.67236769 0.38015375
-0.16617887 0.19845209 0.00000000
-0.49942178 -0.42233786 0.00000000
0.00000041 0.69453877 0.04480339
0.00000610 -0.39010119 0.62107086
0.00000465 0.29283473 0.42463243
0.00000623 -0.33260664 0.62362295
-0.02184710 -0.52331322 0.00000000
0.00000675 -0.00013174 0.62389642
-0.46419439 -0.28995109 -0.00000005
0.00000414 -0.17852029 0.44191658
-0.66331637 -0.16242377 -0.00000113
0.00000204 -0.16101113 0.22563635
0.00000190 -0.50545603 0.21001104
0.00000550 -0.77466255 0.60699326
0.00000352 -0.54067415 0.38843668
-0.52504200 -0.01915341 -0.00000079
-0.60436463 -0.17021684 -0.00000086
0.00000153 -0.58534163 0.16851369
-0.29948944 -0.68769532 0.00000000
-0.77982277 -0.18096611 -0.00000155
0.00000183 0.17294022 0.20211242
-0.14100163 -0.78872365 0.00000000
-0.16670258 -0.42304343 0.00000000
-0.64514911 -0.47095782 -0.00000051
-0.25783089 0.12972294 0.00000000
0.00000420 -0.66133219 0.46378547
0.00000693 -0.31849024 0.67693400
-0.34693456 -0.59613389 0.00000000
-0.55992681 -0.63553894 0.00000000
0.00000743 -0.50971961 0.75934541
-0.04378134 -0.72860122 0.00000000
-0.24902326 -0.48820788 0.00000000
0.00000357 -0.50067800 0.39470837
-0.66333085 -0.59803438 -0.00000036
0.00000564 -0.53248435 0.60225898
0.00000213 0.50407684 0.20233954
-0.14699925 -0.22048110 0.00000000
-0.70747936 -0.49889290 -0.00000072
-0.72064185 -0.10219504 -0.00000148
-0.11113476 -0.72057462 0.00000000
0.00000483 0.10775417 0.46114260
-0.48918477 -0.27843404 -0.00000018
0.00000290 -0.15587246 0.32025212
0.00000356 0.19095497 0.35202527
0.00000510 -0.01741265 0.49727198
-0.66254807 0.11672519 -0.00000162
0.00000698 -0.38216761 0.68851417
0.00000464 0.20751011 0.43465960
-0.68220407 -0.24288201 -0.00000107
0.00000270 -0.72222173 0.29793808
0.00000048 0.08889118 0.05352982
-0.10647851 -0.57132149 0.00000000
-0.75630718 0.01224920 -0.00000184
0.00000015 -0.77688271 0.01682311
-0.11688611 0.67765707 -0.00000020
-0.06190565 -0.08008078 0.00000000
-0.59548116 -0.73440444 0.00000000
-0.19945405 0.28312862 0.00000000
-0.63267106 -0.05933582 -0.00000118
-0.54793119 0.24119335 -0.00000135
0.00000135 -0.61689699 0.14924864
-0.05949919 0.38713846 0.00000000
0.00000714 -0.16225332 0.67464411
0.00000065 0.25961730 0.07191375
-0.71399462 -0.33265895 -0.00000104
0.00000711 -0.40941712 0.70169371
-0.17939772 0.10152311 0.00000000
-0.44055349 0.35495669 -0.00000103
-0.12259886 -0.39447436 0.00000000
-0.56223136 0.19993755 -0.00000134
-0.49559334 -0.74157137 0.00000000
-0.18056668 0.22067904 0.00000000
-0.12679209 0.21052298 0.00000000
0.00000252 -0.59529996 0.27795416
-0.53483003 -0.61729330 0.00000000
-0.53686237 0.24634081 -0.00000131
-0.06676563 0.30285659 0.00000000
0.00000678 -0.14676972 0.64459395
0.00000196 0.04005623 0.21602511
0.00000525 0.00830348 0.50600827
0.00000306 -0.54813468 0.33752474
0.00000253 -0.11720818 0.27904528
-0.17528138 -0.53292161 0.00000000
-0.21790788 -0.64408535 0.00000000
0.00000375 -0.38086048 0.41451383
-0.52929890 -0.02259634 -0.00000080
-0.25867981 -0.21754999 0.00000000
-0.60606062 -0.42209095 -0.00000043
-0.36970133 -0.09527782 0.00000000
0.00000443 -0.50966567 0.48958886
-0.79842228 -0.09917302 -0.00000175
-0.16861200 0.46564868 -0.00000013
-0.59104270 -0.38156635 -0.00000043
-0.35362101 -0.41824189 0.00000000
-0.06807634 -0.32285741 0.00000000
-0.47100708 -0.17549337 -0.00000029
0.00000758 -0.44859630 0.75957763
-0.78084272 -0.04519637 -0.00000184
-0.71151859 -0.28161570 -0.00000112
0.00000067 -0.42594692 0.07452157
-0.01353936 -0.64983451 0.00000000
-0.50534737 -0.18884812 -0.00000041
-0.42976356 0.24868932 -0.00000086
-0.42958009 -0.21354426 -0.00000004
-0.35118932 -0.45613012 0.00000000
-0.41898987 0.06153963 -0.00000048
0.00000278 -0.29909551 0.30748117
0.00000013 -0.46670008 0.01482160
0.00000184 -0.38964656 0.20270877
0.00000201 -0.26559106 0.22148779
0.00000409 -0.21601488 0.44288674
0.00000368 -0.50662076 0.40678352
0.00000422 0.35628235 0.38367438
0.00000329 -0.57806146 0.36293486
0.00000723 0.15469009 0.64332134
-0.52337402 -0.15308587 -0.00000055
-0.01971183 0.69933629 0.00000000
-0.75788516 -0.76762778 -0.00000008
-0.17533146 -0.15015031 0.00000000
0.00000067 -0.17087583 0.07365312
-0.27880555 0.35777465 -0.00000041
-0.07628613 0.43039429 0.00000000
0.00000082 -0.77718282 0.09011929
0.00000101 -0.03082162 0.11173412
0.00000305 0.12234936 0.32033280
0.00000161 0.10098432 0.17745773
-0.65695745 -0.25182065 -0.00000094
-0.61980015 -0.16910616 -0.00000093
-0.51746172 0.19953258 -0.00000115
0.00000604 0.09666203 0.55699140
0.00000134 -0.14195819 0.14758417
0.00000107 0.41467246 0.11787001
-0.65866274 -0.14142224 -0.00000115
-0.67989171 -0.66931707 -0.00000030
0.00000774 -0.01110905 0.70306253
-0.17118628 -0.58786052 0.00000000
-0.10519186 0.26504692 0.00000000
-0.78547359 -0.33643562 -0.00000116
0.00000458 0.19745807 0.43077460
0.00000388 -0.65631068 0.42809492
-0.03595501 0.09195649 0.00000000
-0.48061565 0.25262886 -0.00000108
0.00000685 -0.48924965 0.69170165
0.00000594 -0.75578851 0.65231985
-0.11455833 -0.27115670 0.00000000
-0.31634817 -0.09530058 0.00000000
0.00000531 0.13516490 0.49522382
0.00000220 -0.19235308 0.24299552
-0.02008424 0.10159233 0.00000000
-0.53121752 -0.63698870 0.00000000
-0.59254408 -0.12893511 -0.00000089
0.00000561 0.11727427 0.52083009
-0.26883578 -0.41545230 0.00000000
-0.28482619 -0.79608572 0.00000000
0.00000532 0.15244931 0.49409026
-0.10195297 0.68739218 -0.00000024
0.00000155 -0.19392456 0.17125539
-0.65709484 -0.00210517 -0.00000139
-0.00191404 -0.44509360 0.00000000
0.00000427 -0.01903026 0.43259868
0.00000017 0.10261622 0.01856659
-0.62849009 -0.31436250 -0.00000071
0.00000335 -0.43464467 0.36958048
-0.78842711 -0.43956852 -0.00000090
0.00000690 -0.06868329 0.64418638
0.00000557 -0.27399835 0.56554425
-0.33184046 0.32561359 -0.00000058
0.00000160 -0.71100467 0.17711107
0.00000355 -0.57086766 0.39255360
-0.59043366 -0.28962359 -0.00000059
0.00000150 -0.33509085 0.16602977
0.00000389 -0.18924409 0.42383578
0.00000374 -0.27839863 0.41337910
0.00000098 0.33423573 0.10799262
0.00000062 0.11520010 0.06883285
0.00000728 -0.65380037 0.78819323
-0.39973196 -0.52841169 0.00000000
0.00000220 -0.39127636 0.24335487
0.00000651 -0.56049192 0.67364228
-0.02698710 0.70584053 0.00000000
0.00000424 0.13730232 0.41159326
-0.19850200 -0.71934515 0.00000000
-0.50012803 -0.30597049 -0.00000018
-0.35035411 -0.16100881 0.00000000
0.00000692 -0.78369081 0.78351295
0.00000231 -0.02673470 0.25506118
0.00000401 -0.15241052 0.42888016
-0.44044402 -0.60445505 0.00000000
-0.70527548 -0.59423256 -0.00000051
0.00000280 -0.41823143 0.30879182
-0.52399760 -0.39483505 -0.00000012
0.00000297 0.43274203 0.27614912
0.00000259 -0.23924884 0.28554896
0.00000433 -0.23771662 0.46436372
-0.45518228 0.00766380 -0.00000054
0.00000565 -0.52671570 0.60205847
-0.35634521 -0.50996417 0.00000000
-0.10075627 -0.39733461 0.00000000
-0.04404581 -0.27752349 0.00000000
-0.73243028 -0.05523790 -0.00000161
0.00000155 -0.20203698 0.17068484
-0.46884564 0.09746121 -0.00000076
0.00000371 0.11494871 0.37306827
0.00000262 -0.61730736 0.28994185
-0.09083301 -0.32289350 0.00000000
0.00000529 -0.12748344 0.52593535
0.00000199 0.56524813 0.18353418
-0.18727358 -0.11354133 0.00000000
-0.30289572 -0.06483607 0.00000000
-0.27604300 -0.56633914 0.00000000
-0.54089737 -0.12954774 -0.00000067
-0.29874253 0.18483858 -0.00000019
0.00000694 -0.79224688 0.78935975
-0.33176839 -0.33077058 0.00000000
-0.77549893 -0.42806464 -0.00000093
-0.13987629 -0.33787003 0.00000000
0.00000514 -0.67749637 0.56750810
-0.41526911 0.10992823 -0.00000055
-0.65090305 -0.68629456 -0.00000015
-0.58051652 -0.59208614 -0.00000002
0.00000152 -0.12934732 0.16826513
0.00000188 -0.07673515 0.20766713
0.00000521 0.22757146 0.47626457
0.00000442 -0.77397591 0.48847362
0.00000163 -0.15713334 0.17971241
-0.44611898 -0.63464540 0.00000000
-0.20092285 -0.10946394 0.00000000
-0.60234302 -0.10025029 -0.00000098
0.00000057 -0.17422684 0.06316515
0.00000065 0.19279775 0.07158734
0.00000648 -0.27457675 0.63622773
0.00000054 0.69870055 0.05432668
-0.11510303 0.67289317 -0.00000027
0.00000027 -0.10068973 0.02976654
0.00000399 -0.22464988 0.43632707
-0.05507617 -0.67349970 0.00000000
0.00000475 -0.61568862 0.52503866
0.00000571 -0.70160860 0.62780792
0.00000633 -0.75916272 0.69422120
-0.61906928 -0.69523811 0.00000000
-0.20737521 -0.04378981 0.00000000
0.00000755 -0.56027067 0.79266423
-0.35565257 -0.44697312 0.00000000
0.00000201 0.16633449 0.22241145
-0.46525761 0.11932501 -0.00000078
-0.57986510 -0.28155759 -0.00000056
0.00000212 -0.49239784 0.23400196
-0.16317482 0.00580668 0.00000000
-0.70975298 -0.47620866 -0.00000077
0.00000056 0.55614012 0.06228874
0.00000102 0.36500701 0.11245336
-0.36249176 -0.16611917 0.00000000
0.00000732 -0.54943913 0.75725883
0.00000728 -0.29901534 0.70170802
0.00000026 -0.20295025 0.02894698
-0.09572296 -0.79094559 0.00000000
0.00000567 -0.38698673 0.58710343
0.00000043 -0.32207939 0.04765241
-0.18865304 0.06282544 0.00000000
-0.52223587 0.06851072 -0.00000094
-0.02974547 0.15557083 0.00000000
0.00000073 -0.59717250 0.08086691
-0.38636988 0.37145072 -0.00000089
0.00000678 -0.67234391 0.72586423
-0.36383677 0.18654747 -0.00000047
0.00000073 0.22287725 0.08009842
-0.76594967 -0.29762602 -0.00000126
0.00000509 -0.01666797 0.49638876
-0.03608472 -0.02994569 0.00000000
-0.66427481 -0.65393984 -0.00000026
-0.43811551 -0.24593149 -0.00000002
0.00000347 -0.08261037 0.37836859
-0.05597967 0.04949269 0.00000000
0.00000151 0.13539012 0.16711590
0.00000458 -0.47592667 0.50564194
0.00000307 0.02490735 0.33362335
0.00000675 0.12645766 0.60915864
0.00000470 -0.10793201 0.47715172
-0.79502642 -0.58324391 -0.00000054
0.00000016 0.24168186 0.01777470
-0.57678330 0.20595849 -0.00000141
0.00000217 -0.59639132 0.23986511
0.00000551 -0.76115197 0.60912359
-0.73818558 0.05153487 -0.00000183
0.00000501 -0.68616104 0.55379862
-0.18422069 0.20583452 0.00000000
0.00000278 -0.16865049 0.30750993
-0.41784677 0.05208098 -0.00000046
0.00000362 0.05569217 0.37337768
0.00000506 -0.65830177 0.55909747
-0.21707267 -0.56507128 0.00000000
-0.15760992 -0.71260846 0.00000000
-0.23653711 -0.50009179 0.00000000
-0.71403396 -0.06621277 -0.00000152
0.00000403 0.28376999 0.37763157
0.00000010 0.51266474 0.01131270
0.00000081 -0.01674229 0.08943656
0.00000468 -0.40221694 0.51109731
-0.67800474 -0.24570478 -0.00000105
-0.63221091 -0.73862213 0.00000000
-0.21762015 0.54488230 -0.00000048
0.00000755 -0.48946664 0.76871896
0.00000143 0.22567199 0.15763476
0.00000465 -0.25019261 0.49064994
0.00000014 0.43763214 0.01492205
0.00000356 -0.66214097 0.39346850
0.00000327 0.00969221 0.35130858
-0.48068139 0.13728449 -0.00000088
0.00000465 -0.19291165 0.48378944
-0.36353248 -0.03131920 -0.00000008
0.00000514 -0.76095682 0.56720388
-0.32502013 -0.41725463 0.00000000
-0.20081466 -0.66183829 0.00000000
-0.12972130 -0.32306346 0.00000000
0.00000494 -0.43717474 0.53560001
-0.06542772 -0.47274417 0.00000000
0.00000020 0.19040696 0.02158844
0.00000440 0.03796458 0.43611509
-0.19182634 -0.60929632 0.00000000
0.00000235 -0.21393162 0.25929311
0.00000616 -0.79893845 0.68488699
-0.42397535 -0.63772506 0.00000000
0.00000337 0.31214970 0.32226458
-0.22328123 -0.58228999 0.00000000
-0.03182019 0.66327423 0.00000000
-0.52941889 -0.29382539 -0.00000033
-0.13731819 -0.31148842 0.00000000
0.00000624 0.22447701 0.55698198
0.00000316 0.20505266 0.31879118
-0.26741174 0.32472944 -0.00000030
0.00000671 -0.68175530 0.72006059
-0.67907947 -0.23126784 -0.00000108
-0.34963024 -0.69202048 0.00000000
0.00000465 -0.06870287 0.46828228
-0.78305852 -0.28253239 -0.00000129
0.00000463 -0.08987395 0.46990177
0.00000872 -0.01608616 0.78015554
0.00000398 -0.69920123 0.43954787
0.00000218 0.12429471 0.24091634
-0.60250700 -0.67740899 0.00000000
0.00000210 -0.47187448 0.23146164
0.00000050 -0.53974450 0.05531402
-0.07787397 0.17429020 0.00000000
0.00000723 -0.60194254 0.76401192
0.00000270 0.38521838 0.26111341
-0.19959386 -0.67891645 0.00000000
-0.36366734 0.03991528 -0.00000021
0.00000014 0.02379315 0.01589506
-0.58445734 0.18588930 -0.00000141
0.00000173 -0.07997710 0.19083104
-0.14408983 -0.73841757 0.00000000
-0.64532959 -0.36973342 -0.00000069
-0.18251276 0.35900193 0.00000000
0.00000005 -0.15567704 0.00550593
0.00000115 0.34365416 0.12663335
-0.34947288 0.15435886 -0.00000035
-0.30554891 -0.59855688 0.00000000
-0.66670942 -0.50955105 -0.00000053
-0.11684783 -0.51735556 0.00000000
-0.68306780 -0.37657437 -0.00000084
-0.32638249 0.41513842 -0.00000071
-0.55520594 0.06560087 -0.00000107
0.00000436 -0.71914631 0.48144859
-0.35799965 0.26038480 -0.00000057
-0.13231654 -0.52852684 0.00000000
-0.63847196 -0.20821579 -0.00000094
0.00000728 -0.63271856 0.78136784
-0.00812240 0.59339076 0.00000000
-0.23577355 -0.03422079 0.00000000
-0.41545749 -0.50884205 0.00000000
0.00000225 -0.76385725 0.24894305
-0.21688388 -0.28681049 0.00000000
-0.36728421 0.39787894 -0.00000086
0.00000102 -0.04436803 0.11238391
-0.61310273 -0.33334291 -0.00000061
0.00000656 -0.28268391 0.64369208
-0.46705538 -0.48548901 0.00000000
0.00000313 -0.64043778 0.34553683
0.00000594 -0.37753332 0.60717088
-0.34420174 -0.07072836 0.00000000
0.00000171 -0.64930654 0.18905349
-0.23782182 -0.78874421 0.00000000
0.00000156 -0.52522117 0.17278020
0.00000707 -0.73378849 0.78720647
0.00000463 0.18726458 0.43595451
-0.12644599 0.27637708 0.00000000
-0.47551411 -0.60298193 0.00000000
0.00000361 -0.20658556 0.39915049
-0.29690155 0.32387048 -0.00000043
0.00000444 0.21385348 0.41769493
0.00000414 -0.43797377 0.45684624
-0.45966068 0.30678156 -0.00000109
0.00000683 -0.66110355 0.72901237
0.00000069 0.18127382 0.07583954
0.00000396 -0.00404031 0.40656221
-0.78444213 -0.61058730 -0.00000047
-0.69375360 -0.15995720 -0.00000126
-0.31926677 -0.78787893 0.00000000
-0.15652040 0.12354327 0.00000000
0.00000462 0.33686981 0.41710764
0.00000096 -0.26048586 0.10597786
-0.27105856 0.11481554 0.00000000
0.00000377 0.14943457 0.37315896
-0.02986188 0.11587363 0.00000000
-0.09984859 -0.15645581 0.00000000
0.00000777 -0.24889275 0.73383665
-0.09380395 -0.53374159 0.00000000
-0.16587967 -0.47483295 0.00000000
-0.75704509 -0.51062918 -0.00000072
0.00000608 -0.31951931 0.61085272
-0.48754716 -0.62665498 0.00000000
0.00000243 -0.70980054 0.26856169
-0.43532720 -0.72001284 0.00000000
0.00000691 -0.14074801 0.65348852
0.00000133 -0.55105329 0.14662008
0.00000173 0.60730219 0.15859526
-0.47134984 0.27310258 -0.00000108
0.00000600 -0.19110680 0.58856034
0.00000151 -0.11746602 0.16633868
-0.06612991 -0.37829998 0.00000000
-0.14083359 0.64881772 -0.00000033
-0.33616853 -0.25034103 0.00000000
-0.75873697 -0.00378011 -0.00000182
0.00000311 -0.62364829 0.34305128
0.00000714 -0.08837949 0.66538548
0.00000400 -0.78950775 0.44233894
-0.38156435 0.09657337 -0.00000038
0.00000290 -0.72091699 0.31996581
-0.51045561 -0.57127595 0.00000000
0.00000815 -0.27478230 0.77776992
0.00000116 -0.79576242 0.12852474
-0.09301219 -0.63361049 0.00000000
-0.11809847 0.04743135 0.00000000
-0.53985500 -0.50239438 -0.00000000
0.00000237 -0.62813479 0.26207301
0.00000638 -0.72868967 0.69016516
0.00000233 0.10111711 0.25791445
-0.74055725 -0.62216938 -0.00000044
-0.08060903 -0.69465834 0.00000000
0.00000601 -0.17480622 0.58755904
0.00000302 -0.62039542 0.33340737
-0.44478688 -0.34846932 0.00000000
0.00000252 0.34835565 0.25186774
0.00000246 0.22517186 0.26159370
0.00000582 -0.52249259 0.61514539
0.00000069 0.63939077 0.07321215
-0.69068158 0.08874413 -0.00000169
-0.35287806 0.41859594 -0.00000083
-0.47817931 -0.70597482 0.00000000
-0.06486512 -0.07755644 0.00000000
-0.20351107 -0.32437807 0.00000000
0.00000603 -0.33389392 0.60829812
-0.25030437 0.08447701 0.00000000
0.00000082 -0.48671153 0.09029440
-0.10554462 -0.43203259 0.00000000
0.00000489 -0.78896356 0.54065150
0.00000110 0.62834126 0.10663932
0.00000121 0.12610240 0.13393848
-0.26680607 -0.33364019 0.00000000
-0.07923663 0.02531973 0.00000000
-0.00020406 -0.52417457 0.00000000
0.00000219 -0.35346797 0.24195623
-0.34281507 -0.49201003 0.00000000
-0.13062136 0.60663807 -0.00000022
-0.46059304 0.20302403 -0.00000091
-0.00541665 0.71444672 0.00000000
0.00000682 0.06704980 0.62172109
-0.35264003 -0.58930796 0.00000000
0.00000670 -0.61486661 0.69557482
0.00000699 -0.45529103 0.69862080
0.00000172 0.45483354 0.17625605
0.00000548 -0.77558321 0.60494387
0.00000655 -0.50100899 0.66925430
-0.51659453 0.13590702 -0.00000103
0.00000046 0.63142723 0.05042478
-0.03492439 0.59774953 0.00000000
0.00000385 0.31422016 0.35986674
0.00000196 0.49190137 0.19038156
0.00000579 -0.10092355 0.56157160
0.00000251 0.42182410 0.24209130
-0.04725957 -0.69335634 0.00000000
0.00000002 0.35524619 0.00270269
0.00000170 0.19380330 0.18779421
0.00000232 -0.66170162 0.25631475
-0.49575442 -0.16940933 -0.00000040
0.00000028 -0.19761190 0.03073829
-0.67962605 -0.17250563 -0.00000118
-0.19875206 0.43657649 -0.00000021
0.00000627 0.12800385 0.57108140
0.00000202 0.33951315 0.21341114
-0.18185213 0.21622440 0.00000000
0.00000132 -0.37457541 0.14607717
0.00000112 -0.70572662 0.12316939
0.00000034 0.62510252 0.03760267
0.00000727 -0.53590584 0.74605930
0.00000834 0.01492403 0.74653435
0.00000232 -0.47888497 0.25600076
0.00000464 -0.61129761 0.51248521
-0.22069164 0.13325800 0.00000000
-0.21368943 0.57836938 -0.00000052
-0.69337040 -0.00363989 -0.00000154
0.00000567 -0.42659035 0.59166807
-0.42178664 -0.35638604 0.00000000
0.00000517 -0.22069481 0.52734804
0.00000549 -0.39208835 0.57345295
0.00000217 -0.31371549 0.24010602
0.00000414 0.24647202 0.39034852
0.00000355 -0.79409510 0.39169556
0.00000677 -0.00736684 0.62660080
0.00000010 0.20075080 0.01143067
-0.39130366 0.06005595 -0.00000036
-0.51284474 -0.36287388 -0.00000013
-0.47353435 0.15709423 -0.00000088
-0.08922442 0.35759079 0.00000000
0.00000433 -0.57967812 0.47837093
-0.33506414 -0.20856735 0.00000000
-0.65928972 -0.11555353 -0.00000120
0.00000518 -0.40308294 0.55031121
0.00000745 -0.47392371 0.74939430
-0.58270246 -0.05833166 -0.00000097
0.00000243 -0.46029660 0.26791871
-0.28263086 -0.74786508 0.00000000
0.00000263 -0.37768874 0.29004857
-0.36744943 -0.58599299 0.00000000
0.00000471 -0.21215189 0.49087986
-0.64923018 -0.30979601 -0.00000081
0.00000095 -0.55738938 0.10454279
-0.29706040 0.02786520 0.00000000
-0.17987148 -0.19075263 0.00000000
-0.30000144 0.43219545 -0.00000063
-0.02657246 0.64140069 0.00000000
0.00000017 -0.28667021 0.01887864
0.00000117 -0.63548219 0.12933978
-0.45247343 0.27417412 -0.00000100
0.00000366 -0.59755325 0.40417320
0.00000147 0.17544651 0.16258962
-0.03552106 0.04573064 0.00000000
-0.39775744 0.19103549 -0.00000062
0.00000273 0.51968795 0.24719086
0.00000111 0.18173039 0.12223097
0.00000253 -0.79711425 0.27910280
-0.14813338 -0.13523445 0.00000000
0.00000813 -0.26248854 0.77120930
0.00000167 0.32514009 0.18486264
-0.15457889 0.42430380 0.00000000
0.00000296 0.34940907 0.28553164
-0.38166031 0.19538406 -0.00000056
0.00000159 0.59138870 0.14971733
0.00000405 0.41015068 0.36386153
-0.33871192 0.15160504 -0.00000030
-0.54160058 -0.54059887 0.00000000
-0.19144370 0.04575305 0.00000000
0.00000013 0.00421645 0.01382208
-0.76809937 -0.32421389 -0.00000119
-0.37531987 0.12495897 -0.00000041
0.00000298 -0.77272671 0.32962105
-0.12184624 0.34541047 0.00000000
-0.28707743 -0.43086553 0.00000000
0.00000109 0.24450719 0.12089864
0.00000116 0.27638760 0.12852231
0.00000267 0.12896521 0.28994697
0.00000624 -0.46386534 0.64074802
0.00000203 0.41337427 0.20566700
-0.04287175 -0.72765523 0.00000000
-0.10079817 0.66242915 -0.00000019
0.00000160 -0.08669569 0.17654273
-0.15848152 -0.61340827 0.00000000
0.00000357 -0.53565520 0.39383942
0.00000599 0.19294630 0.54130471
-0.11244073 0.62103170 -0.00000016
-0.36873901 0.21856441 -0.00000055
-0.21883968 0.49560729 -0.00000040
-0.58451009 -0.50942969 -0.00000018
-0.03620817 -0.43897530 0.00000000
0.00000187 -0.76983404 0.20694195
0.00000650 -0.65985966 0.68459326
0.00000557 -0.60689247 0.60606456
-0.39651594 -0.09382173 -0.00000011
0.00000411 -0.16732661 0.43828875
-0.52557421 0.17263758 -0.00000113
0.00000326 -0.26718137 0.36041278
-0.65531874 -0.17166325 -0.00000108
-0.76886213 -0.03330862 -0.00000181
-0.64171708 -0.14093947 -0.00000108
-0.74723572 -0.06922245 -0.00000165
-0.61542445 0.13030078 -0.00000144
0.00000298 -0.04448491 0.32913795
-0.78258860 -0.63803655 -0.00000040
-0.16426662 -0.25844571 0.00000000
-0.00284739 0.52066636 0.00000000
-0.39726153 0.32810363 -0.00000086
0.00000534 -0.06856409 0.52269763
-0.73328358 -0.36838245 -0.00000106
0.00000466 0.03422550 0.45709607
-0.54070151 -0.68844938 0.00000000
-0.05916175 -0.32978305 0.00000000
-0.43633375 -0.19333553 -0.00000011
-0.36567491 -0.78146291 0.00000000
0.00000543 -0.23072992 0.54886317
-0.24472977 0.34804830 -0.00000025
-0.10231759 -0.52239305 0.00000000
-0.41413224 -0.69001120 0.00000000
-0.03606356 0.09929842 0.00000000
0.00000218 -0.42618659 0.24084438
0.00000646 0.18750750 0.57888681
-0.72114861 -0.29085326 -0.00000115
0.00000332 0.06923156 0.34818906
-0.40882525 -0.16245168 -0.00000004
-0.53080535 -0.39989719 -0.00000014
-0.67886698 -0.19825149 -0.00000113
0.00000290 0.19913188 0.29924554
-0.05284038 0.68849778 -0.00000003
0.00000552 0.22022963 0.50135803
0.00000208 -0.42681709 0.22945634
-0.60860592 -0.15374793 -0.00000091
-0.04426940 0.25986254 0.00000000
-0.18659586 -0.14642029 0.00000000
0.00000268 0.07794254 0.29625046
-0.45411545 0.25616628 -0.00000098
-0.15484753 0.19826645 0.00000000
0.00000268 -0.27525562 0.29615518
0.00000368 -0.48421979 0.40619573
-0.39424494 -0.47142720 0.00000000
0.00000030 -0.20640405 0.03325452
-0.29174006 0.31743550 -0.00000039
0.00000134 0.66184211 0.12113393
-0.33053622 -0.64983135 0.00000000
0.00000526 -0.41358873 0.55827373
0.00000364 0.03232082 0.37775755
0.00000352 -0.29085180 0.38831991
-0.17863496 -0.62153065 0.00000000
-0.31523728 -0.65914273 0.00000000
-0.15757270 -0.45059860 0.00000000
-0.50861114 0.07527243 -0.00000089
0.00000892 -0.01407244 0.79553914
-0.57304388 0.03454777 -0.00000109
-0.52225149 0.26056036 -0.00000128
0.00000081 -0.31409845 0.08910561
-0.09393660 0.13731238 0.00000000
-0.64634871 0.06961356 -0.00000147
-0.48575372 0.17984916 -0.00000098
0.00000289 -0.20554014 0.31971198
-0.04512727 -0.60552084 0.00000000
0.00000068 -0.48606300 0.07510254
-0.18630762 0.13739954 0.00000000
-0.50484532 0.07688381 -0.00000088
0.00000363 0.30233362 0.34366357
-0.44686183 -0.43114394 0.00000000
-0.56102884 -0.23466726 -0.00000057
0.00000063 -0.66411847 0.06905655
-0.44655326 -0.47259611 0.00000000
-0.14811592 0.22182499 0.00000000
0.00000290 0.53383040 0.25861558
-0.57952183 -0.30180755 -0.00000053
-0.48130268 -0.62467337 0.00000000
-0.13730612 -0.36578429 0.00000000
-0.15916069 -0.74579483 0.00000000
0.00000407 -0.56401151 0.44972330
-0.28093964 -0.67692250 0.00000000
0.00000273 0.39849836 0.26216149
0.00000055 -0.65917504 0.06087417
0.00000586 -0.73378730 0.64371097
-0.03286735 -0.18893585 0.00000000
-0.69417608 -0.09089302 -0.00000139
-0.52101809 -0.66652489 0.00000000
-0.15766639 -0.42049778 0.00000000
0.00000247 -0.11799637 0.27239197
-0.37612128 -0.74256396 0.00000000
0.00000646 -0.22296420 0.62881202
0.00000678 -0.12004212 0.64092094
0.00000775 -0.14744203 0.72044545
0.00000290 0.10750266 0.31086779
0.00000339 -0.26145068 0.37469137
0.00000538 -0.79985720 0.59462202
-0.56020761 -0.02310537 -0.00000094
0.00000380 -0.12556578 0.40933102
-0.12404572 -0.05223756 0.00000000
-0.62085330 -0.79539078 0.00000000
-0.51538807 -0.10044151 -0.00000061
-0.04199449 0.46422800 0.00000000
0.00000059 0.69757235 0.05814172
-0.74883521 -0.69288629 -0.00000027
0.00000428 -0.05731028 0.43809387
0.00000169 0.57567108 0.15921751
-0.24172638 -0.32786205 0.00000000
0.00000263 0.16480149 0.28218660
-0.71889675 -0.10204863 -0.00000147
-0.17418937 -0.70386082 0.00000000
0.00000027 -0.16884457 0.02972180
0.00000117 0.15418182 0.12886138
-0.38637725 -0.79797530 0.00000000
-0.63873470 -0.07203364 -0.00000118
-0.21851709 0.49147102 -0.00000039
-0.72826517 -0.03742599 -0.00000163
0.00000137 0.43435606 0.15149657
0.00000003 -0.49197885 0.00383281
0.00000760 -0.40714452 0.74787033
0.00000865 -0.09695034 0.78566355
-0.46137491 -0.74955010 0.00000000
-0.02296663 0.68354017 0.00000000
-0.64955747 -0.39903513 -0.00000065
-0.30050981 -0.67319828 0.00000000
0.00000621 -0.28845534 0.61673552
0.00000082 0.16193627 0.09051259
0.00000009 -0.10795579 0.00955320
0.00000403 -0.47596064 0.44564033
-0.15114497 -0.30300039 0.00000000
0.00000242 -0.48756278 0.26762006
-0.44237790 -0.44385082 0.00000000
-0.64396226 -0.23957673 -0.00000091
0.00000030 0.47623706 0.03306412
-0.49627438 0.29548720 -0.00000123
0.00000478 0.37503567 0.42491615
-0.45834932 -0.14852239 -0.00000028
0.00000370 -0.33428147 0.40835875
0.00000017 0.11793706 0.01867382
0.00000248 -0.29197234 0.27433664
-0.21203354 -0.64040440 0.00000000
0.00000168 0.36169368 0.18474013
-0.66719860 -0.08995467 -0.00000127
0.00000409 0.26212958 0.38462567
-0.34445190 0.44835058 -0.00000085
0.00000009 -0.30165991 0.00967160
-0.31906366 -0.64494026 0.00000000
-0.11874772 -0.79019201 0.00000000
-0.20154443 0.17159012 0.00000000
0.00000391 -0.66528392 0.43180707
-0.46115282 0.17571145 -0.00000086
-0.43914655 0.15213285 -0.00000073
-0.44110230 -0.10094604 -0.00000029
0.00000185 0.44546995 0.18775059
-0.03121464 -0.58657628 0.00000000
-0.63639295 0.14961170 -0.00000157
0.00000125 -0.61385244 0.13832410
0.00000723 -0.67570418 0.78860646
-0.40653944 -0.35408738 0.00000000
0.00000174 -0.18045779 0.19182660
-0.05224691 0.67405891 -0.00000000
0.00000738 -0.02678656 0.67656875
-0.61177540 -0.13484892 -0.00000096
-0.34789264 0.38778812 -0.00000076
-0.75630003 -0.18818010 -0.00000148
-0.27193251 0.30721098 -0.00000029
-0.14929107 0.42494667 0.00000000
-0.38231266 -0.71878821 0.00000000
-0.50697625 -0.19186459 -0.00000041
-0.57639790 0.04476956 -0.00000112
-0.39840606 -0.57296991 0.00000000
0.00000561 -0.57646078 0.60544521
-0.48399875 -0.40358692 0.00000000
0.00000075 -0.12046260 0.08251417
-0.02191791 0.25793821 0.00000000
0.00000229 -0.60363287 0.25283703
0.00000433 -0.74101239 0.47796819
-0.35793325 -0.74915528 0.00000000
-0.55820364 0.19890028 -0.00000132
0.00000104 0.20963454 0.11510607
-0.29794022 -0.58697432 0.00000000
0.00000178 0.07217356 0.19609942
-0.05845670 0.15979584 0.00000000
-0.39484340 -0.07680044 -0.00000014
-0.71615911 -0.39539608 -0.00000094
-0.63461977 -0.79771817 0.00000000
0.00000199 -0.28494522 0.22005753
-0.38975823 0.25838664 -0.00000071
0.00000559 0.03053069 0.53004599
-0.40379697 0.15337116 -0.00000058
-0.09946266 0.42941639 0.00000000
0.00000692 -0.24131995 0.66711110
-0.60623455 -0.69225276 0.00000000
-0.01852823 -0.23657176 0.00000000
-0.48457202 -0.51388752 0.00000000
0.00000424 -0.68346250 0.46864048
0.00000140 -0.22934996 0.15486144
-0.04078263 0.40566811 0.00000000
0.00000427 0.10796895 0.41770312
-0.12544426 -0.16605541 0.00000000
-0.53562582 -0.33123767 -0.00000029
0.00000740 -0.13040376 0.69097859
-0.35670757 -0.76211029 0.00000000
0.00000195 -0.53305572 0.21586932
-0.20646912 0.04421641 0.00000000
0.00000028 -0.11804996 0.03139347
-0.51894540 -0.53210193 0.00000000
0.00000619 -0.73114860 0.66884077
0.00000063 0.00870706 0.06903924
-0.26895380 0.14918336 0.00000000
0.00000132 0.29307836 0.14535537
-0.58016253 -0.00206531 -0.00000106
0.00000346 -0.65236336 0.38190839
-0.57802212 -0.78067321 0.00000000
-0.39866334 -0.21083118 0.00000000
-0.26985899 0.12971435 0.00000000
