ply
format ascii 1.0
element vertex 1366
property float x
property float y
property float z
end_header
-0.34053561 -0.15121484 -0.00000041
-0.29939756 0.22401194 -0.00000058
0.35171267 0.27883270 -0.00000111
-0.30114958 0.57714927 0.14054871
-0.02017203 -0.64615846 -0.00000010
-0.18381013 0.00247023 -0.00000050
-0.06735934 -0.78446841 -0.00000001
-0.29801854 -0.75888544 -0.00000003
0.50588381 -0.04168453 -0.00000098
-0.69779998 -0.28663865 -0.00000006
-0.39352679 0.10148912 -0.00000045
-0.43238637 0.07233900 -0.00000041
-0.16052984 -0.34238046 -0.00000029
0.05025358 -0.01371571 -0.00000049
-0.07377140 -0.62055910 -0.00000011
-0.13005608 -0.16968694 -0.00000039
0.55794895 -0.55430627 -0.00000015
-0.49845171 0.56240046 0.46824330
0.32242095 0.39089957 -0.00000123
-0.38948873 0.57273215 0.29119399
0.26319653 -0.06145546 -0.00000046
0.19121595 -0.19841011 -0.00000038
-0.40263239 0.11293444 -0.00000044
-0.42024410 -0.33994988 -0.00000029
-0.36625853 0.06552526 -0.00000047
-0.14290443 -0.66292942 -0.00000009
0.36309272 -0.61072576 -0.00000012
0.03851487 -0.23520960 -0.00000035
0.02389804 -0.65572345 -0.00000009
-0.28287503 -0.12687220 -0.00000042
0.35894549 -0.64992481 -0.00000009
-0.35021096 0.48518339 0.06353356
0.78295922 -0.03872725 -0.00000187
-0.52710617 0.37889886 0.19028381
-0.57497877 -0.31433186 -0.00000018
-0.55620682 -0.12144918 -0.00000024
0.38546789 -0.63249308 -0.00000010
0.78835475 -0.14587076 -0.00000164
0.38726819 -0.03441082 -0.00000061
-0.20895407 -0.47814676 -0.00000020
-0.36367983 -0.67644888 -0.00000008
0.03740753 -0.01020900 -0.00000049
-0.23803370 -0.60459101 -0.00000012
-0.27738962 -0.71899724 -0.00000005
-0.77626747 -0.08963502 -0.00000001
-0.34137830 -0.42643782 -0.00000023
-0.42169777 0.38047126 0.00389309
-0.37534177 -0.65731031 -0.00000009
0.10005456 0.48229241 -0.00000080
-0.29987168 -0.50541955 -0.00000018
-0.12535666 -0.62071347 -0.00000011
0.24560864 -0.00396468 -0.00000050
0.28369746 -0.31567681 -0.00000030
-0.28902915 -0.29960853 -0.00000031
0.38925761 -0.26091301 -0.00000034
0.15643275 -0.15977672 -0.00000040
-0.60061693 0.40169793 0.36316538
0.37869599 -0.17563811 -0.00000039
0.67138553 -0.01528211 -0.00000156
-0.72059911 -0.71558189 0.00000000
-0.40820375 0.34938118 -0.00000048
-0.76330036 -0.66943771 0.00000000
0.01144783 -0.55662560 -0.00000015
-0.32892591 0.55565232 0.15182067
0.42114258 -0.56665939 -0.00000015
0.29383498 -0.57695580 -0.00000014
-0.07934203 -0.53161144 -0.00000017
0.54983211 -0.25104004 -0.00000071
-0.59254438 -0.76139718 -0.00000002
-0.16265388 -0.00187878 -0.00000050
-0.29041579 0.57889521 0.12441507
0.70308030 -0.56059855 -0.00000060
-0.30618280 0.34927413 -0.00000059
0.13514093 0.11600936 -0.00000057
-0.49190977 -0.70228493 -0.00000006
-0.54966319 -0.57140350 -0.00000014
0.00964286 0.61516666 -0.00000088
0.78396815 -0.22179317 -0.00000145
-0.50017351 -0.54596186 -0.00000016
-0.63924694 -0.65980417 -0.00000005
0.52851743 -0.31597412 -0.00000051
0.25741702 0.33694398 -0.00000092
0.32299387 0.24090086 -0.00000094
0.60301828 -0.43152964 -0.00000053
0.37872726 -0.73243022 -0.00000004
0.15218984 -0.13296725 -0.00000042
-0.65367550 -0.45396498 -0.00000007
-0.74524105 -0.23870683 -0.00000001
0.41738242 -0.54128820 -0.00000016
0.37298089 0.01255009 -0.00000066
0.34329644 -0.44511670 -0.00000022
0.15305626 0.32888296 -0.00000071
-0.10049056 0.27549589 -0.00000067
-0.79921931 -0.70105338 0.00000000
-0.53549874 0.02916724 -0.00000029
-0.40058893 -0.25197563 -0.00000034
-0.37754008 -0.62678963 -0.00000011
0.01563981 -0.06491538 -0.00000046
0.41211507 -0.01663524 -0.00000073
0.22100396 -0.77980947 -0.00000001
-0.11077533 0.01691952 -0.00000051
0.14395447 -0.19875678 -0.00000038
0.69700050 -0.62963212 -0.00000043
0.07265200 0.47542247 -0.00000080
-0.78806454 -0.08467521 0.00000000
-0.41498035 0.21996295 -0.00000045
0.14464624 -0.09749362 -0.00000044
0.28897095 -0.43187591 -0.00000023
-0.54244727 -0.69343704 -0.00000007
0.07057962 0.42754272 -0.00000077
-0.42273378 0.35166198 -0.00000047
0.46680367 -0.50724465 -0.00000018
-0.36048537 0.34208715 -0.00000053
-0.77993578 0.03340350 0.02394621
-0.64117372 -0.25499573 -0.00000012
0.12679406 0.01494812 -0.00000051
0.79568148 -0.14207289 -0.00000164
-0.37478992 0.36454898 -0.00000052
-0.08262663 -0.75454158 -0.00000003
-0.66847754 -0.06128225 -0.00000013
0.65985173 -0.38857880 -0.00000079
0.32929289 0.18834175 -0.00000086
-0.19025126 -0.40703428 -0.00000025
-0.55639642 -0.72249806 -0.00000005
0.38540813 -0.58079696 -0.00000014
-0.02235802 0.49385700 -0.00000081
-0.32597989 0.54155421 0.12122573
-0.69205213 -0.05611554 -0.00000010
0.75778788 -0.06685616 -0.00000173
0.23762517 -0.47382331 -0.00000020
0.05797185 0.32119384 -0.00000070
-0.65472448 -0.55993479 -0.00000005
-0.08864460 -0.28930193 -0.00000032
-0.47895083 0.41324940 0.16550335
0.30570883 -0.71754807 -0.00000005
-0.69495147 -0.05213715 -0.00000010
-0.27420011 0.30578035 -0.00000062
-0.74219948 -0.13102242 -0.00000004
0.51108211 -0.57624650 -0.00000014
-0.23778546 0.62773430 0.11760941
0.69584852 -0.06474910 -0.00000154
0.66825211 -0.53550166 -0.00000053
-0.02233970 -0.78060895 -0.00000001
0.21713565 -0.53357273 -0.00000017
-0.54997355 0.11505157 -0.00000029
0.60133743 0.12978327 -0.00000162
0.01319095 0.55134851 -0.00000084
0.55841458 -0.29837373 -0.00000064
-0.18397719 -0.17751054 -0.00000039
-0.07921164 0.58509511 -0.00000087
-0.44698638 0.53102845 0.31954515
0.60871732 -0.66973007 -0.00000008
0.04325605 0.75433773 -0.00000101
0.43503714 -0.42533728 -0.00000023
-0.16386977 0.04756842 -0.00000053
0.68336725 -0.10925137 -0.00000141
-0.69169861 -0.46922025 -0.00000003
0.38071808 -0.67962712 -0.00000008
0.14670014 0.08446198 -0.00000055
0.02867249 0.06920397 -0.00000054
0.36232802 0.02173276 -0.00000064
0.51462996 -0.16050060 -0.00000077
0.49328226 -0.20115305 -0.00000063
-0.45964381 0.37211436 0.05700714
-0.40344447 0.02011022 -0.00000043
0.09600421 0.64781177 -0.00000101
-0.72154963 0.12744910 0.08795615
-0.03570176 -0.63729781 -0.00000010
0.54493344 -0.07576628 -0.00000104
0.38606751 -0.29095772 -0.00000032
-0.33879557 0.58829314 0.22812952
-0.11706232 -0.31138396 -0.00000031
-0.13307916 0.68001062 0.02349467
-0.28988823 -0.75620985 -0.00000003
0.57664758 -0.71383458 -0.00000005
-0.56138456 -0.60589164 -0.00000012
-0.59268934 0.40213859 0.34972584
-0.61059654 0.10541932 -0.00000022
0.74307191 -0.27651051 -0.00000128
0.78025985 -0.46670154 -0.00000083
0.73354125 -0.17848793 -0.00000144
-0.58745736 -0.47947013 -0.00000014
-0.26230219 -0.38894466 -0.00000026
-0.17396756 -0.19210303 -0.00000038
0.07247555 -0.58511144 -0.00000013
-0.11182572 -0.49891606 -0.00000019
-0.67175263 -0.68759042 -0.00000001
-0.23121350 0.49912551 -0.00000070
-0.60501665 -0.44157508 -0.00000013
-0.55983621 0.34077236 0.18059714
-0.68601519 -0.72544789 0.00000000
0.05168879 -0.62018502 -0.00000011
0.47702017 0.15418214 -0.00000127
-0.57115817 0.06173777 -0.00000026
0.07958788 0.17188552 -0.00000061
0.64631230 -0.46776074 -0.00000060
0.08303055 -0.62498277 -0.00000011
-0.11597707 0.53356582 -0.00000083
0.27494889 -0.26116484 -0.00000034
0.06511748 0.73361915 -0.00000106
0.06453200 -0.05878932 -0.00000046
-0.25681046 0.06194397 -0.00000054
-0.61853087 0.10433938 -0.00000021
-0.18852364 0.57821089 -0.00000076
0.02081148 -0.30624884 -0.00000031
-0.10035918 -0.72537130 -0.00000005
-0.45948434 -0.54417461 -0.00000016
-0.48114055 -0.38025892 -0.00000026
0.13090472 0.51688612 -0.00000087
-0.66919643 -0.32878271 -0.00000008
-0.54355353 -0.37389648 -0.00000021
0.76349711 -0.05484349 -0.00000178
0.44421458 -0.27663794 -0.00000033
0.00918872 -0.12354394 -0.00000042
-0.20850562 -0.19608234 -0.00000038
-0.12365498 -0.59504485 -0.00000013
0.40213528 -0.54408556 -0.00000016
0.38751704 0.14286962 -0.00000096
0.31566063 -0.37164274 -0.00000027
-0.39299700 0.46580210 0.10554640
-0.39213744 0.03221549 -0.00000044
-0.14364517 -0.14399023 -0.00000041
-0.22449613 0.38243383 -0.00000068
-0.01975744 -0.06900810 -0.00000046
0.47994566 0.14828905 -0.00000126
0.01624934 0.19240122 -0.00000062
-0.50963241 -0.68364120 -0.00000007
0.25482446 -0.37521499 -0.00000027
-0.45401967 0.51128101 0.29672250
-0.21074820 -0.08013459 -0.00000045
-0.24701603 0.58873475 0.06417282
-0.32750767 -0.69906616 -0.00000006
-0.67778385 -0.34848970 -0.00000007
0.32716611 -0.69392037 -0.00000007
-0.37806016 0.05792854 -0.00000046
-0.41145021 -0.02516980 -0.00000041
0.28353900 0.33994430 -0.00000101
-0.26350754 -0.15935425 -0.00000040
-0.44345859 0.18250535 -0.00000041
-0.53585464 0.20943402 -0.00000032
-0.76986194 -0.75017333 0.00000000
-0.73710358 -0.22709322 -0.00000003
-0.39254400 0.49142161 0.15072133
-0.03256251 -0.07409798 -0.00000045
0.47390902 -0.24071380 -0.00000049
-0.10035764 0.70100331 0.00244069
0.00478076 -0.55361843 -0.00000015
-0.24502499 0.33609113 -0.00000065
-0.01745265 0.49915436 -0.00000081
0.03741075 -0.49852112 -0.00000019
-0.05309254 -0.53728235 -0.00000016
0.18367454 -0.42601013 -0.00000023
-0.52015883 0.54337913 0.47306448
0.53299391 -0.45102677 -0.00000027
0.32556531 -0.20000857 -0.00000037
0.65847671 0.06235792 -0.00000167
0.56403399 -0.62717128 -0.00000011
-0.21795961 0.05325350 -0.00000053
0.18265170 -0.64273262 -0.00000010
-0.42929208 0.38933086 0.03342864
-0.54672498 -0.21694729 -0.00000023
-0.68709272 -0.30940777 -0.00000006
0.19977312 0.05580652 -0.00000053
0.09958586 0.57798582 -0.00000089
-0.01522900 -0.19380639 -0.00000038
0.25241253 -0.53333497 -0.00000017
-0.15468806 0.42985085 -0.00000077
0.05293597 -0.10254727 -0.00000044
-0.39318973 -0.35479271 -0.00000028
-0.48111579 0.02938573 -0.00000035
0.58650380 -0.44010988 -0.00000046
-0.12443351 0.72323400 0.08556337
0.11677327 -0.73314631 -0.00000004
-0.47462988 -0.12860739 -0.00000032
0.47803059 0.23428231 -0.00000143
-0.36167222 0.49750713 0.10622875
-0.65778857 -0.49211004 -0.00000006
-0.70356917 -0.48167223 -0.00000001
-0.26165873 -0.28786173 -0.00000032
-0.46596193 -0.49674231 -0.00000019
-0.13697851 -0.35301614 -0.00000028
0.08701176 0.37867519 -0.00000074
-0.71368933 0.09328809 0.01252605
-0.48794803 0.53831756 0.40615824
0.25640953 0.51169872 -0.00000126
0.62626874 -0.45051029 -0.00000057
-0.76195413 0.04177432 0.00669432
0.13097724 0.21496658 -0.00000063
-0.36580017 -0.28601500 -0.00000032
-0.56064284 0.06391481 -0.00000027
-0.58258152 -0.66157693 -0.00000009
-0.38650689 0.36698323 -0.00000051
0.73182422 -0.35441342 -0.00000109
0.27881658 0.26307479 -0.00000084
0.76195252 -0.23245591 -0.00000142
0.14858855 0.32636142 -0.00000070
0.50429231 0.28718480 -0.00000161
0.02696559 0.55148536 -0.00000084
-0.73049849 -0.40405387 -0.00000000
-0.58391970 0.33081916 0.20596173
0.46667627 0.17268743 -0.00000127
-0.17597701 -0.30200782 -0.00000031
-0.49475327 -0.45311481 -0.00000022
-0.13282700 0.11105767 -0.00000057
0.46479076 -0.24582931 -0.00000045
-0.03025909 -0.34382057 -0.00000029
0.05271332 -0.19444299 -0.00000038
0.21158595 -0.75010860 -0.00000003
-0.74179935 -0.52467918 0.00000000
-0.66856462 0.21317343 0.14672437
0.78479224 -0.61066228 -0.00000047
-0.09941624 0.70178026 0.00214549
-0.47119495 0.44189674 0.20300439
0.45204577 0.27434823 -0.00000142
0.32420060 0.02652250 -0.00000053
-0.22812612 -0.17908683 -0.00000039
-0.68254650 -0.20457868 -0.00000009
-0.58794540 -0.55457675 -0.00000012
-0.06871886 -0.78723902 -0.00000001
0.19463812 0.06453934 -0.00000054
-0.47568977 0.38679436 0.11216167
-0.44970092 -0.74124604 -0.00000004
0.12269555 -0.00480154 -0.00000050
-0.03411408 -0.25485829 -0.00000034
-0.20791277 0.11271306 -0.00000057
0.18370168 -0.67177987 -0.00000008
-0.74544817 0.10600812 0.09236774
-0.27305248 -0.20788595 -0.00000037
0.07105140 -0.08356351 -0.00000045
0.44185799 -0.21738905 -0.00000043
0.17913751 0.05831031 -0.00000054
0.45293826 0.27881888 -0.00000143
0.19030485 0.00372687 -0.00000050
0.00579524 -0.00794824 -0.00000050
-0.03520911 0.23815757 -0.00000065
0.15961564 0.61252332 -0.00000115
0.05749648 -0.41585076 -0.00000024
-0.22934785 0.25122139 -0.00000065
0.60886049 -0.51698077 -0.00000038
-0.18687648 0.32005543 -0.00000070
0.07658788 -0.60455126 -0.00000012
0.26779690 0.30885154 -0.00000090
-0.00571822 -0.27743492 -0.00000033
0.49875519 -0.24168704 -0.00000056
-0.45295444 -0.25836620 -0.00000032
0.18852030 0.12306672 -0.00000058
0.10772490 -0.01638694 -0.00000049
-0.17940183 0.30886796 -0.00000069
-0.64180517 -0.07798396 -0.00000015
0.24493214 0.18868601 -0.00000062
-0.65367985 0.25938934 0.20296501
0.60845298 -0.20192805 -0.00000099
0.21148480 -0.10328669 -0.00000044
0.04515254 -0.37925723 -0.00000026
-0.65019417 -0.46203464 -0.00000008
0.68919140 -0.50115532 -0.00000067
-0.37761194 -0.17289925 -0.00000039
-0.36436012 -0.29384327 -0.00000032
0.40658829 -0.50475383 -0.00000018
-0.43706736 -0.27297527 -0.00000033
0.78794503 -0.12196850 -0.00000170
0.71844590 -0.78438061 -0.00000004
0.49559677 0.11736831 -0.00000125
-0.00389756 0.77469462 -0.00000098
-0.12728374 0.70882899 0.06482189
-0.30679622 -0.70914829 -0.00000006
0.11732942 0.65512121 -0.00000109
-0.76066923 -0.25816035 0.00000000
-0.57527196 0.35363400 0.23139231
0.15978287 -0.36071053 -0.00000027
-0.40394437 -0.38540661 -0.00000026
-0.63893229 -0.11173673 -0.00000015
-0.15914549 -0.13257670 -0.00000042
-0.70507044 0.12231008 0.04915048
0.01602983 -0.18073232 -0.00000039
-0.47241020 -0.51003909 -0.00000018
0.10739506 -0.01485045 -0.00000049
-0.55151206 -0.04596789 -0.00000026
-0.66720915 -0.58515203 -0.00000003
-0.33043802 0.59269059 0.22102094
-0.79463309 -0.61219871 0.00000000
0.01923715 0.37874806 -0.00000074
-0.23086099 -0.76306105 -0.00000002
0.36030677 0.30104730 -0.00000118
-0.22227205 -0.72025287 -0.00000005
0.16846789 -0.65241843 -0.00000009
-0.36383739 -0.14133175 -0.00000041
0.71187842 -0.46389014 -0.00000081
-0.02800020 0.24938382 -0.00000066
0.37949762 -0.10133233 -0.00000046
-0.37225905 0.60811591 0.32378167
-0.25962961 0.40153515 -0.00000065
0.30091494 -0.73291284 -0.00000004
-0.50770700 -0.07154525 -0.00000030
0.35294107 -0.39764372 -0.00000025
0.64587975 0.15385062 -0.00000180
0.45487472 0.06757846 -0.00000103
-0.54100460 0.36179191 0.18452446
-0.19381353 -0.78309810 -0.00000001
-0.11189693 0.55065179 -0.00000083
-0.46872991 -0.74662530 -0.00000003
0.61060935 -0.46971926 -0.00000048
-0.14620627 0.41413891 -0.00000076
0.37531313 -0.49339250 -0.00000019
-0.16624700 -0.48137966 -0.00000020
-0.08226773 -0.14473055 -0.00000041
-0.51973951 0.22309691 -0.00000034
0.48646322 -0.54402071 -0.00000016
-0.37256235 0.20142297 -0.00000049
-0.27350697 -0.19714788 -0.00000038
0.35979787 0.24227442 -0.00000106
-0.69523090 -0.31200960 -0.00000005
-0.36899719 0.36868429 -0.00000053
0.45416856 -0.07491101 -0.00000075
-0.57567233 -0.02968052 -0.00000023
0.31601411 -0.54152077 -0.00000016
-0.33101845 -0.24295579 -0.00000035
0.55684471 -0.44246891 -0.00000036
-0.56292832 -0.41135687 -0.00000018
0.03069490 0.28250691 -0.00000068
-0.09271499 -0.47405815 -0.00000020
0.06079872 -0.57980734 -0.00000014
0.61340111 -0.78126109 -0.00000001
0.68581003 -0.50596839 -0.00000065
0.51644307 -0.20426773 -0.00000069
0.44682273 -0.58601934 -0.00000013
-0.22325577 -0.39110610 -0.00000026
-0.70414555 -0.62356287 0.00000000
-0.76150042 -0.54018635 0.00000000
0.01809501 -0.75315869 -0.00000003
-0.37670204 0.18346293 -0.00000049
-0.30711147 0.04285374 -0.00000053
0.19811493 -0.02165914 -0.00000049
-0.36094978 0.22587129 -0.00000051
-0.56840813 0.10695710 -0.00000027
-0.45821723 0.31912291 -0.00000042
0.33519748 0.09805761 -0.00000070
0.44112745 -0.16668271 -0.00000053
-0.59433234 -0.75544131 -0.00000003
-0.50612170 -0.52132183 -0.00000017
0.21631822 0.46264130 -0.00000103
-0.05591504 0.10947387 -0.00000057
-0.78283113 -0.55254227 0.00000000
-0.21064216 0.45895329 -0.00000071
-0.52829945 0.28354719 0.02126549
0.44326812 -0.35750651 -0.00000028
0.29549825 -0.02174000 -0.00000049
-0.69740027 0.11298160 0.01863708
-0.56384164 -0.00098443 -0.00000025
0.68184203 0.07123210 -0.00000176
-0.47319958 0.44359082 0.20964374
-0.70148933 -0.67345738 0.00000000
-0.09139754 -0.33939850 -0.00000029
-0.50245667 -0.67467213 -0.00000008
0.54055136 -0.33175793 -0.00000052
0.19583239 -0.11530278 -0.00000043
-0.09775746 -0.44527560 -0.00000022
-0.51131421 0.13415122 -0.00000033
0.07796414 0.20934880 -0.00000063
-0.67806423 -0.40601864 -0.00000006
-0.59413666 0.05829718 -0.00000023
-0.40863392 0.04347121 -0.00000043
0.17511579 -0.47551170 -0.00000020
-0.69912767 -0.18540393 -0.00000007
-0.34204987 0.45371673 -0.00000057
-0.49293399 -0.17412895 -0.00000030
-0.64399219 0.29883805 0.25638732
0.67143273 0.11967902 -0.00000182
-0.10684575 -0.51547545 -0.00000018
-0.05800141 0.76256430 0.03691399
-0.06940045 -0.52296495 -0.00000017
0.45841971 -0.58488160 -0.00000013
-0.36174744 -0.34294564 -0.00000029
0.51980329 -0.57478690 -0.00000014
0.03116622 0.61661726 -0.00000089
-0.14463943 0.14183268 -0.00000059
0.11637102 -0.51139116 -0.00000018
-0.28940532 -0.39514163 -0.00000025
-0.15234692 -0.72701043 -0.00000005
-0.39550951 0.44942009 0.08065000
0.24754322 0.09818423 -0.00000056
0.51526707 -0.33085042 -0.00000044
-0.21343625 -0.48634428 -0.00000020
-0.72276741 -0.59980148 0.00000000
-0.15269350 -0.55553854 -0.00000015
-0.63128430 -0.65376580 -0.00000006
0.23125835 -0.07266448 -0.00000045
0.41729537 -0.26341090 -0.00000034
-0.04183684 -0.55129200 -0.00000016
0.09784630 0.29061896 -0.00000068
-0.67324400 -0.11704647 -0.00000011
0.19581410 0.05446730 -0.00000053
-0.06413295 -0.66919249 -0.00000008
-0.48651364 -0.36470199 -0.00000027
0.68969363 -0.45654064 -0.00000076
0.22281206 -0.15320660 -0.00000040
0.09720835 0.02207498 -0.00000051
0.78152502 -0.52571976 -0.00000069
0.72286689 -0.77425790 -0.00000006
-0.34518462 -0.77335662 -0.00000002
0.24168558 -0.10284582 -0.00000044
-0.41881448 0.43475530 0.09615964
0.46296456 -0.25918010 -0.00000042
0.55585587 -0.39503458 -0.00000045
0.20211737 0.12752704 -0.00000058
-0.39574742 -0.52099591 -0.00000017
0.53930986 0.13603251 -0.00000143
0.35573912 0.34759775 -0.00000126
0.56750852 0.19961838 -0.00000165
-0.45000568 0.56261265 0.38166055
-0.67827260 -0.48825946 -0.00000004
-0.22114024 -0.40353632 -0.00000025
-0.15345629 -0.43003720 -0.00000023
0.18937582 -0.73792899 -0.00000004
0.07657075 0.44863078 -0.00000078
-0.39301008 -0.55509788 -0.00000015
0.29102474 -0.13177232 -0.00000042
-0.32661963 -0.00120984 -0.00000050
0.02434878 0.50039077 -0.00000081
-0.52356791 -0.76738131 -0.00000002
-0.76026595 -0.35073686 0.00000000
-0.78416318 -0.18598545 0.00000000
0.11595556 0.15877187 -0.00000060
-0.36590502 -0.16635948 -0.00000040
0.13577574 0.11591765 -0.00000057
-0.24436030 0.65059620 0.17045014
-0.05546087 0.76509088 0.03688893
0.49155408 0.17593393 -0.00000136
0.03651733 -0.30617172 -0.00000031
0.23448157 -0.46679437 -0.00000021
0.08157474 0.33215883 -0.00000071
-0.39435843 0.61175472 0.36998329
-0.72506148 -0.36227885 -0.00000001
0.69128829 0.03730753 -0.00000172
-0.59946001 0.01514020 -0.00000022
0.34330267 -0.77582651 -0.00000002
0.62275147 -0.70493555 -0.00000006
0.21198232 0.30976424 -0.00000072
0.41849768 -0.44893438 -0.00000022
-0.04794874 0.59783012 -0.00000087
-0.19044839 -0.27207348 -0.00000033
0.00784078 -0.05403325 -0.00000047
-0.20345753 0.08769162 -0.00000055
0.07504408 -0.76082331 -0.00000002
0.67647475 -0.32152185 -0.00000098
-0.35497737 -0.59835583 -0.00000013
-0.03187170 -0.21951947 -0.00000036
0.76230121 -0.38834861 -0.00000103
-0.49964741 0.38693762 0.15542394
-0.22919515 -0.21494097 -0.00000037
0.56275588 0.04389065 -0.00000133
-0.28059158 -0.40632886 -0.00000025
-0.48686457 -0.56045961 -0.00000015
-0.48211724 0.14167355 -0.00000037
0.27966651 -0.13909814 -0.00000041
-0.35544571 -0.41114408 -0.00000024
0.41992605 -0.68540990 -0.00000007
-0.31003079 -0.06174847 -0.00000046
0.59974027 -0.66754586 -0.00000008
0.13827243 0.14207919 -0.00000059
0.47374231 -0.21634644 -0.00000053
-0.04987554 0.30778050 -0.00000069
-0.79783714 -0.05729989 0.00000000
0.47847503 -0.30416510 -0.00000038
-0.41281772 -0.46790934 -0.00000021
0.25140238 0.08258124 -0.00000055
0.13286643 -0.13159849 -0.00000042
-0.24619168 -0.05255320 -0.00000047
0.17126378 0.09592287 -0.00000056
-0.36341935 0.55056721 0.20461039
-0.15890245 -0.33781683 -0.00000029
-0.33309445 -0.16823237 -0.00000039
-0.03756543 -0.52474254 -0.00000017
0.49271086 -0.03813180 -0.00000094
-0.74216771 -0.76987505 0.00000000
0.17757419 0.27091286 -0.00000067
0.59112364 -0.32195610 -0.00000070
0.65737849 0.00486062 -0.00000155
-0.01030264 0.30721223 -0.00000069
0.73639125 -0.41212931 -0.00000097
0.01280546 -0.50505960 -0.00000018
-0.30675727 -0.60527414 -0.00000012
0.19500615 -0.30520463 -0.00000031
-0.70873040 -0.25076476 -0.00000005
0.45594934 -0.07506128 -0.00000075
-0.04614433 0.35794407 -0.00000072
0.27023980 -0.35007039 -0.00000028
0.41770422 -0.13159467 -0.00000052
-0.30850506 0.51225734 0.03726839
0.74815685 -0.21326122 -0.00000142
-0.59555042 -0.02471984 -0.00000021
0.16703035 -0.55358255 -0.00000015
-0.58156389 -0.70957667 -0.00000006
-0.32272604 0.50904948 0.05703747
0.11007619 0.58091652 -0.00000092
-0.35362047 -0.64506400 -0.00000010
-0.59046578 -0.48635375 -0.00000013
-0.57058638 -0.76972240 -0.00000002
-0.32917720 0.51785648 0.08442657
0.44511938 -0.20646332 -0.00000046
-0.22835930 0.59616476 0.04402023
0.54573876 0.23049298 -0.00000164
-0.41389114 -0.26891080 -0.00000033
-0.45569468 -0.18502277 -0.00000033
0.01523477 0.40878859 -0.00000076
0.37142950 -0.54488587 -0.00000016
-0.21427536 -0.53619069 -0.00000016
-0.05434894 0.71834660 -0.00000093
0.55834973 -0.73495048 -0.00000004
-0.68748677 -0.14754054 -0.00000009
-0.02039249 -0.21163085 -0.00000037
-0.17404361 0.38582948 -0.00000074
-0.72990137 -0.26260236 -0.00000003
0.26070634 0.22813840 -0.00000072
-0.19251782 0.11333795 -0.00000057
-0.41135788 0.20427433 -0.00000045
-0.14716887 0.71512967 0.11182702
-0.35031006 -0.77369696 -0.00000002
0.49461517 -0.04110045 -0.00000094
-0.40282363 0.61292255 0.38727519
0.05802761 -0.19813026 -0.00000038
-0.18025796 -0.51906389 -0.00000018
0.60751086 -0.62524527 -0.00000016
-0.78388715 -0.63136196 0.00000000
-0.73485178 -0.74347347 0.00000000
0.05097780 0.36628062 -0.00000073
-0.11541931 -0.58874804 -0.00000013
-0.52589089 0.10811401 -0.00000031
0.22518940 0.47314048 -0.00000108
-0.39520654 -0.66134459 -0.00000009
-0.18313266 -0.42511463 -0.00000023
0.46322787 0.03666144 -0.00000099
-0.08865432 0.57043016 -0.00000086
0.40315312 0.25915822 -0.00000124
-0.24344264 0.26613137 -0.00000064
-0.48087060 0.39244375 0.13160236
0.73831904 -0.16098167 -0.00000149
-0.50588989 -0.44478968 -0.00000022
-0.29182988 -0.16076650 -0.00000040
-0.32492208 0.46276483 -0.00000059
0.68324578 -0.53199631 -0.00000059
-0.42600664 -0.14925814 -0.00000037
-0.52085829 -0.54284781 -0.00000016
-0.53316665 -0.21459122 -0.00000025
-0.34121522 0.55986708 0.18144648
-0.75701910 -0.52717817 0.00000000
-0.13319129 0.61184567 -0.00000082
0.12335851 -0.23825304 -0.00000035
0.49353075 0.14387704 -0.00000130
-0.04934561 -0.05637388 -0.00000046
-0.16991948 0.56607842 -0.00000078
-0.53080446 0.51357204 0.43866849
0.18249835 0.02840469 -0.00000052
0.05897930 0.00896322 -0.00000051
-0.76655960 -0.53511363 0.00000000
0.46149328 -0.46012405 -0.00000021
0.74842846 -0.00691933 -0.00000182
0.25774449 -0.08073578 -0.00000045
-0.47082889 0.52462798 0.35085472
0.65407145 -0.13828853 -0.00000126
-0.12763736 0.49006915 -0.00000081
-0.48620418 -0.70018166 -0.00000006
-0.17312355 -0.33552462 -0.00000029
-0.27273643 -0.15539016 -0.00000040
-0.21375813 -0.46647877 -0.00000021
-0.63130391 -0.33605477 -0.00000012
0.31851906 0.22746730 -0.00000090
-0.26505578 -0.62545675 -0.00000011
-0.58342952 -0.30347362 -0.00000018
0.69885635 -0.37733814 -0.00000094
0.16987833 -0.42163301 -0.00000024
0.11238044 -0.29951438 -0.00000031
-0.29572356 -0.54735583 -0.00000016
0.33572942 -0.41236600 -0.00000024
-0.41344833 0.40721455 0.03709030
-0.48588741 0.52334219 0.37557763
-0.45628470 -0.53728497 -0.00000016
0.74056780 -0.07330812 -0.00000167
-0.35442889 -0.61317998 -0.00000012
0.31443098 -0.75867450 -0.00000003
-0.15629946 0.70269722 0.10589997
-0.21847250 -0.63366407 -0.00000010
-0.51673269 -0.42691585 -0.00000022
-0.54759932 -0.04246974 -0.00000026
-0.09641841 -0.25937611 -0.00000034
-0.55019987 0.46930888 0.39402941
-0.67242688 0.13056314 0.00536823
-0.52851897 0.46688408 0.35075817
-0.48488191 0.03428817 -0.00000034
0.08619224 0.05383547 -0.00000053
-0.17955039 0.12545720 -0.00000058
-0.00264616 0.21981800 -0.00000064
0.15610071 0.38158748 -0.00000074
-0.16988279 0.37303448 -0.00000073
-0.33129698 0.53045833 0.11085255
-0.37970802 0.20887294 -0.00000049
-0.66015613 0.23551932 0.17174259
-0.11570428 -0.06473308 -0.00000046
-0.49072567 0.17978261 -0.00000036
0.69098347 -0.45741606 -0.00000076
0.11104542 -0.49200088 -0.00000019
0.44802403 -0.75362301 -0.00000003
-0.36616459 -0.40995428 -0.00000024
0.10572594 -0.15193906 -0.00000041
-0.69023764 -0.23541899 -0.00000007
0.13293166 0.08711114 -0.00000055
-0.01675565 0.44937795 -0.00000078
0.62846887 0.13241898 -0.00000171
0.10083682 -0.69042659 -0.00000007
-0.10824526 -0.59763092 -0.00000013
-0.52794558 -0.50631624 -0.00000018
0.11492583 0.02841304 -0.00000052
-0.14713232 -0.69456857 -0.00000007
-0.72426176 -0.51184732 0.00000000
-0.13972315 -0.35096249 -0.00000028
0.47367087 -0.63887495 -0.00000010
0.04440633 -0.12631173 -0.00000042
-0.60191768 -0.18570632 -0.00000018
-0.39050305 0.57002950 0.28816336
0.28176227 0.38296932 -0.00000109
-0.50762159 0.30173802 0.01680103
0.07524119 -0.45553613 -0.00000022
0.11088104 0.20458917 -0.00000063
0.58678567 -0.07892579 -0.00000116
0.66659707 -0.42230704 -0.00000075
0.19928811 -0.45723617 -0.00000021
-0.39275584 -0.57491189 -0.00000014
-0.76698226 -0.64317340 0.00000000
0.42899379 0.06678959 -0.00000094
-0.67542928 0.23239952 0.19355845
-0.20662843 -0.62306654 -0.00000011
-0.12745313 0.32169235 -0.00000070
-0.32625580 -0.15759698 -0.00000040
-0.58133805 -0.63047129 -0.00000011
-0.43862370 0.02672937 -0.00000039
0.21270210 -0.08005069 -0.00000045
-0.31923074 0.09183394 -0.00000053
0.24958210 -0.67338210 -0.00000008
-0.29782480 0.11180543 -0.00000056
-0.24279006 -0.01795046 -0.00000049
-0.26329216 -0.28870884 -0.00000032
-0.78777832 -0.15486166 0.00000000
0.15915620 -0.60712528 -0.00000012
-0.21788977 -0.41835719 -0.00000024
0.11483299 -0.10182636 -0.00000044
0.19784723 -0.76336348 -0.00000002
0.43061623 -0.57638043 -0.00000014
-0.36849520 0.17408046 -0.00000049
-0.24057989 -0.60923743 -0.00000012
-0.17116629 0.25987950 -0.00000066
0.09077072 -0.42687243 -0.00000023
-0.17833449 -0.76921672 -0.00000002
-0.66696149 0.07936590 -0.00000016
0.24937691 -0.63401890 -0.00000010
-0.20449823 -0.16291398 -0.00000040
-0.33699632 0.55697590 0.16868339
0.26583582 -0.68715382 -0.00000007
-0.48601952 -0.60550100 -0.00000012
0.68332642 -0.03784371 -0.00000155
-0.30466169 -0.10523461 -0.00000043
-0.35976663 0.57440096 0.24083664
-0.64472646 0.00948397 -0.00000017
-0.15590309 0.19077152 -0.00000062
-0.66844594 0.13599680 0.00797598
0.21124980 0.47237775 -0.00000104
-0.29105943 0.57255208 0.11418426
0.46717119 -0.12663729 -0.00000069
0.64197594 -0.75893605 -0.00000003
-0.28730312 0.53473610 0.03956015
0.60757893 -0.14948751 -0.00000109
-0.70275384 -0.29794067 -0.00000005
0.32717678 0.12291445 -0.00000073
0.20989899 -0.46975985 -0.00000021
-0.36784774 -0.55040777 -0.00000016
-0.08060854 0.60398340 -0.00000088
-0.41617900 0.35483384 -0.00000047
-0.52585131 -0.68397349 -0.00000007
-0.04607522 -0.10885133 -0.00000043
-0.27717131 -0.66306311 -0.00000009
-0.64981872 -0.41740173 -0.00000008
-0.28478840 -0.22709754 -0.00000036
-0.30134684 0.33070400 -0.00000059
0.56442899 -0.58653128 -0.00000013
0.63840461 0.15469050 -0.00000178
0.71072119 -0.54244936 -0.00000064
-0.05275141 0.56612706 -0.00000085
0.61213726 -0.69042486 -0.00000007
-0.15306807 0.72778076 0.14512593
0.64020598 -0.21157824 -0.00000108
-0.61317855 0.05220297 -0.00000021
-0.34011507 0.15176050 -0.00000052
-0.71021795 -0.45213902 -0.00000001
-0.07369567 -0.48211598 -0.00000020
-0.09424018 0.66771638 -0.00000088
-0.21121190 -0.34213626 -0.00000029
0.44216928 -0.43326226 -0.00000023
-0.04997442 -0.72248298 -0.00000005
0.12635429 -0.70963728 -0.00000006
-0.40044758 0.55067694 0.27127540
-0.62533945 -0.18373904 -0.00000015
-0.63743180 -0.33648401 -0.00000011
-0.79535908 -0.13770898 0.00000000
0.42355207 0.15833275 -0.00000110
0.65755022 0.04316834 -0.00000163
0.40335864 0.19724455 -0.00000112
0.36293608 -0.56295681 -0.00000015
-0.26501319 -0.04752585 -0.00000047
-0.09586834 -0.35718122 -0.00000028
-0.05977677 -0.21962367 -0.00000036
0.65419954 0.09702189 -0.00000172
-0.40496644 -0.33232579 -0.00000029
0.33608514 -0.52521521 -0.00000017
0.62080824 -0.67183471 -0.00000012
-0.27065679 -0.64887059 -0.00000009
-0.76394963 -0.12194037 -0.00000002
0.79415935 0.00039336 -0.00000189
-0.75512415 -0.28817913 0.00000000
-0.65733910 -0.16640435 -0.00000012
-0.74191761 0.09730016 0.07039907
-0.03201245 0.58653039 -0.00000087
-0.12583768 -0.72697693 -0.00000005
-0.17087908 -0.56430876 -0.00000015
-0.49425545 -0.52520984 -0.00000017
0.76187897 -0.59334069 -0.00000052
-0.37852690 0.49357450 0.12942450
-0.39160225 -0.17661002 -0.00000039
0.32219848 -0.34566069 -0.00000028
0.23075835 -0.60853738 -0.00000012
-0.41348296 0.25770581 -0.00000046
-0.28492087 0.52114058 0.01087935
0.19559027 -0.66431063 -0.00000008
-0.16711026 0.65732825 0.04386635
0.32052794 -0.24480087 -0.00000035
-0.54635823 -0.46620962 -0.00000019
-0.66355383 0.19986795 0.11384585
0.00491546 -0.54183894 -0.00000016
-0.46418601 0.27261338 -0.00000041
-0.02404982 0.27683875 -0.00000067
0.59192824 -0.70374179 -0.00000006
-0.51475364 0.36553639 0.14412424
-0.52665555 -0.47079268 -0.00000021
-0.08613420 0.73539734 0.03864772
-0.01129298 0.04910704 -0.00000053
-0.25701904 -0.06860249 -0.00000046
0.63147467 -0.59826994 -0.00000029
-0.01514173 0.75923055 -0.00000097
0.31460741 -0.38626242 -0.00000026
0.26546037 -0.06442860 -0.00000046
-0.32120574 -0.30665869 -0.00000031
-0.37737396 -0.18589076 -0.00000038
0.75565529 -0.26698491 -0.00000133
0.16545130 0.10590593 -0.00000057
-0.28927869 -0.14577557 -0.00000041
-0.37363493 0.34904253 -0.00000052
0.17756376 0.15866932 -0.00000060
0.19340350 -0.78378552 -0.00000001
0.53829432 -0.24889345 -0.00000068
-0.25821501 -0.70246965 -0.00000006
-0.00394380 -0.58952361 -0.00000013
0.49446079 -0.61729664 -0.00000011
-0.61665714 0.30943370 0.22633927
0.26189995 0.04487305 -0.00000053
-0.35044935 -0.12099148 -0.00000042
0.05304262 0.57578498 -0.00000086
-0.25768366 -0.26594523 -0.00000033
0.45972234 -0.01045472 -0.00000089
-0.04408594 0.36351976 -0.00000073
-0.36050761 -0.25700444 -0.00000034
-0.49282849 -0.50548714 -0.00000018
-0.54538190 -0.24853846 -0.00000023
-0.59199685 0.24834789 0.07242113
-0.71435165 -0.43332732 -0.00000001
-0.07994879 0.14276049 -0.00000059
0.11547237 0.45750996 -0.00000079
-0.43587807 -0.67060530 -0.00000008
-0.06949135 -0.44040063 -0.00000022
-0.26681009 -0.26604089 -0.00000033
0.31867945 0.11546781 -0.00000068
-0.00417959 -0.76418477 -0.00000002
-0.22201917 0.44707468 -0.00000070
0.00458595 0.55467331 -0.00000085
-0.69845486 0.05428177 -0.00000012
0.34215280 -0.25545275 -0.00000034
0.32077289 -0.69586349 -0.00000007
0.31786245 0.04895644 -0.00000055
0.34141439 0.33735368 -0.00000119
-0.31508616 -0.75587595 -0.00000003
0.54943877 -0.35579485 -0.00000050
-0.76406211 -0.42194745 0.00000000
0.51091200 -0.74052060 -0.00000004
-0.50318891 0.11804240 -0.00000034
-0.36560211 -0.73592407 -0.00000004
-0.19897749 0.24918035 -0.00000066
0.65595359 0.14107095 -0.00000177
0.02120319 0.63185865 -0.00000089
0.00128669 0.57245773 -0.00000086
0.36412543 -0.71142817 -0.00000006
0.15973881 -0.66063040 -0.00000009
-0.05221276 -0.19134831 -0.00000038
-0.56596380 -0.70731890 -0.00000006
0.10929365 -0.11536510 -0.00000043
0.44562468 -0.27917725 -0.00000033
0.03792580 0.27291480 -0.00000067
-0.16090634 0.55013573 -0.00000078
0.09423292 0.36966661 -0.00000073
0.13275677 0.44494697 -0.00000078
-0.23318797 0.17484678 -0.00000061
0.02786413 -0.37487629 -0.00000027
-0.04654826 -0.62798262 -0.00000011
0.14583187 0.44613215 -0.00000078
-0.53909677 0.14713472 -0.00000031
0.05983487 -0.27217880 -0.00000033
0.10246368 0.68600881 -0.00000111
0.04341625 -0.14526387 -0.00000041
-0.56184500 0.33917433 0.18133453
0.21080528 -0.28517434 -0.00000032
-0.40827501 -0.78104907 -0.00000001
0.15716028 -0.45077878 -0.00000022
0.63998252 0.15900718 -0.00000178
-0.38481638 -0.71124387 -0.00000006
-0.52914673 0.48233885 0.37962726
-0.35929564 0.46966392 0.05198289
0.29643664 0.38992238 -0.00000115
0.05602386 -0.56546390 -0.00000015
0.20144184 0.48203382 -0.00000102
-0.25021619 0.38546321 -0.00000066
0.00175474 0.10080047 -0.00000056
0.55718052 0.04343711 -0.00000131
-0.71699691 -0.54080999 0.00000000
-0.30510539 0.20152116 -0.00000056
0.57923907 -0.40002334 -0.00000051
0.39318237 0.29191422 -0.00000127
-0.76603925 -0.07533655 -0.00000002
-0.79065776 -0.48548785 0.00000000
-0.36701742 -0.11335688 -0.00000043
0.16012426 0.28991905 -0.00000068
0.04244931 0.66856033 -0.00000092
-0.74235731 -0.39806536 0.00000000
-0.05528600 0.64767277 -0.00000090
0.52411252 -0.02754397 -0.00000106
-0.31536415 0.38024321 -0.00000059
-0.73722482 0.09616498 0.05993755
-0.33597028 -0.73677671 -0.00000004
-0.53916270 0.37183931 0.19925366
-0.11075899 0.52889705 -0.00000083
-0.22985847 -0.10251753 -0.00000044
-0.74243677 -0.62121332 0.00000000
-0.34856716 -0.37049383 -0.00000027
-0.03599912 -0.25968924 -0.00000034
0.07598789 0.28124225 -0.00000068
-0.33658606 -0.76545328 -0.00000002
-0.56090069 -0.38295254 -0.00000019
-0.55405766 -0.26359287 -0.00000021
0.13491894 -0.32040891 -0.00000030
0.52908063 0.02527063 -0.00000118
0.47985774 -0.42370540 -0.00000024
0.18991984 -0.71435761 -0.00000005
0.79413712 -0.22425595 -0.00000144
-0.27479208 0.67223108 0.26391304
-0.28498587 -0.11661772 -0.00000043
0.38441092 -0.77335221 -0.00000002
-0.02351152 -0.71508670 -0.00000005
-0.67201209 0.16576356 0.06780998
-0.16846575 -0.72448802 -0.00000005
-0.09909420 0.35631838 -0.00000072
-0.62244707 0.09674600 -0.00000021
-0.39174056 0.44459707 0.06522708
-0.37539500 0.01630072 -0.00000046
-0.51819170 0.27019346 -0.00000035
0.65034276 -0.22010569 -0.00000109
-0.44128177 -0.50269234 -0.00000019
-0.01903892 -0.65854692 -0.00000009
-0.18107457 0.52536076 -0.00000076
0.40454468 0.37301356 -0.00000146
-0.47738105 0.32881844 0.01112827
-0.50562310 0.44579759 0.27180713
-0.50720102 0.37597209 0.14929944
0.39115968 -0.66994143 -0.00000008
-0.41108939 -0.66064626 -0.00000009
-0.24185948 0.63637394 0.14043120
-0.72020739 0.08072145 0.00166861
-0.02386694 0.08860023 -0.00000056
-0.54353869 0.37922424 0.22036511
-0.47123453 -0.02843634 -0.00000035
-0.07446655 -0.58483642 -0.00000013
0.23709925 -0.67394298 -0.00000008
0.62109661 -0.53638780 -0.00000038
-0.20181914 -0.46872246 -0.00000021
-0.41615272 -0.28531116 -0.00000032
0.20204750 0.58938307 -0.00000124
0.55491573 0.16268103 -0.00000153
-0.31029743 -0.56541455 -0.00000015
0.62013036 0.17933466 -0.00000177
-0.24769828 0.55394328 0.00294526
-0.24603416 0.67838526 0.22333790
-0.45422769 -0.29585180 -0.00000031
-0.39179748 0.03356507 -0.00000044
0.14280383 0.63581330 -0.00000114
-0.70364803 -0.35948128 -0.00000004
-0.58041340 0.00172088 -0.00000023
0.36471194 -0.04249879 -0.00000052
0.48824939 0.16434871 -0.00000132
-0.22350526 -0.67482430 -0.00000008
-0.36467963 -0.00028701 -0.00000046
-0.14731337 -0.42150855 -0.00000024
0.39847142 -0.49167916 -0.00000019
-0.53179348 0.12234035 -0.00000031
-0.07933378 -0.00247261 -0.00000050
-0.32210165 0.13322213 -0.00000053
-0.14796653 0.42943132 -0.00000077
-0.14971063 0.23871748 -0.00000065
0.09620417 0.57677370 -0.00000087
-0.57932794 0.25706711 0.06533118
-0.50163865 0.51174313 0.38303104
-0.50716102 -0.04844039 -0.00000030
-0.60333788 -0.66665757 -0.00000008
0.20743181 -0.21740882 -0.00000036
-0.06881581 -0.31956971 -0.00000030
-0.46270218 0.38392243 0.08369303
-0.03536743 0.35864019 -0.00000072
-0.12422040 -0.55948788 -0.00000015
-0.20912534 -0.19308211 -0.00000038
-0.13029358 0.43196714 -0.00000077
0.56218648 -0.67720109 -0.00000008
-0.59220690 -0.52194738 -0.00000013
0.43267822 -0.27640370 -0.00000033
-0.16856679 0.65849084 0.04856776
0.11900179 0.42669973 -0.00000077
0.76339734 -0.17777164 -0.00000154
0.01520121 -0.19167945 -0.00000038
0.59201783 0.13403036 -0.00000160
0.63060421 0.15096435 -0.00000175
-0.62121260 -0.30247894 -0.00000014
-0.22237559 -0.03880173 -0.00000048
0.17005517 0.50457174 -0.00000097
-0.08090813 -0.48599872 -0.00000020
-0.38248721 -0.41054401 -0.00000024
0.55547261 -0.14024045 -0.00000094
0.76982057 -0.59198850 -0.00000052
-0.51015550 -0.25502217 -0.00000026
-0.64376301 -0.49217689 -0.00000008
0.07022363 0.36214197 -0.00000073
0.13160913 -0.02780699 -0.00000048
0.21773528 0.05785672 -0.00000054
-0.29270768 0.54392904 0.06576337
-0.59643865 -0.09536669 -0.00000020
0.60685331 -0.06427616 -0.00000126
0.06735251 0.20373183 -0.00000063
0.27816874 -0.35360840 -0.00000028
-0.52582484 -0.03853897 -0.00000029
-0.66353440 -0.32721987 -0.00000009
-0.68651718 0.12710662 0.02445644
0.56492382 -0.72811824 -0.00000004
-0.61708099 -0.62544715 -0.00000008
0.29440373 0.42298388 -0.00000121
0.54525471 -0.69803232 -0.00000006
0.22371425 -0.33655673 -0.00000029
0.57663029 -0.05306440 -0.00000118
0.19311918 0.12435182 -0.00000058
-0.79531986 -0.71096408 0.00000000
-0.13398355 -0.35239601 -0.00000028
-0.23214322 -0.34685794 -0.00000028
-0.46532318 0.19215512 -0.00000039
-0.76095599 -0.59661663 0.00000000
-0.26082531 -0.68625152 -0.00000007
-0.29626995 0.50418526 0.00081598
-0.42246196 -0.32052338 -0.00000030
-0.30468842 -0.23526908 -0.00000035
0.49822059 -0.50819796 -0.00000018
0.42297462 -0.56729352 -0.00000015
0.26010481 -0.32566023 -0.00000030
0.59535950 -0.56280524 -0.00000025
-0.30373248 -0.42676648 -0.00000023
0.58640170 -0.21541405 -0.00000090
0.59666824 -0.62622041 -0.00000013
0.51558965 -0.76047707 -0.00000002
0.78635216 -0.16447410 -0.00000159
-0.05609223 -0.70841682 -0.00000006
0.46870610 -0.15087689 -0.00000065
-0.56241041 -0.27620497 -0.00000020
-0.04673889 -0.64861518 -0.00000009
-0.05356105 0.16039266 -0.00000060
-0.63149971 0.16310304 -0.00000021
0.53984797 -0.38090175 -0.00000042
-0.40016371 -0.00826542 -0.00000043
0.79961473 -0.18610471 -0.00000153
0.04484690 -0.33463669 -0.00000029
0.69853437 -0.34205431 -0.00000101
0.77547306 -0.67586225 -0.00000031
0.22572149 0.28139195 -0.00000071
0.63269466 0.11607625 -0.00000169
-0.70061082 -0.52872473 -0.00000001
-0.23750398 0.64800376 0.15348904
-0.57075155 -0.52182209 -0.00000015
0.43616179 -0.57447243 -0.00000014
-0.40379220 -0.36384910 -0.00000027
-0.72359049 0.07978112 0.00605356
0.72069037 -0.67729318 -0.00000031
-0.52166635 -0.79218209 -0.00000000
-0.17923008 0.16380572 -0.00000060
0.68217200 -0.14457265 -0.00000134
-0.66817027 0.26477236 0.23863883
-0.32617462 0.49104431 0.03090776
-0.52847993 -0.57878619 -0.00000014
0.72163886 -0.05406584 -0.00000164
0.02435108 0.21541703 -0.00000063
-0.12884283 -0.00806350 -0.00000049
0.51526308 0.02061207 -0.00000113
0.14352803 0.52531862 -0.00000092
0.34833795 0.26642883 -0.00000107
0.48327425 -0.04582955 -0.00000090
0.56752944 -0.49445575 -0.00000029
-0.43131384 0.28190032 -0.00000044
0.03884310 -0.37053588 -0.00000027
-0.25651529 0.56503326 0.03867920
-0.40823606 -0.51316994 -0.00000018
0.37026632 -0.57333225 -0.00000014
-0.57259560 0.36150104 0.24070974
0.31364641 0.04521367 -0.00000053
-0.53114069 -0.04832701 -0.00000028
-0.55643535 -0.32887566 -0.00000020
0.74072826 -0.07688388 -0.00000166
0.77865571 -0.20450234 -0.00000149
0.36334312 0.00660796 -0.00000062
0.11280419 -0.45366716 -0.00000022
-0.24056409 0.42611209 -0.00000067
-0.33099174 -0.07601731 -0.00000045
-0.30036432 0.35639346 -0.00000060
0.45699668 -0.43048376 -0.00000023
-0.12667733 -0.45621479 -0.00000021
-0.14421645 -0.43333387 -0.00000023
-0.67228162 -0.65004921 -0.00000002
-0.43580765 0.52691686 0.29209808
0.32114297 0.25379485 -0.00000096
0.37940189 -0.59367424 -0.00000013
-0.63968891 0.27871868 0.21254763
-0.08445451 -0.54269791 -0.00000016
0.11746773 0.11152277 -0.00000057
-0.78337371 -0.57950872 0.00000000
0.36691192 0.18394594 -0.00000097
0.40868634 0.20945551 -0.00000116
0.43509886 -0.56489116 -0.00000015
0.15847361 0.09380544 -0.00000056
0.07491464 -0.72239912 -0.00000005
-0.02432734 -0.11515099 -0.00000043
-0.40824512 0.41526890 0.04220821
-0.30631015 0.62864697 0.24225380
0.78698993 -0.42006782 -0.00000095
-0.16045614 0.59658992 -0.00000079
-0.43670860 0.10840847 -0.00000041
0.37596372 -0.55287236 -0.00000015
-0.70517403 -0.43049997 -0.00000002
-0.77639455 -0.68749928 0.00000000
0.40214160 -0.23477799 -0.00000035
-0.64571369 0.18381336 0.05300320
-0.59136331 -0.22892223 -0.00000018
-0.58374250 0.18125467 -0.00000026
0.72159719 -0.42331710 -0.00000092
-0.59323376 0.22912008 0.04012670
0.16192843 0.51344508 -0.00000096
-0.18310112 0.71298814 0.17248343
-0.75577313 -0.21849278 -0.00000001
0.34236094 -0.11390630 -0.00000043
-0.46505412 -0.67405325 -0.00000008
-0.57487643 -0.47293153 -0.00000015
0.68501031 -0.45996490 -0.00000073
-0.44145823 0.44662037 0.15810460
-0.24522451 -0.55704492 -0.00000015
-0.33120957 -0.18466493 -0.00000038
0.03302472 0.56924224 -0.00000086
0.51933008 -0.31411651 -0.00000049
0.07955617 -0.76411575 -0.00000002
0.59112811 -0.58672160 -0.00000019
0.57541883 0.14331678 -0.00000156
-0.04306128 0.53920263 -0.00000084
-0.44838685 0.32177451 -0.00000043
-0.19470957 -0.23150116 -0.00000036
-0.31888577 0.52527744 0.07927388
-0.28121173 0.20872073 -0.00000059
0.29985744 -0.62131453 -0.00000011
-0.59626257 -0.78284049 -0.00000001
-0.38527316 0.00980275 -0.00000044
-0.04686434 0.39489952 -0.00000075
0.41622528 -0.60528141 -0.00000012
-0.30855417 -0.34270519 -0.00000029
0.11347172 -0.62801570 -0.00000011
0.59330285 -0.60632896 -0.00000016
0.74073535 -0.23237871 -0.00000136
0.04281225 -0.34515446 -0.00000028
0.29405946 0.09740887 -0.00000057
-0.63172215 0.33727106 0.30335099
0.45897049 -0.34441069 -0.00000028
0.74224293 -0.32984501 -0.00000117
0.44975078 0.05625639 -0.00000099
-0.43087345 -0.22369954 -0.00000035
0.70617551 -0.64386243 -0.00000039
-0.04710901 0.06107905 -0.00000054
-0.42866045 0.27671176 -0.00000045
-0.36944458 -0.19894500 -0.00000038
-0.16833562 -0.65143114 -0.00000009
0.17555271 -0.27402952 -0.00000033
-0.62710816 -0.75902015 -0.00000003
0.16500022 0.19974267 -0.00000062
0.04899415 0.49130803 -0.00000081
0.02367132 -0.51393592 -0.00000018
-0.70761746 -0.31951427 -0.00000004
-0.07564341 0.00246693 -0.00000050
-0.73665351 0.12139500 0.10420103
0.56535769 -0.21978800 -0.00000082
-0.34157747 -0.18710057 -0.00000038
-0.60216254 0.35507935 0.28225663
-0.37321103 -0.11419494 -0.00000043
0.61216861 -0.16331369 -0.00000108
0.43126386 -0.75414777 -0.00000003
-0.27138710 0.03825738 -0.00000052
-0.05294607 0.14696063 -0.00000059
-0.45539978 -0.69493073 -0.00000007
-0.48814741 0.46667528 0.27791390
-0.46045852 0.43797994 0.17670111
0.00886441 -0.23541442 -0.00000035
-0.65745115 -0.06672965 -0.00000014
0.61312449 -0.44993517 -0.00000052
-0.48151848 0.33816558 0.03533368
0.14739124 -0.33777204 -0.00000029
-0.49195498 0.04306829 -0.00000034
-0.70399886 -0.08821007 -0.00000009
0.52995372 -0.58670670 -0.00000013
0.12924957 -0.48723507 -0.00000020
0.34412983 -0.16933084 -0.00000039
-0.54417378 -0.56592083 -0.00000015
0.14108486 -0.37326771 -0.00000027
-0.24029250 -0.56117409 -0.00000015
-0.69492656 -0.56968611 -0.00000001
-0.08571086 0.10835041 -0.00000057
0.30547366 -0.02109376 -0.00000049
0.10407354 -0.10652688 -0.00000043
0.04895206 0.37771669 -0.00000074
-0.37276006 0.07858672 -0.00000047
-0.04225689 -0.42323056 -0.00000024
-0.07440770 -0.46759602 -0.00000021
-0.73098171 0.01772588 -0.00000008
0.17129856 0.53611767 -0.00000103
0.63381869 -0.23173413 -0.00000102
-0.14612626 0.69604951 0.07570539
0.45140615 -0.58988160 -0.00000013
0.63984859 0.01262264 -0.00000151
0.47059253 -0.23583625 -0.00000049
-0.19977616 -0.72650892 -0.00000005
0.67610449 -0.17088285 -0.00000127
0.27761614 0.47133195 -0.00000125
-0.11827281 0.22188260 -0.00000064
0.15128393 -0.54804248 -0.00000016
0.00898361 -0.30924645 -0.00000031
-0.50801104 -0.17396867 -0.00000028
-0.54017878 0.09917144 -0.00000030
-0.15367489 -0.64596379 -0.00000010
-0.10570395 0.69652784 0.00400394
0.04985571 -0.44896716 -0.00000022
0.00224384 -0.69833535 -0.00000006
0.39184302 -0.65842408 -0.00000009
-0.60314536 -0.66322678 -0.00000009
-0.30934423 -0.21217377 -0.00000037
0.19544160 -0.48655602 -0.00000020
0.76990288 -0.18425687 -0.00000154
0.04666152 -0.25847775 -0.00000034
0.41351578 0.20123363 -0.00000116
-0.12567292 0.19677292 -0.00000062
0.71184158 -0.33379847 -0.00000107
-0.10584719 -0.58245480 -0.00000014
-0.59413826 -0.79809070 -0.00000000
-0.12229365 0.69521022 0.03141806
0.14525795 -0.40978330 -0.00000024
-0.26753074 -0.09550619 -0.00000044
-0.40043530 0.41744587 0.03209692
-0.02700464 0.18205903 -0.00000061
-0.72894740 -0.46798244 0.00000000
-0.26130927 -0.19894861 -0.00000038
0.03287318 0.56779248 -0.00000085
0.67371178 -0.24979500 -0.00000111
0.64667189 0.04135433 -0.00000159
-0.49039218 -0.67968905 -0.00000008
-0.15534829 -0.78212380 -0.00000001
-0.46911183 0.56100512 0.41307166
0.24527644 0.45357791 -0.00000111
0.09821389 0.03753163 -0.00000052
0.78686064 -0.78885859 -0.00000003
0.26220757 -0.32942098 -0.00000029
-0.24721016 0.37202725 -0.00000066
-0.03489794 0.13695987 -0.00000059
0.11520356 0.11629290 -0.00000057
0.42333886 -0.21222661 -0.00000038
0.26303270 -0.14587663 -0.00000041
0.58043957 0.05695369 -0.00000141
-0.37768233 -0.27383861 -0.00000033
0.31619704 -0.58752614 -0.00000013
-0.76883763 -0.48955888 0.00000000
-0.46836367 -0.64734846 -0.00000010
-0.15510668 0.47299296 -0.00000077
0.46510667 -0.22402731 -0.00000049
-0.62435764 -0.66845083 -0.00000007
-0.74197942 -0.00563894 -0.00000006
-0.52274746 0.34712160 0.12541813
-0.35894185 0.46674249 0.04610376
-0.31330612 0.54814661 0.11030927
-0.58187896 -0.18778065 -0.00000020
-0.47774783 0.35223353 0.05381772
0.60517865 -0.42217806 -0.00000055
-0.61180782 0.28700456 0.17737325
-0.42573592 -0.59254020 -0.00000013
0.06185973 0.47424519 -0.00000080
0.56448758 0.09482983 -0.00000143
-0.44754204 -0.35197592 -0.00000028
-0.33870152 0.43434373 -0.00000057
-0.45697513 -0.48914689 -0.00000019
0.58027744 -0.12587854 -0.00000105
-0.01125691 -0.61459047 -0.00000012
-0.27267662 -0.31744468 -0.00000030
-0.63156390 -0.31017816 -0.00000012
0.33337572 0.14854807 -0.00000080
-0.29138091 0.44408813 -0.00000062
0.42569813 -0.50772852 -0.00000018
0.54238135 0.24146919 -0.00000165
-0.25231943 -0.49166423 -0.00000019
0.07775552 0.53080738 -0.00000083
-0.68030715 -0.29637027 -0.00000007
0.60185689 -0.18108766 -0.00000101
-0.77639240 -0.33906600 0.00000000
-0.11723383 -0.26061529 -0.00000034
0.17810094 -0.76535386 -0.00000002
0.61184460 -0.75548387 -0.00000003
0.49233225 -0.56018847 -0.00000015
0.15650620 -0.17837252 -0.00000039
-0.06798364 -0.73627412 -0.00000004
0.21185277 0.15391751 -0.00000060
-0.69953978 -0.00157381 -0.00000011
0.31584200 0.01379332 -0.00000051
-0.64728582 0.23525842 0.14817134
-0.69025826 -0.38648045 -0.00000005
-0.40346581 -0.49646923 -0.00000019
0.26152968 0.11955938 -0.00000057
0.27638108 -0.64456916 -0.00000010
-0.13846380 -0.22243831 -0.00000036
0.21136189 -0.67751062 -0.00000008
-0.29690316 -0.49896422 -0.00000019
-0.64058387 -0.31694964 -0.00000011
0.64718378 -0.01754873 -0.00000148
0.14002149 0.63606912 -0.00000113
-0.12454126 -0.09499669 -0.00000044
0.34700111 -0.77135831 -0.00000002
0.01100594 -0.03077423 -0.00000048
-0.27022076 0.30607486 -0.00000062
0.00719107 -0.24002099 -0.00000035
-0.19754282 0.60404742 0.00285289
-0.31156260 -0.00121853 -0.00000050
-0.55152130 0.21074016 -0.00000030
-0.24385636 -0.06548679 -0.00000046
-0.61649394 -0.35765249 -0.00000013
-0.38775685 0.46399429 0.09289494
0.38314015 0.06523263 -0.00000079
0.23062500 0.46489340 -0.00000108
-0.23945621 -0.04153697 -0.00000047
-0.06220977 0.73050517 -0.00000092
-0.13239665 0.73397887 0.11914546
-0.45043108 -0.72915423 -0.00000004
0.05418308 0.63308573 -0.00000090
0.49313515 -0.68025672 -0.00000007
