ply
format ascii 1.0
element vertex 1369
property float x
property float y
property float z
end_header
-0.39480340 -0.17187570 -0.00000039
-0.14278665 -0.77039731 -0.00000002
-0.39968070 0.68599188 0.10515374
0.02065906 -0.25820807 -0.00000034
0.12371399 -0.06382743 -0.00000046
0.58378780 -0.26240852 -0.00000080
0.25351900 -0.57569408 -0.00000014
0.25825688 -0.63763720 -0.00000010
-0.13536565 -0.06846113 -0.00000046
-0.56424600 -0.23139866 -0.00000021
-0.03818387 -0.66706955 -0.00000008
-0.26305914 -0.33302137 -0.00000029
-0.48879573 0.07163715 -0.00000035
0.21360365 -0.44221219 -0.00000022
-0.37463161 0.70629895 0.10340817
-0.32764670 0.72125840 0.09161971
-0.55799848 -0.41821450 -0.00000018
-0.54647088 0.18093327 -0.00000030
0.13366936 -0.14033943 -0.00000041
-0.33777627 -0.20073780 -0.00000037
-0.05601581 0.69995463 -0.00000092
-0.14473289 -0.72820866 -0.00000004
-0.25903577 -0.44120559 -0.00000022
0.42832121 -0.58910984 -0.00000013
-0.70382464 -0.69936222 0.00000000
-0.48934376 -0.56065148 -0.00000015
-0.48499709 -0.38231194 -0.00000026
-0.79705042 -0.01340766 -0.00000000
0.52858764 -0.47672337 -0.00000020
-0.50193053 -0.67216110 -0.00000008
0.38063821 -0.30164820 -0.00000031
-0.11119120 0.17922898 -0.00000061
-0.61906320 -0.28124139 -0.00000014
0.22611146 -0.10914942 -0.00000043
-0.70333886 -0.75051224 0.00000000
0.07109732 -0.17582190 -0.00000039
0.59155685 -0.16108575 -0.00000102
-0.64633375 0.31942719 0.06101548
-0.76166809 -0.67397243 0.00000000
-0.11516841 -0.10396356 -0.00000044
0.61617607 -0.30471140 -0.00000082
-0.57364988 -0.02824148 -0.00000024
-0.19827458 -0.36358783 -0.00000027
-0.11110682 -0.28707850 -0.00000032
0.17829037 0.30905193 -0.00000069
-0.64799118 -0.19518240 -0.00000013
0.55031556 -0.42702231 -0.00000037
-0.60354805 -0.28855643 -0.00000016
0.75544262 -0.69642335 -0.00000026
-0.58316529 0.55373830 0.12401204
-0.71769261 -0.32760438 -0.00000003
-0.21321829 0.77322942 0.06862926
-0.59795094 0.10536229 -0.00000023
0.69996095 -0.12455816 -0.00000144
-0.28125885 0.15429363 -0.00000058
-0.68783921 0.35653654 0.08995326
-0.19296016 -0.44553962 -0.00000022
0.24885160 0.33465311 -0.00000089
-0.67257529 0.71292949 0.21552052
0.47403923 0.11216758 -0.00000118
-0.27622798 -0.38117179 -0.00000026
-0.79475766 0.04548434 0.01481286
-0.71251124 -0.54940236 0.00000000
0.41782844 -0.43961436 -0.00000023
-0.32634935 0.25981399 -0.00000055
-0.37415144 0.34051320 -0.00000052
-0.31613100 0.43163615 -0.00000060
0.09705827 0.34164491 -0.00000071
0.01589139 -0.60518569 -0.00000012
0.78777176 -0.36974210 -0.00000108
-0.10369672 -0.54264408 -0.00000016
-0.61806720 -0.32126957 -0.00000014
-0.13907433 0.69683301 0.01321618
0.14540367 0.21273407 -0.00000063
0.00921480 -0.09178111 -0.00000044
0.15789266 -0.72351527 -0.00000005
-0.77790022 -0.24826586 0.00000000
-0.51848668 0.68411446 0.14819463
0.07286642 0.63929927 -0.00000092
-0.26242477 -0.01493656 -0.00000049
0.42264387 -0.07522869 -0.00000065
0.30868980 -0.73074138 -0.00000004
-0.07880213 -0.27009505 -0.00000033
-0.43281987 0.19160192 -0.00000043
0.44069549 -0.62564653 -0.00000011
0.30912209 -0.37015393 -0.00000027
0.03076638 -0.74120563 -0.00000004
0.02552793 0.34407282 -0.00000072
0.67800206 0.08796470 -0.00000178
0.17150548 0.57781547 -0.00000112
0.09935786 -0.22449750 -0.00000036
0.60963356 -0.61931133 -0.00000018
-0.35948816 0.23468345 -0.00000051
-0.70766807 0.70912713 0.22703840
-0.32246053 0.05963699 -0.00000052
-0.39611521 0.45187697 0.01766498
0.36439452 -0.49934667 -0.00000019
-0.05330060 -0.23529100 -0.00000035
-0.21357112 -0.31897935 -0.00000030
-0.25082922 -0.28191102 -0.00000032
0.32586500 -0.07213231 -0.00000045
-0.11490071 -0.48470443 -0.00000020
-0.53642446 -0.60583383 -0.00000012
0.54923856 -0.41263968 -0.00000039
0.44169548 -0.75497317 -0.00000003
-0.37084997 0.53674304 0.03960370
0.54131454 -0.55025017 -0.00000016
0.13414325 0.41846046 -0.00000076
-0.34878615 0.42487523 -0.00000056
0.11458737 -0.48301515 -0.00000020
0.02899071 -0.37502852 -0.00000027
0.38375959 0.29002300 -0.00000123
-0.12269414 0.14026120 -0.00000059
0.20325953 -0.37131530 -0.00000027
-0.08739155 0.16210426 -0.00000060
-0.28787628 -0.26022041 -0.00000034
-0.37442389 0.41301233 -0.00000053
-0.04512691 0.29146892 -0.00000068
-0.37289870 0.50246888 0.02774170
0.13356471 0.39973849 -0.00000075
-0.36275703 0.01933132 -0.00000047
0.03982123 0.32748792 -0.00000070
0.54550928 -0.09340816 -0.00000100
0.01438453 0.15929343 -0.00000060
0.77872044 -0.50198144 -0.00000075
0.74062514 0.01980537 -0.00000185
0.25903046 0.31286001 -0.00000088
-0.52331460 0.62438405 0.12798545
-0.44272506 -0.60738599 -0.00000012
0.27404892 0.06548652 -0.00000054
-0.68851960 0.41888782 0.11315488
-0.44141251 0.72635931 0.13537396
-0.01661424 0.60758507 -0.00000088
0.26953265 0.18700518 -0.00000067
-0.54660898 -0.72155654 -0.00000005
-0.66364896 0.70837885 0.21055974
-0.14822222 0.75383878 0.03756695
0.01154962 0.36698309 -0.00000073
0.17740290 -0.32070383 -0.00000030
0.20723805 -0.04181237 -0.00000047
0.11885428 -0.77275139 -0.00000002
-0.25521815 -0.21306257 -0.00000037
-0.06126340 0.64890945 -0.00000091
-0.13601129 -0.64426386 -0.00000010
-0.42453519 0.48580572 0.04061527
-0.38553947 -0.43188736 -0.00000023
0.37978137 -0.56197059 -0.00000015
-0.01690486 -0.16143148 -0.00000040
-0.12189886 0.60437536 -0.00000083
0.30744380 -0.36288187 -0.00000027
0.25139308 -0.69012344 -0.00000007
0.13493527 -0.19456109 -0.00000038
-0.45820299 0.17098422 -0.00000040
-0.77858943 -0.70625728 0.00000000
-0.40260810 -0.18793222 -0.00000038
-0.11832994 -0.70238310 -0.00000006
0.61196250 -0.50005680 -0.00000042
0.25605637 0.28460640 -0.00000081
-0.21877089 0.11733181 -0.00000057
0.70555806 -0.44518349 -0.00000083
0.26634911 -0.72083241 -0.00000005
0.06199318 0.05718569 -0.00000054
-0.49593014 0.63930398 0.12339726
-0.71542364 -0.07121004 -0.00000008
-0.57039815 0.59021652 0.13273987
0.61222893 -0.76528692 -0.00000002
-0.47995952 0.59600335 0.10157992
-0.56863517 0.25783581 0.00974343
0.49397197 0.14930253 -0.00000131
-0.29486388 0.09841882 -0.00000056
-0.57498235 0.29037893 0.02405875
0.01986414 0.02528839 -0.00000052
-0.56480831 -0.01926846 -0.00000025
-0.64839292 -0.03306316 -0.00000016
-0.37579507 0.44436827 0.00742130
0.65729457 -0.47728068 -0.00000061
0.52352118 -0.40553531 -0.00000032
-0.70021278 -0.25420651 -0.00000006
0.59362787 -0.60370857 -0.00000016
-0.40179175 0.31359485 -0.00000048
0.20762438 -0.45280218 -0.00000022
0.22432214 -0.56654787 -0.00000015
0.46906152 -0.24849910 -0.00000046
0.17356341 0.37065780 -0.00000073
0.14118782 0.27330378 -0.00000067
-0.34701514 0.59803456 0.05339128
-0.14252947 0.18010911 -0.00000061
0.59786421 -0.35323402 -0.00000066
0.66518259 -0.65222663 -0.00000030
0.33113283 0.20444451 -0.00000090
0.13731210 -0.23788029 -0.00000035
0.32107103 -0.25725028 -0.00000034
0.03745007 0.11399719 -0.00000057
0.33441359 -0.75509858 -0.00000003
0.60006487 -0.60868055 -0.00000017
-0.45306000 -0.38477987 -0.00000026
-0.20895553 0.74754155 0.05760464
0.26883188 -0.15099140 -0.00000041
-0.55720150 0.72596359 0.17784972
0.37194291 -0.23990439 -0.00000035
-0.31999668 0.00204658 -0.00000050
-0.22912046 -0.32766742 -0.00000030
-0.10303150 -0.71596342 -0.00000005
-0.43179756 -0.40223256 -0.00000025
0.38201460 -0.66352797 -0.00000009
0.11431536 -0.33389792 -0.00000029
-0.46354687 -0.76786637 -0.00000002
0.44086310 -0.55679798 -0.00000015
0.40054315 0.33369607 -0.00000137
-0.30412862 0.21773486 -0.00000057
-0.43403211 -0.02874394 -0.00000039
0.34204090 -0.74824679 -0.00000003
0.37644354 -0.47566420 -0.00000020
-0.51763695 -0.40654254 -0.00000023
-0.07141792 -0.10072011 -0.00000044
0.23500070 -0.03246574 -0.00000048
0.49359381 -0.62199783 -0.00000011
-0.11395885 0.13333710 -0.00000058
0.40120259 -0.74307954 -0.00000004
0.04886750 0.61396283 -0.00000088
-0.34592381 0.10709399 -0.00000050
-0.58342308 -0.16048166 -0.00000020
0.20946395 -0.42703304 -0.00000023
-0.72587746 -0.78308445 0.00000000
0.52141839 -0.51169026 -0.00000018
0.08388148 -0.24276204 -0.00000035
-0.55232525 0.32819480 0.02963859
0.04748379 -0.28396440 -0.00000032
-0.26791888 -0.19445732 -0.00000038
-0.55231059 0.00395597 -0.00000026
-0.15976900 -0.73847520 -0.00000004
-0.28651965 -0.65598267 -0.00000009
-0.51631212 0.47108686 0.06898011
-0.22273304 -0.03995166 -0.00000048
0.19548289 0.09546125 -0.00000056
-0.72515535 0.42870608 0.13025443
0.08506450 0.25676504 -0.00000066
-0.00008189 0.59973729 -0.00000087
-0.21159674 -0.77830195 -0.00000001
-0.73637873 -0.60533684 0.00000000
-0.48365745 0.12924699 -0.00000036
0.25690544 -0.79035521 -0.00000001
-0.43243891 -0.05237705 -0.00000038
-0.22703440 -0.36972719 -0.00000027
-0.43997803 -0.23234580 -0.00000034
-0.64260399 -0.24430872 -0.00000012
-0.00852621 -0.12766483 -0.00000042
0.09293738 0.05715192 -0.00000054
0.79051232 -0.06485293 -0.00000184
0.54255658 0.05658026 -0.00000129
-0.74569786 -0.66829211 0.00000000
0.74400789 -0.21780410 -0.00000140
-0.23380543 -0.04023998 -0.00000047
0.40563548 -0.53417617 -0.00000017
-0.60517794 -0.60048079 -0.00000010
0.03596428 -0.56248224 -0.00000015
0.57482916 -0.09254396 -0.00000110
-0.09557766 -0.09750007 -0.00000044
-0.67656648 0.13580890 0.00455510
0.35264456 -0.33948210 -0.00000029
-0.66989112 0.10721150 -0.00000016
-0.14260314 -0.55626732 -0.00000015
-0.13328113 -0.48364630 -0.00000020
-0.19896387 0.20287688 -0.00000063
-0.10673505 0.14195755 -0.00000059
-0.37705266 -0.65954787 -0.00000009
-0.14194949 -0.26265040 -0.00000034
0.68541199 -0.65656185 -0.00000035
-0.76625741 -0.10883713 -0.00000002
0.00051545 0.63246417 -0.00000090
0.69585603 -0.35694146 -0.00000097
-0.52865660 0.00446204 -0.00000029
-0.64018196 0.29233000 0.04877669
-0.42941535 -0.21974400 -0.00000036
-0.23732594 -0.71879607 -0.00000005
0.76207060 0.03490679 -0.00000195
-0.28264475 -0.25548223 -0.00000034
-0.69136077 -0.48826659 -0.00000003
-0.04758486 0.36070853 -0.00000073
0.59325051 -0.48251051 -0.00000040
0.14779046 0.56990594 -0.00000102
-0.36070105 -0.73857886 -0.00000004
-0.79614788 -0.47157529 0.00000000
0.32612792 0.21492358 -0.00000090
-0.22560017 -0.70370412 -0.00000006
-0.07673144 -0.06625590 -0.00000046
0.30563286 -0.09661161 -0.00000044
0.61584312 0.05869953 -0.00000153
-0.43667853 -0.13846050 -0.00000036
0.69302166 -0.75894845 -0.00000010
-0.08345319 0.76232445 0.01684928
0.11785252 0.02812182 -0.00000052
0.20514499 0.25356206 -0.00000066
0.13068017 -0.38904786 -0.00000026
0.55848366 -0.48942307 -0.00000027
-0.18210357 0.28496724 -0.00000068
0.43437281 -0.74056315 -0.00000004
-0.61780655 -0.72057331 -0.00000005
-0.49762902 -0.09365945 -0.00000031
-0.55765510 0.15375756 -0.00000029
-0.13413376 0.43317714 -0.00000077
-0.39966616 -0.74639308 -0.00000003
-0.32064363 -0.33630025 -0.00000029
0.10561066 -0.26675531 -0.00000033
-0.48513708 -0.65100020 -0.00000009
0.30666158 -0.20329250 -0.00000037
-0.14149567 0.24331035 -0.00000065
-0.11838926 0.39439577 -0.00000075
0.28332213 -0.16128609 -0.00000040
0.34603202 -0.05254551 -0.00000047
-0.37515858 -0.11681349 -0.00000043
0.17850293 0.07305437 -0.00000055
-0.61480856 0.40331081 0.08028829
0.28365546 0.29116768 -0.00000092
-0.78087890 0.23073089 0.07789243
0.50695390 -0.30169445 -0.00000047
-0.61630714 0.30862734 0.04598743
-0.71733093 -0.48289374 0.00000000
0.28141198 -0.64292204 -0.00000010
-0.53533405 0.40797329 0.05275024
0.69150889 -0.34893802 -0.00000097
-0.37482855 -0.52860916 -0.00000017
0.34673062 0.30580661 -0.00000115
0.47698396 -0.54378855 -0.00000016
-0.55254239 0.41306642 0.06095931
-0.03969566 -0.14586125 -0.00000041
-0.79819018 -0.47484437 0.00000000
0.17160933 -0.29012844 -0.00000032
0.22934709 0.49419296 -0.00000114
0.41966036 -0.10021528 -0.00000059
-0.57205015 0.55565000 0.12062430
0.55163866 -0.71371508 -0.00000005
0.76783389 -0.14594889 -0.00000161
-0.69068390 -0.05566330 -0.00000011
-0.44185606 -0.48338181 -0.00000020
-0.09811197 0.02349242 -0.00000051
0.49468601 -0.24616317 -0.00000054
-0.48664579 -0.44739249 -0.00000022
0.48522022 -0.58862579 -0.00000013
-0.18743423 0.11427776 -0.00000057
-0.42694038 -0.58624065 -0.00000013
0.73702598 -0.26017517 -0.00000129
-0.60749149 0.62821287 0.16037995
0.07741376 -0.51570052 -0.00000018
-0.29577413 0.19255672 -0.00000057
0.62302506 0.14276908 -0.00000171
-0.45254597 0.06097695 -0.00000038
0.70065433 -0.22161768 -0.00000125
-0.29328638 0.40861279 -0.00000062
-0.10366044 -0.73451501 -0.00000004
0.33406034 0.07093436 -0.00000065
-0.12961635 0.73433530 0.02353911
-0.60012645 -0.02934951 -0.00000021
-0.05692773 -0.66527814 -0.00000008
0.63559586 -0.42486605 -0.00000064
-0.54993838 -0.70641440 -0.00000006
0.41793895 -0.24396499 -0.00000035
-0.57939875 -0.60094589 -0.00000012
0.02427974 -0.06444161 -0.00000046
-0.55125302 -0.43735644 -0.00000019
0.02766623 0.17868616 -0.00000061
0.14949474 -0.29456168 -0.00000032
-0.09696526 -0.79886478 -0.00000000
0.28305566 -0.34929398 -0.00000028
-0.53356475 -0.60190952 -0.00000012
-0.14342979 0.57825392 -0.00000081
-0.43514860 0.51558113 0.05548221
0.15429404 0.04493914 -0.00000053
-0.74255705 -0.60835838 0.00000000
0.24658094 0.29854164 -0.00000081
0.43207291 -0.24698950 -0.00000035
-0.40864846 -0.31670913 -0.00000030
-0.41430146 0.14588086 -0.00000044
0.55202609 -0.41675505 -0.00000039
0.26506713 -0.54527700 -0.00000016
0.08105955 0.26615834 -0.00000067
-0.57923746 0.56085306 0.12518512
0.25656474 -0.46660781 -0.00000021
0.53706348 0.10475853 -0.00000136
0.35353982 -0.51846999 -0.00000018
0.20689411 0.10456685 -0.00000057
-0.22383486 0.21276081 -0.00000063
0.28832319 -0.57050133 -0.00000014
0.04849638 0.29183596 -0.00000068
0.19990771 -0.41588479 -0.00000024
-0.43681711 -0.04878732 -0.00000038
0.79779518 -0.21426675 -0.00000146
-0.18985625 0.37426728 -0.00000072
0.61119562 0.08651492 -0.00000156
-0.75936693 0.58051038 0.19872567
-0.51239133 -0.61009300 -0.00000012
-0.19481993 0.00018155 -0.00000050
-0.10417169 -0.72415167 -0.00000005
-0.67791712 -0.47788653 -0.00000004
-0.25840750 0.01834809 -0.00000051
-0.34225696 -0.36807948 -0.00000027
-0.55225706 0.02565004 -0.00000027
-0.36406100 -0.42555040 -0.00000023
0.29178965 -0.01046743 -0.00000049
-0.07590241 0.31380510 -0.00000070
-0.56131679 0.62730259 0.14304817
-0.40037906 0.68512261 0.10509084
-0.57182324 0.38281846 0.05692241
-0.22371078 0.67118770 0.03493065
-0.03901715 -0.60226977 -0.00000012
-0.73614961 -0.11691059 -0.00000005
0.36164111 -0.51174128 -0.00000018
0.13525207 0.25967088 -0.00000066
-0.79561692 0.07255078 0.02509216
0.24892239 -0.10081677 -0.00000044
0.78008693 -0.41171372 -0.00000097
0.38488466 0.17340782 -0.00000101
0.14029035 -0.53964788 -0.00000016
-0.52168024 0.34298250 0.02380155
-0.69048816 0.72388905 0.22614831
0.41088563 0.36264771 -0.00000146
0.46191958 -0.25370812 -0.00000042
-0.08068076 0.32624501 -0.00000070
-0.62916690 -0.45065346 -0.00000010
0.30627069 0.37143970 -0.00000114
-0.13393259 -0.28606698 -0.00000032
0.37930971 -0.37420690 -0.00000027
-0.59961534 -0.22483829 -0.00000017
-0.33934480 0.59082985 0.04791582
-0.11988897 -0.63336354 -0.00000010
0.05328384 0.00001040 -0.00000050
-0.17145605 0.36411574 -0.00000073
0.64596444 -0.79418898 -0.00000000
-0.65413713 -0.75189286 -0.00000002
-0.32831472 -0.57977140 -0.00000014
-0.61590683 0.62282979 0.16149612
-0.43132991 0.02417751 -0.00000040
-0.75654441 0.68145597 0.23484401
-0.12585360 0.33445019 -0.00000071
0.45733717 0.23319180 -0.00000136
0.31538373 -0.40486929 -0.00000025
-0.41601288 0.58695567 0.07471101
-0.08000643 0.16224171 -0.00000060
-0.21301755 0.73762816 0.05545083
-0.38143906 -0.02037471 -0.00000044
0.18034548 0.14536008 -0.00000059
-0.19156519 0.57741290 -0.00000075
0.19613639 0.36770800 -0.00000078
-0.41380414 -0.36561200 -0.00000027
-0.25303274 0.18709423 -0.00000062
0.27296636 0.08884126 -0.00000056
-0.03429715 0.48620260 -0.00000080
-0.13579057 -0.05371386 -0.00000047
-0.13331583 -0.53504449 -0.00000017
0.35581705 -0.26050326 -0.00000034
0.00784419 0.59065384 -0.00000087
-0.77264577 0.26442406 0.08726413
-0.75397587 -0.40111977 0.00000000
0.18490265 -0.29882520 -0.00000031
-0.00037487 0.43090713 -0.00000077
-0.06296725 -0.37415752 -0.00000027
-0.79701895 0.03229022 0.01078855
0.09822973 -0.46074766 -0.00000021
-0.73170346 0.08125999 0.00477165
-0.58724511 0.61362195 0.14755653
-0.54532784 -0.76747966 -0.00000002
0.08577940 0.26287189 -0.00000066
-0.19552179 0.00071631 -0.00000050
0.12970980 -0.34979406 -0.00000028
-0.65870219 0.00050137 -0.00000015
-0.56587100 0.03961460 -0.00000026
0.55880284 -0.79991627 -0.00000000
-0.68902391 0.29547507 0.06791292
0.05975119 0.17051177 -0.00000061
0.34277937 -0.28939152 -0.00000032
0.60100067 -0.06184279 -0.00000124
-0.08290653 -0.73290902 -0.00000004
-0.69371378 -0.05245590 -0.00000010
0.50499457 0.21568345 -0.00000148
0.35165960 -0.62773836 -0.00000011
0.70862317 -0.18963793 -0.00000134
0.59735209 -0.06841457 -0.00000122
-0.53110272 -0.32904500 -0.00000023
-0.73318756 -0.39019683 0.00000000
-0.60242993 0.37422043 0.06502375
0.19957045 0.58678579 -0.00000122
-0.60573041 0.31239691 0.04348172
0.09346370 0.14999995 -0.00000059
0.53734761 -0.67714232 -0.00000008
0.57230377 0.03921246 -0.00000135
-0.30559140 0.71094841 0.07970621
0.72375745 -0.40067756 -0.00000097
0.52361220 0.18370350 -0.00000147
0.04032999 0.40595195 -0.00000075
-0.49019414 -0.47607806 -0.00000020
-0.15908512 -0.11790602 -0.00000043
0.45069095 -0.05094072 -0.00000078
0.30571616 -0.79765725 -0.00000000
-0.27347505 -0.50581086 -0.00000018
-0.68919379 0.18210749 0.02624545
-0.09425907 -0.67541015 -0.00000008
-0.12555677 -0.46602714 -0.00000021
0.58491790 0.08792129 -0.00000148
0.46764362 -0.43190861 -0.00000023
0.23320092 -0.00833702 -0.00000049
-0.17479132 0.19427884 -0.00000062
0.62872654 -0.04730714 -0.00000136
-0.35068110 -0.21001165 -0.00000037
0.00312054 0.42083663 -0.00000076
-0.68389720 0.16627032 0.01846620
-0.18875474 0.08438403 -0.00000055
0.57355136 -0.54002440 -0.00000022
-0.23790497 -0.69042534 -0.00000007
0.11962151 0.21739534 -0.00000064
-0.30788291 -0.27175283 -0.00000033
0.25561816 -0.31307051 -0.00000030
0.24109249 0.50160098 -0.00000119
0.11957411 -0.13480955 -0.00000042
0.77568638 -0.22814982 -0.00000143
-0.74133265 -0.58737433 0.00000000
-0.24573503 0.37865889 -0.00000066
-0.36230493 -0.78538185 -0.00000001
-0.15959471 0.28807768 -0.00000068
0.03028048 -0.33856481 -0.00000029
-0.66859823 -0.17717656 -0.00000011
-0.14915603 0.67247188 0.00796000
0.03037059 0.52583921 -0.00000083
-0.42412406 -0.44386026 -0.00000022
-0.63696164 -0.47768548 -0.00000009
0.16132943 -0.37736839 -0.00000026
-0.73677152 -0.76249850 0.00000000
-0.00412746 -0.69043618 -0.00000007
-0.55981421 -0.47803149 -0.00000017
0.44140396 -0.75734067 -0.00000003
-0.37397018 -0.33043757 -0.00000029
-0.33152014 -0.53273004 -0.00000017
0.12518309 -0.25074670 -0.00000034
-0.30093861 0.43965390 -0.00000061
0.49157166 -0.25060943 -0.00000052
-0.35901266 0.38229787 -0.00000054
-0.44278231 -0.55208278 -0.00000015
-0.35007706 -0.22668140 -0.00000036
0.61472088 0.18132418 -0.00000176
0.46502030 -0.07562175 -0.00000078
-0.19896828 -0.60901296 -0.00000012
0.27028218 -0.13082898 -0.00000042
-0.49453992 -0.74700785 -0.00000003
0.07195923 0.41105184 -0.00000076
0.67266411 -0.68584752 -0.00000025
0.53258771 -0.43695489 -0.00000029
-0.72001016 0.17817748 0.03614222
-0.11275481 0.35219187 -0.00000072
-0.73938185 -0.15341771 -0.00000004
-0.22969492 0.05704888 -0.00000054
-0.25617066 -0.23919906 -0.00000035
0.33918986 0.32596940 -0.00000116
0.18508703 0.07241893 -0.00000055
0.52455854 -0.76782691 -0.00000002
-0.66023469 -0.72835165 -0.00000002
-0.45884985 0.61047262 0.09913558
-0.13109615 0.56458992 -0.00000082
-0.33709416 0.34114724 -0.00000056
0.66451591 -0.36226487 -0.00000086
-0.77938449 -0.20366845 0.00000000
-0.43408963 -0.48851171 -0.00000019
-0.42935947 -0.51649582 -0.00000018
0.06086851 0.35696828 -0.00000072
-0.73887163 0.11003715 0.01800296
0.02297636 -0.53063279 -0.00000017
-0.22963379 0.05391594 -0.00000053
-0.32105425 0.33125678 -0.00000057
-0.04248992 0.14304224 -0.00000059
0.04621308 0.62481457 -0.00000089
0.05793203 0.60034055 -0.00000088
-0.74877542 0.52108920 0.17295450
0.55071384 -0.02554681 -0.00000115
0.79229116 -0.30150855 -0.00000125
0.55318469 -0.11381527 -0.00000099
0.34421331 0.17431417 -0.00000088
-0.56460297 0.04907915 -0.00000026
-0.71777296 -0.53888494 0.00000000
-0.57359111 -0.60534215 -0.00000012
0.24016133 0.51420265 -0.00000121
-0.56414557 -0.66918892 -0.00000008
-0.37063518 0.02564736 -0.00000046
0.23482285 -0.05515965 -0.00000047
0.16442125 -0.56744909 -0.00000015
-0.53652555 0.16751118 -0.00000031
0.10469252 -0.43067944 -0.00000023
-0.25195348 0.16097184 -0.00000060
-0.14286841 0.63739222 -0.00000082
0.39757809 -0.56481296 -0.00000015
-0.60483742 0.64968652 0.16730727
0.66875869 -0.77625865 -0.00000006
-0.56753790 -0.32579136 -0.00000019
0.06002845 0.63781744 -0.00000090
0.23110151 0.13974044 -0.00000059
-0.55233580 -0.66466826 -0.00000008
-0.25160345 -0.56321007 -0.00000015
0.62722832 -0.21637572 -0.00000102
-0.42936522 -0.58362252 -0.00000014
-0.74904037 -0.01012726 -0.00000005
-0.68440074 -0.14816314 -0.00000010
-0.29031825 0.51927626 0.00353081
0.55945313 -0.40428251 -0.00000044
0.24956238 0.09325851 -0.00000056
-0.67227179 -0.15497079 -0.00000011
0.04690506 -0.77893907 -0.00000001
-0.09905701 0.39419022 -0.00000075
-0.58474129 0.47812945 0.09676100
0.66306609 0.02748226 -0.00000162
-0.55921865 0.19217098 -0.00000029
-0.55194563 -0.01397915 -0.00000026
-0.61724335 0.26442510 0.03006141
0.09749122 -0.25631079 -0.00000034
0.13248567 0.03414611 -0.00000052
-0.10566836 -0.17260531 -0.00000039
0.74652916 -0.60935050 -0.00000048
-0.63808572 0.33336380 0.06310942
0.73296750 -0.66571164 -0.00000034
0.34621331 -0.12070555 -0.00000042
-0.22413149 0.55012423 -0.00000072
0.23023015 0.33603945 -0.00000083
0.29545799 -0.19503500 -0.00000038
0.11743696 -0.55548608 -0.00000015
-0.09101814 -0.66867208 -0.00000008
0.60713303 -0.77553326 -0.00000002
-0.75694758 0.17966598 0.05028668
-0.02670950 0.66695487 -0.00000092
0.51018238 -0.14215362 -0.00000080
0.72992676 -0.42956135 -0.00000093
-0.29956481 0.24378300 -0.00000058
-0.33978575 -0.60667539 -0.00000012
-0.43487683 -0.46533638 -0.00000021
-0.07073318 -0.64598268 -0.00000010
0.10943517 0.11512037 -0.00000057
0.03577171 -0.10909231 -0.00000043
0.46049184 -0.63343561 -0.00000010
-0.49431688 0.31484717 0.00337270
0.70883924 -0.12272588 -0.00000147
-0.78511512 -0.40191409 0.00000000
0.08984689 0.16285945 -0.00000060
-0.66121703 -0.10021235 -0.00000013
0.77058190 -0.75241035 -0.00000012
-0.11398736 -0.64861202 -0.00000009
0.00112063 0.28506136 -0.00000068
0.52076870 0.26213974 -0.00000162
-0.61201239 0.15604869 -0.00000023
0.02396147 0.28555122 -0.00000068
0.54904205 0.02413031 -0.00000124
0.66442990 -0.10837810 -0.00000135
0.33922642 -0.47076270 -0.00000021
-0.58312184 -0.16311778 -0.00000020
0.49430263 0.07757877 -0.00000117
0.06883871 0.26444614 -0.00000067
-0.37588093 -0.49043182 -0.00000019
-0.13177013 -0.58065784 -0.00000014
-0.48856318 -0.20284116 -0.00000030
0.05997150 0.29060066 -0.00000068
-0.47424030 0.08292666 -0.00000036
0.32766920 -0.35418582 -0.00000028
-0.55514961 -0.25193778 -0.00000022
0.30660918 -0.34458542 -0.00000028
0.09594159 -0.78414297 -0.00000001
-0.32610312 0.20937812 -0.00000054
0.32757181 -0.17022324 -0.00000039
0.64489996 0.11914063 -0.00000174
-0.57211828 0.09181710 -0.00000026
-0.30433846 -0.52812707 -0.00000017
0.23454060 -0.37952143 -0.00000026
-0.44250363 -0.59131056 -0.00000013
-0.06033892 0.44265756 -0.00000078
0.01799491 0.46663198 -0.00000079
0.69148809 -0.21066295 -0.00000124
-0.58832771 -0.10582305 -0.00000021
0.12184534 -0.65136582 -0.00000009
0.38905802 -0.06736024 -0.00000055
0.02550768 -0.17672466 -0.00000039
-0.70780915 -0.69299710 0.00000000
-0.21358319 -0.66809970 -0.00000008
-0.24510036 0.57917500 0.00893469
0.45908314 -0.54098868 -0.00000016
-0.18478020 -0.72438890 -0.00000005
0.70019960 -0.78975487 -0.00000003
0.47810176 -0.24069479 -0.00000050
0.42833215 -0.06534607 -0.00000068
-0.40152353 0.60771054 0.07701729
-0.09852885 0.53365278 -0.00000083
0.56110257 -0.23010764 -0.00000079
-0.30988470 0.57723910 0.03206899
0.45298338 0.33216119 -0.00000154
-0.26311189 -0.37852070 -0.00000026
-0.51938117 -0.31361851 -0.00000024
-0.26567149 0.19262020 -0.00000061
0.42920572 -0.71988922 -0.00000005
0.07377503 -0.27818391 -0.00000033
-0.61114806 0.59318078 0.14883086
0.20046347 -0.09294103 -0.00000044
0.22255591 0.25079584 -0.00000066
0.32300323 -0.39698431 -0.00000025
-0.53018385 0.54034883 0.09958122
-0.30671936 0.53926224 0.01692474
0.42543608 -0.06343924 -0.00000068
0.04144168 0.48752800 -0.00000080
-0.51745909 -0.24928766 -0.00000026
-0.66143137 -0.54697651 -0.00000005
0.14386211 0.17456141 -0.00000061
-0.73954242 0.00071824 -0.00000006
-0.75115347 0.59517062 0.20109867
0.61762369 -0.73419678 -0.00000004
-0.61739033 0.75671101 0.21132284
-0.31741998 -0.52505487 -0.00000017
0.62695277 -0.69956857 -0.00000008
-0.16404153 0.11423670 -0.00000057
-0.51291382 -0.70076430 -0.00000006
0.42837450 -0.39424515 -0.00000025
-0.59556633 0.59032023 0.14204234
-0.76609290 -0.42598179 0.00000000
-0.18710259 0.04346985 -0.00000053
-0.31115624 -0.55411410 -0.00000015
-0.65177178 0.70126647 0.20356978
-0.03835955 0.30943230 -0.00000069
-0.75586289 0.16599447 0.04485499
0.31598219 -0.31837648 -0.00000030
-0.60465187 -0.26896983 -0.00000016
-0.39410129 -0.62924892 -0.00000011
0.59458816 -0.14378054 -0.00000106
0.34240249 0.35838845 -0.00000123
0.25033596 -0.66124654 -0.00000009
0.42456916 -0.43814951 -0.00000023
-0.16715369 0.03467824 -0.00000052
-0.60714239 0.43063527 0.08752439
-0.06632815 -0.39581397 -0.00000025
0.05402822 0.44524693 -0.00000078
0.62531906 -0.60952395 -0.00000025
0.01470688 0.13239092 -0.00000058
-0.69847339 -0.04077215 -0.00000010
0.75887209 0.02116976 -0.00000191
0.32704565 -0.44615766 -0.00000022
0.19223838 -0.57407200 -0.00000014
0.51937109 -0.19024144 -0.00000073
0.51849049 -0.70732188 -0.00000006
-0.06455051 0.30779928 -0.00000069
-0.20435824 -0.34783447 -0.00000028
-0.58406585 -0.52576739 -0.00000013
0.33201501 -0.39462757 -0.00000025
0.79229587 -0.74097961 -0.00000015
-0.23570471 0.19578829 -0.00000062
0.45886371 -0.53183240 -0.00000017
-0.60595310 0.71935856 0.19336370
0.05749299 -0.33936593 -0.00000029
0.46703911 0.05621374 -0.00000104
-0.38302693 0.73870486 0.11842682
0.24512346 0.28411189 -0.00000078
-0.24345300 0.09629125 -0.00000056
0.28835151 -0.42723474 -0.00000023
0.54881978 -0.16509947 -0.00000087
-0.58799279 0.14008501 -0.00000025
-0.36243340 0.44314152 0.00205135
-0.78061163 0.31703621 0.10956259
-0.73172641 0.63581675 0.20890918
0.64833242 -0.55369461 -0.00000043
-0.23102956 0.37587905 -0.00000068
-0.50765920 0.61104089 0.11731125
-0.77055031 0.43726811 0.15011582
0.32187533 0.17568247 -0.00000081
-0.70143557 -0.10832978 -0.00000009
0.56657571 -0.43646348 -0.00000040
0.65021420 -0.35141656 -0.00000084
-0.52128506 -0.60331982 -0.00000012
0.63543212 0.01647921 -0.00000151
0.17516813 -0.53351200 -0.00000017
-0.65283817 -0.40002561 -0.00000008
-0.27631477 0.19336309 -0.00000059
0.32886761 -0.52751195 -0.00000017
-0.36276948 -0.38882750 -0.00000026
-0.34143853 -0.52884120 -0.00000017
0.23704474 -0.46900555 -0.00000021
0.29541242 -0.55744076 -0.00000015
-0.24405456 -0.30377212 -0.00000031
-0.40672424 0.56997794 0.06504248
0.26737946 -0.76916760 -0.00000002
-0.19415858 0.04002824 -0.00000053
0.35286212 -0.29228225 -0.00000032
-0.59766060 0.55045033 0.12813742
-0.05155458 -0.38918543 -0.00000026
0.56911612 -0.74454600 -0.00000003
0.21454071 0.14947593 -0.00000059
-0.22350749 -0.73387033 -0.00000004
0.24787711 -0.14978848 -0.00000041
0.45361164 -0.28130594 -0.00000034
0.42213511 -0.07131967 -0.00000065
0.03277180 0.10518421 -0.00000057
-0.60749912 -0.39426860 -0.00000013
-0.52812099 -0.14474051 -0.00000026
0.64811790 -0.60768503 -0.00000033
-0.66282457 -0.69012076 -0.00000002
-0.22769204 -0.49172968 -0.00000019
0.31788775 -0.17755052 -0.00000039
-0.42942107 0.17858693 -0.00000043
-0.28346279 -0.61507678 -0.00000012
-0.77209955 -0.07162299 -0.00000002
-0.10122310 0.11775169 -0.00000057
0.00346656 0.24904995 -0.00000066
-0.71382165 -0.50919020 0.00000000
-0.31423801 -0.51670873 -0.00000018
0.03647661 -0.04844864 -0.00000047
-0.49529952 -0.48096111 -0.00000020
0.38085404 0.26442361 -0.00000117
-0.14400560 0.62358218 -0.00000081
-0.17051058 -0.23922379 -0.00000035
0.54400533 -0.79210091 -0.00000000
0.79757732 -0.04760383 -0.00000188
0.63618332 -0.71272212 -0.00000009
-0.52201730 -0.01035967 -0.00000029
-0.54627603 -0.31306130 -0.00000021
-0.13298853 -0.54818141 -0.00000016
-0.12166786 -0.04547676 -0.00000047
-0.02985378 0.53480041 -0.00000083
0.28148714 -0.22726144 -0.00000036
0.12183477 0.57497483 -0.00000095
-0.20018071 0.28993091 -0.00000068
-0.69987231 0.42368412 0.11909927
0.44417042 -0.44030663 -0.00000022
0.28184736 -0.53457665 -0.00000017
-0.42665365 -0.74623162 -0.00000003
0.53602296 -0.46797737 -0.00000024
0.28564608 -0.18946871 -0.00000038
-0.58127058 -0.08544489 -0.00000022
-0.15904638 0.58983648 -0.00000079
-0.45054349 -0.10030296 -0.00000035
-0.65338713 -0.42338660 -0.00000008
-0.36301950 0.11157790 -0.00000049
0.39880934 0.08757288 -0.00000089
0.19872639 -0.16933811 -0.00000039
-0.24604478 -0.55113393 -0.00000016
0.51531804 -0.19558115 -0.00000071
0.61354619 -0.77329654 -0.00000002
-0.04402786 0.55457491 -0.00000085
-0.09421888 -0.40472755 -0.00000025
0.46335492 0.10793102 -0.00000113
0.42343467 -0.37071607 -0.00000027
-0.61642945 -0.30820659 -0.00000014
-0.49788049 -0.39679235 -0.00000025
0.33419758 0.45559096 -0.00000140
-0.47169814 0.20837651 -0.00000039
0.48130795 0.05471512 -0.00000109
0.47211570 0.21063232 -0.00000136
-0.68434644 0.30163962 0.06846030
-0.34223098 -0.61740237 -0.00000011
0.47351629 -0.18019751 -0.00000060
-0.20974904 0.72036350 0.04789269
0.02268803 -0.43147245 -0.00000023
0.61426890 -0.04226087 -0.00000132
0.52728748 0.01889810 -0.00000116
-0.58090240 0.74507141 0.19360736
-0.73310173 0.63340199 0.20852657
-0.45601338 0.02455061 -0.00000037
0.06544037 0.69045150 -0.00000100
0.05751505 -0.37976336 -0.00000026
-0.18443243 0.05836887 -0.00000054
0.05399421 -0.53850496 -0.00000016
0.11420578 -0.22327991 -0.00000036
0.44510448 -0.30684051 -0.00000031
0.29562891 -0.49391893 -0.00000019
0.28419402 -0.26662141 -0.00000033
0.16373771 -0.34970987 -0.00000028
0.18717231 -0.52421129 -0.00000017
-0.74359095 -0.30603689 -0.00000000
-0.41420519 -0.00281433 -0.00000041
-0.71445835 -0.09731584 -0.00000007
-0.29267350 0.41850936 -0.00000062
0.17054456 -0.44516203 -0.00000022
-0.10971190 0.08540187 -0.00000055
0.11726679 0.58621484 -0.00000096
-0.10143794 0.34277502 -0.00000071
0.66409469 -0.20292704 -0.00000117
-0.66174948 0.44218153 0.11187520
0.72585183 -0.06604735 -0.00000163
-0.70104462 0.39321771 0.10831627
0.26439941 0.00755641 -0.00000050
-0.73111635 -0.06983307 -0.00000006
-0.65408361 -0.73871744 -0.00000002
-0.70005071 0.49425557 0.14514190
0.07692433 -0.46411639 -0.00000021
0.31879139 -0.31353921 -0.00000030
-0.46162295 -0.22379558 -0.00000032
0.73638964 -0.11501816 -0.00000157
0.18002777 -0.02899984 -0.00000048
-0.33210230 -0.25918147 -0.00000034
-0.13583653 -0.72028917 -0.00000005
-0.70500982 0.20873189 0.04186757
-0.75419050 -0.17694411 -0.00000002
0.27254283 0.28762785 -0.00000087
0.28690112 0.33377302 -0.00000101
-0.62779635 -0.36432236 -0.00000012
-0.28164232 -0.41120857 -0.00000024
-0.00340800 0.29631761 -0.00000069
-0.17855366 -0.63130414 -0.00000011
-0.34511644 -0.12336555 -0.00000042
-0.13032632 -0.11086962 -0.00000043
-0.19746666 0.62979048 0.01003218
0.40732864 0.12010712 -0.00000098
-0.59067625 0.59559441 0.14218371
-0.57016730 -0.02518720 -0.00000024
0.38740930 -0.02665909 -0.00000063
-0.60075140 -0.65473050 -0.00000009
0.22505204 -0.17373927 -0.00000039
0.08077702 0.27230948 -0.00000067
0.57057923 0.21347313 -0.00000168
-0.25184020 -0.69101900 -0.00000007
-0.00102249 0.12872531 -0.00000058
-0.44548070 0.41728133 0.02310177
-0.22114022 0.14198665 -0.00000059
-0.00259926 -0.14899106 -0.00000041
-0.09740346 -0.60523921 -0.00000012
0.36223933 0.13444303 -0.00000086
0.31302670 0.38509110 -0.00000119
-0.50622219 0.16940469 -0.00000034
-0.54176009 -0.30013016 -0.00000022
-0.27347612 0.04116482 -0.00000053
-0.41231024 -0.35557288 -0.00000028
-0.20084623 -0.12456177 -0.00000042
-0.08951281 0.78489709 0.02738861
-0.40513343 0.01386366 -0.00000042
-0.17247657 -0.36504218 -0.00000027
0.20558947 0.13772210 -0.00000059
0.04263091 -0.40709159 -0.00000025
-0.27173781 0.12646551 -0.00000058
-0.51612526 0.13179214 -0.00000033
0.35775521 -0.78279740 -0.00000001
0.71020740 -0.45942956 -0.00000082
-0.16544721 0.53092283 -0.00000077
0.79743236 -0.66602755 -0.00000033
-0.26238379 0.00147590 -0.00000050
0.62784940 0.07394478 -0.00000159
0.42652503 0.28622869 -0.00000136
-0.03273720 -0.59647721 -0.00000013
0.31219438 0.32170489 -0.00000107
0.08828345 0.67142260 -0.00000103
-0.62730217 0.41355449 0.08865780
0.41153464 -0.29026231 -0.00000032
-0.52105415 0.44000068 0.05928297
0.53270060 -0.21336061 -0.00000073
0.34558731 0.16397521 -0.00000087
0.67201936 -0.76723695 -0.00000008
-0.04542502 -0.42362824 -0.00000024
0.76129097 -0.02753488 -0.00000182
-0.37711120 0.20379239 -0.00000049
-0.55359542 0.35957205 0.04165593
-0.38956544 -0.74846417 -0.00000003
-0.36384204 0.41967455 -0.00000054
-0.38936710 -0.09932100 -0.00000042
0.74912846 -0.49090111 -0.00000077
-0.68634570 0.64957201 0.19726793
-0.43115675 -0.45295128 -0.00000022
-0.34885150 -0.44930080 -0.00000022
-0.24210116 -0.19939606 -0.00000038
0.61280507 -0.39760402 -0.00000063
-0.66681266 0.57311356 0.16193414
0.34568939 0.07276688 -0.00000069
-0.32690614 -0.34200785 -0.00000029
-0.24261954 0.27963227 -0.00000065
-0.10543915 0.67379987 -0.00000086
-0.55153608 -0.23812799 -0.00000022
0.32476965 -0.68834454 -0.00000007
-0.75292909 -0.29673395 0.00000000
0.63923222 -0.34713575 -0.00000081
-0.17513949 0.23404528 -0.00000065
-0.12801009 -0.36768433 -0.00000027
-0.75740665 0.07323576 0.01127923
-0.44146490 -0.43118826 -0.00000023
0.15044816 -0.30290145 -0.00000031
-0.26389033 0.66524637 0.04753363
0.49326897 -0.28164625 -0.00000047
0.20665552 0.19192909 -0.00000062
0.64017028 -0.51050556 -0.00000049
0.24158213 -0.75688732 -0.00000003
0.01721160 -0.04027157 -0.00000047
0.15606630 -0.60147023 -0.00000012
0.02287774 -0.27497220 -0.00000033
0.43904996 -0.13245364 -0.00000059
-0.74897176 0.32442230 0.10063486
0.08890516 -0.79825729 -0.00000000
-0.56214249 -0.01861782 -0.00000025
-0.61747092 0.20983988 0.01005265
-0.13340588 -0.60053122 -0.00000012
0.26928246 -0.38207966 -0.00000026
0.22663423 -0.37191519 -0.00000027
-0.47858343 -0.16186863 -0.00000031
0.39564520 0.39942035 -0.00000141
-0.34433219 -0.27030596 -0.00000033
-0.16267791 0.36686158 -0.00000073
-0.00114086 0.56843323 -0.00000086
0.55481803 0.23123488 -0.00000167
-0.44731206 -0.49627891 -0.00000019
0.68866962 -0.42441782 -0.00000082
-0.01110124 0.46419042 -0.00000079
-0.43329710 0.52581036 0.05856602
-0.55608052 0.63493133 0.14392883
0.76333058 -0.28602296 -0.00000128
-0.11149884 0.50084209 -0.00000081
-0.06094917 -0.24867214 -0.00000034
-0.20034817 0.07342862 -0.00000055
0.62321097 -0.03577907 -0.00000136
-0.15608954 0.14752115 -0.00000059
0.71400821 -0.77452183 -0.00000006
-0.74803919 0.07622592 0.00893177
-0.75591463 0.02206271 -0.00000005
-0.32549760 -0.57921165 -0.00000014
-0.37743899 0.14277233 -0.00000048
-0.47527969 -0.55608279 -0.00000015
0.65578210 -0.35389268 -0.00000085
0.18170919 0.23218599 -0.00000065
-0.00191764 0.78785288 -0.00000099
-0.33301476 0.56141555 0.03475851
-0.61802584 -0.04801612 -0.00000019
0.72349060 -0.12832434 -0.00000150
-0.26645246 0.49906671 -0.00000066
0.00731553 0.61209291 -0.00000088
-0.55495906 -0.43733886 -0.00000018
-0.68543416 0.29684877 0.06709722
0.17654724 -0.32333165 -0.00000030
-0.23254293 -0.33792743 -0.00000029
-0.04950587 0.24284834 -0.00000065
-0.18189776 -0.70540953 -0.00000006
-0.23844296 0.45363423 -0.00000068
-0.26722658 0.28842583 -0.00000062
0.05922460 -0.71696556 -0.00000005
-0.64712298 0.31794474 0.06076032
-0.03818527 0.71583182 -0.00000094
0.05967152 -0.07313135 -0.00000045
0.45597452 -0.56603324 -0.00000015
0.54080158 0.15875155 -0.00000148
-0.09229843 0.64049697 -0.00000087
-0.25232196 -0.79996705 -0.00000000
0.28831962 0.00095045 -0.00000050
-0.14939748 -0.67322540 -0.00000008
0.05352719 0.70137638 -0.00000098
-0.55005735 -0.18950976 -0.00000023
0.00724120 0.33137158 -0.00000071
-0.18182933 0.08995239 -0.00000056
0.46338871 0.06778801 -0.00000105
-0.26314360 -0.21242426 -0.00000037
-0.57115859 0.55145341 0.11875139
0.44346350 0.18349791 -0.00000122
0.00627974 -0.37534475 -0.00000027
0.66894251 -0.44113904 -0.00000072
-0.69044769 -0.19842008 -0.00000008
-0.42899770 0.69574606 0.11953565
0.59265798 -0.55443686 -0.00000025
-0.01017404 -0.76441437 -0.00000002
-0.09813097 0.43405941 -0.00000077
0.57167774 0.13392217 -0.00000153
-0.27162096 0.57487512 0.01711406
0.54388446 0.08024631 -0.00000134
-0.13996887 -0.02508362 -0.00000048
-0.70669460 -0.47219074 -0.00000001
0.07454896 0.38016531 -0.00000074
-0.63945848 0.13940392 -0.00000020
-0.11854778 0.38184565 -0.00000074
-0.54629970 -0.00369553 -0.00000027
0.71752769 -0.39909595 -0.00000096
-0.68670750 -0.31069216 -0.00000006
0.72528774 -0.23152652 -0.00000131
-0.79516357 -0.25041986 0.00000000
-0.55894834 -0.67750984 -0.00000008
-0.60990626 -0.73185056 -0.00000004
-0.22432888 0.04389330 -0.00000053
-0.41359511 0.56770098 0.06673349
-0.52453989 0.36639768 0.03347317
0.13881437 -0.35334748 -0.00000028
0.68562520 -0.52411562 -0.00000061
-0.59862411 0.43804124 0.08711495
-0.34290501 -0.20612112 -0.00000037
-0.27792525 0.48291898 -0.00000065
-0.05826684 0.09860228 -0.00000056
-0.10733374 -0.41379464 -0.00000024
0.48619968 -0.72103256 -0.00000005
-0.37921593 -0.54470158 -0.00000016
0.34994406 -0.49275744 -0.00000019
-0.05063679 -0.58588511 -0.00000013
-0.64515585 0.61614668 0.16980255
-0.41955805 0.19655313 -0.00000044
-0.12047735 -0.45228764 -0.00000022
0.44531527 -0.32056546 -0.00000030
0.37523827 -0.20747076 -0.00000037
0.05828018 -0.09283572 -0.00000044
-0.10709958 0.22041336 -0.00000064
0.11101807 -0.25935292 -0.00000034
0.10325592 0.07063548 -0.00000054
-0.63293433 0.58507210 0.15386555
0.00022782 -0.53102434 -0.00000017
0.71531349 -0.48706153 -0.00000078
0.43768141 -0.64661682 -0.00000010
-0.12812316 -0.64725238 -0.00000010
-0.29678863 0.22612482 -0.00000058
-0.77735752 0.23151734 0.07688571
-0.46547374 -0.47730532 -0.00000020
0.63842171 0.09800619 -0.00000167
-0.23129006 -0.17201398 -0.00000039
0.67149609 -0.17682232 -0.00000124
-0.68563503 -0.67476541 0.00000000
0.15185332 -0.74550730 -0.00000003
-0.60537487 -0.41002330 -0.00000013
0.21735533 -0.31003413 -0.00000031
0.63917583 -0.78462327 -0.00000001
-0.73768294 0.53900754 0.17546701
0.45864052 -0.02658735 -0.00000086
-0.45435643 0.57363814 0.08392304
-0.51793331 -0.38469821 -0.00000023
-0.40569252 -0.16172972 -0.00000039
0.35921872 -0.23768757 -0.00000035
0.09645861 -0.75774938 -0.00000003
-0.49294564 -0.54659939 -0.00000016
0.69169843 -0.53804362 -0.00000060
-0.62254977 0.71908069 0.19937058
-0.49080366 0.01502816 -0.00000033
0.02983026 0.14761601 -0.00000059
0.59183949 -0.37599295 -0.00000060
-0.52442276 -0.03027103 -0.00000029
0.25222573 -0.73390740 -0.00000004
-0.28649667 -0.42446741 -0.00000023
-0.66478771 -0.45667556 -0.00000006
-0.72523868 0.51053065 0.16040421
0.26535782 0.19564050 -0.00000067
0.78575861 -0.79623014 -0.00000001
-0.77965474 -0.50524139 0.00000000
0.60668999 -0.07531054 -0.00000123
0.44321406 0.30039182 -0.00000144
0.36779380 -0.05845858 -0.00000050
0.60478997 -0.50257289 -0.00000039
-0.30184481 0.24507828 -0.00000058
-0.29455411 0.72157294 0.07955425
-0.02421729 -0.58929819 -0.00000013
-0.13343617 -0.35930768 -0.00000028
-0.53202415 -0.60739273 -0.00000012
-0.25203958 0.70688331 0.05849771
-0.10638596 0.11863466 -0.00000057
-0.12792800 0.64878285 -0.00000084
0.15273364 -0.11638461 -0.00000043
0.31280902 -0.53851831 -0.00000016
-0.40607873 0.48905736 0.03501842
0.27558902 -0.08151690 -0.00000045
0.02932004 -0.64869291 -0.00000009
-0.40497524 0.61011690 0.07917363
0.42034575 0.34185839 -0.00000145
-0.63972336 0.47866008 0.11719503
0.02338442 -0.55793214 -0.00000015
0.12628189 -0.03630323 -0.00000048
-0.46081132 -0.19368257 -0.00000033
-0.09084074 0.76869541 0.02191370
0.73025000 -0.40545160 -0.00000099
0.32928634 0.12943634 -0.00000075
-0.09501673 0.11994277 -0.00000057
-0.45475528 0.52219206 0.06513280
0.62615317 -0.06494089 -0.00000132
0.35875970 -0.52731699 -0.00000017
-0.38070279 -0.42706716 -0.00000023
-0.37857899 -0.33055323 -0.00000029
-0.00603417 0.75475317 -0.00000097
0.04588910 0.34361392 -0.00000071
0.37915683 0.41533396 -0.00000146
0.72579128 -0.02566807 -0.00000171
-0.19218004 -0.52331889 -0.00000017
-0.57374310 0.52537876 0.11010485
-0.59688509 -0.40772012 -0.00000014
0.00074187 0.08298727 -0.00000055
-0.08455047 0.38582057 -0.00000074
-0.55920899 0.48337597 0.08929386
-0.51796883 0.18506776 -0.00000033
0.25626132 0.20168608 -0.00000065
-0.43750840 0.01731944 -0.00000039
-0.73362261 -0.74029189 0.00000000
0.67139661 -0.53983605 -0.00000054
-0.17017277 0.10100022 -0.00000056
0.43948039 0.30984721 -0.00000145
-0.50827354 0.11994536 -0.00000033
-0.75431347 -0.45599499 0.00000000
-0.54960972 0.54858428 0.10976325
-0.12578636 -0.60506350 -0.00000012
0.42405581 -0.31907132 -0.00000030
0.66173375 0.03940488 -0.00000163
-0.08189294 -0.28898281 -0.00000032
0.01908115 -0.44102058 -0.00000022
0.79654652 -0.18542017 -0.00000154
-0.26192346 -0.67517197 -0.00000008
-0.78615719 0.09654078 0.03044067
-0.56103843 0.57310212 0.12299491
-0.04197242 -0.14569537 -0.00000041
-0.45118806 0.34425357 -0.00000044
-0.68350774 0.64777285 0.19556107
0.32063425 -0.31399134 -0.00000030
-0.43485665 0.40310836 0.01397410
0.25304866 -0.67186654 -0.00000008
-0.70299006 0.26264980 0.06097101
0.67501271 -0.75793910 -0.00000011
-0.75496513 0.55564040 0.18795094
-0.39394021 0.43716699 0.01144971
0.16429169 -0.39491829 -0.00000025
-0.74121827 -0.05152389 -0.00000005
0.66843134 -0.56197143 -0.00000048
-0.23271596 0.14594896 -0.00000059
0.33370635 -0.78715616 -0.00000001
-0.11254371 -0.44134024 -0.00000022
-0.64053541 -0.07059450 -0.00000016
-0.15348472 0.49829596 -0.00000078
-0.05873535 0.37209648 -0.00000073
0.27781817 0.01627747 -0.00000051
-0.30725920 0.45267195 -0.00000061
-0.05256876 -0.75747889 -0.00000003
0.10437359 -0.38194281 -0.00000026
-0.69348359 -0.15641671 -0.00000009
0.05232717 0.43867043 -0.00000077
-0.57081521 0.16311514 -0.00000027
-0.38908616 0.71948671 0.11358315
0.02417158 -0.76127082 -0.00000002
0.40536189 0.35511854 -0.00000143
0.10290517 -0.31600571 -0.00000030
0.66013980 -0.34425169 -0.00000088
-0.61753845 0.72510213 0.19974236
0.66516554 -0.76556021 -0.00000007
0.14268360 0.60757947 -0.00000108
0.02326760 0.42942891 -0.00000077
-0.75052720 0.68413770 0.23361623
-0.21911937 0.50380373 -0.00000071
0.44095245 -0.31171131 -0.00000031
-0.16789106 0.36320445 -0.00000073
-0.58937937 -0.78123486 -0.00000001
0.23265094 0.12461909 -0.00000058
-0.11347887 -0.56325549 -0.00000015
-0.76816469 0.22660027 0.07169192
-0.27752307 -0.55032182 -0.00000016
-0.54821789 0.45125657 0.07342508
-0.64303344 -0.49956766 -0.00000008
-0.08765444 -0.74043739 -0.00000004
0.32565922 0.03614792 -0.00000055
-0.15911004 -0.12769938 -0.00000042
-0.50774366 0.68509698 0.14460184
-0.04042417 -0.65845132 -0.00000009
-0.27778903 0.70522863 0.06736689
0.10016653 -0.23313938 -0.00000035
-0.66486865 0.17708659 0.01544327
-0.33182615 0.07567630 -0.00000051
0.72735059 -0.28108835 -0.00000122
0.43586671 -0.25049976 -0.00000035
0.14442334 0.05305144 -0.00000053
-0.71163380 0.01235542 -0.00000010
0.22681837 0.43373603 -0.00000101
-0.02618629 0.09188208 -0.00000056
0.11905449 -0.28269044 -0.00000032
0.39426681 0.00667606 -0.00000071
-0.63530922 -0.44315258 -0.00000009
-0.25681520 -0.71552336 -0.00000005
0.07497781 -0.37617791 -0.00000026
0.35813108 0.43214542 -0.00000143
0.00377848 0.75944728 -0.00000097
-0.27607796 0.32794037 -0.00000062
0.14472495 -0.79148102 -0.00000001
-0.41441849 0.74060470 0.13068125
-0.68805295 -0.78441703 0.00000000
0.01815065 0.71506810 -0.00000095
-0.54757500 0.66220909 0.15083869
0.23899734 -0.31884599 -0.00000030
-0.47060370 -0.12363712 -0.00000033
0.36683705 0.27660233 -0.00000115
-0.23120038 0.53668267 -0.00000071
0.10322023 -0.57912391 -0.00000014
0.20104307 -0.61487424 -0.00000012
-0.20350146 0.44894508 -0.00000072
-0.14954311 0.65489453 0.00163235
-0.05756041 0.26180783 -0.00000066
0.08852314 -0.40944996 -0.00000024
-0.16635272 -0.74080300 -0.00000004
0.74287903 -0.72955912 -0.00000018
-0.15463881 0.25667447 -0.00000066
0.16299807 0.06243142 -0.00000054
-0.51285732 0.32900771 0.01540980
-0.25838313 0.70611924 0.06055148
-0.13786092 -0.04653076 -0.00000047
-0.26680839 -0.57531315 -0.00000014
-0.49878916 -0.40129924 -0.00000025
0.46373388 -0.15540391 -0.00000062
-0.08703561 0.28678948 -0.00000068
-0.47817114 0.63864458 0.11661754
-0.38603845 -0.43343812 -0.00000023
-0.77901393 -0.75067216 0.00000000
0.66011208 -0.69963259 -0.00000019
-0.30682623 -0.73925108 -0.00000004
-0.75045520 0.25580773 0.07592424
-0.25573152 -0.03906874 -0.00000048
-0.27403420 -0.73644739 -0.00000004
-0.49562213 -0.68118268 -0.00000007
-0.37048829 0.30558494 -0.00000051
0.78012574 -0.56270581 -0.00000059
-0.13372345 0.17803384 -0.00000061
-0.22427271 0.31265938 -0.00000067
-0.36600310 -0.36770353 -0.00000027
0.00330912 -0.77589130 -0.00000002
-0.16656506 -0.15542985 -0.00000040
-0.01826593 -0.39634663 -0.00000025
0.02616416 -0.72590554 -0.00000005
0.24749009 -0.66966927 -0.00000008
-0.22940961 -0.01411757 -0.00000049
-0.17616828 0.65450972 0.01129136
-0.06752828 -0.12531413 -0.00000042
-0.23742625 0.06763947 -0.00000054
0.71112162 -0.25077507 -0.00000123
0.11745503 0.24326707 -0.00000065
0.28686142 -0.58636463 -0.00000013
0.47468427 0.10762386 -0.00000117
0.37171280 -0.43710509 -0.00000023
-0.36777732 0.71094412 0.10259498
0.01243801 0.67138225 -0.00000092
0.77372032 -0.76179165 -0.00000010
-0.24412253 0.02453016 -0.00000052
-0.76112181 -0.75269842 0.00000000
0.50959653 0.04997962 -0.00000117
-0.60623813 0.47899371 0.10499204
-0.40565324 0.35340580 -0.00000049
0.03176920 -0.23897117 -0.00000035
-0.28894272 0.03538891 -0.00000052
0.62431496 0.13356528 -0.00000170
-0.30401683 -0.39317873 -0.00000025
0.01148248 -0.47349346 -0.00000020
-0.37004098 0.56880677 0.05110839
0.37643802 -0.48171282 -0.00000020
-0.00653662 0.72441995 -0.00000095
-0.37920177 -0.40492821 -0.00000025
0.42966074 -0.49509469 -0.00000019
-0.46159831 -0.73259467 -0.00000004
-0.56787312 -0.07015565 -0.00000023
-0.36275423 -0.40696740 -0.00000025
-0.43158281 -0.39712057 -0.00000025
0.11834066 0.54814786 -0.00000089
-0.71875030 0.23016594 0.05481515
-0.06299431 0.62214541 -0.00000089
-0.63382214 0.12296307 -0.00000020
-0.76380950 0.45549792 0.15434483
0.57300389 0.16420329 -0.00000159
0.29790410 0.27481687 -0.00000093
-0.62099904 -0.44672117 -0.00000011
0.17241977 -0.50536519 -0.00000018
-0.27356845 -0.21424258 -0.00000037
0.51005310 -0.78233844 -0.00000001
-0.03743380 -0.51957721 -0.00000018
0.50486910 -0.22559059 -0.00000062
0.63997358 -0.70508540 -0.00000011
-0.68354660 0.34323251 0.08347603
0.74877566 -0.50717020 -0.00000073
-0.70318621 0.40697786 0.11416962
0.31975454 -0.32103097 -0.00000030
0.46970853 0.19987448 -0.00000133
-0.07153706 -0.20786259 -0.00000037
-0.42242679 0.16387889 -0.00000043
-0.33416423 -0.23773168 -0.00000035
0.20954376 0.47244987 -0.00000103
-0.56365800 0.69323164 0.16817795
-0.66146016 -0.33094236 -0.00000009
0.39066303 -0.64888644 -0.00000009
-0.19165362 -0.02633277 -0.00000048
-0.70406014 0.31787792 0.08169408
-0.33788094 -0.24042410 -0.00000035
-0.52021253 -0.33045301 -0.00000024
0.07564363 0.60133505 -0.00000088
0.09918404 -0.68897396 -0.00000007
0.57564658 -0.01848107 -0.00000125
-0.36391145 0.02886339 -0.00000047
0.44854110 -0.54100120 -0.00000016
-0.76924348 -0.52456236 0.00000000
0.40825701 0.23819359 -0.00000121
-0.27633244 0.29818088 -0.00000061
0.15325430 0.47413272 -0.00000085
0.18259183 0.48316497 -0.00000097
