ply
format ascii 1.0
element vertex 1167
property float x
property float y
property float z
end_header
-0.16010395 -0.41239411 -0.00000048
-0.65424633 -0.79085213 -0.00000394
-0.35967326 -0.64719582 -0.00000198
-0.64345807 -0.71213841 -0.04721487
-0.10883875 -0.38292608 -0.00000014
-0.24255116 0.31008732 -0.10939625
-0.04446692 -0.35577223 0.00000029
-0.00094871 -0.46486071 0.00000043
-0.24631812 0.35439792 -0.17047806
-0.05026001 -0.48970711 0.00000008
-0.15677127 0.07675991 -0.00000593
-0.24019127 -0.16024680 -0.00000065
-0.46673250 -0.40382844 -0.00000232
-0.15731689 0.49668968 -0.08747263
-0.19689308 0.40518108 -0.09208797
-0.20284249 -0.20200004 -0.00000048
-0.09060092 0.60669321 -0.02907191
-0.18543538 0.47322413 -0.13827507
-0.26689786 0.32012367 -0.18810207
-0.30840966 0.13980965 -0.09649052
-0.30019391 -0.19012101 -0.00000105
-0.07356146 -0.25476265 0.00000024
-0.42122516 -0.23106283 -0.00000183
-0.30623123 0.07857738 -0.02044075
-0.19353153 0.27815184 -0.00000129
-0.04297924 -0.26030639 0.00000042
-0.67156035 -0.70512253 -0.13283592
-0.05383764 0.68001622 -0.01142377
-0.24636798 -0.40501311 -0.00000099
-0.35888407 -0.21527521 -0.00000144
-0.31930506 0.19366781 -0.18817565
-0.08679047 -0.19964214 0.00000023
-0.54140776 -0.76569194 -0.00000322
-0.28950053 -0.30007139 -0.00000112
-0.16645196 0.42763066 -0.03371004
-0.41987398 0.03489287 -0.28426933
-0.09632091 0.12359660 -0.00000693
-0.04023587 0.43932015 -0.00000310
-0.19418259 0.36014107 -0.03308903
-0.00526166 0.60383999 -0.00000127
-0.12172885 -0.48559159 -0.00000034
-0.41131514 -0.02813548 -0.18854760
-0.69608462 -0.79246980 -0.10064912
-0.40457311 -0.52042711 -0.00000209
-0.12801328 -0.03004879 0.00000019
-0.28474700 0.21706805 -0.11951725
-0.14020804 -0.51768851 -0.00000049
-0.32774147 -0.54798996 -0.00000166
-0.34471306 -0.00532313 -0.03073607
-0.21676429 -0.31255433 -0.00000070
-0.14246538 -0.09844127 0.00000002
-0.29164404 -0.40839320 -0.00000127
-0.67285675 -0.67164195 -0.17470913
-0.51280421 -0.51052278 -0.00000273
-0.11773512 0.34014291 -0.00000249
-0.48394516 -0.04959326 -0.36455286
-0.27382946 -0.32950765 -0.00000106
-0.31806070 0.12187339 -0.10262450
-0.20818944 -0.03766846 -0.00000030
-0.40965611 -0.24530339 -0.00000178
-0.35421094 0.07725509 -0.15141104
-0.35451826 0.11796543 -0.19882219
-0.22504880 0.25929543 -0.00297492
-0.29134688 -0.02813382 -0.00000079
-0.60547537 -0.43987417 -0.25373939
-0.14399669 -0.21752325 -0.00000014
-0.14564721 0.49780589 -0.05652669
-0.66673565 -0.64149231 -0.19229127
-0.03178254 -0.13604696 0.00000064
-0.53470492 -0.19641428 -0.33678466
-0.40208581 -0.06401444 -0.12202661
-0.27903992 -0.37089351 -0.00000115
-0.51408738 -0.13886087 -0.34568208
-0.36324564 -0.33046836 -0.00000161
-0.48382521 -0.07756685 -0.33222672
-0.61918348 -0.66662419 -0.03224447
-0.65610045 -0.72071028 -0.07231925
-0.58265728 -0.37446371 -0.26554707
-0.17939079 -0.21823235 -0.00000036
-0.36803338 -0.25558850 -0.00000154
-0.47280070 -0.28389156 -0.06580089
-0.66258740 -0.72237527 -0.08832674
-0.10356937 -0.20651139 0.00000012
-0.56327319 -0.39986086 -0.18297523
-0.48590860 -0.22661224 -0.16750814
-0.51855582 -0.53069490 -0.00000279
-0.11812819 -0.60297889 -0.00000047
-0.11747468 0.56720340 -0.05810976
-0.26567096 0.25480148 -0.11000175
-0.44588622 -0.16890205 -0.12300374
-0.44166967 -0.59815669 -0.00000241
-0.19251917 -0.08365286 -0.00000027
-0.19895460 -0.01505417 -0.00000022
-0.59547096 -0.41266286 -0.25723815
-0.21769381 -0.21642198 -0.00000058
-0.20760597 -0.23246722 -0.00000054
-0.15175430 0.18320400 -0.00000421
-0.57226866 -0.30512327 -0.31617016
-0.10702374 0.49199459 -0.00000016
-0.23833574 -0.38872859 -0.00000092
-0.42506942 -0.12306918 -0.11794544
-0.65203476 -0.60446101 -0.19405347
-0.64387000 -0.61552072 -0.15885916
-0.57492089 -0.40982908 -0.20373604
-0.03446365 -0.25933364 0.00000047
-0.14245830 -0.18202303 -0.00000009
-0.39737418 -0.69199657 -0.00000226
-0.34808728 0.00386304 -0.05055980
-0.14897680 0.46662405 -0.03005611
-0.64948004 -0.63902617 -0.14746535
-0.40849960 0.07276903 -0.29618320
-0.12450237 0.54676270 -0.05413561
-0.29169154 0.19405983 -0.11237687
-0.59368843 -0.46532431 -0.19208449
-0.55802000 -0.45004624 -0.11107025
-0.49282023 -0.21170790 -0.20363964
-0.19529641 0.25945342 -0.00000157
-0.34358183 -0.05191556 -0.00000114
-0.60166192 -0.55306208 -0.11375060
-0.01579777 0.19059855 -0.00000819
-0.20012955 0.28048438 -0.00000105
-0.59967822 -0.47270149 -0.20018597
-0.45119956 -0.07339556 -0.24691094
-0.16075057 0.46308443 -0.05851763
-0.45320299 -0.18984625 -0.11925193
-0.45067325 -0.04764992 -0.27490431
-0.11986835 -0.23083819 -0.00000001
-0.01506638 -0.56154424 0.00000021
-0.00092405 -0.69958663 0.00000013
-0.40085551 0.03288893 -0.22946309
-0.70046806 -0.80354631 -0.10008400
-0.61131209 -0.52105618 -0.17700383
-0.61081070 -0.66161877 -0.01485017
-0.07031478 0.19276141 -0.00000650
-0.05451193 0.69551224 -0.03100929
-0.00915584 0.49014547 -0.00000315
-0.02200800 0.23819371 -0.00000717
-0.44820359 -0.01756240 -0.30249783
-0.28572837 -0.42426968 -0.00000125
-0.40997890 -0.05204695 -0.15750907
-0.10883471 0.56069803 -0.02681228
-0.48099291 -0.41559312 -0.00000242
-0.36503530 0.08128474 -0.18590845
-0.03559974 0.52785951 -0.00000169
-0.49740705 -0.33473921 -0.07558733
-0.50161779 -0.77349013 -0.00000299
-0.25315630 0.19518413 -0.00725843
-0.60165107 -0.54125315 -0.12722719
-0.33997825 0.00245946 -0.02656358
-0.27183580 0.05212708 -0.00000288
-0.23501576 -0.30820349 -0.00000080
-0.20218684 0.33634067 -0.02796873
-0.16012949 -0.48838079 -0.00000058
-0.09600088 0.57117265 -0.00335563
-0.41027260 0.00729429 -0.22619185
-0.08146214 0.16902056 -0.00000658
-0.52773565 -0.26374575 -0.24053036
-0.02955071 -0.78439420 -0.00000016
-0.06757541 -0.19084013 0.00000035
-0.68696588 -0.74132639 -0.13396576
-0.21324053 0.18002319 -0.00000241
-0.47758296 -0.13874575 -0.24501687
-0.01483202 0.01784593 -0.00001124
-0.19788820 -0.16151237 -0.00000040
-0.03190768 0.26447889 -0.00000641
-0.25511310 -0.49450925 -0.00000116
-0.06872816 0.68089521 -0.05354517
-0.20380142 -0.26983944 -0.00000057
-0.65168375 -0.60138887 -0.19659802
-0.40590468 -0.02073732 -0.18206976
-0.57570213 -0.35848024 -0.26462367
-0.61937511 -0.60907251 -0.09859861
-0.03385603 0.51477426 -0.00000197
-0.30830926 0.04730121 -0.00000187
-0.36181289 -0.02560054 -0.05476016
-0.53516334 -0.31608689 -0.20117459
-0.33623126 -0.24986599 -0.00000134
-0.53455305 -0.65371853 -0.00000304
-0.11394805 0.02553181 -0.00000811
-0.47937420 -0.44002509 -0.00000244
-0.17735197 0.20822445 -0.00000300
-0.61740279 -0.60553032 -0.09720384
-0.42180428 -0.47329918 -0.00000214
-0.44939879 0.01527854 -0.34335995
-0.34124157 0.00596614 -0.03406268
-0.56205010 -0.33199745 -0.25721699
-0.49479562 -0.15809502 -0.27041408
-0.58685732 -0.41492632 -0.23086505
-0.42050612 -0.58507854 -0.00000227
-0.06360036 0.00790780 -0.00000994
-0.02451827 -0.25514349 0.00000053
-0.39594716 -0.05546719 -0.11485239
-0.42792407 -0.00636888 -0.25930417
-0.33853129 -0.27221322 -0.00000138
-0.54707474 -0.29730251 -0.25554919
-0.18629883 0.47061601 -0.13767634
-0.18420400 -0.18157075 -0.00000034
-0.65351516 -0.66313499 -0.13103262
-0.22797845 0.29716036 -0.05437250
-0.22022045 0.28935030 -0.02401815
-0.57380575 -0.57045239 -0.01694331
-0.50528866 -0.19923477 -0.25233394
-0.44376397 -0.24101737 -0.03466149
-0.53670186 -0.26765662 -0.26081505
-0.32529578 0.23024669 -0.24655458
-0.03176843 0.04323884 -0.00001028
-0.44265503 -0.69342017 -0.00000254
-0.66377252 -0.75277328 -0.05683141
-0.12438295 0.47529009 0.00000007
-0.49697310 -0.17412491 -0.25809231
-0.47996843 -0.24756370 -0.12714270
-0.56695288 -0.46077618 -0.12346358
-0.53364062 -0.46847734 -0.02267275
-0.28171131 -0.71154773 -0.00000159
-0.05577361 0.58328861 -0.00000011
-0.46988916 -0.04783809 -0.32774860
-0.50184071 -0.26097226 -0.17220086
-0.21290484 -0.00651091 -0.00000029
-0.23528253 -0.45237732 -0.00000099
-0.23577030 0.29125139 -0.06912911
-0.41953245 -0.13759539 -0.08604222
-0.05027640 0.68042582 -0.00205892
-0.47207043 -0.25412443 -0.09783068
-0.17392284 0.27252418 -0.00000198
-0.27087379 0.15153629 -0.00625799
-0.45487127 -0.44781575 -0.00000231
-0.22725102 -0.03517997 -0.00000042
-0.14771591 -0.08058954 0.00000001
-0.39205113 -0.03122088 -0.13182642
-0.02380365 0.66020632 0.00000027
-0.08456148 -0.35337928 0.00000005
-0.18596213 0.47540471 -0.14222370
-0.44519883 -0.20217232 -0.08305267
-0.17904238 -0.49463633 -0.00000070
-0.43018287 -0.33619502 -0.00000202
-0.45123708 -0.09564326 -0.22156867
-0.07883400 -0.24391538 0.00000022
-0.00704395 0.40387061 -0.00000472
-0.03970010 0.03036283 -0.00001027
-0.16634750 -0.42089835 -0.00000053
-0.60118133 -0.62670952 -0.02818908
-0.17165793 -0.74807417 -0.00000097
-0.13338031 0.52153307 -0.04979315
-0.29996866 -0.23394039 -0.00000110
-0.00138962 -0.20002601 0.00000074
-0.13195448 0.21583191 -0.00000424
-0.06702408 0.63869822 -0.00057687
-0.33657727 -0.66191190 -0.00000186
-0.08558426 0.17336641 -0.00000638
-0.48107463 -0.17928790 -0.20828789
-0.13195162 -0.00113830 0.00000020
-0.15484247 -0.72882217 -0.00000085
-0.19426242 0.38351300 -0.06004116
-0.00225112 -0.64649481 0.00000018
-0.01414640 -0.14093958 0.00000074
-0.02823394 0.36613590 -0.00000474
-0.08325837 0.29569218 -0.00000431
-0.12478210 0.50835264 -0.01097640
-0.45303333 -0.67099899 -0.00000257
-0.49072009 -0.35074785 -0.03881321
-0.06935260 0.42805818 -0.00000242
-0.50970006 -0.34044680 -0.10300298
-0.50076437 -0.15206197 -0.29379538
-0.59704131 -0.66485810 -0.00000343
-0.00379841 -0.47630146 0.00000043
-0.47278151 -0.23349684 -0.12338702
-0.14533184 -0.52827579 -0.00000054
-0.17046987 -0.12597623 -0.00000019
-0.10509904 0.58529788 -0.04463347
-0.40516901 -0.48590121 -0.00000205
-0.61726779 -0.50205916 -0.21517664
-0.00914730 0.15647098 -0.00000899
-0.04265318 0.67041296 0.00000102
-0.26557651 0.20508975 -0.05288296
-0.41929874 -0.32971910 -0.00000194
-0.30186033 0.24887799 -0.20315365
-0.68302971 -0.76695365 -0.09378581
-0.48528659 -0.20645474 -0.18884584
-0.08977634 -0.48007488 -0.00000014
-0.18878257 -0.24813601 -0.00000045
-0.53835094 -0.26577854 -0.26751661
-0.48212424 -0.37060195 -0.00000237
-0.33598623 -0.15923460 -0.00000123
-0.11778803 -0.22130603 0.00000001
-0.19482934 -0.13552970 -0.00000035
-0.06437621 -0.07587698 0.00000052
-0.44018960 -0.72207195 -0.00000256
-0.00174923 -0.28216305 0.00000064
-0.39122677 -0.03468511 -0.12558793
-0.09968029 -0.24702470 0.00000009
-0.22317277 0.37392405 -0.12890171
-0.55660641 -0.63547170 -0.00000315
-0.04240452 0.35220605 -0.00000456
-0.35678539 -0.07997884 -0.00000125
-0.13487299 -0.55182928 -0.00000050
-0.62348205 -0.55946159 -0.16668130
-0.35416833 -0.09601663 -0.00000126
-0.03418751 -0.25943086 0.00000047
-0.47197893 -0.27071905 -0.07859788
-0.14946464 -0.63020337 -0.00000069
-0.02425055 -0.48593768 0.00000025
-0.53469163 -0.22113195 -0.30847707
-0.19638669 -0.73992598 -0.00000111
-0.08575980 0.43612233 -0.00000178
-0.05410430 -0.62179190 -0.00000010
-0.36116251 -0.04283811 -0.03324875
-0.54339349 -0.28349835 -0.26117301
-0.15563570 0.52008355 -0.10958729
-0.20827255 0.40739891 -0.12604587
-0.26491091 -0.50018227 -0.00000122
-0.16390589 -0.74038625 -0.00000091
-0.14300068 -0.37986434 -0.00000034
-0.05679624 0.32897025 -0.00000453
-0.58525997 -0.65259570 -0.00000335
-0.43754560 -0.54750282 -0.00000233
-0.29618034 -0.43850124 -0.00000134
-0.58255821 -0.43419448 -0.19695631
-0.69850791 -0.77777195 -0.12415111
-0.36848679 0.06478442 -0.17656644
-0.09471578 0.42398429 -0.00000172
-0.58879721 -0.58473581 -0.04200137
-0.00077541 -0.07353470 0.00000091
-0.46175972 -0.18428949 -0.14923455
-0.55118030 -0.73262405 -0.00000324
-0.65730387 -0.70729417 -0.09098680
-0.38287982 0.09277546 -0.24832365
-0.29092413 -0.45686999 -0.00000133
-0.28006223 -0.70663381 -0.00000157
-0.10544674 0.02053346 -0.00000846
-0.01999774 0.54365414 -0.00000188
-0.58165318 -0.32852945 -0.31531209
-0.16158395 -0.34346557 -0.00000040
-0.09508539 -0.11556168 0.00000028
-0.45418140 -0.72850078 -0.00000265
-0.31511462 0.22899713 -0.21701296
-0.18219662 -0.26007548 -0.00000042
-0.56675279 -0.36611572 -0.23117933
-0.24068555 -0.44165099 -0.00000100
-0.30872914 -0.46086591 -0.00000144
-0.44655573 -0.24655259 -0.03603925
-0.47020036 -0.50404638 -0.00000247
-0.25339678 -0.62227881 -0.00000131
-0.37359428 0.04163928 -0.16419701
-0.29263225 -0.26149672 -0.00000109
-0.04743538 -0.41289043 0.00000020
-0.50126863 -0.09500460 -0.36044744
-0.41772914 -0.10458467 -0.11881897
-0.00649760 0.52060682 -0.00000269
-0.08147137 -0.52735072 -0.00000015
-0.17578436 -0.75451535 -0.00000100
-0.50661135 -0.15036026 -0.31188664
-0.03551563 0.21675666 -0.00000713
-0.64065844 -0.77092963 -0.00000383
-0.24316028 0.37184781 -0.18171699
-0.40061310 -0.08320687 -0.09600873
-0.34618992 0.04073132 -0.08748899
-0.07263184 -0.37460026 0.00000009
-0.19787133 0.37547934 -0.06081766
-0.54488635 -0.23853935 -0.31671724
-0.12798645 -0.58064181 -0.00000050
-0.58663428 -0.65369260 -0.00000336
-0.03185202 0.47653767 -0.00000270
-0.53312242 -0.25940767 -0.26036617
-0.51150185 -0.13139631 -0.34708032
-0.28332114 0.15375634 -0.04316707
-0.44177595 -0.23026466 -0.04147063
-0.33804169 0.21270429 -0.26168469
-0.52399462 -0.34892717 -0.13277400
-0.60035980 -0.41273493 -0.27065489
-0.05655373 0.67425281 -0.01233157
-0.02835471 -0.45834064 0.00000026
-0.62943643 -0.65430522 -0.07464492
-0.70587254 -0.78405082 -0.13730505
-0.13988136 0.18794262 -0.00000449
-0.54601288 -0.48120078 -0.04228281
-0.56736827 -0.70271057 -0.00000330
-0.17666343 -0.71728081 -0.00000096
-0.23471881 0.27851602 -0.05165962
-0.46368453 -0.16850212 -0.17260624
-0.51270616 -0.24088068 -0.22518256
-0.44131199 -0.45613593 -0.00000223
-0.54721373 -0.22310919 -0.34079197
-0.09467347 -0.61016721 -0.00000033
-0.33183524 0.10744088 -0.12415181
-0.05693230 0.69808185 -0.04063150
-0.08201377 -0.30632922 0.00000012
-0.09060558 -0.25785592 0.00000013
-0.11058328 -0.17933024 0.00000011
-0.07299834 0.41760468 -0.00000249
-0.42376068 -0.16392481 -0.06760293
-0.11961434 -0.23810546 -0.00000002
-0.63669235 -0.66375452 -0.08387241
-0.04100146 -0.26739112 0.00000042
-0.00010131 0.47765839 -0.00000364
-0.35971424 0.11052567 -0.20466021
-0.09799586 -0.09279090 0.00000029
-0.46502075 -0.60223258 -0.00000256
-0.60314435 -0.42529604 -0.26397678
-0.41757026 0.01774315 -0.25829321
-0.39841631 -0.75021571 -0.00000234
-0.45855179 -0.48617822 -0.00000238
-0.22482578 -0.57187182 -0.00000107
-0.10512197 0.43807656 -0.00000116
-0.14236633 0.38688487 -0.00000093
-0.23028484 -0.39290929 -0.00000088
-0.32671124 -0.75023121 -0.00000191
-0.40038347 -0.01642756 -0.17175376
-0.38024065 0.02413075 -0.16252370
-0.53176761 -0.41425833 -0.07951418
-0.64707631 -0.78135884 -0.00000388
-0.49450999 -0.60241562 -0.00000274
-0.15651327 -0.76392615 -0.00000090
-0.56823337 -0.35831159 -0.24419352
-0.29677454 0.11839925 -0.03987514
-0.50691086 -0.22359025 -0.22895649
-0.21365447 0.42709616 -0.16343537
-0.23372078 0.10787933 -0.00000306
-0.41686532 -0.75517100 -0.00000246
-0.29058650 0.09907254 -0.00068357
-0.61078387 -0.54624784 -0.14673221
-0.47270197 -0.22468226 -0.13324913
-0.46523380 -0.76873207 -0.00000277
-0.19188014 -0.40204015 -0.00000066
-0.26593110 0.06334762 -0.00000287
-0.02814426 0.19834591 -0.00000768
-0.10123649 -0.26266071 0.00000006
-0.27669212 0.23357697 -0.11615802
-0.35023859 0.10421152 -0.17127404
-0.41811219 -0.48046491 -0.00000212
-0.22001472 -0.34762251 -0.00000076
-0.66908240 -0.75177968 -0.07262960
-0.60741162 -0.62498146 -0.04736877
-0.06218573 -0.25550035 0.00000031
-0.48030901 -0.08134759 -0.31819347
-0.37247860 -0.74203944 -0.00000218
-0.64891857 -0.69753343 -0.07899705
-0.01963712 -0.55453289 0.00000019
-0.51563668 -0.23522528 -0.23974288
-0.46207464 -0.17169134 -0.16451325
-0.59849471 -0.62988490 -0.01713891
-0.29092169 0.26332620 -0.18947484
-0.08555908 -0.19723909 0.00000024
-0.00607461 0.77906144 0.00000182
-0.40477446 0.08843216 -0.30381197
-0.35201681 -0.25469974 -0.00000144
-0.13071521 0.42352557 -0.00000064
-0.30064085 0.23879661 -0.18825579
-0.62294865 -0.77126575 -0.00000372
-0.43254516 -0.51779187 -0.00000226
-0.63506788 -0.65099490 -0.09398086
-0.34072474 0.14682859 -0.19374754
-0.53288090 -0.20012920 -0.32749933
-0.31369874 0.25200635 -0.23942021
-0.11454493 -0.71320277 -0.00000058
-0.23639764 0.03336789 -0.00000428
-0.47792846 -0.31249255 -0.04724724
-0.19477943 0.33371881 -0.00451648
-0.10175498 0.61650699 -0.07109533
-0.57499397 -0.52808392 -0.06868321
-0.17440595 -0.69253248 -0.00000092
-0.58042765 -0.55741417 -0.05014031
-0.01601771 0.37709031 -0.00000492
-0.04923063 0.62276137 0.00000038
-0.03949208 0.21818368 -0.00000699
-0.09070204 0.14930719 -0.00000665
-0.33750814 0.11188382 -0.14489760
-0.11981398 0.17617154 -0.00000530
-0.29707262 0.26530200 -0.20871878
-0.38861346 -0.09488726 -0.04951558
-0.05398663 -0.17451321 0.00000046
-0.00216525 -0.75758642 0.00000004
-0.09740498 0.56316501 0.00000079
-0.26164329 -0.10052650 -0.00000070
-0.25085345 0.25394115 -0.06810336
-0.58242351 -0.41618878 -0.21717849
-0.50049096 -0.11713684 -0.33298621
-0.00885499 0.49257705 -0.00000311
-0.38113016 -0.04929988 -0.08099324
-0.14401308 -0.77511257 -0.00000084
-0.20143218 -0.71153337 -0.00000111
-0.27815962 -0.73525691 -0.00000160
-0.15053365 0.43616635 0.00000018
-0.04835540 0.30071381 -0.00000528
-0.03523793 0.22005644 -0.00000709
-0.17170584 0.48279369 -0.11131012
-0.37664840 -0.07177953 -0.04290695
-0.37202999 -0.03295253 -0.07456303
-0.21014468 0.23268533 -0.00000159
-0.58318657 -0.71325576 -0.00000341
-0.29592350 -0.48651925 -0.00000139
-0.47261593 -0.34158269 -0.00000228
-0.56051677 -0.37492043 -0.20388989
-0.15919875 -0.07413588 -0.00000005
-0.52746278 -0.30148292 -0.19661497
-0.34775302 -0.13108405 -0.00000126
-0.32774574 -0.17186058 -0.00000119
-0.40757334 0.09303865 -0.31680903
-0.33033580 0.09596801 -0.10688944
-0.45894527 -0.10378824 -0.23353682
-0.04022336 0.68596554 0.00000122
-0.19777881 -0.12903947 -0.00000036
-0.43355489 -0.42305252 -0.00000215
-0.63546437 -0.54690027 -0.21413431
-0.49862736 -0.21032290 -0.22125849
-0.37850872 -0.04210453 -0.08198458
-0.02848587 0.72826457 0.00000160
-0.59991091 -0.49169648 -0.17910293
-0.47644052 -0.31771812 -0.03716200
-0.04948377 -0.73408514 -0.00000022
-0.12989610 -0.14864364 0.00000003
-0.51689744 -0.29477882 -0.17510949
-0.26096001 0.18332672 -0.01524430
-0.20971283 -0.18559071 -0.00000050
-0.35905600 0.03334524 -0.11456729
-0.56093252 -0.73769534 -0.00000331
-0.11814121 0.48558179 0.00000006
-0.47242135 -0.24286056 -0.11168280
-0.00967873 0.45270970 -0.00000379
-0.29428402 -0.14288621 -0.00000095
-0.42002535 -0.05571423 -0.18105508
-0.50130743 -0.31079307 -0.11374563
-0.35786587 -0.00859307 -0.06331391
-0.67253524 -0.70119709 -0.14001752
-0.33953011 -0.00557004 -0.01614244
-0.34149605 -0.32815009 -0.00000147
-0.63290817 -0.63421458 -0.10720991
-0.10734873 -0.45091057 -0.00000021
-0.11531720 0.48445266 -0.00000004
-0.13448653 -0.39978924 -0.00000031
-0.02987940 0.33646762 -0.00000521
-0.49681216 -0.57261670 -0.00000271
-0.11362422 0.07611242 -0.00000724
-0.33628812 -0.25806019 -0.00000135
-0.48816025 -0.25907624 -0.13659464
-0.68276155 -0.80194569 -0.05302312
-0.43969178 -0.49110413 -0.00000227
-0.02453542 -0.15475965 0.00000066
-0.22107393 0.31377059 -0.05430556
-0.39511704 -0.57391131 -0.00000210
-0.48960170 -0.27770922 -0.11926323
-0.05112138 -0.73210913 -0.00000022
-0.02193601 -0.48270109 0.00000026
-0.31711033 -0.29149985 -0.00000128
-0.15267870 -0.50859964 -0.00000056
-0.34868211 -0.40937251 -0.00000162
-0.09490890 0.14665881 -0.00000657
-0.42476690 -0.21555445 -0.01132973
-0.44252348 -0.01440224 -0.29042822
-0.04886575 -0.70144421 -0.00000017
-0.32138377 0.17149319 -0.16855311
-0.51646608 -0.43846869 -0.00957258
-0.16399340 -0.45760694 -0.00000056
-0.66116977 -0.62376767 -0.19719517
-0.24125262 -0.39940479 -0.00000096
-0.14206487 -0.79231894 -0.00000085
-0.40128967 -0.61346424 -0.00000219
-0.40464342 -0.25874105 -0.00000177
-0.52401173 -0.35902235 -0.12127490
-0.60369897 -0.73303068 -0.00000356
-0.14127754 -0.28541586 -0.00000021
-0.36842954 -0.23446515 -0.00000152
-0.21638390 0.32096675 -0.04958602
-0.52449322 -0.51592863 -0.00000281
-0.21150059 0.38140091 -0.10522390
-0.48691803 -0.24526960 -0.14895597
-0.35166156 0.03028831 -0.09065317
-0.11406721 -0.13506971 0.00000014
-0.59737307 -0.41236615 -0.26282963
-0.46637359 -0.52118117 -0.00000247
-0.02164725 0.01964227 -0.00001100
-0.13331684 -0.68641734 -0.00000066
-0.08758469 -0.58849961 -0.00000026
-0.55948621 -0.48290262 -0.07753930
-0.06287055 -0.43576908 0.00000008
-0.33240214 0.00189030 -0.00499328
-0.26925310 -0.34888747 -0.00000106
-0.08011131 0.61900049 -0.01418426
-0.06590622 -0.36460507 0.00000015
-0.60179931 -0.44164899 -0.24155904
-0.17516710 0.39707601 -0.02282750
-0.12568213 -0.13974987 0.00000007
-0.36629447 -0.23798597 -0.00000151
-0.07126138 0.54664260 -0.00000028
-0.32802781 0.10454322 -0.11032451
-0.13797863 -0.14755808 -0.00000002
-0.08696757 0.36104447 -0.00000306
-0.30082044 0.16684616 -0.10645807
-0.11991272 0.13290447 -0.00000606
-0.42196387 -0.08253734 -0.15572871
-0.10903518 -0.05482063 0.00000027
-0.42131138 -0.29016724 -0.00000191
-0.23254529 0.19818214 -0.00000151
-0.56252134 -0.40381575 -0.17637578
-0.42887253 -0.14464542 -0.10376870
-0.23663989 -0.26667604 -0.00000076
-0.31327042 -0.13907911 -0.00000106
-0.20858081 0.39332688 -0.11080210
-0.05375829 -0.13206059 0.00000051
-0.01937356 -0.15759213 0.00000069
-0.04785700 -0.51623076 0.00000007
-0.52915531 -0.42583248 -0.05906313
-0.32161114 0.15420240 -0.14940448
-0.22784698 -0.18857086 -0.00000061
-0.57172203 -0.29776615 -0.32307556
-0.14177623 0.53216553 -0.08513709
-0.13961712 0.19398353 -0.00000439
-0.24587703 0.36567247 -0.18215546
-0.65040928 -0.59786338 -0.19711122
-0.41041735 -0.01178480 -0.20476972
-0.03862287 -0.52940899 0.00000011
-0.56283075 -0.64417392 -0.00000320
-0.24153635 0.36581644 -0.17033455
-0.54409188 -0.52500296 -0.00000294
-0.34289908 -0.35661569 -0.00000152
-0.33810008 0.07857808 -0.10843853
-0.02588976 0.49705037 -0.00000252
-0.67620689 -0.78531396 -0.05394689
-0.03318209 0.53866112 -0.00000157
-0.22460029 0.28016648 -0.02560782
-0.37005129 -0.79785419 -0.00000223
-0.07123431 0.51300257 -0.00000087
-0.52919781 -0.76520592 -0.00000315
-0.29432720 0.26103929 -0.19626252
-0.02632928 -0.12857498 0.00000068
-0.09933892 -0.23609161 0.00000011
-0.30092138 0.16051950 -0.09950064
-0.62992924 -0.64076620 -0.09149101
-0.00333754 0.01269091 -0.00001168
-0.43864086 -0.21378557 -0.05166196
-0.44565195 -0.09637256 -0.20531276
-0.02325424 -0.16924578 0.00000065
-0.13286547 -0.36453146 -0.00000026
-0.11913659 -0.62292421 -0.00000050
-0.31018695 -0.38096669 -0.00000135
-0.33729941 -0.15965205 -0.00000124
-0.24416566 0.14812037 -0.00000204
-0.06934259 0.64481717 -0.01397735
-0.42062637 -0.06428685 -0.17290968
-0.32002392 0.05973874 -0.03697863
-0.03554472 -0.06142950 0.00000071
-0.00250296 -0.58576834 0.00000029
-0.49981523 -0.28552943 -0.13852069
-0.59870839 -0.44600847 -0.22803821
-0.52916884 -0.44073141 -0.04205966
-0.04026234 -0.62616611 -0.00000003
-0.10727011 0.28016934 -0.00000386
-0.00167626 0.52178890 -0.00000282
-0.04381623 -0.51792318 0.00000009
-0.12170076 0.57472575 -0.07838258
-0.38371328 0.04385152 -0.19466808
-0.35190403 -0.39688951 -0.00000162
-0.45552164 -0.64919114 -0.00000256
-0.55257136 -0.27576798 -0.29535678
-0.06094274 0.49358204 -0.00000152
-0.19554216 -0.22355317 -0.00000046
-0.06108758 -0.02345801 0.00000060
-0.10586447 0.19614974 -0.00000537
-0.52391380 -0.69686198 -0.00000303
-0.32486749 0.01132093 -0.00000200
-0.44667307 -0.07106061 -0.23708291
-0.23609434 0.36034161 -0.14904606
-0.02703348 0.69003356 0.00000089
-0.08607613 -0.58525288 -0.00000025
-0.43118188 -0.50804776 -0.00000224
-0.56288195 -0.27093592 -0.32935330
-0.25559050 0.30213210 -0.13630193
-0.45627913 -0.23019114 -0.08160124
-0.15166771 -0.35623384 -0.00000036
-0.60064852 -0.69290650 -0.00000349
-0.02899102 0.67607933 0.00000071
-0.62639314 -0.63584459 -0.08735616
-0.31165060 0.17299327 -0.14339340
-0.13965319 0.51373911 -0.05819953
-0.49669597 -0.44674855 -0.00000256
-0.17696142 0.27245408 -0.00000189
-0.06760725 -0.66441017 -0.00000024
-0.48478654 -0.33281696 -0.04293786
-0.15588942 -0.23675780 -0.00000024
-0.00653850 -0.56290883 0.00000026
-0.22061376 0.19266754 -0.00000197
-0.52646214 -0.19028243 -0.32103783
-0.22798949 0.35775027 -0.12370295
-0.37252453 -0.53981948 -0.00000192
-0.25391743 0.25549793 -0.07834427
-0.20627689 -0.32533258 -0.00000065
-0.14679042 -0.68221563 -0.00000074
-0.00579505 -0.56509829 0.00000034
-0.35187978 0.12265721 -0.19690306
-0.14172845 -0.11068160 0.00000001
-0.35491094 -0.21318804 -0.00000141
-0.33376887 0.17313972 -0.20463429
-0.08436920 0.22213322 -0.00000557
-0.06244852 -0.19495928 0.00000038
-0.18105298 -0.47972566 -0.00000069
-0.18957277 -0.29711729 -0.00000052
-0.41939968 -0.17496838 -0.04293006
-0.45515949 -0.48310268 -0.00000235
-0.52431601 -0.31116316 -0.17685413
-0.36216378 -0.25146198 -0.00000150
-0.14282975 0.32313454 -0.00000203
-0.25872770 -0.32210496 -0.00000096
-0.47274256 -0.02331132 -0.36368003
-0.34769452 0.14326765 -0.20891988
-0.04718302 -0.39456916 0.00000022
-0.35070291 -0.02592867 -0.02370779
-0.49889162 -0.58149177 -0.00000274
-0.06376910 0.68402529 -0.04343219
-0.15874285 0.22351751 -0.00000330
-0.11830919 -0.28033873 -0.00000006
-0.69419354 -0.74632508 -0.14820573
-0.09772499 -0.01779195 0.00000039
-0.31452915 -0.48861361 -0.00000151
-0.50296468 -0.26900077 -0.16612180
-0.70414454 -0.82285023 -0.08815668
-0.16905150 -0.67760700 -0.00000087
-0.58306581 -0.49015409 -0.13435382
-0.00456536 -0.71362281 0.00000008
-0.40748674 -0.65549111 -0.00000228
-0.47835422 -0.66993982 -0.00000272
-0.64376712 -0.58329815 -0.19542985
-0.07929630 0.62311131 -0.01663559
-0.27543518 0.14642157 -0.01300299
-0.06831511 0.20736498 -0.00000631
-0.43449077 0.03639770 -0.32635072
-0.63313329 -0.65193474 -0.08756403
-0.26903242 0.16220707 -0.01337830
-0.25088501 0.06734995 -0.00000325
-0.45372176 -0.16332927 -0.15101324
-0.28441554 0.03136533 -0.00000287
-0.30471590 -0.35952395 -0.00000129
-0.32850346 0.16017891 -0.17527136
-0.22670753 0.30359265 -0.05822016
-0.27840552 0.07177974 -0.00000234
-0.06129624 0.68050921 -0.03258251
-0.35248524 -0.63369912 -0.00000192
-0.20765412 -0.44043446 -0.00000080
-0.30811316 0.15636748 -0.11460987
-0.00799314 -0.17816889 0.00000073
-0.33192950 0.01023702 -0.01323482
-0.51454586 -0.36998370 -0.08260040
-0.07195505 0.00733046 -0.00000970
-0.35426465 0.10594751 -0.18437637
-0.57296616 -0.48715964 -0.10989130
-0.02879295 -0.66596681 -0.00000001
-0.20863993 -0.78470653 -0.00000124
-0.06502497 0.18664330 -0.00000677
-0.25847504 -0.12825406 -0.00000072
-0.38352513 0.04984413 -0.20100267
-0.08225176 -0.63485211 -0.00000029
-0.14404897 -0.78311384 -0.00000085
-0.35068223 -0.39458457 -0.00000161
-0.60383874 -0.61245382 -0.05183176
-0.15807156 0.43567920 -0.01977549
-0.20453832 -0.33934948 -0.00000066
-0.38146940 -0.75959206 -0.00000225
-0.38436654 -0.42137405 -0.00000185
-0.57130075 -0.53571087 -0.04976217
-0.01467861 -0.44539431 0.00000035
-0.00670040 -0.43186647 0.00000042
-0.12146228 0.55000353 -0.04944798
-0.26495117 0.31765735 -0.17990592
-0.16121763 -0.55935133 -0.00000067
-0.02764681 0.39250854 -0.00000430
-0.07138628 0.63226599 -0.00526499
-0.12384363 0.58518606 -0.09626358
-0.31764129 0.18944477 -0.17875144
-0.20057897 0.04568417 -0.00000515
-0.36108953 0.06592707 -0.15744789
-0.23899829 -0.21218520 -0.00000071
-0.34380814 -0.02922442 -0.00090018
-0.44429588 -0.52703601 -0.00000234
-0.39280641 -0.05684721 -0.10460168
-0.44078034 -0.28047702 -0.00000201
-0.57225847 -0.65349275 -0.00000327
-0.42795813 -0.60189587 -0.00000234
-0.08735321 0.31654143 -0.00000382
-0.60504520 -0.55349398 -0.12259866
-0.56423247 -0.36908135 -0.22082818
-0.05562537 -0.02614800 0.00000063
-0.39630097 -0.74879700 -0.00000233
-0.01153175 -0.01433216 0.00000091
-0.32144657 -0.66785699 -0.00000177
-0.48772070 -0.06071676 -0.36225539
-0.32567787 -0.71604288 -0.00000186
-0.11118028 0.13404994 -0.00000630
-0.63566273 -0.67140442 -0.07227999
-0.43938711 -0.02543213 -0.26915249
-0.23306426 0.28525963 -0.05480409
-0.42920220 -0.17110308 -0.07441801
-0.43026358 -0.69260287 -0.00000246
-0.28567776 0.29850999 -0.21523665
-0.31599113 0.04495729 -0.00893689
-0.32256731 -0.37062034 -0.00000141
-0.24279699 0.31204200 -0.11231070
-0.27694184 -0.50208479 -0.00000130
-0.18249017 -0.21709655 -0.00000037
-0.07222765 0.23417003 -0.00000572
-0.13702492 0.37388039 -0.00000132
-0.36557677 -0.07660593 -0.00681544
-0.05332032 -0.02956499 0.00000064
-0.16212226 0.25374427 -0.00000267
-0.33055440 -0.33492666 -0.00000141
-0.55326337 -0.21988019 -0.36118940
-0.44666946 -0.29962692 -0.00000207
-0.53974938 -0.32753080 -0.20074862
-0.53598005 -0.71971160 -0.00000313
-0.56938326 -0.30146155 -0.31239116
-0.13478711 0.15924032 -0.00000515
-0.44493356 -0.04914017 -0.25735131
-0.17263342 0.39896163 -0.01798816
-0.12783870 0.36462596 -0.00000176
-0.28371528 -0.53359044 -0.00000138
-0.30764928 0.14139628 -0.09620567
-0.14811710 0.52894849 -0.09896606
-0.19848859 0.20156515 -0.00000248
-0.15000187 -0.02382242 0.00000006
-0.38716790 0.08813059 -0.25485140
-0.28028095 0.05798953 -0.00000253
-0.12874053 -0.04110879 0.00000017
-0.42038065 -0.02637489 -0.21559314
-0.09935554 -0.56171930 -0.00000030
-0.10915339 0.11747770 -0.00000665
-0.18496725 -0.49927223 -0.00000074
-0.61686134 -0.48938805 -0.22854704
-0.16905861 0.09797332 -0.00000518
-0.08165491 -0.34628841 0.00000007
-0.48941684 -0.59767610 -0.00000270
-0.10925600 -0.53501695 -0.00000033
-0.02006060 -0.42382088 0.00000035
-0.24614580 -0.38428578 -0.00000097
-0.46140471 -0.22117925 -0.10606149
-0.48509619 -0.17654371 -0.22253101
-0.17368267 0.27241698 -0.00000199
-0.11317441 0.54320604 -0.01878868
-0.37427077 -0.05593381 -0.05446537
-0.45062709 -0.40438747 -0.00000223
-0.05228218 0.21784101 -0.00000661
-0.16453554 0.42727500 -0.02801160
-0.67187339 -0.79868186 -0.02669160
-0.14846666 0.40341347 -0.00000046
-0.31956756 -0.13464408 -0.00000110
-0.54610234 -0.46830821 -0.05727577
-0.27519622 0.14134744 -0.00653961
-0.06886287 0.19969162 -0.00000643
-0.21283863 0.15116701 -0.00000293
-0.00881210 0.47764015 -0.00000338
-0.32593447 0.05225972 -0.04474485
-0.55071259 -0.51276946 -0.01915299
-0.02487601 0.05653125 -0.00001026
-0.55415928 -0.34337828 -0.22241190
-0.20523740 -0.57872713 -0.00000096
-0.42372173 -0.67986262 -0.00000241
-0.59655732 -0.78422195 -0.00000358
-0.40119088 -0.55318820 -0.00000211
-0.00017736 -0.41355798 0.00000048
-0.01268900 0.64759445 -0.00000028
-0.10263518 -0.66991770 -0.00000046
-0.12446482 -0.06135641 0.00000017
-0.12721854 -0.74571490 -0.00000070
-0.30057859 0.20581640 -0.15036263
-0.00191084 0.63479799 -0.00000083
-0.09847213 -0.77385181 -0.00000056
-0.55841804 -0.49239513 -0.06373262
-0.17498060 -0.68904710 -0.00000092
-0.48738945 -0.13557883 -0.27571699
-0.27441037 0.32369652 -0.21293221
-0.51373994 -0.20546804 -0.26854050
-0.34148139 0.02283485 -0.05401856
-0.06851647 0.64615446 -0.01322580
-0.57976162 -0.32618007 -0.31277615
-0.40510312 -0.12583765 -0.05964752
-0.07031994 0.66525030 -0.04004650
-0.05373762 0.25860673 -0.00000585
-0.36395356 0.01086510 -0.10237873
-0.56973857 -0.45000580 -0.14347409
-0.13985260 -0.68282127 -0.00000070
-0.41122150 -0.38869095 -0.00000197
-0.49114907 -0.35479459 -0.03536921
-0.30060136 -0.75510472 -0.00000176
-0.13512914 0.47462490 -0.00097064
-0.26317364 0.16805796 -0.00389288
-0.00973347 0.11099605 -0.00000976
-0.20670155 0.37167567 -0.08084937
-0.44917396 -0.68068165 -0.00000256
-0.05125466 0.16252352 -0.00000761
-0.46946707 -0.45895916 -0.00000241
-0.20370322 0.37299004 -0.07407366
-0.04626695 -0.15880094 0.00000052
-0.10511380 -0.51933837 -0.00000028
-0.30697554 -0.76218504 -0.00000181
-0.41463515 -0.10324513 -0.11180790
-0.61275011 -0.79261625 -0.00000369
-0.10738408 0.30555311 -0.00000341
-0.23294349 -0.54562598 -0.00000109
-0.36063644 0.06137647 -0.15099202
-0.29705313 -0.24505015 -0.00000110
-0.33547908 -0.69723076 -0.00000190
-0.09657247 -0.61041659 -0.00000035
-0.54196912 -0.49403226 -0.01644115
-0.63479435 -0.79891968 -0.00000383
-0.61457276 -0.46530342 -0.24977461
-0.14857504 -0.77746874 -0.00000087
-0.50889462 -0.19795319 -0.26375660
-0.61280018 -0.55809164 -0.13875324
-0.55487424 -0.23234692 -0.35137859
-0.00502113 -0.43836632 0.00000049
-0.41726100 -0.06747406 -0.15997176
-0.34378403 -0.57609653 -0.00000180
-0.05723213 0.35899335 -0.00000399
-0.07818493 -0.79927868 -0.00000047
-0.44066030 -0.15082522 -0.12924920
-0.42727092 -0.46220276 -0.00000216
-0.01804690 -0.19617280 0.00000065
-0.01399637 0.63056093 -0.00000054
-0.34510520 0.05776222 -0.10397300
-0.17876500 -0.54754436 -0.00000076
-0.16427755 0.31072032 -0.00000160
-0.52955872 -0.46612456 -0.01409269
-0.04406643 -0.34572101 0.00000030
-0.00419873 -0.20492068 0.00000078
-0.14447428 0.29762179 -0.00000243
-0.22152504 -0.52647889 -0.00000100
-0.07420512 0.41970339 -0.00000242
-0.29124558 -0.58758235 -0.00000149
-0.17290600 -0.51837051 -0.00000069
-0.17323393 0.38508707 -0.00377718
-0.16300593 -0.15040231 -0.00000017
-0.01156990 0.26905933 -0.00000694
-0.49523187 -0.43697125 -0.00000254
-0.19015625 0.34367090 -0.00313358
-0.25792858 0.31677479 -0.15950559
-0.29226890 -0.67870098 -0.00000161
-0.39833125 0.07134668 -0.26647922
-0.35025716 0.13685539 -0.20866182
-0.29523492 -0.37328255 -0.00000125
-0.08246331 -0.27878243 0.00000015
-0.37776697 -0.13873160 -0.00000145
-0.10811601 0.09155649 -0.00000714
-0.33797583 -0.41351619 -0.00000156
-0.27980968 0.24848068 -0.14181249
-0.39495105 -0.76495773 -0.00000234
-0.47342119 -0.23199147 -0.12687509
-0.19663641 0.41971418 -0.10800156
-0.01326388 -0.66203046 0.00000009
-0.23128714 0.28914860 -0.05434505
-0.39474857 0.09557833 -0.28430170
-0.51599646 -0.33551002 -0.12603524
-0.01076127 0.20441227 -0.00000810
-0.17440902 0.27709839 -0.00000189
-0.31940591 -0.41490543 -0.00000145
-0.05356433 0.32922676 -0.00000462
-0.09203354 -0.36873868 -0.00000002
-0.09288665 -0.19267498 0.00000020
-0.43263933 -0.29136768 -0.00000198
-0.01144232 -0.36891827 0.00000047
-0.50592434 -0.16039145 -0.29851645
-0.35614541 -0.01494354 -0.05130000
-0.54729056 -0.41078022 -0.12635460
-0.07062037 -0.29270190 0.00000021
-0.21724872 -0.51545978 -0.00000096
-0.07215307 -0.76786017 -0.00000040
-0.29415756 -0.07784705 -0.00000087
-0.02524485 -0.54908460 0.00000016
-0.19414793 0.25835645 -0.00000162
-0.53476787 -0.19785392 -0.33531198
-0.28020406 0.23910546 -0.13217856
-0.45329458 -0.62668365 -0.00000252
-0.50167930 -0.22616918 -0.21156137
-0.33613437 0.21435724 -0.25830856
-0.31570563 -0.62160569 -0.00000168
-0.00035899 -0.10344259 0.00000087
-0.45841241 -0.07546541 -0.26445982
-0.65262711 -0.62312245 -0.17434502
-0.03888735 -0.63272798 -0.00000003
-0.58942115 -0.63128173 -0.00000335
-0.20128682 0.40289047 -0.10160019
-0.09900142 0.58940107 -0.03248960
-0.41087115 -0.09382944 -0.11218391
-0.20318824 0.34137580 -0.03649279
-0.29367355 -0.33466804 -0.00000119
-0.18615012 -0.73934168 -0.00000105
-0.50729680 -0.08141160 -0.39263952
-0.01524490 -0.02192334 0.00000088
-0.33626086 -0.29412839 -0.00000140
-0.06502303 0.56068385 -0.00000023
-0.40213692 -0.23948716 -0.00000173
-0.23958859 -0.60193700 -0.00000120
-0.41286910 -0.45912576 -0.00000207
-0.03423341 -0.12688407 0.00000063
-0.37251964 -0.79941112 -0.00000225
-0.35805532 -0.29370528 -0.00000153
-0.64108896 -0.62334353 -0.14223273
-0.17469503 -0.28879377 -0.00000042
-0.28942150 0.21593474 -0.13112831
-0.14603692 0.33020267 -0.00000181
-0.60653484 -0.45788476 -0.23606515
-0.50496066 -0.30032080 -0.13581069
-0.47041193 -0.01674446 -0.36475548
-0.52478611 -0.20228978 -0.30267662
-0.00092402 -0.52093512 0.00000034
-0.64110154 -0.65091151 -0.11073656
-0.36869907 -0.01738389 -0.08317226
-0.53596824 -0.18735693 -0.35063240
-0.01743316 0.76833397 -0.01191666
-0.65042025 -0.65487075 -0.13193916
-0.67007476 -0.79034865 -0.03125620
-0.41217268 -0.25757411 -0.00000181
-0.48766235 -0.16743207 -0.24003823
-0.01075075 0.77865970 -0.00527510
-0.25258845 0.16837078 -0.00000143
-0.06941159 0.06464712 -0.00000877
-0.50484127 -0.20428638 -0.24532074
-0.62982714 -0.52028739 -0.22900717
-0.37291077 -0.77878642 -0.00000222
-0.11553611 0.17693047 -0.00000542
-0.30837819 0.25441837 -0.22748780
-0.42655051 -0.09809211 -0.15060268
-0.14969146 -0.67743754 -0.00000075
-0.38732851 -0.56836253 -0.00000205
-0.56851017 -0.63888603 -0.00000323
-0.45342949 -0.02785097 -0.30516008
-0.00058138 0.70119143 0.00000029
-0.03774044 0.05545292 -0.00000989
-0.28283376 -0.57913303 -0.00000143
-0.03915335 -0.11672954 0.00000062
-0.17907925 -0.16000015 -0.00000028
-0.39510050 -0.21701691 -0.00000166
-0.13987368 0.47291997 -0.01212135
-0.06743517 -0.59432989 -0.00000015
-0.53435862 -0.51655471 -0.00000287
-0.02676330 0.75107038 -0.01793399
-0.39628112 0.10096218 -0.29469126
-0.40121928 -0.30042732 -0.00000180
-0.44953382 -0.13202974 -0.17524835
-0.25129169 0.22569001 -0.03700107
-0.22515751 0.39372182 -0.15702581
-0.28638554 -0.22578958 -0.00000101
-0.46930757 -0.05201574 -0.32136443
-0.24311300 0.19370718 -0.00000127
-0.00421109 0.21629623 -0.00000809
-0.58406013 -0.50407213 -0.12118061
-0.62548411 -0.59391999 -0.13279752
-0.33486646 0.10983086 -0.13525529
-0.70820171 -0.80298901 -0.12207570
-0.40803599 0.04650038 -0.26485813
-0.17257141 0.44861227 -0.07460500
-0.12247273 0.50712293 -0.00319320
-0.44471723 0.02034739 -0.33623070
-0.39325875 -0.09966388 -0.05687900
-0.33600363 -0.66534352 -0.00000186
-0.03306897 -0.34211552 0.00000037
-0.11739115 -0.54400218 -0.00000039
-0.45053482 -0.14474386 -0.16347057
-0.34985185 -0.14148842 -0.00000129
-0.11729782 -0.40349871 -0.00000021
-0.56767857 -0.40587920 -0.18825604
-0.01961617 -0.19747046 0.00000063
-0.29450259 0.27399784 -0.21156827
-0.27018076 -0.25759932 -0.00000095
-0.08018438 -0.78490478 -0.00000047
-0.60821348 -0.76754981 -0.00000363
-0.48435915 -0.30871558 -0.06932376
-0.50768840 -0.23435964 -0.21878590
-0.26933503 0.31899324 -0.19353864
-0.50683832 -0.32365200 -0.11431012
-0.49376589 -0.78072035 -0.00000296
-0.27459264 0.16397808 -0.03075695
-0.05159282 0.61869848 0.00000038
-0.23668632 -0.50505221 -0.00000106
-0.10116051 0.20976752 -0.00000528
-0.37877792 -0.05204410 -0.07135947
-0.37840432 -0.10897916 -0.00520818
-0.03875474 0.43896678 -0.00000315
-0.20242465 -0.01051652 -0.00000023
-0.11437616 -0.23706470 0.00000001
-0.01160845 -0.22547138 0.00000065
-0.59479475 -0.51765293 -0.13528815
-0.44289300 -0.15115622 -0.13503559
-0.10533072 0.42304593 -0.00000142
-0.20458040 -0.52763504 -0.00000089
-0.50310510 -0.56441402 -0.00000274
-0.25365385 -0.44486374 -0.00000109
-0.28660923 -0.30103719 -0.00000111
-0.36328289 -0.03652076 -0.04632912
-0.11573262 0.45878038 -0.00000048
-0.10263842 0.51570427 0.00000012
-0.02757013 0.21976493 -0.00000732
-0.60856450 -0.53572685 -0.15263738
-0.23195449 0.29669705 -0.06482132
-0.20684066 -0.64295828 -0.00000105
-0.37011799 -0.02572710 -0.07754763
-0.38467875 -0.78100312 -0.00000230
-0.40622941 -0.09176394 -0.10172946
-0.33617574 0.04588629 -0.06573363
-0.58934492 -0.55144000 -0.08159586
-0.08143590 0.19042788 -0.00000621
-0.10062772 0.55796438 -0.00102433
-0.46232021 -0.06789305 -0.28391108
-0.05023544 -0.06129099 0.00000062
-0.23738921 0.03495460 -0.00000422
-0.42461145 -0.27632320 -0.00000191
-0.07163029 -0.24598894 0.00000026
-0.58269191 -0.58949542 -0.01969941
-0.39321420 -0.03024441 -0.13615477
-0.00035429 -0.32769343 0.00000059
-0.32797685 -0.14649557 -0.00000116
-0.40661857 -0.74775785 -0.00000239
-0.43866590 -0.64468241 -0.00000245
-0.09329283 -0.14468442 0.00000026
-0.43233854 -0.61473572 -0.00000238
-0.62826741 -0.54208016 -0.19977491
-0.39154074 -0.24995892 -0.00000168
-0.50399059 -0.16379552 -0.28928354
-0.39184779 -0.38931987 -0.00000185
-0.20322055 -0.78048646 -0.00000120
-0.06581366 0.47057259 -0.00000178
-0.05841360 0.62623143 0.00000072
-0.02800481 0.50548893 -0.00000231
-0.18917802 -0.04771177 -0.00000020
-0.35144982 0.18719044 -0.26952595
-0.11014131 0.11726891 -0.00000662
-0.38024995 -0.03879677 -0.09057577
-0.34964266 -0.37775099 -0.00000158
-0.13575046 0.50973612 -0.04284480
-0.14390519 -0.44126934 -0.00000042
-0.06959755 -0.66881484 -0.00000026
-0.27572989 -0.34862512 -0.00000110
-0.51237375 -0.29300806 -0.16464376
-0.38592151 -0.20874275 -0.00000159
-0.06125428 -0.71751934 -0.00000027
-0.30650830 0.14059384 -0.09213731
-0.44189441 0.00337481 -0.30902374
-0.51200277 -0.28217998 -0.17600411
-0.22252490 -0.24944781 -0.00000065
-0.39086738 -0.71372086 -0.00000225
-0.38483644 0.12830235 -0.29436034
-0.44175994 0.00822898 -0.31420445
-0.58846343 -0.46865004 -0.17385317
-0.33016321 0.14638112 -0.16407301
-0.20303106 0.36956209 -0.06829695
-0.59547418 -0.52199519 -0.13219772
-0.28704265 0.25842327 -0.17315619
-0.30674636 0.24677978 -0.21424530
-0.32339251 -0.42068189 -0.00000148
-0.00278141 0.60123748 -0.00000139
-0.47236955 -0.08831975 -0.28829640
-0.11158548 -0.68154454 -0.00000053
-0.27957305 0.13268940 -0.00872237
-0.32291308 -0.37676999 -0.00000142
-0.23089018 -0.32063526 -0.00000079
-0.13393690 0.47975296 -0.00354383
-0.36635739 -0.02520299 -0.06776323
-0.09311122 -0.49718633 -0.00000018
-0.06540575 -0.11581487 0.00000046
-0.52622730 -0.13552026 -0.38302380
-0.00926973 0.73310167 0.00000111
-0.33823976 -0.53149670 -0.00000171
-0.62739563 -0.50834060 -0.23595752
-0.58467025 -0.61790848 -0.00000330
-0.09028795 0.19621345 -0.00000584
-0.48352051 -0.33650377 -0.03522530
-0.13611543 0.24790239 -0.00000355
-0.28856501 -0.36746266 -0.00000120
-0.16779275 -0.12536000 -0.00000017
-0.03562992 0.00705701 -0.00001080
-0.27249005 -0.28587180 -0.00000100
-0.00706244 -0.44072837 0.00000041
