ply
format ascii 1.0
element vertex 1156
property float x
property float y
property float z
end_header
-0.28181782 0.17515375 0.00000107
-0.10628810 0.61958188 0.00000157
-0.49391046 -0.45309702 0.00000043
-0.27719051 -0.25639933 0.00000068
-0.39371094 -0.16245113 0.00000080
-0.29055861 0.06424837 -0.00000211
-0.43465453 -0.19446820 0.00000061
-0.12904562 -0.06475766 0.00000092
-0.60809666 -0.58716458 0.00000005
-0.09526525 -0.27271584 0.00000066
-0.49775600 -0.51360250 0.00000036
-0.17557716 0.32993081 -0.00000093
-0.12562104 -0.71088272 0.00000011
-0.58194369 -0.11513911 -0.00000044
-0.19165869 -0.03410767 0.00000096
-0.71220702 -0.56938714 -0.00000058
-0.57011253 -0.29772118 -0.00000011
-0.41490626 -0.45006496 0.00000044
-0.34786880 -0.09115896 0.00000089
-0.25467944 0.25299120 0.00000114
-0.32356679 0.25064424 0.00000070
-0.57353109 -0.40802896 0.00000002
-0.74451083 -0.41915262 -0.00000095
-0.02438352 -0.71453762 0.00000011
-0.03704240 0.21799023 -0.00000707
-0.37048832 -0.69880301 0.00000013
-0.55281651 0.03593569 -0.00000047
-0.15951703 -0.51160747 0.00000036
-0.31977263 -0.22000717 0.00000072
-0.15459847 -0.42835566 0.00000046
-0.01490742 -0.02186992 0.00000097
-0.49811190 -0.39000002 0.00000048
-0.61079776 0.02387788 -0.00000082
-0.77476060 -0.06909101 -0.00000174
-0.61407971 -0.52716804 -0.00000007
-0.76547480 -0.08351789 -0.00000166
-0.73447055 -0.42110100 -0.00000095
-0.62595618 0.08171908 -0.00000100
-0.11649750 -0.27361211 0.00000066
-0.61984307 -0.17504825 -0.00000060
-0.37111294 -0.22710913 0.00000072
-0.67747396 -0.12066471 -0.00000105
-0.55121297 -0.59722865 0.00000025
-0.61006409 -0.06715097 -0.00000069
-0.66068888 0.05449654 -0.00000118
-0.53368443 -0.76136982 0.00000005
-0.31042290 -0.30260554 0.00000062
-0.71235657 -0.12057236 -0.00000127
-0.31892008 -0.75794715 0.00000005
-0.36995372 -0.59415525 0.00000026
-0.16480938 0.09517804 -0.00000536
-0.35608399 0.20668805 0.00000055
-0.03442657 -0.44851920 0.00000044
-0.44629332 -0.56141716 0.00000030
-0.46783280 0.03373860 0.00000008
-0.11673168 -0.15640131 0.00000080
-0.31481987 -0.41688207 0.00000048
-0.30324197 -0.13463704 0.00000083
-0.36157694 -0.51002043 0.00000036
-0.71998489 -0.54532450 -0.00000064
-0.35439420 -0.31033221 0.00000061
-0.27762830 -0.22595766 0.00000072
-0.41904250 -0.71170354 0.00000011
-0.11774093 -0.76393038 0.00000005
-0.35964069 -0.16946518 0.00000079
-0.55679834 0.18357709 -0.00000070
-0.29290402 -0.75542551 0.00000006
-0.69030291 -0.30928186 -0.00000086
-0.56951874 -0.60067242 0.00000025
-0.11327593 0.17387231 -0.00000554
-0.22238418 -0.29160467 0.00000064
-0.08357806 0.09798962 -0.00000776
-0.20579562 -0.00482841 0.00000099
-0.60928416 -0.58157825 0.00000004
-0.60816318 -0.07381926 -0.00000067
-0.61554474 -0.45607081 -0.00000018
-0.01451553 -0.12822850 0.00000084
-0.22584163 -0.76553732 0.00000004
-0.14430057 0.15082198 -0.00000501
-0.04018823 0.00535805 -0.00001069
-0.37321889 -0.46750313 0.00000042
-0.66694790 -0.05520790 -0.00000107
-0.42295247 -0.07484725 0.00000052
-0.79486543 0.00109510 -0.00000197
-0.41174826 -0.68900847 0.00000014
-0.69284201 0.10310202 -0.00000141
-0.17151310 0.20187744 -0.00000329
-0.05241288 -0.22960773 0.00000071
-0.60493726 -0.14508648 -0.00000055
-0.37979501 -0.17594796 0.00000078
-0.62165987 -0.17293784 -0.00000062
-0.05835435 -0.55870038 0.00000030
-0.55887121 -0.48606753 0.00000022
-0.71512425 0.03803263 -0.00000151
-0.29959640 0.41181457 0.00000063
-0.28169766 0.28464347 0.00000092
-0.11357912 0.20524061 -0.00000498
-0.35763213 0.23003186 0.00000051
-0.44855279 -0.40041244 0.00000050
-0.27702779 0.51990992 0.00000062
-0.18212546 0.44317892 0.00000133
-0.02201167 -0.71582341 0.00000011
-0.15426849 -0.65899974 0.00000018
-0.65341234 0.04182928 -0.00000112
-0.28323442 0.13761209 0.00000112
-0.10158435 -0.45488036 0.00000043
-0.00103128 0.69756460 0.00000024
-0.00819222 0.04176581 -0.00001102
-0.18803252 -0.59140962 0.00000026
-0.13448536 0.02618641 -0.00000748
-0.40730163 -0.75210565 0.00000006
-0.60355991 -0.20781116 -0.00000045
-0.27615488 -0.25226375 0.00000068
-0.16130708 -0.05192779 0.00000094
-0.24085900 -0.12827995 0.00000084
-0.00860582 -0.00371399 0.00000100
-0.69733280 -0.78832424 -0.00000003
-0.62732154 -0.13804670 -0.00000070
-0.65433800 -0.21306580 -0.00000077
-0.04886555 -0.34532526 0.00000057
-0.64393902 0.15555406 -0.00000121
-0.23373476 0.41687843 0.00000104
-0.69740844 -0.63428617 -0.00000041
-0.19731277 -0.47127196 0.00000041
-0.33798680 0.26426563 0.00000059
-0.67001534 0.09862300 -0.00000131
-0.05774421 0.64618576 0.00000105
-0.25176638 -0.03596183 0.00000096
-0.15825517 -0.10074612 0.00000087
-0.48515320 -0.17180721 0.00000026
-0.33429223 -0.13532519 0.00000083
-0.01421809 0.27669549 -0.00000673
-0.10848120 0.11964667 -0.00000663
-0.28890818 0.08357964 -0.00000182
-0.63873208 -0.31930459 -0.00000052
-0.16653343 0.03804629 -0.00000631
-0.61402279 -0.31876734 -0.00000036
-0.13156025 -0.73162323 0.00000009
-0.02295988 -0.51750302 0.00000035
-0.18833204 0.44709727 0.00000129
-0.14283971 -0.60784352 0.00000024
-0.68432659 -0.15428478 -0.00000104
-0.60078698 -0.53500235 0.00000003
-0.26388967 -0.73385388 0.00000008
-0.49717456 0.30151528 -0.00000047
-0.39110750 -0.76474762 0.00000004
-0.63914979 -0.35536894 -0.00000047
-0.65150017 -0.40282723 -0.00000048
-0.72652936 -0.30681816 -0.00000110
-0.17900953 -0.01283609 0.00000098
-0.49717006 0.26558122 -0.00000043
-0.03550422 0.41853827 -0.00000360
-0.39899865 0.29590863 0.00000015
-0.78247595 -0.25012523 -0.00000137
-0.00535396 0.41865313 -0.00000451
-0.42844257 -0.09064428 0.00000051
-0.54889649 -0.04404962 -0.00000033
-0.02174781 -0.50270724 0.00000037
-0.04233729 0.59340048 -0.00000034
-0.67067176 0.00010929 -0.00000117
-0.60074288 -0.42556137 -0.00000013
-0.35518894 -0.49511707 0.00000038
-0.43917993 -0.26510233 0.00000067
-0.06590149 -0.06634191 0.00000092
-0.72440380 -0.17242351 -0.00000127
-0.64883065 -0.50495118 -0.00000032
-0.50866497 -0.53866255 0.00000033
-0.27391896 -0.24117357 0.00000070
-0.31504115 0.32876089 0.00000064
-0.23892856 -0.42630437 0.00000047
-0.54136306 -0.02284642 -0.00000031
-0.30870631 -0.02315118 0.00000097
-0.51314878 -0.19142263 0.00000010
-0.27543631 -0.20104419 0.00000075
-0.03672353 -0.51011664 0.00000036
-0.04210566 -0.71203220 0.00000011
-0.54069167 -0.75406140 0.00000006
-0.53605425 0.10294413 -0.00000045
-0.34117505 -0.18864074 0.00000076
-0.07676991 -0.45361188 0.00000043
-0.42863023 -0.69289130 0.00000013
-0.15974115 0.06539474 -0.00000603
-0.14961366 -0.40521970 0.00000049
-0.25268978 0.53871518 0.00000075
-0.40442052 0.00460063 0.00000053
-0.49297696 -0.51566029 0.00000036
-0.61101943 -0.48474357 -0.00000011
-0.78262973 -0.79630518 -0.00000001
-0.47079980 -0.08896871 0.00000023
-0.44301727 -0.39849854 0.00000050
-0.38873407 -0.15536529 0.00000081
-0.01244427 0.60374683 -0.00000106
-0.51137573 -0.17066842 0.00000009
-0.42901543 -0.58233309 0.00000027
-0.11122503 0.63546401 0.00000152
-0.62376732 0.03785343 -0.00000092
-0.21116105 -0.35210967 0.00000056
-0.54533535 -0.43533897 0.00000024
-0.76594740 -0.52844584 -0.00000068
-0.03456345 0.22004128 -0.00000711
-0.44367453 -0.05722095 0.00000036
-0.73149413 -0.67427719 -0.00000031
-0.54703617 0.13129950 -0.00000056
-0.19259214 -0.54365689 0.00000032
-0.58496839 0.11608671 -0.00000079
-0.07604386 -0.33033270 0.00000059
-0.63524079 -0.72352421 0.00000007
-0.12171326 0.33920407 -0.00000239
-0.72573680 -0.27317670 -0.00000114
-0.14408311 0.03787423 -0.00000699
-0.37561253 -0.29415861 0.00000063
-0.48326835 0.15379278 -0.00000019
-0.61854392 -0.73220891 0.00000008
-0.58584791 -0.70196337 0.00000012
-0.71223390 -0.53828841 -0.00000065
-0.03084619 -0.31608379 0.00000060
-0.53615785 -0.06258880 -0.00000022
-0.49457225 0.28000435 -0.00000044
-0.62976217 -0.74855566 0.00000006
-0.61311251 -0.14284164 -0.00000060
-0.29326153 -0.13080759 0.00000084
-0.00297128 0.18494862 -0.00000867
-0.79452729 -0.11811315 -0.00000170
-0.36210671 0.16650036 0.00000057
-0.01390205 0.13903444 -0.00000915
-0.18724456 -0.63821059 0.00000020
-0.21878386 -0.41869456 0.00000048
-0.52633989 -0.60097665 0.00000025
-0.24631102 0.27490759 0.00000116
-0.15035616 0.31229529 -0.00000200
-0.72393417 -0.52203107 -0.00000069
-0.23738927 -0.03929569 0.00000095
-0.10421543 -0.77020341 0.00000004
-0.69375426 -0.16564728 -0.00000109
-0.56315058 -0.14469863 -0.00000028
-0.13791205 -0.08524795 0.00000089
-0.68805104 -0.12483813 -0.00000111
-0.18354283 0.00581934 -0.00000636
-0.56504118 -0.53921211 0.00000026
-0.35170162 0.02712462 0.00000083
-0.60106426 -0.56045985 0.00000006
-0.49098516 0.10726853 -0.00000017
-0.13611554 -0.52247912 0.00000035
-0.44450396 -0.57485908 0.00000028
-0.48381931 -0.20733823 0.00000031
-0.04289587 -0.17096519 0.00000079
-0.56665957 -0.29449740 -0.00000009
-0.36483923 0.16319489 0.00000056
-0.49264735 -0.28280756 0.00000036
-0.42828676 -0.72863233 0.00000009
-0.34518191 -0.41810003 0.00000048
-0.19165000 -0.35526666 0.00000056
-0.12692380 0.15292583 -0.00000549
-0.00167480 0.21672070 -0.00000816
-0.58063674 -0.42294297 -0.00000000
-0.68131876 -0.10233973 -0.00000110
-0.32516751 0.17889896 0.00000079
-0.31043547 -0.70059431 0.00000012
-0.28347039 -0.13760801 0.00000083
-0.67616332 -0.38318342 -0.00000067
-0.54676414 -0.08485205 -0.00000026
-0.05690118 -0.67596054 0.00000016
-0.51663715 0.12687062 -0.00000036
-0.22446743 0.54793960 0.00000092
-0.39177597 -0.73145312 0.00000009
-0.41069499 -0.23038600 0.00000071
-0.47418764 -0.48931429 0.00000039
-0.62438494 -0.59315777 -0.00000004
-0.16322891 -0.10200578 0.00000087
-0.65847456 -0.24098890 -0.00000076
-0.52038354 0.10488240 -0.00000036
-0.02846578 -0.67888445 0.00000015
-0.51751167 -0.33931395 0.00000028
-0.36367935 -0.32765877 0.00000059
-0.18380155 0.25516608 -0.00000199
-0.60465509 -0.44448814 -0.00000013
-0.33801058 0.10917522 0.00000080
-0.41777703 -0.16894045 0.00000068
-0.59949613 -0.34513617 -0.00000023
-0.12323604 -0.70905375 0.00000011
-0.39199156 0.12145471 0.00000044
-0.35672775 -0.37619531 0.00000053
-0.09187324 0.60095364 0.00000169
-0.15440314 -0.58051634 0.00000027
-0.23230182 0.09106713 -0.00000340
-0.12080518 -0.53277212 0.00000033
-0.49632341 -0.24403475 0.00000029
-0.54544520 -0.44763437 0.00000026
-0.32279634 -0.54174614 0.00000032
-0.38413671 -0.17526439 0.00000078
-0.42186514 0.30075899 -0.00000000
-0.05522011 -0.09351341 0.00000088
-0.05166756 -0.35440093 0.00000056
-0.57747859 -0.18642852 -0.00000031
-0.00773980 0.49367800 -0.00000313
-0.61241895 0.06692008 -0.00000089
-0.06443108 -0.10056446 0.00000087
-0.53963017 -0.44697416 0.00000029
-0.53688216 0.05822396 -0.00000040
-0.21227150 -0.27060953 0.00000066
-0.04853654 0.20161104 -0.00000701
-0.63323939 -0.67299926 0.00000001
-0.03532327 0.12798136 -0.00000869
-0.05772802 0.05435332 -0.00000931
-0.44534329 -0.75315499 0.00000006
-0.10963045 0.51478368 0.00000032
-0.26293051 -0.49306369 0.00000038
-0.30278552 0.08838196 0.00000106
-0.71600115 -0.64002627 -0.00000040
-0.24481820 -0.37139285 0.00000054
-0.00761910 -0.05413872 0.00000093
-0.34474725 -0.63601017 0.00000020
-0.65869671 -0.61414099 -0.00000023
-0.03253153 0.06621906 -0.00000986
-0.10591493 -0.03992056 0.00000095
-0.09083000 -0.77082896 0.00000004
-0.39127108 -0.18756545 0.00000077
-0.47384050 -0.35525095 0.00000056
-0.12550279 0.59342480 0.00000149
-0.11449430 0.29436442 -0.00000339
-0.18181224 -0.26913854 0.00000066
-0.39453337 0.38810006 0.00000005
-0.16587213 0.01738652 -0.00000669
-0.22702602 -0.60626948 0.00000024
-0.27860603 0.49245489 0.00000065
-0.66055501 -0.36446834 -0.00000060
-0.23997428 0.18839657 -0.00000146
-0.12517364 0.51276141 0.00000160
-0.68132859 -0.49141210 -0.00000055
-0.37505099 0.24860033 0.00000037
-0.41513708 -0.53599161 0.00000033
-0.37985358 0.04396954 0.00000063
-0.14078131 -0.49460107 0.00000038
-0.10960547 0.64470249 0.00000152
-0.49438637 -0.38295627 0.00000049
-0.05317734 -0.49246836 0.00000038
-0.13148458 -0.66695720 0.00000017
-0.02972219 0.52621353 -0.00000189
-0.12052392 0.32355055 -0.00000270
-0.24289624 0.47557649 0.00000090
-0.30971435 -0.50110829 0.00000037
-0.13489069 -0.77083677 0.00000004
-0.16448814 0.53849083 0.00000131
-0.64633542 -0.21102343 -0.00000072
-0.39962193 -0.14537615 0.00000077
-0.68757761 -0.27247697 -0.00000090
-0.35603732 -0.37475699 0.00000053
-0.33724254 -0.74136406 0.00000007
-0.44167364 -0.65488696 0.00000018
-0.41151771 -0.74607837 0.00000007
-0.44312102 -0.24903134 0.00000063
-0.48470771 -0.13956860 0.00000021
-0.30322123 -0.64663768 0.00000019
-0.03680471 -0.23220691 0.00000071
-0.43786645 -0.13558534 0.00000051
-0.31589612 -0.53541219 0.00000033
-0.29736292 -0.10500893 0.00000087
-0.72448820 -0.78942025 -0.00000003
-0.23833348 -0.31659800 0.00000060
-0.74242097 -0.47466126 -0.00000081
-0.66153717 -0.16531423 -0.00000088
-0.00156416 0.12129765 -0.00000983
-0.56080395 0.09985946 -0.00000061
-0.40121329 -0.56324446 0.00000030
-0.67129678 0.02478933 -0.00000121
-0.44372082 -0.79935938 0.00000000
-0.35309705 -0.14238885 0.00000082
-0.21060780 -0.43303853 0.00000046
-0.59226012 0.14611493 -0.00000087
-0.22546341 -0.63072276 0.00000021
-0.41855130 -0.42024070 0.00000047
-0.35246187 0.19593336 0.00000059
-0.61169165 -0.11236750 -0.00000064
-0.71606350 -0.66050929 -0.00000035
-0.52308464 0.16465902 -0.00000046
-0.41270152 -0.56616986 0.00000029
-0.17339635 -0.30189657 0.00000062
-0.22120044 -0.75314403 0.00000006
-0.08984036 0.46543208 -0.00000114
-0.47993213 0.23713806 -0.00000028
-0.29413524 0.39573410 0.00000068
-0.46514672 -0.23835450 0.00000048
-0.24264444 -0.52736527 0.00000034
-0.06841127 -0.78459644 0.00000002
-0.09965558 0.40390798 -0.00000192
-0.61710560 -0.48405340 -0.00000015
-0.64004689 -0.21326773 -0.00000068
-0.16531599 0.04616906 -0.00000620
-0.27429798 0.17773934 0.00000112
-0.34334922 0.08109707 0.00000081
-0.73523146 -0.59459734 -0.00000051
-0.42091194 0.04720943 0.00000036
-0.67544180 0.10129545 -0.00000134
-0.25942537 -0.70271909 0.00000012
-0.18037930 -0.13737500 0.00000083
-0.04394567 -0.24218236 0.00000070
-0.79318070 -0.65113157 -0.00000037
-0.18579185 0.15777744 -0.00000363
-0.19795690 -0.06669193 0.00000092
-0.27591801 0.31394541 0.00000091
-0.16651706 -0.52553570 0.00000034
-0.72131324 -0.27180803 -0.00000112
-0.17283931 0.38614863 0.00000147
-0.42232788 0.35401812 -0.00000008
-0.07362620 -0.50262171 0.00000037
-0.79200691 -0.27452618 -0.00000131
-0.38382825 -0.19266187 0.00000076
-0.21181065 -0.61166936 0.00000024
-0.32208389 0.30475143 0.00000063
-0.08939664 -0.64638680 0.00000019
-0.28871524 0.33264872 0.00000081
-0.32009470 -0.39046872 0.00000051
-0.65716058 -0.12397942 -0.00000091
-0.38876793 -0.23095854 0.00000071
-0.68160486 -0.39938131 -0.00000068
-0.03742675 -0.00572970 0.00000099
-0.09189996 0.10664978 -0.00000736
-0.39196402 0.06945767 0.00000051
-0.10862506 -0.73912275 0.00000008
-0.39432067 0.10932301 0.00000044
-0.58722776 0.11883754 -0.00000080
-0.27299845 -0.39450204 0.00000051
-0.44823232 -0.45302370 0.00000043
-0.08556337 0.61370301 0.00000171
-0.20560995 0.38255543 0.00000127
-0.02900610 -0.46223557 0.00000042
-0.07355925 -0.02659203 0.00000097
-0.01966618 0.67869639 0.00000047
-0.02750782 -0.30851853 0.00000061
-0.12945096 0.01604224 -0.00000781
-0.08732887 -0.66371435 0.00000017
-0.48082772 -0.02715911 0.00000008
-0.26217693 -0.22494014 0.00000072
-0.24148910 -0.37195513 0.00000054
-0.37925634 -0.09404533 0.00000083
-0.33296472 -0.32559931 0.00000059
-0.50364494 -0.38645291 0.00000044
-0.17710927 0.38643274 0.00000145
-0.45970136 -0.42975834 0.00000046
-0.03343961 -0.15993689 0.00000080
-0.17637080 0.47419730 0.00000133
-0.50359744 -0.74495232 0.00000007
-0.71016639 -0.10750283 -0.00000127
-0.61319286 0.10267406 -0.00000095
-0.31194857 -0.67632216 0.00000015
-0.27445742 -0.06447531 0.00000092
-0.07153356 -0.71353424 0.00000011
-0.14911471 -0.29369637 0.00000063
-0.00303008 -0.59482169 0.00000026
-0.54272056 -0.72490078 0.00000009
-0.01519280 -0.09139132 0.00000089
-0.74004376 -0.07680965 -0.00000151
-0.71654850 -0.53561211 -0.00000066
-0.67549562 0.06633454 -0.00000130
-0.45841223 -0.74166769 0.00000007
-0.20713703 -0.09708682 0.00000088
-0.52325708 -0.52294672 0.00000035
-0.57451922 -0.03592019 -0.00000051
-0.02323552 -0.15215226 0.00000081
-0.71451974 -0.37862927 -0.00000092
-0.50697720 0.28086621 -0.00000052
-0.03287366 -0.57495648 0.00000028
-0.06746513 -0.56114554 0.00000030
-0.47725150 -0.02473830 0.00000010
-0.66927642 -0.34831259 -0.00000067
-0.07346489 0.39294735 -0.00000291
-0.47450736 -0.48054433 0.00000040
-0.67229241 -0.21487197 -0.00000088
-0.50617033 -0.06225221 -0.00000003
-0.63865882 -0.67530447 -0.00000002
-0.11858202 -0.59585410 0.00000026
-0.35320130 -0.13603973 0.00000083
-0.69290179 -0.09033928 -0.00000119
-0.31782642 0.24689458 0.00000074
-0.64866924 -0.77224588 0.00000003
-0.45837122 0.13816305 -0.00000001
-0.57016134 -0.66596282 0.00000017
-0.51938659 -0.68673593 0.00000014
-0.66039193 -0.03439878 -0.00000106
-0.16361441 -0.11433829 0.00000086
-0.28871977 -0.13971096 0.00000083
-0.39102736 -0.54272139 0.00000032
-0.52218682 -0.32131201 0.00000023
-0.18563621 -0.31143224 0.00000061
-0.77701104 -0.74243313 -0.00000014
-0.25201389 0.41954601 0.00000092
-0.67208707 -0.52792829 -0.00000044
-0.59225500 0.03963972 -0.00000073
-0.40814686 -0.46089080 0.00000042
-0.08349572 0.42452729 -0.00000205
-0.16721486 -0.19195773 0.00000076
-0.09012191 -0.45242316 0.00000043
-0.39672098 -0.29538247 0.00000063
-0.27365834 -0.77175069 0.00000004
-0.06777647 0.15284348 -0.00000728
-0.05752986 0.46624136 -0.00000210
-0.62288064 -0.62601411 0.00000001
-0.57807636 -0.20284294 -0.00000030
-0.14239635 0.63547611 0.00000132
-0.11467408 0.22918910 -0.00000453
-0.45976877 0.18990606 -0.00000009
-0.26307866 0.03500322 -0.00000345
-0.60144836 -0.75222820 0.00000006
-0.07263558 -0.18130682 0.00000077
-0.50365680 -0.51553470 0.00000036
-0.15168783 0.40221435 -0.00000038
-0.28354794 0.28286496 0.00000091
-0.46337456 -0.58657753 0.00000027
-0.38784763 0.37441939 0.00000011
-0.04637623 0.11666853 -0.00000856
-0.11463306 0.12769367 -0.00000631
-0.32593697 -0.24168272 0.00000070
-0.06855070 -0.37516293 0.00000053
-0.13131997 0.47051746 0.00000020
-0.64968026 -0.32132787 -0.00000059
-0.44693527 -0.59830928 0.00000025
-0.55845600 -0.49398494 0.00000024
-0.78297228 -0.55970269 -0.00000060
-0.22803955 0.17600277 -0.00000204
-0.39665791 -0.09325837 0.00000071
-0.66752005 -0.37013564 -0.00000063
-0.46840510 0.22530326 -0.00000019
-0.29606110 -0.27538425 0.00000066
-0.48280731 -0.12878981 0.00000021
-0.57939249 -0.09601314 -0.00000045
-0.31569135 -0.59410465 0.00000026
-0.05108339 -0.38430315 0.00000052
-0.59093189 -0.77097327 0.00000004
-0.57578075 -0.20558283 -0.00000028
-0.08971863 0.63468581 0.00000166
-0.61764508 -0.31040120 -0.00000040
-0.05504720 -0.61959684 0.00000023
-0.36304298 0.31157237 0.00000036
-0.23638836 -0.38834488 0.00000051
-0.46499857 -0.17812558 0.00000039
-0.78131223 -0.65428275 -0.00000036
-0.00557976 -0.18601309 0.00000077
-0.10890327 0.36835399 -0.00000227
-0.47384682 0.02923392 0.00000005
-0.44635451 -0.78233200 0.00000002
-0.20660102 -0.21244788 0.00000073
-0.00776961 0.05673011 -0.00001077
-0.26835066 0.24531706 0.00000106
-0.30033424 0.09228445 0.00000107
-0.37683800 -0.77101249 0.00000004
-0.08012346 -0.09276625 0.00000088
-0.15922245 -0.32342061 0.00000060
-0.19194104 -0.03480291 0.00000096
-0.77749383 -0.02175780 -0.00000183
-0.14992157 -0.17967223 0.00000078
-0.49167120 -0.70002109 0.00000012
-0.20914921 -0.47850454 0.00000040
-0.42663762 -0.46113512 0.00000042
-0.00425585 -0.78940415 0.00000006
-0.39639413 -0.03867725 0.00000064
-0.02273884 -0.20275924 0.00000075
-0.68479419 -0.03079492 -0.00000122
-0.71187526 -0.08542996 -0.00000132
-0.04415039 0.67816865 0.00000120
-0.31007028 0.09242885 0.00000101
-0.02823000 0.36274865 -0.00000480
-0.38612944 0.28576440 0.00000025
-0.17238630 -0.14276002 0.00000082
-0.79422283 -0.02724189 -0.00000192
-0.17215435 -0.69384831 0.00000013
-0.66002655 -0.76877105 -0.00000003
-0.06228176 -0.09426810 0.00000088
-0.00271028 0.56553227 -0.00000202
-0.68132633 -0.04307734 -0.00000118
-0.04161141 -0.11712052 0.00000085
-0.34268409 -0.50563562 0.00000037
-0.76027083 -0.30683225 -0.00000123
-0.05629814 -0.75570840 0.00000006
-0.55897766 -0.46852431 0.00000020
-0.19904149 -0.05379789 0.00000093
-0.39104271 0.22771242 0.00000030
-0.58193845 -0.19148843 -0.00000034
-0.43498024 -0.78159440 0.00000002
-0.20300896 -0.12258978 0.00000085
-0.79440522 -0.26153591 -0.00000135
-0.74305701 -0.01809969 -0.00000161
-0.77194202 -0.68679225 -0.00000028
-0.12773016 -0.56887078 0.00000029
-0.74814564 -0.22861920 -0.00000135
-0.26358411 -0.02994305 0.00000096
-0.31830546 0.20288093 0.00000080
-0.40536162 -0.03861803 0.00000058
-0.01465080 0.35870531 -0.00000528
-0.23480843 0.41948053 0.00000103
-0.17757754 -0.07188687 0.00000091
-0.36149400 -0.17043044 0.00000079
-0.79626799 -0.12762845 -0.00000168
-0.21911539 -0.07110055 0.00000091
-0.07616100 -0.45952350 0.00000043
-0.65776426 0.01104290 -0.00000110
-0.52063799 0.06458788 -0.00000030
-0.63186175 -0.42328995 -0.00000033
-0.66623205 -0.30704978 -0.00000071
-0.70918745 -0.64320779 -0.00000039
-0.30704278 0.31059194 0.00000072
-0.21195227 0.32485437 0.00000131
-0.45335588 -0.28479248 0.00000062
-0.22235020 -0.07017268 0.00000091
-0.64827079 -0.25031248 -0.00000068
-0.31894818 0.44181150 0.00000046
-0.24079250 0.19219384 -0.00000137
-0.07778932 0.23360154 -0.00000556
-0.01310756 0.50274825 -0.00000281
-0.48185441 -0.38871819 0.00000051
-0.54265666 -0.19324057 -0.00000008
-0.00165964 -0.43852389 0.00000045
-0.19411126 0.11229475 -0.00000418
-0.12171469 0.24802639 -0.00000399
-0.14643507 -0.53584611 0.00000033
-0.57102972 -0.01539186 -0.00000051
-0.13859995 -0.39121774 0.00000051
-0.51793313 -0.35018957 0.00000030
-0.55462253 -0.63080871 0.00000021
-0.00854693 0.12989494 -0.00000947
-0.29039523 -0.38569134 0.00000052
-0.21524408 -0.14781041 0.00000082
-0.04747359 -0.60603726 0.00000024
-0.16799136 -0.10538188 0.00000087
-0.13297404 -0.19021925 0.00000076
-0.26091662 -0.75367451 0.00000006
-0.22471845 0.29603183 0.00000127
-0.71628475 0.06624644 -0.00000156
-0.25870886 -0.41352332 0.00000048
-0.02162799 -0.56989145 0.00000029
-0.43296656 -0.12695891 0.00000053
-0.53484154 -0.53610152 0.00000033
-0.63690203 -0.39414364 -0.00000040
-0.21035452 0.57953268 0.00000096
-0.45813289 -0.41179407 0.00000049
-0.75639057 -0.69204438 -0.00000027
-0.02207938 -0.00016235 0.00000100
-0.11217128 0.62414193 0.00000153
-0.72372669 -0.70931822 -0.00000023
-0.58499300 0.04659006 -0.00000069
-0.29225838 -0.15031751 0.00000081
-0.74729216 -0.47072169 -0.00000082
-0.06250424 -0.20199358 0.00000075
-0.04801305 0.27073696 -0.00000581
-0.06080138 0.08423164 -0.00000869
-0.13764130 0.21253894 -0.00000413
-0.76674503 -0.20336968 -0.00000149
-0.00088781 -0.23930597 0.00000071
-0.04370562 -0.77216822 0.00000003
-0.43950704 -0.36371079 0.00000055
-0.17796427 0.54275930 0.00000122
-0.16968155 -0.66692311 0.00000017
-0.03391123 0.59004641 -0.00000065
-0.20065764 -0.31148076 0.00000061
-0.33328611 -0.03021754 0.00000096
-0.00422649 0.14797252 -0.00000928
-0.29881668 -0.45817637 0.00000043
-0.17752932 0.03678336 -0.00000600
-0.10492735 -0.18598498 0.00000077
-0.11149605 -0.54220152 0.00000032
-0.73361617 -0.22445869 -0.00000126
-0.73186517 -0.53937334 -0.00000065
-0.50872940 -0.44427717 0.00000044
-0.26515359 -0.79474711 0.00000001
-0.75451356 -0.10325243 -0.00000156
-0.67008281 0.08514700 -0.00000129
-0.13335425 -0.34027210 0.00000057
-0.03009870 -0.33913991 0.00000058
-0.27383286 -0.41899928 0.00000048
-0.30485588 -0.30013826 0.00000062
-0.03424149 0.06303527 -0.00000986
-0.45896357 -0.38865989 0.00000051
-0.53849274 -0.06476074 -0.00000024
-0.53159881 -0.09826216 -0.00000014
-0.47958216 -0.76597816 0.00000004
-0.00679412 0.55916363 -0.00000201
-0.35815901 0.26199904 0.00000046
-0.26101583 0.14036585 -0.00000167
-0.43520775 -0.66825247 0.00000016
-0.75594741 -0.50545955 -0.00000074
-0.03546982 0.06050241 -0.00000987
-0.15593044 0.31513998 -0.00000178
-0.53378218 0.13523582 -0.00000049
-0.19286264 0.42357576 0.00000129
-0.77572525 -0.67437267 -0.00000031
-0.38369802 0.32061812 0.00000022
-0.56443632 -0.43037224 0.00000011
-0.20665680 -0.03927027 0.00000095
-0.16565520 -0.46462795 0.00000042
-0.51453918 0.28040561 -0.00000050
-0.36857218 -0.74845308 0.00000006
-0.10594246 0.15242895 -0.00000614
-0.29225758 0.41712770 0.00000067
-0.01156599 0.25140849 -0.00000725
-0.65057063 0.04386837 -0.00000110
-0.31909129 0.19430448 0.00000081
-0.03497407 -0.57755166 0.00000028
-0.15201271 -0.10744167 0.00000087
-0.37774602 -0.00685557 0.00000071
-0.42207903 0.37181279 -0.00000010
-0.21616359 -0.06875261 0.00000091
-0.13463531 0.50161880 0.00000156
-0.35798496 -0.62076598 0.00000022
-0.05035275 -0.18779542 0.00000077
-0.77214259 -0.57521445 -0.00000056
-0.60313100 -0.35074154 -0.00000025
-0.01169925 -0.63197368 0.00000021
-0.32215884 -0.45620984 0.00000043
-0.21896112 -0.15063463 0.00000081
-0.63838071 -0.54923457 -0.00000020
-0.45134196 -0.34438622 0.00000057
-0.36862049 0.30475548 0.00000033
-0.55483305 -0.38730517 0.00000011
-0.25229058 0.50756657 0.00000079
-0.08454057 -0.19566141 0.00000076
-0.39896867 -0.36864913 0.00000054
-0.71207154 -0.09635644 -0.00000130
-0.08129661 0.03616671 -0.00000891
-0.14467491 0.15987331 -0.00000484
-0.46747670 -0.21324940 0.00000043
-0.08615492 0.05876714 -0.00000837
-0.06148806 -0.06862115 0.00000091
-0.48068309 -0.10799127 0.00000020
-0.45916608 -0.60355949 0.00000025
-0.79711926 -0.69662410 -0.00000026
-0.65801334 -0.44694251 -0.00000046
-0.64383692 -0.60498416 -0.00000015
-0.61129463 -0.65329677 0.00000012
-0.61380446 -0.34987786 -0.00000032
-0.54978138 -0.64945191 0.00000019
-0.39587000 -0.32581943 0.00000059
-0.34920126 -0.63305038 0.00000021
-0.56213909 -0.09674192 -0.00000034
-0.36302748 -0.54081172 0.00000032
-0.21071441 -0.63539749 0.00000021
-0.35382220 0.02324995 0.00000082
-0.08745663 -0.67656523 0.00000015
-0.40719151 -0.35657677 0.00000055
-0.30592260 -0.63797206 0.00000020
-0.67677599 0.10383899 -0.00000136
-0.15897650 0.45653853 0.00000146
-0.16362698 0.03900534 -0.00000638
-0.18583979 -0.73849803 0.00000008
-0.09112180 0.58948970 0.00000171
-0.77960330 -0.38091934 -0.00000105
-0.71611738 -0.26626876 -0.00000109
-0.03935969 0.02728126 -0.00001033
-0.12358666 -0.63872248 0.00000020
-0.27721551 -0.27210668 0.00000066
-0.22747648 -0.29690027 0.00000063
-0.16008762 0.63298064 0.00000121
-0.12681153 0.36012161 -0.00000187
-0.36527961 0.42661175 0.00000018
-0.33358660 -0.45623958 0.00000043
-0.33220738 0.00045654 0.00000099
-0.71219587 -0.57588327 -0.00000056
-0.44304508 -0.08102592 0.00000040
-0.48360479 -0.67499048 0.00000016
-0.39469630 -0.73240149 0.00000008
-0.00532829 -0.20809466 0.00000074
-0.23968759 -0.46686596 0.00000042
-0.21627231 -0.39040855 0.00000051
-0.10934187 -0.23879443 0.00000070
-0.44569498 -0.04786658 0.00000034
-0.36303565 0.25666404 0.00000044
-0.09342020 -0.77650499 0.00000003
-0.00780293 0.75323111 0.00000142
-0.64494497 -0.24516334 -0.00000066
-0.20642231 -0.42003351 0.00000047
-0.74162364 -0.29878789 -0.00000121
-0.19381471 -0.43415412 0.00000046
-0.33925197 -0.66939414 0.00000016
-0.15908237 -0.36474335 0.00000054
-0.01158053 0.78149372 0.00000204
-0.11621827 -0.79494536 0.00000001
-0.19355591 0.25444698 -0.00000171
-0.62320274 -0.32934895 -0.00000041
-0.76708663 -0.29075021 -0.00000127
-0.34773803 -0.19730015 0.00000075
-0.60979629 -0.57321084 0.00000002
-0.55782628 -0.75388098 0.00000006
-0.17036819 0.07405555 -0.00000556
-0.40366647 -0.61057591 0.00000024
-0.10297843 0.07954043 -0.00000750
-0.25012141 0.52891272 0.00000078
-0.26732290 0.50023085 0.00000071
-0.51613778 0.17921764 -0.00000043
-0.53585666 0.21287376 -0.00000061
-0.34636384 -0.68588257 0.00000014
-0.08158599 0.61061448 0.00000174
-0.44776744 -0.19521731 0.00000053
-0.36731800 -0.69124269 0.00000014
-0.26938900 -0.58319187 0.00000027
-0.35690522 -0.22059157 0.00000072
-0.35635072 -0.27565569 0.00000066
-0.30878058 -0.70497108 0.00000012
-0.38876373 -0.66207027 0.00000017
-0.04763709 0.65193093 0.00000085
-0.60059476 -0.31776246 -0.00000028
-0.00063479 0.79597104 0.00000204
-0.15345950 0.57813805 0.00000133
-0.66237968 -0.18066907 -0.00000087
-0.24136657 -0.13932241 0.00000083
-0.74316794 -0.19636633 -0.00000136
-0.39757809 0.33738980 0.00000010
-0.59464926 0.05948168 -0.00000077
-0.47347909 -0.38175356 0.00000052
-0.51278770 -0.08881379 -0.00000004
-0.02626200 -0.29191065 0.00000064
-0.46470341 0.29618043 -0.00000027
-0.46910214 -0.06324742 0.00000021
-0.39415362 -0.39042732 0.00000051
-0.01128528 -0.29182675 0.00000064
-0.55879992 -0.74677235 0.00000007
-0.46912357 -0.66616786 0.00000017
-0.07437847 0.51145327 -0.00000080
-0.50338376 -0.64522713 0.00000019
-0.13161029 0.05930386 -0.00000699
-0.11657502 -0.00176185 0.00000100
-0.42628604 -0.56311888 0.00000030
-0.20648476 0.01256109 -0.00000555
-0.11299459 -0.71540749 0.00000011
-0.56163692 0.13935123 -0.00000067
-0.13688911 0.12179451 -0.00000574
-0.57454038 -0.29756621 -0.00000014
-0.26814723 0.14944372 -0.00000129
-0.02733433 0.20763958 -0.00000754
-0.06537186 0.23573153 -0.00000590
-0.40423939 0.11053655 0.00000038
-0.38862401 -0.75199258 0.00000006
-0.29936856 -0.24764764 0.00000069
-0.10325092 0.52884346 0.00000037
-0.46958983 -0.39032033 0.00000051
-0.24443009 0.24280316 0.00000122
-0.67157120 -0.46769634 -0.00000052
-0.38521490 -0.54901391 0.00000031
-0.29533467 0.49798554 0.00000053
-0.24244471 0.06489869 -0.00000355
-0.71824729 -0.03937705 -0.00000142
-0.58940107 -0.35176966 -0.00000016
-0.00031994 -0.69535840 0.00000013
-0.44341365 -0.56440341 0.00000029
-0.10142945 0.56232405 0.00000168
-0.74982595 -0.28481489 -0.00000128
-0.71144873 -0.17970204 -0.00000118
-0.54053819 -0.60105896 0.00000025
-0.18699881 0.13701808 -0.00000396
-0.66493189 -0.39370462 -0.00000058
-0.41774198 0.12836102 0.00000027
-0.50868368 -0.59898543 0.00000025
-0.16733339 0.39385575 -0.00000006
-0.09518465 -0.25322616 0.00000068
-0.06737898 -0.36274579 0.00000055
-0.02442825 -0.68568766 0.00000014
-0.65399778 -0.63059956 -0.00000018
-0.65952480 -0.32839161 -0.00000064
-0.23170075 -0.76236171 0.00000005
-0.07164191 -0.76088995 0.00000005
-0.49204931 -0.15725645 0.00000019
-0.46766710 -0.40635529 0.00000049
-0.09339200 -0.07168533 0.00000091
-0.09891319 0.46941859 -0.00000080
-0.44081861 -0.79090583 0.00000001
-0.28423613 0.16319557 0.00000107
-0.03713638 0.64148623 0.00000035
-0.78081262 -0.12205811 -0.00000169
-0.31100142 0.07483042 0.00000103
-0.12847105 -0.63182473 0.00000021
-0.04294038 0.27066356 -0.00000597
-0.11922207 0.27824640 -0.00000353
-0.35032055 -0.72645491 0.00000009
-0.22697072 -0.75271070 0.00000006
-0.31643683 -0.58195704 0.00000027
-0.02291614 -0.70360041 0.00000012
-0.41318408 0.31021771 0.00000004
-0.73351735 -0.63226026 -0.00000042
-0.53848213 -0.15939690 -0.00000010
-0.22124720 0.42940924 0.00000110
-0.54963756 -0.10022426 -0.00000026
-0.72884917 -0.74434257 -0.00000014
-0.62985790 -0.32824579 -0.00000045
-0.73517621 -0.19553003 -0.00000131
-0.07846654 -0.15918358 0.00000080
-0.32004374 -0.21787369 0.00000073
-0.04700640 0.22593603 -0.00000663
-0.60361886 0.18360451 -0.00000100
-0.29686913 -0.12443075 0.00000084
-0.38029051 -0.47577664 0.00000041
-0.08983972 -0.72297060 0.00000010
-0.55997276 -0.32819232 -0.00000000
-0.78158057 0.01288530 -0.00000183
-0.48144093 0.21952310 -0.00000027
-0.18296890 -0.29630116 0.00000063
-0.14060134 0.40074584 -0.00000074
-0.06502246 -0.05910445 0.00000093
-0.34501395 0.08935236 0.00000079
-0.02702607 0.56265759 -0.00000134
-0.76765239 -0.31932318 -0.00000120
-0.42044663 -0.21012078 0.00000072
-0.03974337 -0.69277495 0.00000013
-0.38659048 -0.15320386 0.00000081
-0.34039503 -0.19974154 0.00000075
-0.28671238 0.49753803 0.00000059
-0.06330364 -0.27085140 0.00000066
-0.29384223 -0.45015144 0.00000044
-0.76034820 -0.71301889 -0.00000022
-0.03593524 -0.70410877 0.00000012
-0.04835641 0.74995732 0.00000178
-0.09935713 0.09142149 -0.00000740
-0.44162777 -0.05304328 0.00000037
-0.68915761 -0.46799815 -0.00000063
-0.03082488 -0.36164656 0.00000055
-0.46699336 -0.33953020 0.00000058
-0.49999386 0.04746143 -0.00000015
-0.37957063 0.03002191 0.00000065
-0.02126978 0.27716500 -0.00000651
-0.49571061 0.06498100 -0.00000014
-0.10646206 -0.14315616 0.00000082
-0.70014006 -0.19540028 -0.00000109
-0.45222467 0.20014977 -0.00000005
-0.27692583 -0.10597540 0.00000087
-0.51535350 -0.11854120 -0.00000001
-0.73050785 -0.32083711 -0.00000111
-0.48109478 -0.47395715 0.00000041
-0.07361479 -0.51491839 0.00000036
-0.01141824 0.26435453 -0.00000703
-0.42162806 0.31636706 -0.00000002
-0.12559627 -0.29380623 0.00000063
-0.66601598 -0.50092971 -0.00000044
-0.19621246 0.54071736 0.00000111
-0.45292220 -0.59173441 0.00000026
-0.30099031 0.28082797 0.00000080
-0.23568070 -0.60975963 0.00000024
-0.60447967 -0.54244524 0.00000001
-0.50225979 0.27044368 -0.00000047
-0.31112713 -0.36328048 0.00000055
-0.66909140 -0.62023526 -0.00000029
-0.03910133 0.32879534 -0.00000507
-0.12025896 -0.22868709 0.00000071
-0.06650919 -0.27734455 0.00000065
-0.27036050 0.30847526 0.00000096
-0.36986828 -0.28634757 0.00000064
-0.09138271 -0.39450431 0.00000051
-0.61769855 -0.32071164 -0.00000038
-0.32644427 0.03147728 0.00000099
-0.48316079 0.08538981 -0.00000009
-0.31505859 0.42425281 0.00000051
-0.40066621 0.30424398 0.00000013
-0.07526779 -0.62064111 0.00000022
-0.05310386 0.38273063 -0.00000370
-0.04574446 -0.14867274 0.00000081
-0.21027730 -0.69283181 0.00000013
-0.00535061 0.18719149 -0.00000856
-0.45256281 -0.12905955 0.00000041
-0.55114204 0.24519865 -0.00000070
-0.41739315 -0.36374098 0.00000055
-0.53925306 -0.75316840 0.00000006
-0.74638319 -0.63814509 -0.00000040
-0.24435765 -0.40204045 0.00000050
-0.72468424 -0.50057423 -0.00000075
-0.01913296 0.12354724 -0.00000926
-0.05880210 -0.27204978 0.00000066
-0.51736903 -0.36657980 0.00000032
-0.27999040 0.02398635 -0.00000313
-0.14457788 0.43116519 -0.00000009
-0.39598814 0.06448618 0.00000050
-0.42305309 -0.06532080 0.00000050
-0.38916746 0.05435318 0.00000055
-0.68548572 -0.62612092 -0.00000039
-0.12878744 0.06987514 -0.00000689
-0.55078882 0.22530681 -0.00000072
-0.45816010 -0.21415150 0.00000049
-0.45503131 -0.64890707 0.00000019
-0.43699589 -0.39584768 0.00000051
-0.06478466 0.20240156 -0.00000650
-0.22387019 -0.17283039 0.00000078
-0.79577166 -0.16817699 -0.00000158
-0.73032892 -0.19829756 -0.00000128
-0.73117930 -0.03976143 -0.00000150
-0.46661723 -0.46530518 0.00000042
-0.32050031 -0.27504465 0.00000066
-0.22719739 0.54781365 0.00000090
-0.16448799 -0.12184845 0.00000085
-0.48362696 -0.44893688 0.00000044
-0.29102293 -0.74287570 0.00000007
-0.51232123 -0.25404823 0.00000020
-0.49539819 -0.73592931 0.00000008
-0.32002720 0.07434697 0.00000097
-0.54566938 -0.58470941 0.00000027
-0.35007790 0.29145628 0.00000047
-0.18686210 -0.42164370 0.00000047
-0.78396350 -0.11766401 -0.00000171
-0.09812933 0.15880960 -0.00000626
-0.30907652 -0.78986502 0.00000001
-0.72423977 -0.76460189 -0.00000009
-0.20122692 -0.50345528 0.00000037
-0.16273466 0.27433190 -0.00000229
-0.59107220 -0.27159849 -0.00000028
-0.08001207 -0.69130039 0.00000014
-0.00991163 0.35345340 -0.00000552
-0.19231738 -0.25393078 0.00000068
-0.00265786 -0.35540390 0.00000059
-0.24800326 0.07638870 -0.00000318
-0.23763710 -0.50032073 0.00000037
-0.40064624 -0.68247533 0.00000015
-0.69374865 0.03334828 -0.00000137
-0.23989266 -0.35504261 0.00000056
-0.54910284 -0.67098504 0.00000016
-0.05570289 -0.49055341 0.00000039
-0.35290915 -0.27854648 0.00000065
-0.41064945 -0.71513802 0.00000011
-0.63185787 -0.43969479 -0.00000031
-0.61952078 -0.04284025 -0.00000078
-0.00185979 0.04641472 -0.00001113
-0.61597323 -0.04664028 -0.00000076
-0.48032913 -0.47668391 0.00000040
-0.14631663 0.41060707 -0.00000040
-0.31098112 0.05858634 0.00000105
-0.59255189 -0.08813437 -0.00000055
-0.01794859 0.03250448 -0.00001089
-0.70339793 -0.64797515 -0.00000038
-0.76218837 -0.22247899 -0.00000144
-0.67717874 -0.11180164 -0.00000106
-0.51477444 -0.44264266 0.00000045
-0.48041552 -0.00520800 0.00000005
-0.58800185 0.15412655 -0.00000086
-0.01134984 0.70117164 0.00000061
-0.40352407 -0.77271962 0.00000003
-0.79126209 -0.68140107 -0.00000030
-0.55068427 -0.01707528 -0.00000038
-0.18788458 0.53260022 0.00000117
-0.21775390 0.14720902 -0.00000285
-0.02570249 0.04157688 -0.00001050
-0.53145087 -0.54055405 0.00000032
-0.60140115 -0.77770364 0.00000003
-0.66730112 0.04320549 -0.00000121
-0.34061679 -0.64400983 0.00000019
-0.52775669 0.07296716 -0.00000036
-0.06466843 0.34243566 -0.00000406
-0.76307738 -0.37334996 -0.00000107
-0.43116483 0.31462684 -0.00000008
-0.24916767 -0.08687930 0.00000089
-0.22550441 -0.55375195 0.00000031
-0.17654128 0.32055959 -0.00000106
-0.14783159 0.37715068 -0.00000094
-0.57244247 -0.40490496 0.00000002
-0.75401068 -0.61378604 -0.00000047
-0.42318752 -0.12578203 0.00000059
-0.41644341 0.04161814 0.00000040
-0.36559328 -0.20299181 0.00000075
-0.75216156 -0.03274961 -0.00000165
-0.02922513 0.50501311 -0.00000228
-0.43643811 -0.00652123 0.00000034
-0.72641408 -0.10105488 -0.00000139
-0.44077370 -0.71129596 0.00000011
-0.02043317 0.69880491 0.00000085
-0.59062809 -0.00941278 -0.00000065
-0.70813578 -0.59810156 -0.00000050
-0.55086207 -0.64559358 0.00000019
-0.41596022 -0.79584807 0.00000001
-0.75668049 -0.00148595 -0.00000172
-0.25778541 0.22061813 0.00000116
-0.53801632 -0.15079989 -0.00000011
-0.62274486 -0.43310127 -0.00000026
-0.26594523 -0.64883769 0.00000019
-0.51117134 -0.70440501 0.00000012
-0.18203174 0.26669028 -0.00000184
-0.18157189 -0.22874777 0.00000071
-0.13431740 0.02704697 -0.00000747
-0.45752630 -0.64056325 0.00000020
-0.26608726 -0.64492869 0.00000019
-0.11205849 -0.51815349 0.00000035
-0.56923145 -0.27308431 -0.00000014
-0.57862240 0.06891052 -0.00000068
-0.46259668 -0.13525648 0.00000035
-0.31709236 -0.36223087 0.00000055
-0.46529669 -0.45214611 0.00000043
-0.09569987 -0.36582008 0.00000054
-0.19353534 -0.62396294 0.00000022
-0.24535672 -0.10902435 0.00000086
-0.01786014 -0.64548552 0.00000019
-0.34849977 -0.20892012 0.00000074
-0.61318839 -0.00119427 -0.00000080
-0.01207251 0.17641373 -0.00000855
-0.20999362 -0.33751085 0.00000058
-0.78033733 -0.03982168 -0.00000182
-0.68196899 -0.35419819 -0.00000075
-0.33700478 0.22594352 0.00000065
-0.03353952 0.48615730 -0.00000248
-0.14783069 -0.49341467 0.00000038
-0.67277473 -0.58246768 -0.00000037
-0.21003471 -0.76941234 0.00000004
-0.12362653 -0.04588082 0.00000094
-0.46762413 -0.41906449 0.00000048
-0.15943667 0.07535399 -0.00000587
-0.57780743 0.19206378 -0.00000085
-0.64356780 0.02808958 -0.00000104
-0.00372303 -0.04421147 0.00000094
-0.76633859 -0.08517462 -0.00000167
-0.53114313 -0.41144967 0.00000030
-0.40959844 -0.52167857 0.00000035
-0.33875850 0.06944908 0.00000086
-0.18683346 -0.12770174 0.00000084
-0.28198475 -0.72153318 0.00000010
-0.16300163 -0.67038435 0.00000016
-0.71625459 -0.40392080 -0.00000090
-0.39490172 -0.04775442 0.00000066
-0.37427884 0.17845547 0.00000048
-0.50820714 -0.60192901 0.00000025
-0.49110019 -0.46312428 0.00000042
-0.11577815 -0.44260088 0.00000045
-0.35537794 0.35394970 0.00000035
-0.02037680 -0.22808932 0.00000071
-0.67866844 -0.59083688 -0.00000040
-0.15840891 -0.61949253 0.00000023
-0.54372984 -0.46917400 0.00000030
-0.03093258 0.73205400 0.00000190
-0.18662876 -0.27000639 0.00000066
-0.12060150 0.48970324 0.00000021
-0.28298068 0.07107661 -0.00000222
-0.51501751 -0.13738281 0.00000002
-0.15824431 -0.65650749 0.00000018
-0.65348989 -0.31170130 -0.00000063
-0.51788658 0.01720901 -0.00000022
-0.67176491 -0.43305385 -0.00000057
-0.58363402 -0.48821244 0.00000007
-0.40146503 -0.07117630 0.00000065
-0.04846769 0.27533668 -0.00000572
-0.07756923 -0.61103052 0.00000024
-0.30157885 -0.21169181 0.00000074
-0.41804281 -0.44171232 0.00000045
-0.20195508 0.57379884 0.00000102
-0.04976371 0.20489539 -0.00000691
-0.28981155 0.50791174 0.00000055
-0.10569319 0.69391930 0.00000148
-0.44654968 0.27549481 -0.00000012
-0.68512863 -0.06073887 -0.00000118
-0.28418192 0.06687865 -0.00000225
-0.17901415 0.50727147 0.00000126
-0.50214034 -0.10335367 0.00000005
-0.60423279 -0.23621178 -0.00000042
-0.75186962 -0.71942455 -0.00000020
-0.24999316 -0.28722274 0.00000064
-0.64295197 -0.21773919 -0.00000069
-0.53669930 -0.69818246 0.00000013
-0.41199654 0.31106266 0.00000005
-0.43256259 0.03988989 0.00000030
-0.76622152 -0.71767163 -0.00000021
-0.50873858 -0.36868018 0.00000038
-0.06707146 0.28071487 -0.00000506
-0.37659112 -0.46399179 0.00000042
-0.25756580 -0.64265513 0.00000020
-0.49759033 -0.04805186 0.00000000
-0.76664853 -0.16774982 -0.00000155
-0.73791587 -0.18100746 -0.00000135
-0.00623297 0.65111035 -0.00000042
-0.56333816 0.21926934 -0.00000079
