ply
format ascii 1.0
element vertex 1384
property float x
property float y
property float z
end_header
-0.67511773 -0.31929466 -0.00000045
0.28398308 -0.37386620 0.00000000
-0.27917752 -0.66459417 0.00000000
-0.46341652 -0.75555778 0.00000000
0.12359932 0.24188255 0.00000000
-0.06267640 -0.66710055 0.00000000
0.65638185 0.11804610 -0.00000160
0.13276495 -0.27077442 0.00000000
-0.20619629 -0.26119307 0.00000000
-0.38899672 -0.52057946 0.00000000
-0.08624251 -0.57152051 0.00000000
-0.47334656 0.21218628 -0.00000049
0.28499100 0.02303386 0.00000000
-0.22112310 -0.24261436 0.00000000
0.35914299 -0.58230144 0.00000000
-0.46819091 0.24365748 -0.00000051
-0.69756073 -0.57195252 -0.00000028
0.63192409 -0.65014309 -0.00000013
0.03715795 0.52004021 0.00000000
-0.66276753 0.08141023 -0.00000078
0.54944754 0.12041865 -0.00000114
0.36386737 -0.65662545 0.00000000
-0.07298361 0.53018498 0.00000000
0.45293036 -0.34300652 0.00000000
-0.70234984 -0.14805581 -0.00000066
-0.75623828 -0.75634062 -0.00000005
0.29159409 -0.14926608 0.00000000
0.61293226 0.02980455 -0.00000125
0.53786248 0.11479130 -0.00000108
0.31206968 0.35267681 -0.00000054
0.78426963 -0.12703180 -0.00000168
-0.41005251 0.22118041 -0.00000036
-0.45696869 -0.41942814 0.00000000
-0.37704325 -0.65259355 0.00000000
0.12850386 0.16140798 0.00000000
0.44202706 -0.13371643 -0.00000024
0.63557106 -0.20174728 -0.00000094
0.04567707 0.53474861 0.00000000
-0.21832144 -0.31828928 0.00000000
0.13639490 -0.12703964 0.00000000
-0.10270975 0.37438467 0.00000000
-0.10985547 -0.33039680 0.00000000
0.55022973 0.21208428 -0.00000131
-0.62719268 -0.27608895 -0.00000039
0.50146985 -0.57182187 0.00000000
-0.09179835 -0.56383681 0.00000000
-0.27631503 -0.39431804 0.00000000
0.15930194 0.09196823 0.00000000
0.04788449 0.26099902 0.00000000
0.06870982 0.11835481 0.00000000
0.52601629 0.20403452 -0.00000119
-0.01060790 -0.47920641 0.00000000
0.67821157 -0.35671338 -0.00000085
0.19128817 -0.44940981 0.00000000
-0.50495946 -0.04953471 -0.00000033
-0.00451431 -0.79697317 0.00000000
0.61682719 0.18297209 -0.00000154
0.63724899 -0.64795363 -0.00000016
-0.72160161 -0.47879946 -0.00000040
0.70110691 -0.47975266 -0.00000073
0.14287587 -0.13080230 0.00000000
0.55561310 0.18208718 -0.00000128
0.02081551 -0.06218934 0.00000000
0.31127295 -0.56635386 0.00000000
-0.71789759 -0.51173061 -0.00000036
-0.37088400 -0.21449466 0.00000000
0.41525397 -0.51190156 0.00000000
-0.00544912 -0.36367801 0.00000000
-0.06763133 0.14767286 0.00000000
-0.05212512 0.42694676 0.00000000
0.73838073 -0.50776839 -0.00000073
0.66152036 -0.04191240 -0.00000133
0.70373946 -0.59724480 -0.00000051
0.48224574 -0.56082535 0.00000000
0.25469992 0.28162125 -0.00000017
-0.46146008 -0.76697016 0.00000000
-0.43922657 -0.29976913 0.00000000
0.48039800 -0.14220901 -0.00000038
0.35148382 -0.76718640 0.00000000
0.20505302 0.57170093 -0.00000047
-0.15522467 -0.43247622 0.00000000
-0.11461824 -0.77922106 0.00000000
-0.40759301 -0.10187601 -0.00000007
0.15931828 -0.46519473 0.00000000
0.73676264 -0.53200138 -0.00000067
-0.60243237 -0.44811222 -0.00000018
0.27396652 0.00831492 0.00000000
-0.24185209 0.23213796 -0.00000001
0.11949519 0.07271275 0.00000000
-0.67842025 -0.40105352 -0.00000039
0.13464382 -0.28907084 0.00000000
0.02644398 0.58598816 0.00000000
0.15282018 -0.50707752 0.00000000
0.09614040 0.29560423 0.00000000
0.07267801 -0.77866197 0.00000000
-0.21031141 0.04371681 0.00000000
0.66193146 -0.68143386 -0.00000021
-0.13199621 -0.26249632 0.00000000
-0.40271625 -0.72210324 0.00000000
0.45148376 -0.09634347 -0.00000034
-0.32991701 -0.23587622 0.00000000
0.61773831 -0.64029408 -0.00000009
0.63562363 -0.16031274 -0.00000102
0.00882681 0.14931823 0.00000000
0.22578070 0.33603588 -0.00000014
-0.11738423 -0.40763384 0.00000000
-0.37052336 0.14758059 -0.00000021
0.43914801 -0.79176819 0.00000000
-0.53842688 -0.72552806 0.00000000
0.22848170 0.19633766 0.00000000
-0.44230226 -0.01680545 -0.00000022
-0.10788377 0.39931306 0.00000000
0.26576909 0.46478200 -0.00000054
-0.64732403 -0.23733716 -0.00000046
0.71093613 -0.27857900 -0.00000113
0.14923060 -0.12933035 0.00000000
0.30709061 -0.75030082 0.00000000
0.55724996 -0.48242348 -0.00000011
-0.13979915 -0.12139629 0.00000000
-0.39878082 0.33896005 -0.00000044
-0.59596521 0.10543650 -0.00000066
0.04105312 -0.59773254 0.00000000
0.25826406 -0.10784278 0.00000000
-0.34971911 -0.17609726 0.00000000
-0.26494199 -0.42320269 0.00000000
-0.49992403 -0.16928867 -0.00000021
0.56628424 0.12817854 -0.00000123
0.15143239 0.40556872 0.00000000
-0.13268332 -0.36829618 0.00000000
0.44537151 -0.68074054 0.00000000
0.39286864 -0.46925455 0.00000000
0.37858775 -0.52478915 0.00000000
0.34637180 -0.26687056 0.00000000
0.54324937 -0.11979921 -0.00000069
-0.13087848 0.46065810 0.00000000
-0.27227893 -0.18082945 0.00000000
0.19430633 0.54125214 -0.00000037
0.63078600 -0.57621890 -0.00000026
-0.07034012 -0.50039899 0.00000000
-0.32013667 -0.08412940 0.00000000
0.69736177 -0.07945934 -0.00000142
-0.11230474 0.39399961 0.00000000
0.16105106 0.62069827 -0.00000037
-0.10324022 -0.12340548 0.00000000
0.32111818 -0.35825169 0.00000000
0.66284102 -0.67728841 -0.00000022
0.23509060 0.00553677 0.00000000
0.06171136 -0.65541083 0.00000000
-0.51033819 -0.63734931 0.00000000
-0.36189204 0.33645579 -0.00000036
-0.44059372 -0.63445574 0.00000000
0.18431841 -0.52601433 0.00000000
-0.02486144 -0.24219260 0.00000000
-0.46625620 -0.72552967 0.00000000
-0.26781788 0.08766180 0.00000000
-0.52511585 0.11927866 -0.00000052
0.38985252 -0.08561983 -0.00000010
0.13190560 -0.07045468 0.00000000
0.45241612 0.06903762 -0.00000064
-0.31916386 0.02241276 0.00000000
0.32128316 -0.65403891 0.00000000
0.07736175 0.10063804 0.00000000
0.55534923 -0.27573168 -0.00000047
0.07133776 0.33801353 0.00000000
0.30464470 0.21112235 -0.00000026
0.14470738 0.49388903 -0.00000008
0.35607955 0.32030192 -0.00000067
-0.14799514 -0.08100515 0.00000000
-0.28255719 0.28470892 -0.00000015
0.22997098 -0.64357245 0.00000000
-0.58800834 -0.04208887 -0.00000051
0.07004972 0.70786387 -0.00000014
-0.54577196 0.10235823 -0.00000055
0.15377067 -0.51426113 0.00000000
-0.71403790 -0.79243714 -0.00000001
-0.61505622 -0.15682988 -0.00000047
-0.17200217 -0.40202764 0.00000000
-0.05281146 -0.20047951 0.00000000
0.35670993 -0.58456498 0.00000000
0.14374797 -0.66724539 0.00000000
0.12249265 -0.06534939 0.00000000
0.25191277 -0.33627251 0.00000000
-0.03482345 -0.52354550 0.00000000
0.74888921 -0.45987979 -0.00000085
-0.69558561 -0.46966791 -0.00000036
0.65990728 -0.59947377 -0.00000034
0.26607114 -0.57749254 0.00000000
0.10343440 0.14168133 0.00000000
0.11982607 -0.67590058 0.00000000
0.46475303 -0.26667479 -0.00000010
0.63372546 -0.06872459 -0.00000117
0.41681606 0.31723085 -0.00000093
-0.07959657 -0.35035664 0.00000000
0.62333000 0.00649947 -0.00000126
0.22905590 -0.27430987 0.00000000
-0.53720725 -0.17504932 -0.00000028
0.33376700 0.34948957 -0.00000063
-0.25955677 0.43228361 -0.00000023
-0.11759926 -0.07145742 0.00000000
0.06860007 -0.52605236 0.00000000
0.15666863 -0.33706740 0.00000000
-0.41506121 -0.41247088 0.00000000
0.54751986 -0.40092894 -0.00000021
-0.33298117 -0.18624797 0.00000000
0.34941313 -0.57895076 0.00000000
0.21433428 0.10561216 0.00000000
-0.33982328 -0.76270610 0.00000000
-0.68302363 -0.33046976 -0.00000046
0.08667366 0.10672705 0.00000000
0.25137195 -0.47603303 0.00000000
0.40006050 -0.65767789 0.00000000
-0.65518004 -0.34375203 -0.00000039
-0.07842565 0.25223857 0.00000000
0.77917767 -0.16699252 -0.00000158
-0.25122741 -0.24405541 0.00000000
0.26715127 -0.56005818 0.00000000
-0.47971520 0.27980009 -0.00000056
0.06747554 -0.36566141 0.00000000
-0.42257965 -0.13449571 -0.00000008
0.08190747 0.24833396 0.00000000
0.42974231 -0.05156781 -0.00000033
-0.19608299 -0.33073720 0.00000000
0.65755147 0.05107382 -0.00000148
0.46309432 -0.07089410 -0.00000044
0.16664630 -0.58576310 0.00000000
-0.11457869 -0.09775668 0.00000000
0.07770467 -0.31138107 0.00000000
-0.35518405 0.04555055 -0.00000009
0.70590991 -0.21934019 -0.00000121
0.03805927 -0.75413752 0.00000000
0.48797473 -0.20193383 -0.00000031
0.18630351 -0.13698758 0.00000000
-0.26930380 -0.29399902 0.00000000
-0.14534400 -0.41512346 0.00000000
0.46857017 -0.46173087 0.00000000
-0.06200272 -0.01530898 0.00000000
0.28326288 0.51654804 -0.00000071
0.42571640 0.27959192 -0.00000090
0.35467431 -0.45573512 0.00000000
-0.72188407 -0.41291445 -0.00000047
-0.02462429 -0.67682737 0.00000000
-0.45197013 -0.75906700 0.00000000
0.05189303 0.24821004 0.00000000
0.28023556 -0.07992313 0.00000000
0.12718934 0.24696191 0.00000000
0.15160388 0.55633092 -0.00000022
-0.26078668 0.23746629 -0.00000006
0.37038246 -0.43946433 0.00000000
0.37213251 -0.70636982 0.00000000
0.70600045 -0.17903845 -0.00000128
0.11177827 0.11063423 0.00000000
-0.53477281 -0.71009690 0.00000000
-0.33978361 -0.47799948 0.00000000
0.54434204 -0.74548417 0.00000000
0.66263378 -0.75113863 -0.00000009
-0.20647350 0.53674060 -0.00000021
0.31089640 -0.40534642 0.00000000
0.00037947 -0.08020133 0.00000000
-0.59934735 -0.32936627 -0.00000028
-0.04353189 0.72119802 -0.00000002
-0.13878506 0.12435494 0.00000000
-0.57465851 0.00366334 -0.00000052
-0.08098196 0.63576066 -0.00000003
0.67241210 -0.28141469 -0.00000096
-0.06051250 0.34514222 0.00000000
0.54009485 -0.18664095 -0.00000056
-0.69950032 -0.17963667 -0.00000063
-0.57331282 0.10357802 -0.00000061
0.22151648 0.40193960 -0.00000024
0.46315590 -0.36800295 0.00000000
-0.26010692 -0.32521236 0.00000000
-0.64303917 -0.58649969 -0.00000015
-0.79289550 -0.07206431 -0.00000091
0.65834343 -0.05018313 -0.00000131
0.26118940 0.32752341 -0.00000028
0.57582784 -0.33248687 -0.00000046
-0.34536362 -0.72075540 0.00000000
-0.26415059 -0.53336716 0.00000000
-0.26485425 0.05212031 0.00000000
-0.19372761 -0.47116584 0.00000000
-0.62310696 -0.41129592 -0.00000026
0.39612657 -0.29848826 0.00000000
-0.52123946 -0.42112255 -0.00000003
-0.29208976 -0.62725037 0.00000000
-0.07518386 -0.15101191 0.00000000
0.27326220 -0.65794706 0.00000000
0.51183647 -0.37152091 -0.00000011
0.53629285 0.16985998 -0.00000117
-0.13215385 -0.24519616 0.00000000
-0.30485022 -0.58038342 0.00000000
0.75402242 -0.47355744 -0.00000082
0.38889378 -0.72149807 0.00000000
-0.59332937 -0.39375743 -0.00000021
0.57374942 -0.07040186 -0.00000091
0.31282207 -0.77584392 0.00000000
-0.08890546 -0.27645224 0.00000000
-0.61007953 -0.67840791 0.00000000
0.65548229 -0.51635224 -0.00000047
-0.00450071 0.57397950 0.00000000
-0.01513025 -0.55525267 0.00000000
-0.47633603 0.06002189 -0.00000036
-0.60419929 -0.53105772 -0.00000011
-0.08065935 0.54185951 0.00000000
-0.25317454 -0.12463802 0.00000000
-0.76441336 -0.11393825 -0.00000082
-0.13614088 -0.11014933 0.00000000
0.12294045 -0.57379293 0.00000000
-0.05766245 -0.04973272 0.00000000
-0.68857872 -0.47177002 -0.00000035
-0.57996058 -0.27810931 -0.00000028
-0.61568469 -0.63789517 -0.00000004
0.28056392 -0.52065593 0.00000000
-0.27395847 -0.04094209 0.00000000
-0.41122890 -0.02607777 -0.00000015
-0.44122249 -0.48932791 0.00000000
-0.19047135 0.53392810 -0.00000017
-0.37687853 -0.19035588 0.00000000
0.75990140 -0.63386011 -0.00000042
0.48350114 -0.50403726 0.00000000
0.32545575 -0.02077489 0.00000000
-0.11724019 0.20990396 0.00000000
-0.45062524 0.30607873 -0.00000053
-0.29564875 0.02737912 0.00000000
-0.11999192 0.46012166 0.00000000
0.45705810 -0.19899298 -0.00000018
-0.26788995 0.07330434 0.00000000
-0.12814055 -0.54019654 0.00000000
-0.31848052 0.04087865 -0.00000001
0.53185272 0.13800906 -0.00000110
-0.07011569 0.24345966 0.00000000
-0.73100108 -0.30101693 -0.00000059
0.11161865 0.21692507 0.00000000
-0.01853070 0.44873258 0.00000000
-0.73129660 -0.71817005 -0.00000010
-0.07386890 -0.24653907 0.00000000
0.70743346 -0.59089148 -0.00000052
0.38145030 -0.66401362 0.00000000
-0.28295124 -0.15591969 0.00000000
0.06709544 -0.57341063 0.00000000
0.24666245 -0.36989814 0.00000000
-0.67512089 -0.13075367 -0.00000062
-0.41354692 -0.43579540 0.00000000
-0.35005736 -0.28612983 0.00000000
-0.66508293 0.05862909 -0.00000076
-0.54478860 -0.19269285 -0.00000029
0.27362067 -0.20526297 0.00000000
-0.14120930 0.38049456 0.00000000
0.45045546 0.21335667 -0.00000089
0.55200863 -0.75488156 0.00000000
-0.64568841 0.06786649 -0.00000073
-0.09012130 0.11579871 0.00000000
-0.31156152 -0.29823095 0.00000000
0.43855363 0.26684132 -0.00000093
-0.36018649 -0.27759367 0.00000000
-0.40887046 0.10148390 -0.00000026
-0.60155571 0.14173050 -0.00000070
-0.46670339 -0.56312740 0.00000000
-0.10991640 0.31691769 0.00000000
-0.30850554 0.07232234 -0.00000002
-0.22508398 -0.12784356 0.00000000
0.20954973 -0.31149507 0.00000000
0.62955052 -0.31362331 -0.00000072
-0.27193788 -0.09842183 0.00000000
-0.17588554 0.43021426 -0.00000005
-0.42216724 -0.47526062 0.00000000
-0.25237584 -0.69314039 0.00000000
-0.46443444 0.19030809 -0.00000045
0.19345559 -0.70435387 0.00000000
-0.17173871 -0.43894958 0.00000000
0.42633945 0.17874710 -0.00000072
-0.17374232 -0.60356802 0.00000000
-0.06081272 0.51320398 0.00000000
0.06075065 0.52537078 0.00000000
-0.57272369 -0.08067807 -0.00000044
-0.03265298 -0.10999089 0.00000000
-0.07197946 0.43189630 0.00000000
-0.04937946 0.63024879 0.00000000
0.27754548 0.15719637 -0.00000005
0.17371640 0.56290585 -0.00000032
0.31709954 -0.34436592 0.00000000
0.55003363 -0.19921897 -0.00000058
0.34837195 -0.51300907 0.00000000
0.72917265 -0.41003129 -0.00000097
-0.22994629 0.52571249 -0.00000025
-0.03777827 0.21718776 0.00000000
-0.28214794 -0.04848966 0.00000000
-0.27527642 -0.71907365 0.00000000
-0.32605094 0.02358974 -0.00000001
0.55051196 0.17532800 -0.00000125
-0.47408497 0.20310263 -0.00000048
0.15554941 -0.47284085 0.00000000
0.57913876 -0.34454033 -0.00000045
0.39952612 0.09550518 -0.00000046
-0.08394172 0.12499481 0.00000000
0.08189586 0.27355009 0.00000000
0.79359978 -0.45050108 -0.00000087
-0.20240028 -0.67108089 0.00000000
0.59665698 -0.17581251 -0.00000082
-0.75648230 -0.56362057 -0.00000030
0.54277629 0.15954693 -0.00000118
-0.70535314 -0.07164887 -0.00000073
0.78573686 -0.41314957 -0.00000097
-0.13322827 -0.64970958 0.00000000
0.40139705 -0.69884521 0.00000000
-0.37058994 0.24288991 -0.00000030
0.52032948 0.19933680 -0.00000116
-0.00830343 -0.78331143 0.00000000
-0.51521480 -0.67337012 0.00000000
-0.09387749 0.01794832 0.00000000
0.16806322 0.32545370 0.00000000
-0.28286675 -0.69667310 0.00000000
-0.54100847 0.19461688 -0.00000062
0.62453437 -0.04356669 -0.00000117
0.39272836 -0.08615907 -0.00000011
0.21352793 -0.77090424 0.00000000
0.54648858 0.01662022 -0.00000095
0.46919259 0.14086819 -0.00000084
-0.64836073 -0.77237809 0.00000000
-0.29347342 -0.02258532 0.00000000
-0.35275128 -0.13257380 0.00000000
0.47015485 -0.21206924 -0.00000022
-0.22040711 0.29737478 -0.00000003
0.17964835 0.55146438 -0.00000033
-0.40851271 0.31775269 -0.00000045
0.58753103 -0.42117345 -0.00000035
0.79420453 -0.42514893 -0.00000094
-0.25081623 -0.32995829 0.00000000
0.19641884 0.06667701 0.00000000
-0.00822033 -0.04187707 0.00000000
-0.02691463 0.36037338 0.00000000
-0.44220859 -0.62877941 0.00000000
-0.20715369 -0.32229322 0.00000000
0.49263498 -0.75517285 0.00000000
-0.33356333 -0.13713782 0.00000000
0.75224680 -0.35810152 -0.00000110
0.46589985 -0.54887873 0.00000000
-0.09122716 -0.22197238 0.00000000
0.74197620 -0.79086721 -0.00000002
0.77626544 -0.50627649 -0.00000073
0.32471681 -0.07691647 0.00000000
-0.58890563 -0.15774012 -0.00000041
0.37731609 -0.19372390 0.00000000
0.31574246 -0.36367753 0.00000000
-0.26177716 0.40083539 -0.00000021
0.29295447 -0.77243429 0.00000000
-0.25221294 0.14455709 0.00000000
0.40134388 -0.52722061 0.00000000
-0.56622350 0.05765619 -0.00000055
0.17973790 -0.39201811 0.00000000
0.28896514 0.39279306 -0.00000051
0.05167608 -0.04170432 0.00000000
0.78186655 -0.15669194 -0.00000161
-0.46237740 -0.32650104 0.00000000
-0.59175205 -0.53390443 -0.00000008
0.21429320 0.52121234 -0.00000042
-0.72910744 -0.46580526 -0.00000042
-0.57859939 -0.21472406 -0.00000034
0.61980957 0.09851879 -0.00000141
0.41346672 -0.19338183 -0.00000001
0.37065229 -0.54751277 0.00000000
-0.10810942 -0.31421250 0.00000000
-0.58871359 -0.45273635 -0.00000015
-0.30796257 -0.23628148 0.00000000
-0.35106415 -0.79266059 0.00000000
-0.70684743 0.07423597 -0.00000087
0.63311446 -0.60582435 -0.00000022
0.44111195 -0.36277965 0.00000000
-0.21822639 0.13753031 0.00000000
-0.03648131 0.24399230 0.00000000
0.33696827 -0.25224453 0.00000000
-0.69930935 -0.40767756 -0.00000042
-0.20032951 0.18224612 0.00000000
0.41319317 -0.01706974 -0.00000032
-0.76263577 -0.37879711 -0.00000053
0.41234395 0.36173797 -0.00000099
0.56389982 -0.29101706 -0.00000048
0.45770377 0.26159599 -0.00000100
-0.25863579 -0.25685471 0.00000000
0.52804178 -0.70995432 0.00000000
0.71799928 0.02452260 -0.00000169
-0.67812860 -0.71322668 -0.00000011
0.26576692 0.36787397 -0.00000037
-0.04474566 0.00478063 0.00000000
-0.61100942 -0.54938883 -0.00000011
-0.09730850 0.23453023 0.00000000
0.11674272 0.56121069 -0.00000008
-0.17817794 0.02302865 0.00000000
0.21966353 0.46776789 -0.00000035
-0.70445889 -0.51979059 -0.00000034
-0.52710259 0.12643838 -0.00000053
0.14593659 -0.29391518 0.00000000
0.09680492 -0.04515244 0.00000000
0.31129006 -0.16588746 0.00000000
0.59533179 -0.61139852 -0.00000005
-0.19023246 0.42493784 -0.00000007
0.40990427 -0.02553588 -0.00000029
-0.48463312 0.24107066 -0.00000054
-0.16032173 -0.55934155 0.00000000
0.33765030 0.30326200 -0.00000056
-0.40304008 -0.47273263 0.00000000
-0.00151046 0.35558927 0.00000000
-0.47701696 -0.08817498 -0.00000023
0.72111034 0.03475019 -0.00000172
0.51029676 -0.52920938 0.00000000
0.70739907 -0.58165854 -0.00000055
-0.01363906 0.15610711 0.00000000
-0.67747766 0.01254401 -0.00000075
0.39179686 -0.53224772 0.00000000
-0.19960809 0.16449247 0.00000000
-0.17192645 0.26719502 0.00000000
-0.21543102 -0.00772079 0.00000000
0.38226929 -0.44550312 0.00000000
-0.32149220 -0.44078514 0.00000000
-0.19083871 -0.17794590 0.00000000
0.43666399 -0.57672107 0.00000000
-0.02844807 0.54485422 0.00000000
0.22626062 0.43731159 -0.00000032
0.27663195 0.09488006 0.00000000
0.25854665 -0.51879060 0.00000000
-0.63904923 -0.35904527 -0.00000034
0.30608687 0.35390851 -0.00000052
-0.52707702 0.20436494 -0.00000060
0.70421344 0.02035420 -0.00000163
0.62696987 -0.23612572 -0.00000084
0.32723311 0.09882571 -0.00000016
0.76502520 -0.40579942 -0.00000099
0.44027898 -0.78351367 0.00000000
0.35394445 0.08517690 -0.00000025
0.58538777 -0.46520615 -0.00000026
-0.76532257 -0.22796500 -0.00000072
0.29348871 -0.77626282 0.00000000
-0.07918458 -0.70432454 0.00000000
0.22211799 0.35806963 -0.00000017
0.33265102 0.23460773 -0.00000042
0.09394688 -0.13694067 0.00000000
0.61046386 -0.60856801 -0.00000012
0.49844849 -0.21799390 -0.00000033
0.13353735 0.14724912 0.00000000
0.56728816 -0.62287068 0.00000000
0.53799748 0.21591474 -0.00000126
0.49828637 -0.07103813 -0.00000059
-0.33895424 -0.20679338 0.00000000
-0.61161250 -0.28457463 -0.00000035
0.11826447 -0.03204413 0.00000000
-0.11536228 0.43787637 0.00000000
-0.23292875 -0.61774242 0.00000000
0.74990934 -0.78432488 -0.00000004
-0.24615753 0.18096434 0.00000000
0.55604517 0.01767954 -0.00000099
0.32536182 -0.59142405 0.00000000
0.33095574 0.35395426 -0.00000062
-0.24595948 0.52824968 -0.00000028
-0.31579682 -0.52851212 0.00000000
-0.51939899 -0.42712799 -0.00000002
0.45818424 -0.09398671 -0.00000038
0.60980940 -0.34829310 -0.00000057
-0.44414490 -0.42917866 0.00000000
-0.19901189 0.23674962 0.00000000
-0.27896157 -0.64224339 0.00000000
0.47851524 0.18223529 -0.00000095
0.16847612 -0.03469320 0.00000000
-0.43724859 -0.56525737 0.00000000
-0.65055263 -0.11819655 -0.00000058
-0.07142675 -0.02690517 0.00000000
0.05438507 0.11985191 0.00000000
0.13088661 -0.52693504 0.00000000
0.05292285 -0.58957177 0.00000000
0.71518666 -0.70490021 -0.00000024
0.78525376 -0.33240527 -0.00000117
-0.30756450 -0.45069954 0.00000000
0.69171208 -0.11316579 -0.00000134
-0.63501561 -0.19875880 -0.00000047
-0.66908324 -0.29097041 -0.00000046
-0.51725680 -0.30793989 -0.00000012
0.65187311 -0.06304893 -0.00000126
0.59655225 0.20227738 -0.00000149
-0.24537249 -0.12019497 0.00000000
0.00484605 0.02159846 0.00000000
0.52999014 -0.33545089 -0.00000025
0.00976558 -0.04599361 0.00000000
0.01402350 0.06973303 0.00000000
0.41007388 0.26864278 -0.00000081
-0.25754979 -0.05029920 0.00000000
0.12353002 -0.72711885 0.00000000
0.27243933 0.24121499 -0.00000017
0.47909591 -0.37322074 0.00000000
-0.21249154 -0.68602109 0.00000000
0.00086889 -0.65343446 0.00000000
0.11864057 -0.43901569 0.00000000
0.50793529 -0.68415117 0.00000000
0.12116263 0.27789879 0.00000000
0.13957237 -0.79995471 0.00000000
-0.79395455 -0.47557050 -0.00000041
0.23635845 0.15801641 0.00000000
0.50066912 -0.62269831 0.00000000
-0.42944989 -0.18385997 -0.00000005
-0.41273916 -0.29500318 0.00000000
-0.63968807 0.06863799 -0.00000072
0.49955094 -0.17808495 -0.00000040
0.68835014 -0.78945160 -0.00000003
0.67984301 -0.25687012 -0.00000103
0.51896727 -0.36204237 -0.00000016
-0.04914916 0.64221060 0.00000000
0.04048809 0.11350896 0.00000000
-0.13309978 0.25863293 0.00000000
-0.29981196 -0.58823210 0.00000000
-0.36579072 0.26387656 -0.00000031
-0.73170304 -0.26844737 -0.00000062
0.37667954 -0.78071576 0.00000000
-0.01012671 -0.15021890 0.00000000
-0.57793516 -0.03945597 -0.00000049
0.44269001 -0.10334883 -0.00000029
-0.56095767 0.18397798 -0.00000065
0.79047137 -0.78914279 -0.00000003
0.71116322 -0.56146944 -0.00000060
0.25042689 -0.17873561 0.00000000
0.43151352 0.31103572 -0.00000098
0.19072168 -0.47464225 0.00000000
0.42896059 -0.47877687 0.00000000
0.67420268 -0.78259128 -0.00000004
0.22889461 -0.40266165 0.00000000
0.35311586 0.03164930 -0.00000015
-0.66186273 -0.51231635 -0.00000025
0.62626147 -0.52125853 -0.00000034
0.07957475 0.71993721 -0.00000019
-0.63764548 0.03373211 -0.00000068
0.05423074 -0.13283668 0.00000000
0.73772830 -0.75219268 -0.00000012
-0.35072455 -0.64366639 0.00000000
-0.60492790 0.10973905 -0.00000068
0.58567470 -0.20824942 -0.00000072
0.49863157 0.02053586 -0.00000075
0.02936043 0.21925093 0.00000000
0.69417614 -0.39564937 -0.00000085
0.41768673 -0.49762875 0.00000000
0.50333673 -0.30964398 -0.00000019
0.21354535 -0.06558132 0.00000000
-0.34427971 -0.39556503 0.00000000
-0.42266449 0.05399260 -0.00000024
-0.05334688 -0.12920058 0.00000000
-0.37427020 -0.59358060 0.00000000
-0.47234696 -0.52921110 0.00000000
0.32332852 0.00336966 0.00000000
0.43733531 0.07509232 -0.00000058
-0.09486223 -0.26044476 0.00000000
0.06880704 0.04902668 0.00000000
-0.29349414 0.09417290 -0.00000000
0.00956472 -0.55041879 0.00000000
0.08043523 -0.72967470 0.00000000
-0.25591117 -0.25112373 0.00000000
0.02742776 0.27814448 0.00000000
-0.03018670 0.19038755 0.00000000
-0.72855687 -0.04998304 -0.00000080
-0.30818695 -0.63269126 0.00000000
-0.01636171 0.73509818 0.00000000
0.11189500 0.31188631 0.00000000
-0.79301083 -0.15524173 -0.00000081
-0.78023702 -0.47572482 -0.00000041
-0.07352088 0.19490235 0.00000000
-0.57831883 -0.61475247 0.00000000
-0.29009211 -0.50428301 0.00000000
-0.19077925 0.29994607 0.00000000
-0.49960932 -0.15782964 -0.00000022
-0.49587980 -0.27157876 -0.00000011
0.15114644 -0.23217879 0.00000000
0.45592391 0.28673729 -0.00000104
0.15911314 0.38230592 0.00000000
0.03210882 0.60630691 0.00000000
-0.08392287 -0.41739315 0.00000000
0.24219728 0.10386504 0.00000000
-0.77543992 -0.77320606 -0.00000003
0.42158896 0.19116500 -0.00000072
0.25017616 -0.66951811 0.00000000
0.70281076 -0.43857679 -0.00000081
-0.44485462 -0.32587498 0.00000000
-0.01085460 -0.76957572 0.00000000
0.44366774 -0.07060991 -0.00000035
0.50103933 0.29400596 -0.00000117
0.10456502 -0.02203227 0.00000000
0.09311656 -0.40915930 0.00000000
-0.19460204 0.29864404 0.00000000
-0.17136635 -0.58496970 0.00000000
-0.08652190 -0.14784427 0.00000000
0.20883884 0.03920887 0.00000000
-0.68095183 -0.21960784 -0.00000055
0.53786516 -0.43264586 -0.00000012
-0.04279803 -0.32596159 0.00000000
-0.63379157 0.08820473 -0.00000072
-0.23875681 -0.19946021 0.00000000
0.10051135 0.35288626 0.00000000
-0.47521603 -0.14573807 -0.00000018
-0.37196785 0.19000630 -0.00000025
0.26897788 -0.40727231 0.00000000
0.10215520 -0.67894340 0.00000000
0.66532063 -0.41258419 -0.00000070
0.15631627 -0.23306854 0.00000000
-0.71552652 -0.17138131 -0.00000067
-0.00016965 0.27186027 0.00000000
0.19968902 0.35664976 -0.00000007
0.16593169 0.56601179 -0.00000029
-0.71304446 -0.58233726 -0.00000027
-0.34346610 -0.05802510 0.00000000
0.59325069 -0.46199039 -0.00000030
-0.55174553 -0.39750278 -0.00000012
-0.46690971 -0.31479883 -0.00000001
0.34356400 -0.48003778 0.00000000
-0.32020104 -0.33500791 0.00000000
-0.70726269 0.09243758 -0.00000088
-0.05564181 -0.72492456 0.00000000
-0.15998246 0.22244194 0.00000000
0.50425267 0.22359444 -0.00000113
0.74342173 -0.33767277 -0.00000116
0.04816774 -0.63025659 0.00000000
0.15417650 0.61934912 -0.00000034
-0.72998315 -0.49730512 -0.00000038
-0.02643592 0.44022912 0.00000000
-0.21360791 0.45356122 -0.00000015
0.11811625 -0.75671351 0.00000000
-0.43661374 -0.17762151 -0.00000007
0.03031563 -0.41767731 0.00000000
0.34706646 -0.34197167 0.00000000
0.13529515 -0.55718702 0.00000000
0.25682878 -0.29932162 0.00000000
-0.61422926 -0.31148019 -0.00000033
0.19363280 -0.38834769 0.00000000
-0.21957739 0.54585195 -0.00000024
-0.35311931 -0.37238929 0.00000000
-0.03868897 -0.60074186 0.00000000
-0.23116232 0.43167010 -0.00000017
-0.40619346 -0.64645231 0.00000000
0.78086102 -0.35086185 -0.00000112
0.50980496 -0.09543181 -0.00000059
0.08015672 0.56309581 0.00000000
-0.35216251 0.30245283 -0.00000031
-0.04939252 -0.61120546 0.00000000
0.17684738 -0.25983885 0.00000000
-0.08054417 -0.41873467 0.00000000
0.38831669 -0.65404141 0.00000000
0.71041715 -0.35487399 -0.00000099
-0.79977733 -0.73346061 -0.00000008
-0.10592265 -0.05052238 0.00000000
0.73706949 -0.47450405 -0.00000081
0.72861713 -0.39667261 -0.00000099
-0.51494449 -0.05348797 -0.00000034
-0.65416569 -0.65543973 -0.00000011
-0.10000984 0.14956757 0.00000000
0.09561333 0.62988687 -0.00000011
0.05857747 0.30015579 0.00000000
-0.68285400 -0.26389593 -0.00000052
-0.31794932 -0.67605776 0.00000000
-0.31559858 -0.10530463 0.00000000
0.09637591 -0.45713049 0.00000000
0.55162221 0.22900581 -0.00000134
0.34977099 -0.71578115 0.00000000
-0.06890006 0.62933773 0.00000000
0.17419897 0.54490870 -0.00000029
0.11364873 0.60176659 -0.00000013
-0.17053977 0.51676095 -0.00000011
-0.13641423 -0.60057145 0.00000000
-0.45100349 0.30702758 -0.00000053
0.24969806 -0.26602593 0.00000000
0.21598874 -0.72835714 0.00000000
-0.67906243 -0.36880013 -0.00000042
-0.20872357 0.51552522 -0.00000019
0.21420600 -0.03709252 0.00000000
-0.07810045 0.29844001 0.00000000
-0.59188008 -0.15862302 -0.00000042
-0.65617937 -0.69613707 -0.00000008
0.40309042 0.31153998 -0.00000086
0.54690027 -0.70635217 0.00000000
0.69346070 0.10270529 -0.00000167
0.78591400 -0.56491011 -0.00000059
0.51128519 -0.24925205 -0.00000033
0.11134095 0.31588095 0.00000000
0.01787507 0.19254585 0.00000000
-0.22025453 -0.20470867 0.00000000
-0.23910378 0.34659067 -0.00000011
0.64578485 -0.58208299 -0.00000031
-0.35112923 -0.03152287 -0.00000001
-0.04726939 0.40590495 0.00000000
-0.29079607 -0.47585738 0.00000000
-0.44507113 0.26656088 -0.00000048
0.14289162 0.32865819 0.00000000
-0.22097397 -0.71261168 0.00000000
-0.05168499 0.27347735 0.00000000
-0.37170801 0.40739706 -0.00000045
0.28474987 0.33786070 -0.00000040
-0.56262434 0.18016697 -0.00000065
-0.53927404 -0.36750939 -0.00000012
0.37389347 0.40553704 -0.00000090
0.25350121 -0.44882262 0.00000000
0.20677936 -0.11569914 0.00000000
-0.09782558 0.17977881 0.00000000
-0.54273582 -0.78241467 0.00000000
0.65139753 -0.57420409 -0.00000035
-0.13015088 0.59472865 -0.00000010
0.02249879 0.13167934 0.00000000
0.46566537 -0.11059222 -0.00000038
0.37756562 -0.60943091 0.00000000
-0.04752079 0.02334583 0.00000000
0.59987020 -0.19056877 -0.00000081
0.11002317 -0.64921927 0.00000000
-0.33092439 -0.15197495 0.00000000
-0.48633510 -0.03131415 -0.00000030
-0.41550025 -0.39239174 0.00000000
0.77024609 -0.56708103 -0.00000058
-0.33370045 -0.15213604 0.00000000
0.44423532 -0.48928285 0.00000000
0.21791406 0.38009059 -0.00000019
0.18692833 0.07325433 0.00000000
0.10513258 -0.46514696 0.00000000
-0.36608949 0.42399561 -0.00000045
0.21144202 0.15704693 0.00000000
-0.13459551 0.44514781 0.00000000
0.16349065 0.49739340 -0.00000016
-0.19041990 -0.42682210 0.00000000
0.12389045 0.41768879 0.00000000
0.65812969 -0.65118700 -0.00000024
-0.23328219 -0.72332996 0.00000000
-0.23900366 -0.45453212 0.00000000
0.04347722 -0.60454506 0.00000000
0.27780721 -0.39937127 0.00000000
0.39533815 0.22190072 -0.00000067
0.50474292 -0.71830255 0.00000000
-0.15829246 0.18353748 0.00000000
-0.72075522 -0.09868990 -0.00000074
0.11552132 -0.38683304 0.00000000
-0.02652945 0.31283936 0.00000000
0.19645332 0.23595390 0.00000000
-0.04878561 -0.73679185 0.00000000
-0.09337302 0.44364947 0.00000000
0.30060714 0.23411296 -0.00000028
0.27354789 -0.50621021 0.00000000
-0.18309821 -0.27131754 0.00000000
-0.18295239 -0.52947539 0.00000000
0.01996147 0.72489822 0.00000000
0.53394735 -0.10821177 -0.00000067
0.21276516 0.22548562 0.00000000
0.04636394 0.75041634 -0.00000011
-0.01698998 -0.73498285 0.00000000
0.47968981 -0.16083662 -0.00000035
-0.02329556 0.08066238 0.00000000
0.10765682 -0.67734891 0.00000000
-0.00216477 -0.71078014 0.00000000
0.28357047 -0.66282302 0.00000000
-0.21126661 -0.69499570 0.00000000
0.46488595 0.13902573 -0.00000082
0.35710421 -0.64678556 0.00000000
-0.11544113 0.54588705 -0.00000002
-0.53264433 -0.26141059 -0.00000020
-0.13116513 0.19529217 0.00000000
0.20915373 -0.39590704 0.00000000
-0.66127986 -0.01408575 -0.00000069
-0.06622671 0.70440060 -0.00000006
-0.04472999 0.12719624 0.00000000
0.42222568 0.24741463 -0.00000083
0.16481721 -0.54516470 0.00000000
0.02531182 0.41386560 0.00000000
-0.19674063 -0.24789330 0.00000000
-0.01032478 0.05191060 0.00000000
0.40119517 0.33413127 -0.00000089
-0.57742798 -0.33679748 -0.00000023
-0.40508395 -0.18267708 0.00000000
-0.79842496 -0.10204118 -0.00000087
0.04427113 0.40678737 0.00000000
0.68476760 -0.56498480 -0.00000051
-0.16651513 0.49975935 -0.00000009
0.33386365 -0.40027052 0.00000000
-0.58941597 -0.62858409 0.00000000
-0.07620297 0.12374379 0.00000000
0.03311730 -0.43587774 0.00000000
-0.13691799 -0.55165851 0.00000000
0.19492181 0.60468990 -0.00000049
0.29385093 -0.12452849 0.00000000
-0.09710276 -0.38696465 0.00000000
0.46125847 -0.65653396 0.00000000
0.26573214 0.51384759 -0.00000063
-0.70507294 -0.42926371 -0.00000042
0.59762347 0.09505164 -0.00000130
-0.21958382 -0.09535407 0.00000000
-0.65117210 -0.71451855 -0.00000005
0.41153985 0.31028965 -0.00000089
0.60225892 -0.00173870 -0.00000115
-0.12320501 0.21324243 0.00000000
0.67608923 -0.28995144 -0.00000096
-0.39488995 -0.28488493 0.00000000
0.23481502 0.43382126 -0.00000035
0.76041794 -0.73263043 -0.00000017
0.08064676 -0.69556648 0.00000000
0.17021962 0.57204425 -0.00000032
-0.07053606 0.11868725 0.00000000
-0.70611417 -0.40258572 -0.00000044
-0.03710698 0.24064170 0.00000000
0.00702540 -0.02410823 0.00000000
-0.32753626 -0.43875134 0.00000000
0.70805520 -0.29987422 -0.00000108
-0.35707924 -0.77897882 0.00000000
0.04389248 -0.61351418 0.00000000
0.01619707 -0.13533545 0.00000000
-0.12189211 -0.64409381 0.00000000
0.60888648 0.10553196 -0.00000137
0.75235224 -0.68859822 -0.00000028
-0.13926733 -0.01232442 0.00000000
0.45859668 -0.27590695 -0.00000006
0.66843945 -0.23934530 -0.00000102
-0.02108685 0.70576835 0.00000000
0.24214227 -0.02701464 0.00000000
-0.41923377 -0.11788497 -0.00000008
-0.30249125 -0.68869668 0.00000000
-0.79715240 -0.49660161 -0.00000038
-0.73047483 -0.24371098 -0.00000064
0.25220299 0.49284714 -0.00000053
-0.70320755 -0.39486119 -0.00000044
0.41969395 -0.69632190 0.00000000
-0.08071534 -0.04026934 0.00000000
0.45065823 -0.05119546 -0.00000042
0.22936450 -0.74377942 0.00000000
-0.03560328 0.66816545 0.00000000
-0.78494948 -0.26925933 -0.00000066
-0.24000923 -0.31315273 0.00000000
0.23157641 0.28497317 -0.00000008
-0.37767267 0.04129494 -0.00000014
0.47097304 -0.45153359 0.00000000
0.01256615 0.76662672 0.00000000
-0.04027618 0.17964114 0.00000000
-0.33238345 0.42623240 -0.00000038
0.79021406 -0.52367377 -0.00000069
0.53412908 0.23340240 -0.00000128
-0.43236530 -0.31775108 0.00000000
-0.31657061 -0.53497809 0.00000000
0.59248358 -0.01057956 -0.00000110
-0.64761198 -0.25465685 -0.00000045
0.44185552 -0.28463137 0.00000000
0.35424981 -0.10567129 0.00000000
0.43561965 0.15153885 -0.00000071
-0.17622285 0.57764131 -0.00000018
0.09219663 -0.59990549 0.00000000
-0.49549326 0.27580348 -0.00000059
0.47260261 0.12209882 -0.00000082
0.10018569 -0.22236525 0.00000000
0.17429911 0.10738991 0.00000000
0.30102569 -0.31876114 0.00000000
0.13163915 0.06922633 0.00000000
-0.53178692 -0.78972822 0.00000000
0.12936284 -0.69085592 0.00000000
-0.07337855 -0.71407253 0.00000000
-0.68222278 -0.79725510 -0.00000000
0.67240036 -0.33657631 -0.00000086
-0.01190888 0.10222968 0.00000000
0.41631109 -0.33647504 0.00000000
-0.13674271 0.06705262 0.00000000
0.39560017 0.27054140 -0.00000075
0.70817924 -0.79340017 -0.00000002
-0.77302831 -0.22499460 -0.00000072
-0.43365014 0.07702610 -0.00000029
-0.27164364 -0.44812512 0.00000000
-0.18268090 -0.61189240 0.00000000
0.13208739 0.17058605 0.00000000
0.60546601 -0.04845390 -0.00000108
-0.05588619 -0.50091833 0.00000000
0.72583228 -0.03138712 -0.00000163
-0.41868347 0.06281006 -0.00000024
-0.34528956 0.02618079 -0.00000005
-0.50053120 0.15226154 -0.00000050
0.01022296 -0.03479069 0.00000000
-0.67196226 -0.44578338 -0.00000033
0.57282436 0.12475716 -0.00000125
-0.46710300 -0.44446495 0.00000000
-0.61633003 -0.28823391 -0.00000035
-0.17698251 0.34224984 0.00000000
-0.55103856 0.17087065 -0.00000062
0.57215947 -0.27495256 -0.00000054
0.48030359 -0.10138062 -0.00000046
-0.16797976 0.34363040 0.00000000
0.60797590 -0.06831873 -0.00000106
-0.15901603 0.08682294 0.00000000
0.10473861 0.64170897 -0.00000017
-0.55780399 -0.46469995 -0.00000007
-0.28667033 -0.39967570 0.00000000
-0.37169755 0.27272910 -0.00000033
0.70120668 -0.19370714 -0.00000124
0.00268910 -0.22453707 0.00000000
-0.36038139 -0.13053691 0.00000000
-0.61932647 -0.44135305 -0.00000022
-0.19293152 0.04632589 0.00000000
-0.22062133 -0.27622336 0.00000000
-0.71132559 -0.74878263 -0.00000006
-0.49646258 -0.57931775 0.00000000
-0.29046220 -0.07399838 0.00000000
0.06707991 -0.25542489 0.00000000
0.14280137 -0.79495484 0.00000000
-0.23640551 -0.52567738 0.00000000
-0.64421922 -0.41482598 -0.00000030
0.62579775 -0.61057609 -0.00000018
0.48295832 -0.27129534 -0.00000017
0.36411649 0.26633796 -0.00000061
0.78108513 -0.19325604 -0.00000152
-0.64729726 -0.74701059 -0.00000001
-0.31166807 0.41480601 -0.00000032
0.05666348 -0.51165956 0.00000000
-0.15037161 0.27895841 0.00000000
-0.14603598 -0.28871641 0.00000000
0.36822918 -0.46363741 0.00000000
0.19268066 -0.76265579 0.00000000
0.65345621 0.03584188 -0.00000144
-0.09182994 -0.71550518 0.00000000
-0.00654538 -0.05650429 0.00000000
-0.03541152 0.73014778 -0.00000001
0.07110080 -0.63458097 0.00000000
0.47744644 -0.75299525 0.00000000
-0.28240168 0.09361060 0.00000000
-0.31892091 -0.74620467 0.00000000
-0.32666108 -0.04980827 0.00000000
0.02984112 -0.72426873 0.00000000
-0.67653382 -0.17145102 -0.00000058
0.22943421 -0.76303440 0.00000000
-0.05768169 0.09122162 0.00000000
-0.55669260 -0.06523402 -0.00000042
-0.69009596 -0.79155958 -0.00000001
-0.17154314 -0.01472881 0.00000000
0.67184442 -0.42251429 -0.00000071
-0.70065546 -0.56404120 -0.00000029
-0.05905451 -0.28658396 0.00000000
-0.19551452 0.10960032 0.00000000
-0.39114061 0.35955209 -0.00000045
0.00976227 -0.03736479 0.00000000
-0.52391142 -0.19760677 -0.00000024
-0.00879981 -0.18677658 0.00000000
-0.75398856 -0.51684940 -0.00000035
0.15202805 0.57385212 -0.00000025
-0.32069337 -0.50299799 0.00000000
-0.31811026 0.29698282 -0.00000023
-0.19430616 -0.25085208 0.00000000
-0.09367511 0.56943166 0.00000000
-0.24070503 0.54209852 -0.00000029
0.01319590 0.45952597 0.00000000
0.40964481 -0.08057462 -0.00000019
0.58758473 -0.43499631 -0.00000032
0.74424511 -0.62051815 -0.00000045
-0.45966703 -0.36878398 0.00000000
0.14348434 0.37876174 0.00000000
0.11028458 0.47094285 0.00000000
-0.03315531 0.66495603 0.00000000
-0.71264935 -0.28640243 -0.00000056
-0.44027224 -0.60127562 0.00000000
0.44649699 -0.14905009 -0.00000023
0.18534540 -0.53620422 0.00000000
-0.43919486 -0.09174016 -0.00000015
0.79298222 -0.11899876 -0.00000170
0.61643487 -0.08031962 -0.00000107
-0.01645405 -0.33014509 0.00000000
-0.30850631 0.13577929 -0.00000007
-0.77729094 -0.00014373 -0.00000095
-0.12741067 -0.37853658 0.00000000
0.40582985 -0.62193048 0.00000000
0.55240333 0.24726413 -0.00000138
0.14753751 -0.00313193 0.00000000
-0.32687876 -0.29789200 0.00000000
0.23814058 0.37967020 -0.00000027
0.42569724 -0.62087297 0.00000000
0.21112987 -0.11606483 0.00000000
-0.50987625 -0.48403126 0.00000000
0.46089777 -0.33108872 0.00000000
0.04770915 -0.26134998 0.00000000
0.64692146 -0.58922464 -0.00000031
0.42113698 0.00933099 -0.00000040
-0.11258608 0.46053252 0.00000000
0.58766037 -0.17513275 -0.00000078
0.10670453 0.41777757 0.00000000
-0.13019605 -0.59270811 0.00000000
0.05951663 -0.50028837 0.00000000
0.39683971 -0.64436626 0.00000000
0.79794556 -0.06671139 -0.00000183
0.34499899 0.06243147 -0.00000017
0.07748976 -0.02373505 0.00000000
-0.10959503 0.31926441 0.00000000
0.50198114 -0.61440885 0.00000000
-0.27971175 -0.48401874 0.00000000
-0.30855486 -0.23163886 0.00000000
-0.69453758 0.05736989 -0.00000083
-0.21908163 -0.59844130 0.00000000
0.42756402 -0.22003604 -0.00000002
-0.45705143 -0.18059677 -0.00000011
-0.22825637 -0.77107537 0.00000000
0.41357833 -0.40674403 0.00000000
-0.07910017 -0.51884764 0.00000000
0.61176062 -0.23678440 -0.00000078
0.13523304 -0.75770736 0.00000000
-0.65497047 -0.21089531 -0.00000050
-0.51998842 -0.29164356 -0.00000014
0.05682593 -0.37811360 0.00000000
0.53371167 -0.57059753 0.00000000
-0.75269115 -0.28214246 -0.00000065
-0.15687880 -0.49234521 0.00000000
0.56497455 -0.72848779 0.00000000
0.41192839 -0.74096662 0.00000000
0.76288933 -0.48002523 -0.00000080
0.70578223 -0.43047011 -0.00000084
0.19086052 -0.37245181 0.00000000
0.49178040 -0.22329935 -0.00000029
-0.52313375 -0.48274985 0.00000000
0.78188747 -0.35668534 -0.00000111
0.68226421 0.07129293 -0.00000162
0.78185672 -0.16340469 -0.00000159
-0.06640878 -0.79378867 0.00000000
-0.48417503 -0.17579910 -0.00000017
-0.24350014 0.53457701 -0.00000028
0.40344897 -0.42651176 0.00000000
0.04695013 0.13929740 0.00000000
-0.33688864 0.07293436 -0.00000008
-0.15466934 -0.01979181 0.00000000
0.53215277 0.24953575 -0.00000130
-0.35843787 -0.76314926 0.00000000
-0.28957549 -0.18855295 0.00000000
0.39615965 -0.63050681 0.00000000
-0.53178465 -0.67784035 0.00000000
0.04084434 -0.09421167 0.00000000
0.39958102 -0.09568625 -0.00000012
0.45364654 -0.48056272 0.00000000
-0.54114968 -0.38308594 -0.00000011
0.62874818 0.00220093 -0.00000127
0.59761345 -0.71544051 0.00000000
0.11567300 0.12285306 0.00000000
-0.15361916 0.56854671 -0.00000012
0.62252080 -0.31466389 -0.00000069
0.23064302 -0.21428926 0.00000000
0.39238846 -0.06059833 -0.00000015
0.00147234 0.60017347 0.00000000
-0.12144054 -0.12813342 0.00000000
-0.08014264 0.60267514 0.00000000
-0.12313307 0.67393613 -0.00000015
-0.45367271 0.13161494 -0.00000038
0.17986757 -0.78003168 0.00000000
-0.01649546 0.64537346 0.00000000
-0.38054946 -0.71877396 0.00000000
-0.60988027 0.11847413 -0.00000070
-0.39937785 -0.11752986 -0.00000004
-0.20293456 -0.09630876 0.00000000
-0.31218526 0.23741756 -0.00000017
0.62565988 -0.01831891 -0.00000122
0.14280161 -0.51247478 0.00000000
0.53350562 -0.75237203 0.00000000
-0.26548681 -0.62777829 0.00000000
-0.60877019 -0.53367287 -0.00000012
0.17303555 -0.20358384 0.00000000
0.78343850 -0.36153632 -0.00000110
0.39378282 0.38943976 -0.00000095
-0.45467964 0.01445636 -0.00000028
0.60897416 -0.58657598 -0.00000015
0.69523418 0.05720973 -0.00000165
0.23669077 0.27030200 -0.00000007
-0.03546453 -0.10495835 0.00000000
-0.37898538 -0.79902309 0.00000000
-0.64671868 0.10921311 -0.00000077
-0.79304641 -0.22848772 -0.00000071
-0.79519480 -0.49034169 -0.00000039
0.43539941 -0.74738157 0.00000000
0.37311822 -0.58448464 0.00000000
-0.72045654 -0.48778826 -0.00000039
0.13506667 -0.48150289 0.00000000
0.65458852 0.10355260 -0.00000156
-0.66454637 -0.63847941 -0.00000015
0.25811264 -0.23189691 0.00000000
-0.35982266 -0.42484242 0.00000000
-0.44084454 -0.41333219 0.00000000
0.33283541 0.26335582 -0.00000047
0.19676021 -0.56540614 0.00000000
0.69938755 -0.44570979 -0.00000078
0.63684750 -0.26422623 -0.00000084
-0.38898590 -0.42993692 0.00000000
-0.44749629 -0.26267987 -0.00000002
0.79596364 -0.63701528 -0.00000041
-0.38342309 -0.05489488 -0.00000006
0.23421319 0.39037898 -0.00000028
-0.00276421 0.38170972 0.00000000
0.26664323 0.07906575 0.00000000
-0.05684002 0.62917662 0.00000000
0.68413365 -0.14550042 -0.00000125
-0.60104918 -0.29811203 -0.00000031
-0.23803876 0.52176118 -0.00000026
-0.45164078 -0.47701684 0.00000000
0.07546206 0.47468063 0.00000000
0.05406078 -0.38131320 0.00000000
-0.58703184 -0.10932530 -0.00000045
0.07409128 -0.78200644 0.00000000
0.47235867 -0.58460253 0.00000000
-0.46082768 -0.40697083 0.00000000
-0.62513608 0.15445676 -0.00000076
-0.52017123 -0.32528642 -0.00000012
0.67706084 0.08082751 -0.00000162
0.69601500 -0.20747092 -0.00000119
-0.48368007 -0.52504408 0.00000000
-0.23592199 -0.26966780 0.00000000
-0.25789046 -0.72113234 0.00000000
-0.58863801 -0.66728640 0.00000000
0.59697646 -0.35609266 -0.00000050
-0.23056677 0.07249757 0.00000000
-0.79203796 -0.36263019 -0.00000055
-0.38009748 -0.64434838 0.00000000
0.33925644 0.13361958 -0.00000027
0.50399327 0.24857341 -0.00000118
0.55674762 -0.52102005 -0.00000004
-0.37052885 -0.74740005 0.00000000
0.49442720 -0.76795518 0.00000000
0.24784411 0.02222647 0.00000000
0.58458543 -0.67792064 0.00000000
0.34179577 0.36822686 -0.00000070
-0.24494956 -0.52755868 0.00000000
0.47795531 -0.66462147 0.00000000
0.57641816 -0.70120889 0.00000000
0.22758025 -0.26023802 0.00000000
0.43803158 0.01480770 -0.00000048
0.25560841 -0.62516564 0.00000000
-0.02752648 -0.16597550 0.00000000
0.63880056 -0.47531986 -0.00000047
0.60451466 -0.00474413 -0.00000116
-0.59615761 0.05084914 -0.00000061
-0.19475654 0.24409582 0.00000000
-0.34542122 0.41467959 -0.00000040
-0.68415308 -0.67492670 -0.00000016
0.01579727 -0.78547353 0.00000000
-0.77200484 -0.12077145 -0.00000083
0.48276797 0.08214987 -0.00000079
0.70894217 -0.67375290 -0.00000032
0.29306236 -0.71237385 0.00000000
-0.11860498 0.48783973 0.00000000
-0.54562211 0.03235358 -0.00000049
-0.24199092 -0.56140035 0.00000000
0.74227798 -0.74781662 -0.00000013
0.14911944 -0.00451207 0.00000000
-0.41133344 -0.62822974 0.00000000
-0.47948170 0.03069075 -0.00000034
0.47052857 -0.28749925 -0.00000009
-0.15733574 -0.49682611 0.00000000
0.24115916 -0.10494430 0.00000000
-0.27198729 0.20148896 -0.00000005
-0.30655882 -0.71345681 0.00000000
-0.02734128 0.03414056 0.00000000
0.33451095 -0.14772582 0.00000000
0.20730974 -0.02050114 0.00000000
0.02240235 -0.64630544 0.00000000
-0.43164489 -0.54138184 0.00000000
0.58342892 -0.44399056 -0.00000029
0.13001736 -0.08192737 0.00000000
0.79892820 -0.08648534 -0.00000178
-0.33987257 0.01103202 -0.00000003
0.01741701 0.09927342 0.00000000
-0.67540067 -0.62649065 -0.00000018
0.06042785 -0.32391742 0.00000000
-0.28215310 0.42837235 -0.00000027
-0.27041435 -0.15655640 0.00000000
-0.12147736 0.27939624 0.00000000
0.06635355 -0.18607160 0.00000000
-0.22955693 -0.50884449 0.00000000
0.75782138 -0.50425738 -0.00000074
0.04199487 -0.14194436 0.00000000
0.05037406 -0.40511027 0.00000000
-0.23068343 0.31811714 -0.00000007
-0.39251378 -0.19260418 0.00000000
0.13410588 0.57121813 -0.00000017
0.58793700 -0.76086015 0.00000000
0.57709759 -0.74338531 0.00000000
-0.49859542 0.22797994 -0.00000056
0.43509921 -0.13972831 -0.00000020
-0.73262382 -0.66476130 -0.00000017
0.27510726 0.01782686 0.00000000
-0.21644288 -0.42148066 0.00000000
0.59487140 -0.07831780 -0.00000099
-0.26123571 -0.75521487 0.00000000
-0.54583013 -0.28398368 -0.00000021
0.08822706 -0.28649557 0.00000000
0.04532896 -0.33410257 0.00000000
-0.20725545 0.19289409 0.00000000
0.30706444 0.29830423 -0.00000042
0.63470280 -0.24263231 -0.00000087
0.72292906 -0.21708938 -0.00000129
0.05748294 -0.12565714 0.00000000
0.41534510 0.06437702 -0.00000047
0.38574758 -0.01331540 -0.00000021
0.27122238 0.15202940 -0.00000001
-0.75561053 -0.74972516 -0.00000006
0.40621504 -0.31176442 0.00000000
0.18070285 0.26073956 0.00000000
0.67994726 -0.14719012 -0.00000123
0.54445124 -0.38097584 -0.00000024
-0.64907050 0.09004345 -0.00000076
-0.69811130 -0.59165853 -0.00000026
-0.15812396 0.05098047 0.00000000
-0.20570771 -0.37009025 0.00000000
-0.34418613 -0.53287387 0.00000000
0.52195781 -0.21066546 -0.00000044
-0.02322030 -0.24098276 0.00000000
0.21609418 0.20745651 0.00000000
0.46830666 0.06507777 -0.00000070
-0.27010235 0.40504482 -0.00000023
0.17581072 -0.42750600 0.00000000
-0.43526039 0.23501512 -0.00000043
-0.76344836 0.02996761 -0.00000095
0.32077277 -0.45783174 0.00000000
0.09511912 0.12970620 0.00000000
0.03187534 -0.43235362 0.00000000
0.72645831 -0.65917993 -0.00000035
0.42033085 -0.76719457 0.00000000
-0.02410158 -0.76234221 0.00000000
0.28860989 -0.44846782 0.00000000
0.11769276 0.64895284 -0.00000024
0.72030175 -0.65753466 -0.00000036
0.20164263 0.18389973 0.00000000
0.35140231 -0.15555058 0.00000000
0.01291021 -0.33346671 0.00000000
-0.25022459 -0.20765743 0.00000000
-0.05403717 -0.65545785 0.00000000
0.58420920 -0.43490949 -0.00000031
0.07630394 -0.52312136 0.00000000
-0.32438728 -0.20913167 0.00000000
-0.36566836 0.00660005 -0.00000008
0.77475756 -0.53725374 -0.00000066
0.55017799 -0.28035206 -0.00000044
-0.25867465 0.39411232 -0.00000019
-0.03066261 -0.24971063 0.00000000
0.54432577 -0.05692187 -0.00000081
0.78024703 -0.74041718 -0.00000015
-0.62148798 0.07915106 -0.00000069
-0.12001474 -0.18365899 0.00000000
-0.39946079 0.07561965 -0.00000021
-0.06087996 -0.33834824 0.00000000
-0.02968653 -0.02941314 0.00000000
0.26447105 0.43267396 -0.00000048
0.71119970 -0.40744826 -0.00000090
0.50622648 -0.68675363 0.00000000
-0.61240345 -0.15556996 -0.00000046
-0.41824904 -0.19710036 -0.00000001
-0.00711913 0.43148032 0.00000000
-0.31655031 0.15973072 -0.00000011
-0.33446416 0.44170812 -0.00000040
0.21637762 0.55887181 -0.00000050
0.50716966 0.05064169 -0.00000084
-0.21905364 -0.19621244 0.00000000
-0.67420977 -0.17833255 -0.00000057
-0.54954463 0.12135124 -0.00000057
0.01216250 -0.50931233 0.00000000
-0.21558622 0.32627383 -0.00000004
0.76530349 -0.53551739 -0.00000066
0.15603530 -0.30323449 0.00000000
0.15579581 0.56542367 -0.00000025
-0.41393629 -0.05081356 -0.00000013
0.23295061 0.14567621 0.00000000
0.17120180 -0.04204704 0.00000000
-0.15744169 0.01734998 0.00000000
0.04877866 -0.36392951 0.00000000
-0.16605529 -0.02922445 0.00000000
0.29761627 -0.66623324 0.00000000
0.35272321 -0.61434484 0.00000000
-0.20115040 -0.62822205 0.00000000
0.03496720 -0.10622218 0.00000000
-0.02668224 0.48363718 0.00000000
0.32851708 0.25101778 -0.00000043
-0.13172799 0.12632856 0.00000000
-0.60583425 -0.50990885 -0.00000013
-0.36790553 -0.45194787 0.00000000
0.07281361 0.08011741 0.00000000
-0.72207618 -0.50262016 -0.00000037
0.16322874 0.21707623 0.00000000
-0.26947358 0.11136034 0.00000000
-0.05654171 -0.73532635 0.00000000
0.09499697 0.63333988 -0.00000011
-0.02696525 -0.02904662 0.00000000
-0.13588126 -0.16637126 0.00000000
-0.51871204 -0.56680971 0.00000000
0.17261942 0.46845913 -0.00000015
-0.63207412 -0.24630380 -0.00000042
0.41560563 0.19169067 -0.00000070
0.01526698 0.69512421 0.00000000
0.17495362 0.33143452 0.00000000
-0.64331156 -0.65154594 -0.00000009
-0.17447926 -0.23884068 0.00000000
0.49529555 -0.15672258 -0.00000042
0.79680687 -0.68423378 -0.00000029
0.50358135 0.00549296 -0.00000074
-0.78574675 -0.69376451 -0.00000013
0.52072793 -0.57341343 0.00000000
0.31628618 -0.51031184 0.00000000
0.35722727 -0.21042414 0.00000000
0.14857823 -0.26677644 0.00000000
