ply
format ascii 1.0
element vertex 1382
property float x
property float y
property float z
end_header
0.32787785 -0.33075953 0.00000000
-0.63230681 -0.05997656 -0.00000118
-0.10555829 0.64780515 -0.00000018
0.75146711 -0.46936202 -0.00000083
-0.10737151 0.06170377 0.00000000
-0.26969856 -0.67921025 0.00000000
-0.77269065 -0.56956953 -0.00000058
-0.57677823 -0.15060630 -0.00000078
-0.07809243 -0.03977513 0.00000000
-0.41161713 -0.37001839 0.00000000
-0.33508664 0.32850108 -0.00000060
-0.15270771 0.20151426 0.00000000
-0.09168758 -0.02970347 0.00000000
0.42150113 -0.59744424 0.00000000
0.19033705 -0.51016575 0.00000000
-0.37230232 -0.52440977 0.00000000
0.16385493 -0.52541488 0.00000000
0.36578742 -0.21853290 0.00000000
-0.43579188 0.14666285 -0.00000070
-0.39021829 -0.34215567 0.00000000
-0.05760632 -0.32139316 0.00000000
0.18383174 0.48039937 -0.00000022
0.71304822 -0.26882243 -0.00000115
-0.54374582 0.02407192 -0.00000095
-0.26403838 -0.67626506 0.00000000
-0.28812239 -0.46622464 0.00000000
0.75149226 0.00462741 -0.00000180
0.13374089 0.26387119 0.00000000
0.25867116 -0.57569820 0.00000000
-0.49870560 -0.75046223 0.00000000
-0.06059744 0.48941225 0.00000000
0.50748646 0.23058201 -0.00000116
0.19271661 -0.23933224 0.00000000
-0.12989172 -0.34409702 0.00000000
0.74934441 -0.21051787 -0.00000141
-0.07702476 0.17544816 0.00000000
-0.54368109 0.14091915 -0.00000116
-0.73427498 -0.26505184 -0.00000125
-0.43285578 -0.30141023 0.00000000
0.09015674 -0.27938399 0.00000000
-0.55563504 0.01220899 -0.00000098
0.77303874 -0.51916766 -0.00000070
-0.37895593 -0.41637492 0.00000000
-0.13285799 0.00277267 0.00000000
-0.07144463 0.09829821 0.00000000
-0.15013207 -0.64754480 0.00000000
0.72177529 -0.14023244 -0.00000142
0.16029066 -0.59654433 0.00000000
-0.26984000 0.12371124 0.00000000
0.05978990 0.52687484 0.00000000
0.38433695 0.34619749 -0.00000084
-0.22053173 -0.79043239 0.00000000
0.25635096 -0.61665499 0.00000000
0.78279865 -0.60217279 -0.00000049
-0.25943220 -0.33901593 0.00000000
0.13613366 0.35555297 0.00000000
0.39593512 0.13157322 -0.00000051
-0.12180475 -0.49391279 0.00000000
-0.04420363 -0.61916679 0.00000000
0.49169353 -0.69409329 0.00000000
-0.55389506 0.14989036 -0.00000121
0.20781346 -0.28457755 0.00000000
0.64039069 -0.52571577 -0.00000039
-0.38766488 -0.22865316 0.00000000
-0.08002225 -0.56052011 0.00000000
0.15945621 -0.19852497 0.00000000
0.33422118 -0.57852143 0.00000000
0.46566436 -0.78545606 0.00000000
0.63282198 0.11441621 -0.00000149
-0.20167427 -0.01701593 0.00000000
-0.64484817 -0.41694933 -0.00000060
0.13480201 -0.27644533 0.00000000
0.10272092 -0.25401193 0.00000000
-0.11872433 -0.07469480 0.00000000
-0.06458529 -0.56326503 0.00000000
-0.73394740 -0.07545821 -0.00000158
0.70122880 -0.42999408 -0.00000082
0.33936232 -0.21473530 0.00000000
-0.11280898 0.64641362 -0.00000021
-0.07925326 -0.71485037 0.00000000
-0.06546442 0.34301528 0.00000000
-0.66785866 -0.43289560 -0.00000067
0.34177741 -0.49327755 0.00000000
-0.22118668 -0.08532671 0.00000000
0.19113195 -0.64690268 0.00000000
0.03454885 -0.74324250 0.00000000
-0.57196742 0.00946104 -0.00000104
-0.63944799 -0.11312198 -0.00000111
0.29664642 -0.05177340 0.00000000
-0.03301001 -0.63906497 0.00000000
-0.41808081 -0.31487629 0.00000000
0.43015838 -0.39241168 0.00000000
0.56747007 0.17914511 -0.00000132
-0.39593652 0.27929226 -0.00000077
-0.08214265 0.67947048 -0.00000014
0.36138725 -0.50703532 0.00000000
-0.48571739 -0.32730207 -0.00000008
0.11234989 0.14885978 0.00000000
0.64052349 -0.31775218 -0.00000076
-0.55693036 0.08728666 -0.00000112
0.72357619 -0.47425854 -0.00000081
-0.03633883 -0.55601037 0.00000000
0.44016445 0.11175441 -0.00000066
-0.65515184 -0.67362779 -0.00000019
-0.64671588 -0.48594227 -0.00000049
-0.47769663 0.22409575 -0.00000102
0.67126149 -0.17533857 -0.00000114
0.06616560 0.22294725 0.00000000
-0.72867435 -0.59117019 -0.00000052
0.60060644 0.01750598 -0.00000118
0.02458477 0.64225435 0.00000000
-0.03074478 -0.53272557 0.00000000
-0.19124582 0.32953933 0.00000000
0.34289268 0.13633968 -0.00000029
0.64408731 0.04524031 -0.00000141
0.23881060 -0.61552340 0.00000000
0.31327426 0.01442448 0.00000000
-0.24369948 -0.53710783 0.00000000
0.25613800 0.15838194 0.00000000
-0.22888421 -0.63277429 0.00000000
0.60610402 -0.23559056 -0.00000076
0.22971205 0.05707637 0.00000000
0.20563388 -0.05365994 0.00000000
-0.54452068 -0.48933551 -0.00000004
-0.26520401 -0.76345843 0.00000000
0.03631437 0.69655657 0.00000000
-0.02583328 0.08363812 0.00000000
-0.09731488 -0.34467515 0.00000000
-0.09953532 -0.40253210 0.00000000
-0.63628882 -0.37346509 -0.00000064
0.26469445 -0.54505777 0.00000000
-0.78586781 -0.21314216 -0.00000147
-0.43484837 -0.24561346 -0.00000001
0.53772169 -0.47104707 -0.00000005
-0.68044251 -0.07703199 -0.00000135
-0.61898708 0.08750405 -0.00000138
0.21323352 0.01615823 0.00000000
-0.37531582 0.14670224 -0.00000045
-0.26601535 -0.61477208 0.00000000
-0.38808528 -0.72224957 0.00000000
0.75645584 -0.72849041 -0.00000018
-0.68888485 -0.38642693 -0.00000084
-0.56803060 -0.36755875 -0.00000036
0.04051318 -0.57001936 0.00000000
0.18200526 0.53547788 -0.00000031
0.00666052 0.01231490 0.00000000
-0.76223767 -0.15904771 -0.00000156
0.03448096 0.40602624 0.00000000
-0.18866050 -0.60436851 0.00000000
0.35471198 -0.15822038 0.00000000
-0.22186406 -0.08705365 0.00000000
0.76185387 -0.44697905 -0.00000088
0.40955824 -0.14527187 -0.00000008
-0.16225329 -0.01927656 0.00000000
0.10405029 -0.78968871 0.00000000
0.25223538 -0.05191122 0.00000000
-0.13365163 -0.43938246 0.00000000
-0.33675933 -0.08395636 0.00000000
-0.11320940 0.14692460 0.00000000
-0.55425316 -0.73127347 0.00000000
-0.76925635 -0.68872899 -0.00000028
0.08675261 0.55134708 0.00000000
0.11996902 -0.29444519 0.00000000
-0.51102465 -0.57100761 0.00000000
0.01405268 -0.20457721 0.00000000
0.31586799 -0.54686308 0.00000000
-0.64077449 -0.38603207 -0.00000064
0.08275769 0.70564151 -0.00000019
-0.22801541 0.24759954 0.00000000
0.79950672 -0.30601799 -0.00000123
0.11096480 0.05744863 0.00000000
0.58084357 -0.11416545 -0.00000086
-0.35118061 -0.61545682 0.00000000
-0.58803678 -0.68401921 0.00000000
-0.54772609 0.22667526 -0.00000132
-0.02599399 0.26545599 0.00000000
-0.75464076 -0.58953893 -0.00000053
0.11936444 0.47539619 0.00000000
0.13019077 -0.50715941 0.00000000
-0.51561052 -0.69448847 0.00000000
-0.26094937 0.03340155 0.00000000
0.65222424 -0.59232700 -0.00000032
0.41140425 0.34666368 -0.00000095
-0.36877018 -0.16481251 0.00000000
-0.16053294 0.39129120 0.00000000
-0.26540118 0.37644991 -0.00000038
-0.39525795 -0.65099162 0.00000000
0.20553312 0.15181866 0.00000000
0.18760832 -0.08156318 0.00000000
-0.56261283 -0.00850565 -0.00000097
0.48788363 -0.12523974 -0.00000045
0.26789981 0.22670016 -0.00000013
-0.58921021 0.00033995 -0.00000110
-0.47725448 0.16345900 -0.00000091
0.52030814 0.14951113 -0.00000107
-0.00133384 -0.26319200 0.00000000
-0.65526390 -0.55784422 -0.00000040
-0.15532300 -0.56158447 0.00000000
-0.25073814 -0.61994189 0.00000000
0.18854472 0.20178308 0.00000000
-0.75939292 -0.77577215 -0.00000006
0.46779099 -0.69672191 0.00000000
0.14786708 0.20367999 0.00000000
-0.63408089 -0.30719140 -0.00000075
-0.02011094 -0.21783204 0.00000000
0.59295893 -0.79831743 0.00000000
0.29694223 -0.45472828 0.00000000
0.43523514 -0.41742760 0.00000000
-0.53975892 -0.15191267 -0.00000062
-0.49380982 -0.46450415 0.00000000
0.21357936 -0.22311680 0.00000000
-0.73675865 -0.17215426 -0.00000143
-0.20637465 -0.31130517 0.00000000
-0.56611305 -0.68508166 0.00000000
0.35600936 -0.45704737 0.00000000
0.57436955 -0.79193503 0.00000000
-0.10750531 -0.62105310 0.00000000
0.65192771 -0.50358444 -0.00000048
0.21556474 -0.10244903 0.00000000
0.79012048 -0.68448287 -0.00000029
-0.56042975 -0.32041913 -0.00000041
-0.74905384 -0.47344205 -0.00000082
-0.14031665 0.31168005 0.00000000
-0.47595736 -0.04974544 -0.00000053
-0.71533030 -0.09343710 -0.00000147
0.54731041 -0.76958609 0.00000000
0.09179331 -0.71485001 0.00000000
0.04579200 0.29760408 0.00000000
-0.29945511 -0.76821846 0.00000000
0.36725742 0.12914413 -0.00000038
-0.14505354 -0.20725159 0.00000000
0.70897907 -0.78054357 -0.00000005
-0.65273088 -0.57803655 -0.00000035
0.09957207 0.39432037 0.00000000
0.25695643 -0.68483484 0.00000000
0.55277622 -0.43009663 -0.00000018
0.57030511 -0.58583593 0.00000000
-0.71638530 -0.45833242 -0.00000083
-0.18030138 -0.35801497 0.00000000
0.22310109 -0.20997751 0.00000000
0.09630944 -0.01538095 0.00000000
-0.05367601 0.03907154 0.00000000
-0.00370343 0.51475561 0.00000000
0.01524396 0.17320956 0.00000000
-0.71033418 -0.62580186 -0.00000044
-0.52859384 -0.31624582 -0.00000028
0.51385844 -0.47585034 0.00000000
0.06585772 -0.30771777 0.00000000
-0.11476281 0.00921486 0.00000000
-0.44957861 0.02945051 -0.00000056
0.43139410 -0.00775930 -0.00000041
-0.60679561 -0.55148906 -0.00000020
-0.31032431 -0.63560402 0.00000000
-0.26767915 -0.24593478 0.00000000
-0.16606504 -0.11857222 0.00000000
0.18502057 -0.67901123 0.00000000
-0.51318341 -0.61798811 0.00000000
-0.49196967 0.01602148 -0.00000071
0.09725422 -0.07252033 0.00000000
0.30364102 0.12100769 -0.00000010
0.54937971 0.08095328 -0.00000107
0.62105983 -0.05760517 -0.00000113
0.24605022 -0.35356730 0.00000000
-0.03136429 -0.59939849 0.00000000
0.63635486 -0.72421288 -0.00000002
0.12719527 -0.05806489 0.00000000
-0.18688618 0.24221164 0.00000000
0.29091382 0.11646734 -0.00000003
0.33511987 -0.22003470 0.00000000
0.07032516 0.08000408 0.00000000
0.49307448 -0.45306984 0.00000000
0.71291274 -0.57371712 -0.00000057
0.20681429 0.37076887 -0.00000012
-0.33568656 -0.62045735 0.00000000
-0.09741978 0.28481522 0.00000000
-0.43580905 -0.74189973 0.00000000
-0.06280888 0.53723574 0.00000000
-0.50726330 0.26183450 -0.00000121
0.49098271 0.11580734 -0.00000089
0.51872319 0.00127148 -0.00000080
-0.30208999 -0.72515827 0.00000000
-0.38621184 -0.33498356 0.00000000
-0.44479117 0.16972296 -0.00000078
-0.51934654 0.04300300 -0.00000088
-0.00683545 -0.26887679 0.00000000
-0.29702675 0.14517164 -0.00000011
-0.00019543 0.54556817 0.00000000
-0.08264939 -0.64914918 0.00000000
0.51170248 -0.29401827 -0.00000025
0.69979167 -0.64408815 -0.00000039
-0.01604369 -0.40140876 0.00000000
-0.49436414 -0.78632772 0.00000000
-0.31804535 0.31310427 -0.00000050
-0.75777715 -0.26537290 -0.00000134
0.78093630 -0.63669056 -0.00000041
-0.68084919 -0.53920335 -0.00000054
0.20697939 -0.33885151 0.00000000
-0.12233696 -0.00498768 0.00000000
0.39640659 -0.08151963 -0.00000013
-0.07144942 0.67827070 -0.00000009
0.45976022 -0.02735075 -0.00000050
-0.11968471 -0.33607045 0.00000000
-0.26783577 -0.48195398 0.00000000
-0.03174015 0.47271386 0.00000000
-0.04254253 0.12998641 0.00000000
0.07865691 0.51796561 0.00000000
-0.35276589 0.42499667 -0.00000084
-0.05740821 -0.67883646 0.00000000
-0.10052173 0.65026641 -0.00000016
0.34448475 0.09659148 -0.00000023
-0.54367375 -0.63333011 0.00000000
-0.12313470 -0.67336130 0.00000000
0.47836354 0.24904652 -0.00000107
0.70020056 -0.39190722 -0.00000088
0.16565344 0.12931287 0.00000000
-0.12998240 -0.39498916 0.00000000
-0.45700604 -0.40334576 0.00000000
-0.53027034 0.09839804 -0.00000102
0.50761658 0.01502051 -0.00000078
0.40647066 -0.70552546 0.00000000
0.33292443 0.31197208 -0.00000056
-0.33464363 -0.39288986 0.00000000
0.23023807 0.02132947 0.00000000
-0.57187796 0.08649188 -0.00000118
-0.73061019 -0.12856178 -0.00000148
-0.36602291 -0.07938316 -0.00000001
-0.16220114 -0.05025101 0.00000000
-0.45469531 -0.63669181 0.00000000
-0.38770449 -0.04315242 -0.00000016
-0.02662885 0.04007882 0.00000000
0.65008759 -0.50928164 -0.00000046
0.01653765 -0.41662621 0.00000000
-0.55781448 -0.54161602 -0.00000001
-0.00511131 -0.11813288 0.00000000
-0.78181583 -0.43086794 -0.00000092
-0.28881884 0.09853462 0.00000000
-0.41522232 0.08242038 -0.00000050
0.26728994 -0.70512718 0.00000000
0.17709506 -0.47733280 0.00000000
-0.28663450 -0.31047589 0.00000000
0.07701594 0.23402590 0.00000000
0.47526425 0.17714386 -0.00000093
-0.53041553 -0.63035238 0.00000000
0.33885875 0.03070786 -0.00000009
0.03132215 0.05427786 0.00000000
0.54387659 -0.05363281 -0.00000081
-0.67291838 -0.18774334 -0.00000113
0.43051925 -0.05678569 -0.00000032
0.13288172 -0.70907104 0.00000000
0.10970818 0.64820659 -0.00000020
0.70614028 -0.59314048 -0.00000052
0.26379406 -0.37231019 0.00000000
-0.10064432 0.61293501 -0.00000010
-0.18678008 -0.54102457 0.00000000
0.39713174 0.39615756 -0.00000098
0.24602865 -0.79992777 0.00000000
-0.20485276 -0.66819936 0.00000000
-0.53218383 -0.00681404 -0.00000084
-0.03171494 -0.63396460 0.00000000
0.28825340 0.09994842 0.00000000
0.44214433 -0.18099713 -0.00000015
-0.79565048 -0.59454477 -0.00000051
-0.64067948 -0.78440940 0.00000000
-0.06263201 0.34129253 0.00000000
0.60109824 -0.51499945 -0.00000024
-0.50858212 -0.34388360 -0.00000015
-0.53695047 -0.16818531 -0.00000058
0.39515835 0.13677040 -0.00000051
0.66923404 0.10430187 -0.00000163
0.07522860 0.17569254 0.00000000
-0.56485009 -0.74415708 0.00000000
0.15725113 0.53891248 -0.00000021
-0.11145973 0.12422531 0.00000000
-0.65721220 -0.50726080 -0.00000049
0.01332973 0.33005625 0.00000000
0.33124492 -0.53306419 0.00000000
-0.51341808 -0.09004564 -0.00000062
-0.77094245 -0.10825415 -0.00000168
0.59403372 -0.27792579 -0.00000063
0.12191164 0.09392169 0.00000000
-0.04346766 -0.65810901 0.00000000
-0.62397450 -0.39503986 -0.00000055
0.78437799 -0.14232793 -0.00000164
0.10471283 0.42462587 0.00000000
0.60972410 -0.34939775 -0.00000057
-0.54142916 -0.70628852 0.00000000
-0.58025968 -0.61072046 0.00000000
0.75090718 0.02788181 -0.00000184
0.53173292 -0.71750671 0.00000000
-0.31808665 0.36808616 -0.00000059
-0.61958992 -0.11286173 -0.00000103
-0.37913188 -0.08893211 -0.00000005
-0.54458958 -0.71322423 0.00000000
0.69719827 -0.37904710 -0.00000089
0.10626248 0.48374957 0.00000000
-0.04463423 -0.52762151 0.00000000
0.21873093 -0.51534587 0.00000000
-0.44332796 0.01083490 -0.00000050
-0.49594787 0.04050958 -0.00000077
-0.39862463 0.02537954 -0.00000033
0.17096934 -0.32645440 0.00000000
0.17673078 -0.41580245 0.00000000
0.07742451 -0.58109629 0.00000000
-0.54619503 -0.48237619 -0.00000006
-0.74760985 -0.49452338 -0.00000076
-0.09577529 0.19677983 0.00000000
-0.20292599 -0.33378267 0.00000000
0.16684914 0.62592208 -0.00000040
0.41724724 -0.56028003 0.00000000
0.43589923 0.21024238 -0.00000082
0.52388972 -0.43023339 -0.00000006
0.62519419 -0.04475634 -0.00000117
0.42870244 -0.07206052 -0.00000029
0.10855800 0.02683910 0.00000000
0.21443042 -0.17432109 0.00000000
-0.11974925 -0.07221888 0.00000000
0.12130054 0.59638423 -0.00000016
-0.69675469 -0.63009197 -0.00000042
0.18009341 0.31211582 0.00000000
-0.04064898 0.21678405 0.00000000
-0.01735187 -0.17748564 0.00000000
-0.63089794 -0.39425713 -0.00000058
-0.52201331 -0.28337008 -0.00000031
0.12138778 -0.70446855 0.00000000
0.26564336 -0.06070437 0.00000000
-0.01597554 -0.11682225 0.00000000
0.39923823 -0.35711655 0.00000000
0.41742399 0.28153273 -0.00000086
-0.66588300 -0.09768504 -0.00000125
-0.25424576 -0.08372101 0.00000000
-0.73465508 -0.07238099 -0.00000159
-0.69244730 -0.55021244 -0.00000057
0.02927300 0.61410248 0.00000000
0.41677520 -0.34870636 0.00000000
0.34610602 -0.44569406 0.00000000
-0.44519785 -0.41844451 0.00000000
-0.65100223 0.14234117 -0.00000162
0.52825505 -0.74128997 0.00000000
-0.35338229 -0.02160275 -0.00000006
0.07650543 -0.01720347 0.00000000
0.71414119 -0.33978778 -0.00000103
-0.17328978 -0.60635388 0.00000000
-0.67754060 -0.41439068 -0.00000074
-0.15640333 0.14330582 0.00000000
0.41840383 -0.09005612 -0.00000021
0.40208402 0.36093032 -0.00000094
-0.32594001 -0.66812456 0.00000000
0.59670579 -0.27962673 -0.00000064
-0.51011425 -0.63677156 0.00000000
-0.17205501 -0.69182903 0.00000000
0.27216554 0.47880524 -0.00000059
-0.09344827 0.68902808 -0.00000020
0.49394485 -0.01800278 -0.00000066
0.18998484 0.20144171 0.00000000
0.46916315 0.33019936 -0.00000116
0.09294563 -0.75490123 0.00000000
-0.18535386 -0.45502588 0.00000000
-0.08683141 -0.22455879 0.00000000
0.12901777 0.60163099 -0.00000020
0.59895223 -0.34189996 -0.00000054
0.37231660 -0.27523279 0.00000000
-0.74581307 -0.04891565 -0.00000168
0.19112918 -0.59544492 0.00000000
-0.77753592 -0.55744517 -0.00000061
0.18917377 -0.27751511 0.00000000
0.33716705 0.05012536 -0.00000011
0.73213363 -0.14054631 -0.00000146
0.13364664 0.28397578 0.00000000
-0.32124203 0.12623405 -0.00000018
-0.63095272 -0.54583967 -0.00000031
0.50335848 -0.14857994 -0.00000047
0.64246643 -0.34692240 -0.00000071
-0.19922084 -0.69195777 0.00000000
0.62759948 -0.44276661 -0.00000048
-0.49579710 -0.63034827 0.00000000
-0.66293126 -0.41322330 -0.00000068
0.75238329 -0.68174899 -0.00000030
0.11812595 -0.72087187 0.00000000
0.07201056 0.58409512 0.00000000
0.01030166 0.59892142 0.00000000
-0.28450391 -0.63393730 0.00000000
0.34387702 -0.67502511 0.00000000
-0.20223719 -0.40512854 0.00000000
-0.60010105 -0.31987914 -0.00000058
0.44215003 -0.37448284 0.00000000
-0.48231503 -0.79491740 0.00000000
0.15702584 -0.04064941 0.00000000
-0.32835138 -0.21244082 0.00000000
-0.68347603 -0.04944913 -0.00000142
0.08647989 0.43440592 0.00000000
0.25268093 -0.53267825 0.00000000
0.13712347 0.24675030 0.00000000
-0.09987795 -0.53116369 0.00000000
-0.78796488 -0.41287920 -0.00000097
-0.70869279 -0.49308893 -0.00000074
-0.36672109 0.10563342 -0.00000034
-0.24267142 0.26477388 -0.00000009
0.24829574 0.54699063 -0.00000054
0.24774548 -0.73611921 0.00000000
0.14402331 -0.67799217 0.00000000
0.29711428 -0.14632931 0.00000000
-0.17278983 0.12200022 0.00000000
-0.40109372 -0.34090832 0.00000000
-0.72422427 -0.30382752 -0.00000114
-0.07280435 -0.23341471 0.00000000
-0.16216819 -0.07804690 0.00000000
0.69596994 -0.25963929 -0.00000110
-0.47495252 -0.01416098 -0.00000059
0.76341593 -0.71543807 -0.00000021
-0.54273033 0.20243122 -0.00000126
0.40831962 0.14817481 -0.00000059
-0.57210022 -0.54291493 -0.00000007
-0.12155689 -0.55424279 0.00000000
-0.57623899 0.04616651 -0.00000113
-0.34073704 -0.71780187 0.00000000
-0.57533783 0.06190479 -0.00000115
-0.31706357 0.10267905 -0.00000012
0.17657404 -0.51377589 0.00000000
-0.44217694 -0.13164407 -0.00000024
0.32571018 0.47066531 -0.00000075
0.01866420 0.54378557 0.00000000
-0.48246694 -0.38648173 0.00000000
-0.72136098 -0.12835474 -0.00000144
-0.06532562 -0.30403227 0.00000000
-0.43123317 -0.39939603 0.00000000
-0.53892553 -0.55329496 0.00000000
0.56132561 -0.28788888 -0.00000047
0.04726267 0.50291026 0.00000000
-0.16901021 -0.36338428 0.00000000
0.77207989 -0.13514403 -0.00000164
-0.33664384 -0.60893953 0.00000000
-0.39036563 -0.42355147 0.00000000
-0.28766593 -0.39305782 0.00000000
0.16009271 0.55492496 -0.00000025
-0.13033253 -0.57930505 0.00000000
-0.32931665 0.00581173 -0.00000000
-0.71768236 -0.01846097 -0.00000162
0.38621706 0.40991500 -0.00000090
-0.67689252 0.00844837 -0.00000149
-0.16278861 0.57157296 -0.00000029
-0.30524495 -0.66850471 0.00000000
-0.19492745 0.11905422 0.00000000
0.17159098 0.56377119 -0.00000031
-0.15705752 -0.26704216 0.00000000
-0.77536476 -0.21277741 -0.00000147
0.04353133 0.63406444 0.00000000
0.45319942 -0.53195113 0.00000000
-0.08554281 -0.73063439 0.00000000
-0.09019978 0.15504473 0.00000000
-0.64802766 -0.47245061 -0.00000052
-0.44811729 -0.05765023 -0.00000040
-0.50807971 -0.33581629 -0.00000016
-0.03669481 0.32623795 0.00000000
-0.43162352 0.20216826 -0.00000079
-0.12170642 0.55541432 -0.00000009
0.70827031 -0.14778483 -0.00000135
-0.77665949 -0.43407005 -0.00000091
-0.42841008 -0.40237251 0.00000000
-0.17999236 0.22028051 0.00000000
0.14657313 -0.31062102 0.00000000
-0.66006678 -0.24986246 -0.00000096
-0.51980120 -0.19219100 -0.00000046
0.48673105 -0.10762852 -0.00000047
0.59412402 -0.31204164 -0.00000057
0.18220359 0.05889407 0.00000000
-0.43651024 -0.10422374 -0.00000026
-0.59188175 0.16525565 -0.00000140
-0.44586861 -0.67592096 0.00000000
0.40955210 -0.64184886 0.00000000
-0.60850626 -0.54338819 -0.00000022
0.63326013 -0.22264515 -0.00000089
0.43483391 0.23309544 -0.00000085
-0.11018588 -0.23018518 0.00000000
0.51113176 -0.54096723 0.00000000
0.04982070 0.72240508 -0.00000008
0.34908438 0.43052658 -0.00000084
-0.20485348 0.09405676 0.00000000
-0.74767447 -0.31478307 -0.00000121
-0.65927291 -0.18201916 -0.00000108
-0.24916650 -0.28681800 0.00000000
-0.66430026 0.01807773 -0.00000145
0.23463789 0.03388783 0.00000000
0.40257174 -0.53543699 0.00000000
-0.17627040 0.44842094 -0.00000013
0.49514684 -0.20045222 -0.00000034
-0.78808200 -0.73489976 -0.00000016
-0.37797844 0.26230308 -0.00000066
-0.06879186 -0.29564953 0.00000000
-0.39790493 0.07781503 -0.00000042
0.14421670 -0.42755935 0.00000000
-0.33470407 -0.11923759 0.00000000
-0.05485224 0.02970773 0.00000000
0.25484771 0.08934739 0.00000000
-0.62688500 0.13479652 -0.00000150
-0.08558002 -0.52229255 0.00000000
-0.57778990 -0.06301181 -0.00000094
0.03360396 0.75826919 -0.00000007
0.10687644 -0.37747809 0.00000000
0.28525341 -0.52473032 0.00000000
0.07425252 0.26767084 0.00000000
-0.08038320 0.00091345 0.00000000
0.51081681 -0.71805346 0.00000000
-0.65084970 -0.67133111 -0.00000018
-0.62697756 -0.47304434 -0.00000043
0.69249898 -0.03928175 -0.00000147
0.17564413 0.33326462 0.00000000
0.76113337 -0.56658363 -0.00000058
0.16435602 -0.27279815 0.00000000
-0.33265543 -0.61254883 0.00000000
0.45549119 -0.26568246 -0.00000006
-0.23043248 -0.09481899 0.00000000
-0.47002092 -0.09558158 -0.00000042
0.59471953 0.09033457 -0.00000128
0.48724225 -0.71856993 0.00000000
0.08748504 -0.02393674 0.00000000
0.77965784 -0.21413255 -0.00000146
-0.48456326 -0.06583605 -0.00000054
-0.60355419 -0.76966465 0.00000000
0.17189133 -0.34482464 0.00000000
0.33028573 -0.45176646 0.00000000
-0.44543549 -0.20936123 -0.00000012
-0.77364701 -0.30100101 -0.00000125
0.38366285 0.26356599 -0.00000069
0.60381776 0.18428801 -0.00000149
-0.76375127 -0.21169257 -0.00000147
-0.65189689 -0.08143730 -0.00000122
0.34526700 -0.63410068 0.00000000
0.41215423 0.32066956 -0.00000091
-0.35629636 -0.41368642 0.00000000
-0.39575198 -0.47265658 0.00000000
0.15667301 -0.22075708 0.00000000
-0.11696741 -0.78126901 0.00000000
-0.30675396 -0.41847283 0.00000000
-0.78121966 -0.61082441 -0.00000047
0.38756654 -0.52405709 0.00000000
-0.22986600 -0.50075716 0.00000000
-0.16269134 -0.36600527 0.00000000
-0.46056703 0.13236870 -0.00000079
-0.16998100 -0.71629542 0.00000000
0.63146216 -0.11926220 -0.00000107
-0.68098390 -0.13089725 -0.00000126
-0.47680846 -0.06853870 -0.00000050
-0.27713671 -0.09290356 0.00000000
0.72414106 -0.77722329 -0.00000006
0.69435805 -0.49926251 -0.00000067
-0.20755012 0.10041527 0.00000000
-0.04593401 0.19766347 0.00000000
0.77177727 -0.23444109 -0.00000141
-0.09484143 -0.21515922 0.00000000
-0.53486514 -0.79330075 0.00000000
0.03732508 0.32199162 0.00000000
-0.04911101 -0.58140892 0.00000000
0.54965830 -0.67502767 0.00000000
0.04702774 -0.59057713 0.00000000
-0.41224980 -0.01125044 -0.00000033
-0.42476130 -0.30301899 0.00000000
0.74123865 -0.07541768 -0.00000162
0.12767635 -0.57525998 0.00000000
-0.08852467 -0.04289654 0.00000000
-0.13179836 -0.63937497 0.00000000
-0.75280976 -0.02676216 -0.00000175
0.28783864 -0.51208919 0.00000000
-0.03444393 0.16165680 0.00000000
-0.47403106 -0.45031002 0.00000000
-0.67309046 0.08030802 -0.00000160
0.66740662 -0.60098100 -0.00000037
0.00357340 0.39535272 0.00000000
0.09966409 -0.52673501 0.00000000
0.34457478 -0.18605204 0.00000000
-0.37894821 0.00364613 -0.00000021
0.11871345 0.31296781 0.00000000
-0.00345561 -0.60380244 0.00000000
-0.51533216 0.19782729 -0.00000113
-0.22939482 -0.75045097 0.00000000
0.56177628 -0.70046008 0.00000000
-0.28410420 0.15385865 -0.00000007
-0.23371753 -0.47294378 0.00000000
-0.16721384 0.14957488 0.00000000
-0.13982262 0.17510992 0.00000000
-0.60289508 -0.20175774 -0.00000080
-0.16052845 -0.00773199 0.00000000
-0.65701854 -0.25550300 -0.00000094
0.42573485 -0.70810980 0.00000000
-0.79214931 -0.15932350 -0.00000160
0.37484190 -0.43599239 0.00000000
0.00183963 0.43486843 0.00000000
0.24008694 0.47729096 -0.00000045
-0.18786611 0.08550945 0.00000000
-0.15968037 0.25253028 0.00000000
-0.58650690 -0.43491894 -0.00000032
0.21548317 0.04256504 0.00000000
-0.28208795 -0.43270412 0.00000000
-0.09074503 -0.71868497 0.00000000
0.43121105 -0.53654021 0.00000000
0.34295616 -0.22344038 0.00000000
0.30277172 -0.19616935 0.00000000
-0.00243233 0.40868926 0.00000000
-0.57841963 -0.63149339 0.00000000
0.11575094 -0.49516556 0.00000000
0.68832123 -0.65238822 -0.00000037
-0.67719328 -0.26682094 -0.00000100
0.08398118 -0.75629824 0.00000000
0.62109280 -0.14384697 -0.00000098
-0.31952175 -0.13456310 0.00000000
-0.01350067 -0.30653861 0.00000000
0.64047229 -0.11601546 -0.00000111
0.42401165 0.08310999 -0.00000054
-0.79083651 -0.78322411 -0.00000004
0.14275950 -0.31776112 0.00000000
0.34066784 -0.59355915 0.00000000
-0.43110797 -0.62715745 0.00000000
0.46915784 -0.66087013 0.00000000
0.24771491 0.22646049 -0.00000004
0.59357733 -0.28737506 -0.00000061
-0.38885781 -0.28514150 0.00000000
0.54310477 -0.53851891 0.00000000
0.59682643 -0.51164585 -0.00000023
-0.35539246 -0.12686521 0.00000000
-0.49916762 -0.27597097 -0.00000023
-0.69011140 -0.24767783 -0.00000109
-0.59661984 -0.10413715 -0.00000095
-0.70059270 -0.07110664 -0.00000145
0.67151791 -0.75412524 -0.00000011
-0.40408415 0.08640611 -0.00000046
-0.46759084 -0.50162238 0.00000000
-0.06637741 0.48033932 0.00000000
-0.14036371 -0.65228826 0.00000000
0.08498087 -0.26428738 0.00000000
0.71883750 -0.20916371 -0.00000128
-0.43176889 -0.45116240 0.00000000
0.44362813 -0.76276660 0.00000000
-0.59586549 0.09962149 -0.00000130
-0.06569968 -0.23387805 0.00000000
0.73325527 -0.45949134 -0.00000085
-0.60647863 -0.44577351 -0.00000039
0.06859995 -0.67128438 0.00000000
-0.40276301 -0.17587881 0.00000000
0.43022475 -0.09573419 -0.00000025
-0.13419338 -0.05412374 0.00000000
-0.03137614 -0.32155302 0.00000000
-0.09221563 -0.61688882 0.00000000
-0.79292548 -0.77728033 -0.00000006
0.68665564 -0.05516946 -0.00000142
0.55454129 -0.65045255 0.00000000
0.06140471 0.21223614 0.00000000
-0.61932814 -0.64213741 -0.00000009
0.13743187 0.64656842 -0.00000032
-0.17319568 -0.22645476 0.00000000
-0.59684998 -0.73013186 0.00000000
0.44865945 -0.73388553 0.00000000
0.29144567 0.09972512 -0.00000001
-0.20372693 -0.77857876 0.00000000
0.05448899 0.48793268 0.00000000
0.71470034 0.05181127 -0.00000173
-0.57670456 -0.02064518 -0.00000101
0.34711653 -0.31968510 0.00000000
0.18854491 0.27288494 0.00000000
-0.45602286 -0.25741670 -0.00000008
0.02881322 0.51679462 0.00000000
0.62634569 -0.43818364 -0.00000048
0.72174847 -0.51124221 -0.00000072
0.53658623 -0.69075686 0.00000000
0.29477760 -0.21473999 0.00000000
0.18636119 -0.63522559 0.00000000
-0.17015536 -0.02211448 0.00000000
0.74855113 -0.13500188 -0.00000154
-0.10678098 0.11931973 0.00000000
0.03273536 -0.06652291 0.00000000
-0.50951523 -0.69407117 0.00000000
0.56504560 -0.46044204 -0.00000018
0.20772427 0.04291841 0.00000000
-0.63591254 0.15984882 -0.00000158
-0.00032986 -0.24864551 0.00000000
-0.15188640 -0.34858468 0.00000000
-0.65830153 -0.45171124 -0.00000060
-0.27163452 -0.02846016 0.00000000
0.12055911 0.64460862 -0.00000024
0.01395776 -0.58074486 0.00000000
0.61376971 -0.52064723 -0.00000028
0.18433647 -0.70053691 0.00000000
0.58923459 -0.76963109 0.00000000
-0.37874618 -0.72882313 0.00000000
-0.21942180 -0.62392682 0.00000000
-0.05204592 -0.06058675 0.00000000
-0.52137113 -0.51446003 0.00000000
-0.26763433 0.02798517 0.00000000
0.73075765 -0.47882152 -0.00000080
0.20827629 0.57675874 -0.00000049
0.20107052 -0.22062556 0.00000000
0.46978313 0.17498682 -0.00000090
0.46558610 -0.54201359 0.00000000
-0.03890116 0.26640120 0.00000000
-0.73755318 -0.11379561 -0.00000153
-0.75831896 -0.23234132 -0.00000141
-0.41624588 0.07595666 -0.00000050
0.44789678 -0.68545067 0.00000000
0.32630855 0.22634505 -0.00000038
0.02538014 0.17109531 0.00000000
0.05222054 0.29897562 0.00000000
0.22185411 -0.15419547 0.00000000
-0.53390354 -0.64237678 0.00000000
0.43422893 -0.71822840 0.00000000
-0.22625045 -0.27528545 0.00000000
-0.04164958 -0.55025655 0.00000000
-0.56369638 0.14019185 -0.00000124
-0.22335561 -0.03373110 0.00000000
0.18328829 0.45195067 -0.00000017
-0.01489045 -0.50629425 0.00000000
0.06532645 -0.23819496 0.00000000
0.09184271 0.36925274 0.00000000
0.72570264 -0.46236446 -0.00000084
-0.19971085 -0.57343757 0.00000000
-0.29611072 0.05406058 0.00000000
0.70922917 -0.13698705 -0.00000137
-0.02717613 -0.40169698 0.00000000
-0.31858811 0.24286030 -0.00000037
0.37139294 -0.23250383 0.00000000
-0.23339412 0.34552839 -0.00000019
0.05684705 -0.39808163 0.00000000
-0.30282155 -0.67115104 0.00000000
0.48220694 -0.62529135 0.00000000
-0.79405934 -0.13044666 -0.00000167
0.17420892 -0.17027608 0.00000000
0.17923045 0.13115112 0.00000000
0.03964858 0.50134557 0.00000000
-0.09919170 -0.07123170 0.00000000
0.03468240 -0.26041263 0.00000000
0.58056301 -0.59739280 -0.00000001
-0.00738370 0.49495700 0.00000000
0.10426595 0.10987127 0.00000000
-0.56107831 -0.54147762 -0.00000002
-0.36327168 -0.35936233 0.00000000
-0.32394364 0.03381430 -0.00000003
-0.01517535 -0.65405184 0.00000000
-0.01459406 0.16823266 0.00000000
-0.46170461 -0.42030805 0.00000000
0.12963682 -0.73374742 0.00000000
0.71282351 -0.34575024 -0.00000102
-0.23413032 0.10951991 0.00000000
-0.72106522 -0.35763356 -0.00000103
-0.06739439 -0.74020785 0.00000000
0.70779127 -0.02639883 -0.00000156
0.62624753 0.09013617 -0.00000142
0.30947897 -0.04440599 0.00000000
0.31220636 -0.53333431 0.00000000
0.33652920 -0.72145522 0.00000000
-0.04659527 -0.27504674 0.00000000
0.68897468 -0.55863553 -0.00000054
0.14530094 0.07332312 0.00000000
-0.62157959 -0.54595220 -0.00000027
-0.54937279 -0.52543616 -0.00000000
-0.57993847 -0.72821218 0.00000000
0.64210469 -0.55121231 -0.00000035
-0.61215800 -0.51033276 -0.00000030
0.11939338 -0.25217143 0.00000000
0.60132414 -0.63443244 -0.00000003
0.38313290 0.00710344 -0.00000023
0.15512627 -0.46201843 0.00000000
0.24554494 -0.61861920 0.00000000
0.71054691 -0.66089875 -0.00000035
0.30083787 -0.04943115 0.00000000
-0.01077438 -0.08228763 0.00000000
-0.40000048 -0.58980197 0.00000000
0.42405120 0.22978173 -0.00000080
-0.58295250 -0.42754135 -0.00000032
-0.07494768 -0.78888065 0.00000000
0.28093883 -0.32482117 0.00000000
0.12103506 -0.02810338 0.00000000
-0.26514482 -0.03984456 0.00000000
-0.33087909 -0.19369100 0.00000000
0.35488939 0.37140739 -0.00000076
-0.25234210 -0.54413313 0.00000000
0.49656379 -0.37467068 -0.00000004
-0.72011679 -0.75601780 -0.00000011
-0.68661517 -0.29867011 -0.00000099
0.09553990 0.02394883 0.00000000
0.50636309 -0.18158604 -0.00000043
0.07469133 0.33240300 0.00000000
-0.23773941 0.33977285 -0.00000020
-0.48775178 -0.78399074 0.00000000
-0.21948676 0.23782706 0.00000000
-0.35480541 -0.22481778 0.00000000
0.20914468 0.19649412 0.00000000
0.25316390 0.38403255 -0.00000035
0.46813953 -0.09408090 -0.00000042
0.30350271 -0.04727798 0.00000000
-0.66649204 -0.10052157 -0.00000125
-0.20641820 0.37774304 -0.00000013
-0.35494477 -0.48644555 0.00000000
0.67055458 -0.76148874 -0.00000010
0.57345861 0.09789136 -0.00000121
-0.21181794 -0.46929914 0.00000000
-0.73380232 -0.00770127 -0.00000170
0.46198672 -0.21834774 -0.00000017
-0.00404637 0.65667892 0.00000000
-0.42441154 -0.45000950 0.00000000
-0.46531603 -0.22821023 -0.00000017
0.35560316 -0.03390630 -0.00000004
0.25432515 0.45238462 -0.00000047
0.29688504 -0.65589207 0.00000000
0.17049526 0.00319463 0.00000000
0.14313722 0.46607274 -0.00000002
0.58555871 -0.10156940 -0.00000091
0.27660283 -0.72529590 0.00000000
-0.45163149 0.17341714 -0.00000082
0.46664613 -0.35517815 0.00000000
-0.70009530 -0.09439811 -0.00000141
0.76614827 -0.45134246 -0.00000087
-0.34316760 -0.60750461 0.00000000
-0.23059756 -0.25675613 0.00000000
0.41320550 -0.50944763 0.00000000
-0.44951594 0.00615824 -0.00000052
-0.38295552 -0.30976272 0.00000000
0.05352570 -0.26193896 0.00000000
0.07352286 0.23847277 0.00000000
-0.03568063 0.50122017 0.00000000
0.21480975 0.47481757 -0.00000034
-0.52659041 -0.37099659 -0.00000018
-0.31747589 -0.75307220 0.00000000
-0.70155591 -0.24417379 -0.00000115
0.38053748 0.07294865 -0.00000034
-0.04175731 0.48457515 0.00000000
-0.08703641 0.29564402 0.00000000
-0.07383785 -0.18461347 0.00000000
0.10687943 -0.06892980 0.00000000
0.49376693 -0.70221972 0.00000000
-0.53978699 -0.16762374 -0.00000059
-0.33349049 -0.02127028 0.00000000
0.06730719 0.09921355 0.00000000
0.02706721 0.12205430 0.00000000
-0.30771321 -0.34680915 0.00000000
-0.78242105 -0.70664364 -0.00000023
0.57462317 -0.50624192 -0.00000014
0.67383814 -0.79303241 -0.00000002
0.36148426 0.11696321 -0.00000034
-0.06291685 0.55965745 0.00000000
-0.75073785 -0.27048254 -0.00000131
-0.08515382 -0.02408035 0.00000000
-0.20313054 -0.00396224 0.00000000
0.22933257 -0.28814751 0.00000000
0.35003898 0.39568001 -0.00000078
-0.73868740 0.04147920 -0.00000181
-0.33027989 -0.33292860 0.00000000
-0.47989926 -0.38706985 0.00000000
0.05144894 -0.56042951 0.00000000
-0.21584870 0.43644795 -0.00000028
0.10440360 0.36211625 0.00000000
0.74982727 0.04483033 -0.00000187
-0.10658172 -0.58929390 0.00000000
0.51300031 -0.69063711 0.00000000
-0.64378643 -0.44341180 -0.00000055
-0.26555315 -0.76615530 0.00000000
-0.35869038 0.11185889 -0.00000031
-0.45531651 0.34228504 -0.00000113
-0.26004854 -0.44889256 0.00000000
-0.09274603 0.30864283 0.00000000
-0.72863156 -0.45574769 -0.00000086
-0.29041055 -0.52895290 0.00000000
0.54093653 -0.29589328 -0.00000037
-0.53740907 -0.67916799 0.00000000
0.41443682 -0.49220282 0.00000000
-0.11006258 0.00431483 0.00000000
-0.36548075 -0.23698138 0.00000000
0.25363746 -0.49421060 0.00000000
-0.41126904 -0.67643273 0.00000000
-0.19378762 0.13083194 0.00000000
-0.41134518 -0.13563699 -0.00000010
-0.78194904 -0.32099092 -0.00000120
-0.50617278 -0.22419679 -0.00000035
0.17971157 -0.46451208 0.00000000
0.74976045 -0.73456210 -0.00000016
-0.25131580 0.33557835 -0.00000025
-0.74042004 -0.61204642 -0.00000047
-0.39324027 0.22160903 -0.00000066
-0.72276556 -0.15924196 -0.00000139
-0.15388945 -0.05313986 0.00000000
0.64857078 -0.26438963 -0.00000089
0.09749593 0.30785516 0.00000000
-0.34598404 0.44367716 -0.00000085
-0.79886556 -0.33161512 -0.00000117
0.08437075 0.07275068 0.00000000
0.47933546 -0.61095113 0.00000000
0.65031892 -0.79696226 0.00000000
0.22104266 -0.34650457 0.00000000
-0.43247759 -0.62698245 0.00000000
0.29180858 0.30401918 -0.00000037
-0.69508231 -0.40111822 -0.00000084
0.00450272 -0.13765226 0.00000000
-0.72890121 -0.07619179 -0.00000156
0.38318577 -0.17093281 0.00000000
-0.14174762 -0.49551979 0.00000000
0.22873825 0.36863396 -0.00000021
0.22028184 -0.53218067 0.00000000
0.29135615 -0.49071556 0.00000000
-0.02650487 0.09694016 0.00000000
-0.68609512 -0.36434555 -0.00000087
0.78272289 -0.58234650 -0.00000054
0.28804904 -0.28605071 0.00000000
-0.15638886 -0.12272153 0.00000000
-0.77861828 -0.52139187 -0.00000070
0.01826943 0.29603592 0.00000000
0.74992663 -0.19452357 -0.00000144
0.55646956 -0.63128638 0.00000000
-0.10613515 -0.69958681 0.00000000
0.40549198 -0.23731992 0.00000000
-0.19482943 0.45867264 -0.00000023
-0.40139520 -0.47432157 0.00000000
-0.03832032 0.39457214 0.00000000
0.33358571 -0.35367334 0.00000000
-0.44460359 -0.37324822 0.00000000
-0.00927574 -0.49326560 0.00000000
-0.30922022 0.30879951 -0.00000045
0.75037163 -0.40419513 -0.00000099
-0.50900358 -0.41147375 -0.00000003
0.40064558 -0.10509432 -0.00000011
0.75862002 -0.64250004 -0.00000039
0.33296254 -0.11099553 0.00000000
0.72389919 -0.23768365 -0.00000126
-0.10964692 0.45132276 0.00000000
-0.17003825 -0.43152422 0.00000000
-0.75870848 -0.43009353 -0.00000092
-0.72913396 -0.44845137 -0.00000088
-0.69585192 -0.70917398 -0.00000023
0.39653122 0.16969021 -0.00000058
-0.72750670 -0.00522243 -0.00000168
-0.19917543 -0.29617685 0.00000000
0.26579967 -0.05986950 0.00000000
0.15456520 -0.27224502 0.00000000
-0.13415571 0.35439879 0.00000000
0.06259034 0.21862191 0.00000000
0.53223413 0.16423962 -0.00000115
-0.06397772 -0.04476502 0.00000000
0.18850341 -0.41143769 0.00000000
-0.00623619 -0.76761657 0.00000000
0.20653842 0.07983880 0.00000000
-0.55407894 0.24314480 -0.00000138
-0.33458516 -0.17297804 0.00000000
0.72891814 -0.65185195 -0.00000037
-0.46851808 0.09681573 -0.00000076
-0.39508709 0.37025240 -0.00000093
0.13727634 0.11835333 0.00000000
-0.34495002 0.13744344 -0.00000030
-0.65930182 -0.15373316 -0.00000113
-0.62160206 -0.42082971 -0.00000049
-0.20013621 -0.32677928 0.00000000
-0.36088163 0.17040914 -0.00000043
0.53941196 -0.15733208 -0.00000061
0.54775476 -0.18735640 -0.00000059
-0.29299626 -0.03163606 0.00000000
0.30058879 0.41507059 -0.00000060
-0.25926051 0.50433213 -0.00000058
0.20204541 -0.52203941 0.00000000
-0.40030342 -0.67786914 0.00000000
0.06726566 0.18263508 0.00000000
-0.31984094 -0.36780220 0.00000000
0.35561302 -0.20069817 0.00000000
-0.59648007 0.14543177 -0.00000139
-0.78532302 -0.24952711 -0.00000138
-0.59250957 -0.63095683 0.00000000
0.06049785 0.51986080 0.00000000
-0.18235628 -0.64840835 0.00000000
-0.02200802 0.08433092 0.00000000
0.45855299 0.06627527 -0.00000066
-0.72711712 -0.45140377 -0.00000087
-0.21358570 -0.14167683 0.00000000
-0.12382958 -0.50871146 0.00000000
-0.25652829 0.08836214 0.00000000
-0.45007777 -0.61565483 0.00000000
-0.71983951 -0.59443825 -0.00000051
0.18646312 -0.43969661 0.00000000
-0.64491820 -0.77021796 0.00000000
0.09497292 -0.14825913 0.00000000
-0.69173485 0.00868257 -0.00000155
0.35437903 -0.47942078 0.00000000
0.67560565 -0.77004492 -0.00000007
0.31484810 0.40532324 -0.00000065
0.51360571 -0.66361761 0.00000000
0.50764382 -0.49428836 0.00000000
-0.29504827 -0.32112411 0.00000000
-0.39780676 -0.59601200 0.00000000
-0.27769813 0.01364249 0.00000000
0.45367050 -0.76708198 0.00000000
-0.24792898 -0.05986269 0.00000000
-0.35373789 0.34834883 -0.00000071
0.43849206 -0.23796040 -0.00000004
-0.35599607 -0.79251564 0.00000000
0.42661434 0.04453032 -0.00000049
0.52821058 0.12184709 -0.00000106
-0.30642119 0.29383746 -0.00000041
0.06903914 -0.08873225 0.00000000
0.56562710 -0.22990593 -0.00000059
0.31630385 0.03223822 0.00000000
-0.68420434 -0.65719867 -0.00000034
-0.33404234 -0.63367474 0.00000000
0.64312154 0.12770174 -0.00000156
0.08404353 0.19061232 0.00000000
-0.57740808 -0.71728730 0.00000000
-0.21624988 -0.38757730 0.00000000
0.54648226 0.14174666 -0.00000117
0.54054707 -0.43021247 -0.00000013
0.28830886 0.17443095 -0.00000012
-0.47749722 -0.03931664 -0.00000055
0.49196205 0.29586136 -0.00000121
-0.41765696 -0.79033339 0.00000000
-0.52119958 -0.56628507 0.00000000
0.65399837 -0.14047799 -0.00000113
0.24651781 0.20091750 0.00000000
-0.00597040 -0.50439024 0.00000000
0.38102558 0.19075900 -0.00000055
-0.27508140 -0.60453063 0.00000000
0.52570349 -0.57525676 0.00000000
-0.30499053 0.11430014 -0.00000009
-0.56412882 -0.06797619 -0.00000087
0.21371660 0.34861881 -0.00000011
0.02610485 0.49111807 0.00000000
-0.14002123 -0.42747092 0.00000000
-0.48223519 -0.61631596 0.00000000
-0.54392987 -0.04817457 -0.00000082
-0.24026753 -0.21455467 0.00000000
-0.16391161 0.58689898 -0.00000032
-0.24924131 -0.19249560 0.00000000
-0.31794763 -0.16872872 0.00000000
0.45303810 -0.59660500 0.00000000
-0.10460365 0.12655726 0.00000000
-0.59443468 -0.10161237 -0.00000094
0.68040895 -0.75746387 -0.00000011
-0.03585136 0.68007910 0.00000000
-0.26774117 0.49119282 -0.00000060
0.54754847 -0.14868470 -0.00000066
-0.33682361 -0.72838515 0.00000000
0.78831589 -0.24304499 -0.00000139
0.28105533 -0.39250410 0.00000000
-0.54807764 -0.27047753 -0.00000045
-0.35372385 0.38673803 -0.00000078
-0.63915271 -0.09719096 -0.00000114
-0.79057163 -0.43060106 -0.00000092
0.04370810 -0.70463794 0.00000000
-0.29706138 0.43388805 -0.00000062
-0.23352005 -0.42918527 0.00000000
0.02174056 0.41876581 0.00000000
-0.54040658 -0.30742460 -0.00000035
-0.01250251 -0.18037140 0.00000000
-0.02024784 -0.71057832 0.00000000
0.04842352 -0.78173214 0.00000000
0.00225846 -0.67259550 0.00000000
-0.13736261 -0.28527257 0.00000000
0.56178969 -0.31777325 -0.00000042
-0.61322361 0.10441760 -0.00000139
0.19676851 -0.31638008 0.00000000
0.70117408 -0.44557357 -0.00000079
-0.44658601 -0.30524299 0.00000000
-0.51370442 -0.32744169 -0.00000020
-0.01985014 -0.76165682 0.00000000
-0.74358112 -0.37991366 -0.00000105
-0.13106854 -0.72444415 0.00000000
0.68236810 -0.15848379 -0.00000122
0.17785019 0.41330501 -0.00000008
-0.31783330 0.30157456 -0.00000048
-0.03722746 -0.20522505 0.00000000
0.35773671 0.34573925 -0.00000072
-0.02949168 0.42651674 0.00000000
0.23923661 0.13552383 0.00000000
-0.07982186 0.54648244 0.00000000
0.23554862 0.38682333 -0.00000027
0.38893127 -0.47595999 0.00000000
0.16178489 -0.17057420 0.00000000
0.26540503 0.17896990 -0.00000003
-0.34239003 -0.25688747 0.00000000
-0.24183396 -0.07657553 0.00000000
0.58144152 0.14125507 -0.00000132
-0.42657560 0.20927209 -0.00000078
0.53238094 -0.18034044 -0.00000054
0.12404091 0.02219882 0.00000000
0.52238959 0.22904426 -0.00000122
-0.11595898 0.54303068 -0.00000004
0.48321778 -0.68629467 0.00000000
0.71926969 -0.39796692 -0.00000095
-0.05303367 0.11793369 0.00000000
0.01777253 0.06911519 0.00000000
-0.73703724 -0.36944336 -0.00000108
0.43771324 0.35644200 -0.00000100
0.46915227 -0.09150941 -0.00000043
-0.63053948 -0.67601699 -0.00000008
-0.69613796 -0.37307799 -0.00000090
0.28453231 -0.31488702 0.00000000
0.08174078 0.10921371 0.00000000
0.11604510 -0.08389438 0.00000000
-0.12124442 -0.02890013 0.00000000
-0.77125162 -0.59994286 -0.00000050
0.01417469 -0.68494439 0.00000000
0.31340057 0.18611367 -0.00000025
-0.75213057 -0.21516651 -0.00000142
0.46846753 -0.00457752 -0.00000058
0.39205608 -0.13009387 -0.00000003
0.46932194 0.15661810 -0.00000087
0.59224498 -0.65917706 0.00000000
-0.29734355 0.38273290 -0.00000053
-0.51592845 -0.23471102 -0.00000037
0.01364660 -0.61931878 0.00000000
0.37319729 -0.73053086 0.00000000
0.39947385 0.22531861 -0.00000069
-0.23332088 -0.64330792 0.00000000
0.71473145 -0.47533193 -0.00000080
-0.51907820 0.07338997 -0.00000093
-0.32894048 -0.03490747 0.00000000
0.76682502 -0.22533332 -0.00000144
0.36013925 -0.13023052 0.00000000
-0.21225342 -0.45401841 0.00000000
-0.28914487 -0.04440150 0.00000000
-0.49694711 -0.78115487 0.00000000
0.57278669 -0.79679286 0.00000000
0.09862689 -0.19871993 0.00000000
-0.01851693 0.41648400 0.00000000
-0.17751043 -0.13199697 0.00000000
-0.59402192 0.18185318 -0.00000144
0.49759161 -0.42620093 0.00000000
0.47389513 0.06388803 -0.00000072
-0.15313497 -0.65319979 0.00000000
-0.11353000 0.21777964 0.00000000
0.73361969 -0.30214074 -0.00000118
0.08130698 -0.13306223 0.00000000
-0.60455388 0.04845650 -0.00000125
0.17191733 0.40293181 -0.00000003
0.26056811 0.10144126 0.00000000
-0.43096411 -0.67886710 0.00000000
-0.26224238 0.08058674 0.00000000
-0.31895360 0.28240725 -0.00000045
0.70710826 -0.75314450 -0.00000012
0.04321214 -0.55199444 0.00000000
-0.53295732 -0.33167467 -0.00000027
0.22142695 0.23392496 0.00000000
-0.36456636 -0.18767685 0.00000000
-0.64193964 -0.78566462 0.00000000
0.09624342 -0.13518776 0.00000000
-0.68506461 -0.68499327 -0.00000029
0.26338202 -0.31065154 0.00000000
0.68893409 -0.26079765 -0.00000106
-0.04596675 0.56522226 0.00000000
-0.30023935 -0.10958161 0.00000000
-0.62775624 0.04563370 -0.00000135
-0.28960127 -0.79088283 0.00000000
-0.37313098 -0.30231747 0.00000000
0.53763556 -0.59358805 0.00000000
0.46637478 -0.00506732 -0.00000057
-0.57147467 -0.46513355 -0.00000020
-0.63331753 -0.28812963 -0.00000078
0.27059871 0.36216521 -0.00000038
0.40897444 -0.40303290 0.00000000
0.36000291 -0.60599601 0.00000000
0.00451859 -0.16647182 0.00000000
-0.27381906 -0.49572781 0.00000000
0.30223560 -0.04492667 0.00000000
0.15246591 -0.65171099 0.00000000
-0.27378055 0.14749859 -0.00000001
-0.66739500 -0.43015802 -0.00000067
-0.77039939 -0.64204371 -0.00000039
0.50407130 -0.27018344 -0.00000026
-0.29104787 -0.47941244 0.00000000
0.78693032 -0.34417346 -0.00000114
-0.57592392 -0.54658037 -0.00000008
-0.38595849 -0.33533391 0.00000000
-0.23083495 0.36417654 -0.00000021
-0.44036603 -0.67667043 0.00000000
0.07338197 -0.10876514 0.00000000
0.45087808 0.26399648 -0.00000098
-0.25656143 0.18597768 -0.00000001
0.03500425 -0.19906016 0.00000000
-0.75057590 -0.34436199 -0.00000114
-0.04396749 0.11741766 0.00000000
0.51104563 -0.53915352 0.00000000
-0.49536562 -0.31372839 -0.00000015
0.41313142 0.28860655 -0.00000086
-0.25596136 0.20394075 -0.00000004
-0.23954999 0.18733235 0.00000000
0.49406257 -0.11171974 -0.00000050
0.53681606 -0.39063188 -0.00000019
0.14994898 -0.10433569 0.00000000
0.33745232 -0.62195766 0.00000000
0.03676808 -0.33214808 0.00000000
0.38234687 -0.01434650 -0.00000019
0.37754676 -0.61497641 0.00000000
-0.08969705 -0.13365355 0.00000000
0.06970325 -0.10174700 0.00000000
-0.21380676 -0.64381754 0.00000000
0.33553362 -0.50171524 0.00000000
0.09032182 0.44551414 0.00000000
0.01638407 0.45889908 0.00000000
0.19566169 -0.38892478 0.00000000
0.06061826 -0.59247679 0.00000000
-0.23864119 -0.27632058 0.00000000
-0.58332914 -0.71913826 0.00000000
0.56498986 -0.40773854 -0.00000028
0.24461921 -0.42178765 0.00000000
-0.12016472 0.56501013 -0.00000010
0.39671916 -0.40663522 0.00000000
0.25490186 -0.72440654 0.00000000
-0.48569882 0.23618878 -0.00000108
0.12339546 0.40063742 0.00000000
0.05391731 -0.09868946 0.00000000
0.23675968 -0.03694880 0.00000000
0.68756831 -0.01604963 -0.00000149
-0.38459003 -0.48995775 0.00000000
-0.02491786 -0.58478260 0.00000000
0.35455593 0.34306157 -0.00000071
0.49025333 -0.74617589 0.00000000
0.12508811 -0.57001519 0.00000000
-0.17677362 0.52432865 -0.00000027
0.58750576 -0.18997274 -0.00000076
0.06698013 -0.15086845 0.00000000
0.34338373 -0.75545901 0.00000000
0.07167127 -0.68983340 0.00000000
0.42730239 -0.09257000 -0.00000025
0.53143281 -0.56117964 0.00000000
-0.42977151 -0.62634063 0.00000000
0.23709968 -0.01312652 0.00000000
0.75255823 -0.66646153 -0.00000033
0.54310805 -0.25072530 -0.00000046
0.07197856 0.39110497 0.00000000
-0.22265092 -0.64317411 0.00000000
0.73382598 -0.49020410 -0.00000077
0.11325377 0.30506867 0.00000000
0.39270884 -0.34399605 0.00000000
0.77810961 -0.68935847 -0.00000028
-0.23585156 -0.23211044 0.00000000
0.57805437 -0.02387288 -0.00000101
0.49323207 -0.72844255 0.00000000
-0.01293847 -0.71727133 0.00000000
0.12233522 -0.46227548 0.00000000
0.14269096 -0.44171715 0.00000000
0.20750271 -0.12886308 0.00000000
-0.74067569 -0.01284980 -0.00000172
-0.68129146 0.05046315 -0.00000158
-0.22330096 0.04592276 0.00000000
0.01854939 0.21913169 0.00000000
-0.07216602 0.39735085 0.00000000
0.14316297 0.42541480 0.00000000
0.17687927 -0.43936759 0.00000000
0.37561253 -0.57219547 0.00000000
0.72605473 -0.37490183 -0.00000102
0.16859519 0.36471272 0.00000000
-0.35421833 -0.67651641 0.00000000
0.79207218 -0.48171678 -0.00000080
0.43226543 -0.00357791 -0.00000042
0.74502313 -0.31218892 -0.00000121
0.03412645 -0.43982664 0.00000000
0.11639374 0.35506833 0.00000000
0.22482771 0.15300921 0.00000000
-0.66831994 0.01683023 -0.00000147
0.47454113 -0.11818543 -0.00000040
-0.04897123 0.35744926 0.00000000
0.28430983 -0.79147792 0.00000000
-0.36181906 0.03123132 -0.00000019
-0.10690794 0.28271544 0.00000000
-0.35192704 -0.11836411 0.00000000
0.15055244 0.08754371 0.00000000
0.29382890 0.00335631 0.00000000
0.50160551 -0.19040862 -0.00000039
-0.16048361 -0.08269013 0.00000000
-0.25698936 -0.32849711 0.00000000
-0.23806576 0.44047141 -0.00000038
0.05419476 -0.37812588 0.00000000
0.09796427 -0.55292392 0.00000000
0.68190062 -0.33217993 -0.00000091
-0.42743850 -0.26277199 0.00000000
0.30101302 -0.60273707 0.00000000
0.57480597 -0.73410308 0.00000000
-0.44868073 -0.09087141 -0.00000034
-0.46344087 -0.10279594 -0.00000038
0.14702903 -0.00552401 0.00000000
0.60691863 0.01138225 -0.00000120
-0.20975660 0.04229342 0.00000000
-0.09112802 -0.67050052 0.00000000
-0.52634561 -0.37166554 -0.00000018
0.36485404 0.01644955 -0.00000017
0.12696639 -0.57648748 0.00000000
-0.30929443 0.35791215 -0.00000054
0.05699058 0.62017608 0.00000000
0.62249655 -0.59464043 -0.00000019
0.13729537 -0.09096611 0.00000000
0.15351774 -0.44964814 0.00000000
-0.68845665 -0.53059483 -0.00000059
-0.53263229 -0.79718047 0.00000000
