ply
format ascii 1.0
element vertex 1117
property float x
property float y
property float z
end_header
-0.34234178 -0.04910306 0.00000028
-0.00631877 0.53469026 -0.00000045
-0.57254654 0.00766335 -0.20685843
-0.05712823 0.51522624 0.00000067
-0.60384953 -0.53653497 -0.04252504
-0.32792044 -0.21074048 -0.00000014
-0.04167336 -0.47619900 0.00000076
-0.24903147 -0.40529916 -0.00000027
-0.39206162 -0.03869575 -0.03780546
-0.38917786 -0.38111204 -0.00000104
-0.28245136 0.38836160 -0.09476708
-0.64875686 -0.63450217 -0.04618882
-0.64273280 -0.62958431 -0.04281348
-0.18743871 -0.44627005 -0.00000003
-0.18905504 0.31309229 0.00000036
-0.65268481 -0.04016970 -0.25792882
-0.61478066 0.04933736 -0.25722706
-0.12296469 -0.76786280 -0.00000064
-0.33172148 -0.18496192 -0.00000008
-0.68180573 -0.75398946 -0.03226675
-0.16003457 0.44740793 -0.01183639
-0.48527199 -0.66777158 -0.00000252
-0.65336955 -0.47181454 -0.10714357
-0.56475413 0.07232836 -0.22293755
-0.49493098 -0.42437723 -0.00000181
-0.43846324 -0.28265852 -0.00000103
-0.44244075 -0.68211126 -0.00000230
-0.09128289 0.04147174 -0.00000836
-0.59560698 -0.12896582 -0.17846930
-0.44739524 0.17472541 -0.15949062
-0.66752487 -0.73644972 -0.02632759
-0.07956329 0.67303681 -0.02283175
-0.39551109 -0.27271497 -0.00000074
-0.56427932 0.03084034 -0.20798697
-0.38326898 0.08814895 -0.07484238
-0.60856849 -0.41627225 -0.08869260
-0.25264040 0.36086741 -0.05988811
-0.22268760 -0.33680674 0.00000010
-0.30804390 0.24993606 -0.06789170
-0.47271976 -0.40639085 -0.00000162
-0.41230354 -0.70155036 -0.00000218
-0.31016788 -0.66972589 -0.00000146
-0.13343278 0.36637497 -0.00000019
-0.16238429 0.37221864 0.00000081
-0.56424451 -0.00618295 -0.19497453
-0.15281512 -0.50675905 -0.00000001
-0.69818819 -0.35870641 -0.18474987
-0.10123935 -0.75617570 -0.00000047
-0.18493403 0.54718763 -0.06790570
-0.29686412 -0.14867415 0.00000024
-0.52462363 0.04049829 -0.17780173
-0.10183566 0.25968197 -0.00000341
-0.50004035 -0.21542236 -0.06724614
-0.00094035 -0.71241659 0.00000027
-0.55334133 -0.41688967 -0.04172149
-0.00452427 -0.77683663 0.00000005
-0.08467770 0.63936675 -0.01535445
-0.02600434 0.18737777 -0.00000723
-0.62168878 0.04235139 -0.26062569
-0.29924455 0.26882741 -0.06706690
-0.11943220 -0.60858136 -0.00000012
-0.06461699 0.21722995 -0.00000543
-0.20376232 0.20583311 -0.00000148
-0.00961986 0.78226590 -0.00192186
-0.55119216 -0.62151444 -0.00000277
-0.31050795 -0.02723568 0.00000054
-0.00064298 0.54911238 -0.00000031
-0.13900617 0.54208082 -0.02723297
-0.62120837 -0.08685646 -0.21490963
-0.16743492 -0.00160322 0.00000148
-0.26566717 -0.52184045 -0.00000073
-0.60188341 -0.48658749 -0.05837565
-0.42059481 0.24134970 -0.16016486
-0.21526861 0.15965810 -0.00000211
-0.54135907 -0.05660597 -0.15791818
-0.44542623 0.20833455 -0.16960940
-0.29713851 -0.00618604 0.00000069
-0.58427054 -0.53053588 -0.02805343
-0.71708137 -0.55055261 -0.13346954
-0.37168270 0.23068066 -0.11501520
-0.52098203 -0.39056250 -0.02355863
-0.27686593 0.21989103 -0.03096094
-0.04692631 0.00929788 -0.00001039
-0.11701120 -0.20478708 0.00000115
-0.27184707 -0.04596159 0.00000072
-0.46097904 -0.17284496 -0.04910794
-0.72118616 -0.47963679 -0.16181266
-0.57808405 -0.50796849 -0.03072976
-0.05952215 0.65723914 -0.00032540
-0.52789068 -0.16245590 -0.10939760
-0.15665734 -0.20788541 0.00000090
-0.69372106 -0.56959164 -0.10701685
-0.66787159 -0.55488253 -0.09029135
-0.52332342 -0.54527313 -0.00000236
-0.70405269 -0.18231131 -0.25157124
-0.16688380 0.09706850 -0.00000490
-0.52232689 -0.48610982 -0.00000217
-0.59744251 -0.51982933 -0.04295910
-0.36985925 -0.34777960 -0.00000082
-0.63535309 -0.69794422 -0.01259414
-0.01933834 -0.19163758 0.00000178
-0.38267037 -0.19497430 -0.00000042
-0.25968754 -0.42445302 -0.00000039
-0.32278639 -0.50654429 -0.00000103
-0.71373141 -0.62696302 -0.10383866
-0.61114812 -0.35395765 -0.11272834
-0.19513167 -0.37102479 0.00000016
-0.65052211 -0.35215181 -0.14669509
-0.16529039 -0.30378366 0.00000055
-0.14553560 -0.12974434 0.00000122
-0.69319046 -0.79750693 -0.02664447
-0.45834610 -0.49264920 -0.00000181
-0.07289480 -0.30718845 0.00000110
-0.36949232 0.26260757 -0.12435666
-0.06823700 0.37875488 -0.00000189
-0.05106936 0.10216561 -0.00000829
-0.64500660 -0.13489562 -0.21821100
-0.19795693 0.04071651 -0.00000516
-0.11756598 0.22337174 -0.00000371
-0.35873324 -0.51439470 -0.00000127
-0.27846667 -0.41690814 -0.00000048
-0.40712523 0.21790412 -0.14054003
-0.03022080 -0.40368786 0.00000106
-0.70050097 -0.13653257 -0.26461768
-0.05095186 -0.33403823 0.00000115
-0.38076273 -0.35118002 -0.00000090
-0.01449720 -0.18064816 0.00000185
-0.06469324 0.27131775 -0.00000428
-0.04927039 -0.04848239 0.00000205
-0.45358983 0.08517982 -0.13333391
-0.22624473 -0.42991325 -0.00000021
-0.02182155 -0.23202588 0.00000164
-0.48802289 -0.75650477 -0.00000281
-0.00087566 -0.42763075 0.00000117
-0.01308874 0.39196348 -0.00000328
-0.34186023 0.24772765 -0.09574574
-0.34709370 -0.44837466 -0.00000100
-0.41055492 -0.41333014 -0.00000127
-0.09704782 0.58271945 -0.00596233
-0.49780452 -0.04605411 -0.12474568
-0.03933634 0.56393075 0.00000117
-0.29062334 -0.37848467 -0.00000044
-0.39893594 -0.34457538 -0.00000098
-0.42584512 -0.14253578 -0.02999254
-0.72045296 -0.74275905 -0.06892274
-0.67721868 -0.36681986 -0.16415244
-0.32792175 -0.74554402 -0.00000181
-0.41710645 0.13543700 -0.12007124
-0.69026285 -0.27813193 -0.20629559
-0.25396186 -0.38177815 -0.00000023
-0.28514788 0.01131138 -0.00000315
-0.21567145 0.24388175 -0.00000031
-0.33447379 -0.13970479 0.00000004
-0.43896276 -0.73475277 -0.00000245
-0.67040658 -0.42847669 -0.13676417
-0.58121032 -0.06990197 -0.18699323
-0.43327659 -0.50078046 -0.00000168
-0.18671432 0.03884902 -0.00000554
-0.44836313 -0.64872330 -0.00000223
-0.68881083 -0.41575786 -0.15680496
-0.27416295 -0.70705897 -0.00000136
-0.18340075 0.31054819 0.00000013
-0.60342073 -0.01966365 -0.22341336
-0.41996303 0.19404307 -0.14304100
-0.15838759 0.18633433 -0.00000326
-0.41930407 0.22397266 -0.15297855
-0.40124339 -0.35704386 -0.00000104
-0.14818448 0.50903183 -0.02341391
-0.24645500 -0.14048597 0.00000057
-0.12278903 0.29402983 -0.00000205
-0.14756641 -0.25110441 0.00000082
-0.20794711 -0.46600428 -0.00000021
-0.56733453 -0.37150645 -0.06948250
-0.49674696 -0.52791458 -0.00000215
-0.58986682 -0.21464734 -0.14356385
-0.28312984 -0.77278274 -0.00000162
-0.08661981 0.67045718 -0.02790112
-0.42749962 -0.74909920 -0.00000242
-0.56461674 0.03863043 -0.21100438
-0.22835132 -0.62313187 -0.00000083
-0.10824306 0.43783224 0.00000057
-0.69267339 -0.16966589 -0.24637213
-0.18439353 -0.09219024 0.00000110
-0.05657581 -0.07385561 0.00000193
-0.33956307 0.06206731 -0.02869547
-0.36499628 -0.72471714 -0.00000197
-0.55392003 0.01088728 -0.19221999
-0.08718782 -0.33257067 0.00000093
-0.37481132 -0.66469604 -0.00000184
-0.47207564 0.04823942 -0.13602985
-0.37044334 -0.39794183 -0.00000098
-0.17818239 -0.77531493 -0.00000100
-0.24996562 0.28090197 -0.02958219
-0.32488102 -0.59180158 -0.00000131
-0.31563953 -0.27471447 -0.00000026
-0.13955286 0.53325254 -0.02459998
-0.46573240 -0.08436869 -0.08415805
-0.44298172 -0.69758791 -0.00000235
-0.00193487 -0.15122060 0.00000202
-0.16795787 0.42809862 -0.01177295
-0.69549954 -0.57420301 -0.10690540
-0.08011264 -0.24355784 0.00000126
-0.08553867 -0.28629950 0.00000109
-0.49085242 0.00869290 -0.13805827
-0.13786285 -0.10919985 0.00000133
-0.20154236 0.39647701 -0.02911639
-0.68891847 -0.38237298 -0.16860321
-0.20489728 -0.46510661 -0.00000019
-0.55009609 -0.10723904 -0.14755933
-0.23299758 -0.02504495 0.00000102
-0.13087521 -0.10093296 0.00000139
-0.70018375 -0.36020964 -0.18591213
-0.33986697 0.27440542 -0.10341336
-0.39081898 0.13434212 -0.09743266
-0.45651817 0.07022324 -0.13056818
-0.02490538 0.48070857 -0.00000103
-0.34132013 -0.35694289 -0.00000068
-0.50104964 -0.56373948 -0.00000229
-0.31328830 -0.00676490 0.00000059
-0.46034577 -0.00970741 -0.10577929
-0.12777746 0.09840989 -0.00000605
-0.04594632 -0.41826889 0.00000092
-0.11453473 0.52266461 0.00000256
-0.52616417 -0.07168530 -0.13976653
-0.63289660 -0.09431337 -0.22218981
-0.41425124 0.10184373 -0.10587390
-0.13618509 -0.60097283 -0.00000020
-0.09641559 -0.16165763 0.00000141
-0.24962543 -0.53115064 -0.00000067
-0.11700717 -0.46481106 0.00000034
-0.37363023 -0.03795354 -0.02246194
-0.45347345 -0.46416435 -0.00000169
-0.30594236 0.31278026 -0.08815015
-0.18878268 -0.26938567 0.00000052
-0.41057369 -0.45892960 -0.00000141
-0.49908245 0.05062991 -0.15973175
-0.21757579 -0.36228389 0.00000005
-0.08164865 -0.34495318 0.00000093
-0.50728446 -0.58709502 -0.00000240
-0.32615292 -0.08953648 0.00000025
-0.49397931 -0.34974653 -0.01501145
-0.15578958 -0.65821803 -0.00000050
-0.43007258 0.02909688 -0.09375791
-0.09659933 0.25048622 -0.00000376
-0.18599278 0.48353508 -0.04648099
-0.02743678 0.30902618 -0.00000461
-0.26955548 -0.20656848 0.00000023
-0.18151695 -0.33093622 0.00000037
-0.35646540 -0.04849371 -0.00423431
-0.15120903 -0.50535023 0.00000001
-0.64505917 -0.03348757 -0.25381625
-0.55890489 -0.35880339 -0.06680061
-0.43336770 0.00046433 -0.08650693
-0.66928160 -0.49233755 -0.11341772
-0.64601809 -0.03794222 -0.25306597
-0.25505367 -0.55001491 -0.00000076
-0.19451314 0.14375441 -0.00000308
-0.14664327 -0.60932899 -0.00000029
-0.33332342 0.15585566 -0.05630181
-0.31478396 0.04308592 -0.00106158
-0.26648208 0.28601456 -0.04535764
-0.52781737 -0.49116045 -0.00000222
-0.10938468 -0.11539214 0.00000148
-0.00164613 0.68354261 0.00000258
-0.28558633 -0.25884080 -0.00000003
-0.63947463 -0.73939937 -0.00154629
-0.56486005 -0.45824561 -0.03697076
-0.61338151 -0.50111061 -0.06301695
-0.38289779 -0.27384844 -0.00000067
-0.48547426 -0.63022506 -0.00000240
-0.20362157 0.31483862 -0.00224849
-0.04851464 -0.53128195 0.00000055
-0.25520739 -0.07543539 0.00000072
-0.45599842 -0.64458513 -0.00000227
-0.65931332 -0.67688382 -0.04026384
-0.56985593 -0.14843482 -0.14984164
-0.57315356 -0.19754574 -0.13541164
-0.00426142 -0.21864697 0.00000179
-0.45372480 -0.22269373 -0.02548611
-0.17581640 0.56193489 -0.06535827
-0.24268061 -0.41774690 -0.00000027
-0.11770606 -0.65276271 -0.00000025
-0.19465618 -0.38287279 0.00000013
-0.67000347 -0.65790319 -0.05596989
-0.00537670 0.35664409 -0.00000426
-0.34571201 0.07950141 -0.04001470
-0.65094680 -0.58322382 -0.06602458
-0.22051696 0.03867535 -0.00000452
-0.55388129 -0.45815313 -0.02770872
-0.76096880 -0.73273224 -0.10673852
-0.60500598 -0.34589893 -0.11035444
-0.47147685 -0.44872463 -0.00000175
-0.03112206 -0.57103091 0.00000053
-0.14193188 0.26771405 -0.00000203
-0.21754213 -0.49827987 -0.00000037
-0.51531881 0.03915950 -0.16945492
-0.08573101 -0.17681201 0.00000143
-0.36001840 0.16650151 -0.08263464
-0.45962882 -0.09870228 -0.07396448
-0.24214260 0.22977252 -0.00502976
-0.16257001 -0.56883067 -0.00000026
-0.14590865 0.50885922 -0.02142671
-0.36176208 0.21983479 -0.10281320
-0.48743644 0.06634083 -0.15538174
-0.09124668 -0.70325279 -0.00000025
-0.42465773 -0.34145990 -0.00000113
-0.02399752 -0.63123041 0.00000038
-0.14430174 0.35050264 -0.00000020
-0.70770496 -0.39921066 -0.17860292
-0.01503090 -0.51349378 0.00000080
-0.05541263 0.60231316 0.00000247
-0.07283327 -0.12760301 0.00000166
-0.46002001 -0.34965965 -0.00000137
-0.45819631 -0.79636985 -0.00000275
-0.11250635 -0.25244281 0.00000103
-0.66574538 -0.51719433 -0.10170745
-0.48190388 -0.27452037 -0.03116811
-0.12992716 -0.73066902 -0.00000057
-0.39596051 -0.18620151 -0.00000047
-0.58284867 -0.22071174 -0.13549577
-0.47892156 -0.27096850 -0.02988886
-0.16905268 -0.07278789 0.00000125
-0.61091423 -0.48332575 -0.06716481
-0.35027957 -0.44447157 -0.00000100
-0.28941029 0.00731071 -0.00000311
-0.25359061 -0.11028922 0.00000062
-0.09061033 0.60632837 -0.00879136
-0.73102129 -0.47585425 -0.17146528
-0.25892547 0.19787610 -0.00805279
-0.68002570 -0.21601813 -0.21941049
-0.25713411 0.48429531 -0.10697491
-0.67001206 -0.74765903 -0.02450239
-0.20510554 -0.19629014 0.00000065
-0.30172825 0.13248023 -0.02135669
-0.67247128 -0.29299605 -0.18602112
-0.48893976 -0.40482843 -0.00000172
-0.10970776 -0.18045302 0.00000127
-0.51140124 -0.59091860 -0.00000243
-0.28296068 0.21950901 -0.03598670
-0.47847468 -0.25379369 -0.03553321
-0.35521877 0.28454140 -0.11996439
-0.38855726 -0.55763137 -0.00000159
-0.28109711 -0.17139652 0.00000027
-0.42309690 0.06381847 -0.10002821
-0.35686001 -0.76873136 -0.00000206
-0.59254485 -0.07656004 -0.19425412
-0.11215902 0.07011941 -0.00000713
-0.20992582 0.18600665 -0.00000171
-0.41612473 -0.68152815 -0.00000214
-0.58448994 -0.38138717 -0.08054115
-0.14485864 -0.33583325 0.00000058
-0.03227032 0.11039226 -0.00000868
-0.27331302 -0.09051148 0.00000057
-0.03216809 -0.38279650 0.00000111
-0.13952763 -0.62526411 -0.00000030
-0.05811740 -0.22914185 0.00000143
-0.70901966 -0.54503644 -0.12857908
-0.17475758 0.36181137 0.00000096
-0.52845418 -0.47792974 -0.00000218
-0.51409447 -0.28736711 -0.05391531
-0.67931145 -0.50615495 -0.11706344
-0.22940330 0.44535479 -0.06984309
-0.49172845 -0.67186683 -0.00000257
-0.04458405 0.11966381 -0.00000811
-0.11928555 -0.77447605 -0.00000064
-0.07407318 0.33894452 -0.00000256
-0.05239097 -0.66522443 0.00000010
-0.48489034 -0.58102137 -0.00000224
-0.00025201 0.13630155 -0.00000910
-0.38398859 -0.61939287 -0.00000175
-0.05707736 -0.08958994 0.00000188
-0.34912077 0.19917266 -0.08486564
-0.15660936 -0.52254766 -0.00000008
-0.44168109 -0.37228385 -0.00000133
-0.00663060 0.67376113 0.00000252
-0.41510093 0.15916400 -0.12669374
-0.30704382 0.31271255 -0.08905888
-0.08475656 -0.24207081 0.00000123
-0.68767047 -0.21291792 -0.22696958
-0.44909281 -0.38051513 -0.00000140
-0.62470454 -0.20229420 -0.17738888
-0.26294330 0.33845934 -0.06075259
-0.49682230 0.06874323 -0.16417015
-0.30386555 0.28980976 -0.07833689
-0.59497750 -0.28413960 -0.12352158
-0.05809414 -0.76048446 -0.00000023
-0.32857519 -0.35577679 -0.00000059
-0.66246617 -0.59413421 -0.07195082
-0.40808800 -0.19923367 -0.00000059
-0.07221371 0.61077970 0.00000316
-0.25645387 -0.48010084 -0.00000055
-0.53271359 -0.57517034 -0.00000251
-0.50019294 -0.41831270 -0.00000183
-0.27627403 -0.30149850 -0.00000011
-0.16436891 0.58088565 -0.06231243
-0.14665852 0.32071713 -0.00000076
-0.27658004 0.26312175 -0.04587861
-0.69146985 -0.76469368 -0.03669450
-0.12986709 -0.61054778 -0.00000019
-0.48100901 -0.02461044 -0.11804648
-0.35995895 -0.52256775 -0.00000131
-0.54811448 -0.07608618 -0.15680611
-0.37020847 -0.46113521 -0.00000118
-0.04061454 -0.32730386 0.00000123
-0.11699865 0.41307709 0.00000031
-0.33274910 0.19043103 -0.06794015
-0.53331041 -0.16686763 -0.11243883
-0.40005115 0.19305740 -0.12583821
-0.21396822 -0.58183074 -0.00000061
-0.30636197 -0.53448886 -0.00000102
-0.28202841 -0.72899634 -0.00000148
-0.37591097 -0.27769381 -0.00000064
-0.00567579 -0.61537772 0.00000054
-0.30976626 -0.27163965 -0.00000022
-0.45810080 -0.18466935 -0.04252480
-0.06857259 0.65190721 -0.00611763
-0.65038896 -0.73130989 -0.01362294
-0.58304292 0.08834138 -0.24403587
-0.35263616 -0.04515549 -0.00216313
-0.56460971 -0.41156492 -0.05312838
-0.57132536 0.02140304 -0.21064271
-0.14281030 0.20391920 -0.00000336
-0.57124770 -0.21793477 -0.12664834
-0.38919246 -0.52749097 -0.00000150
-0.46126398 -0.34096137 -0.00000135
-0.49301225 0.14437479 -0.18746634
-0.26430854 -0.09951325 0.00000059
-0.18204962 -0.76187789 -0.00000098
-0.72131056 -0.39694449 -0.19091576
-0.13429470 -0.06428023 0.00000149
-0.22264180 -0.74788368 -0.00000118
-0.60399830 -0.03564910 -0.21829672
-0.17340532 -0.47115359 -0.00000002
-0.62928790 -0.76942444 -0.00000370
-0.71192151 -0.78945577 -0.04532504
-0.30690297 -0.59812981 -0.00000122
-0.37059629 0.13838390 -0.08172973
-0.05992880 -0.43423030 0.00000078
-0.08825754 -0.17944641 0.00000141
-0.70426452 -0.39959750 -0.17555466
-0.26408127 -0.79832709 -0.00000159
-0.69778919 -0.41909066 -0.16323714
-0.38763651 0.27741295 -0.14490911
-0.47260091 0.03954090 -0.13342424
-0.21035750 0.48350644 -0.06709780
-0.13313276 0.52917409 -0.01773460
-0.52386105 0.03142463 -0.17397428
-0.14764559 0.50223321 -0.02057364
-0.38165009 0.24972416 -0.13013145
-0.64687389 -0.04591922 -0.25099322
-0.62246472 0.00172316 -0.24703546
-0.44695193 -0.32372153 -0.00000121
-0.39237580 0.04974868 -0.06908627
-0.25731593 0.23998968 -0.02145816
-0.01702362 -0.44693753 0.00000100
-0.57462096 -0.75418317 -0.00000332
-0.46488124 -0.34341672 -0.00000138
-0.15813980 -0.44568080 0.00000015
-0.01868211 0.41692796 -0.00000258
-0.28537273 0.28880286 -0.06232801
-0.15866016 0.28059068 -0.00000125
-0.14098062 0.03201929 -0.00000707
-0.59784341 -0.20821691 -0.15257169
-0.07911417 0.63794893 -0.01014726
-0.10056022 0.40143383 -0.00000043
-0.12352158 0.30788264 -0.00000173
-0.55350441 -0.67226386 -0.00000294
-0.59177786 -0.42508903 -0.07138608
-0.58330274 0.00910601 -0.21647038
-0.72606623 -0.53806949 -0.14545341
-0.68179250 -0.77531552 -0.02477712
-0.04288551 0.69625378 0.00000409
-0.02612002 -0.30335817 0.00000139
-0.42313445 0.05388878 -0.09657796
-0.67404014 -0.48879141 -0.11868975
-0.24800429 -0.51664138 -0.00000061
-0.68429852 -0.39128739 -0.16156606
-0.61101395 -0.57951862 -0.03351725
-0.02007995 -0.51923764 0.00000076
-0.09635359 -0.58352178 0.00000009
-0.12574384 0.35142955 -0.00000074
-0.29846737 -0.00825092 0.00000067
-0.32653272 -0.31100482 -0.00000044
-0.02335926 0.12666053 -0.00000860
-0.03235301 -0.25220704 0.00000152
-0.65434134 -0.20609714 -0.20114544
-0.18594900 0.54921150 -0.06947468
-0.01490220 -0.63117957 0.00000044
-0.34502843 -0.68917733 -0.00000174
-0.02011012 0.16571614 -0.00000787
-0.42788976 -0.03322661 -0.07005497
-0.69039178 -0.69909811 -0.05878430
-0.47415751 0.16140716 -0.17747690
-0.74315101 -0.56710851 -0.14973381
-0.52675545 -0.27028713 -0.07062336
-0.03841779 0.23162358 -0.00000592
-0.26386580 -0.44986570 -0.00000050
-0.10790769 0.30030856 -0.00000236
-0.59485400 -0.32450771 -0.10926117
-0.20994359 0.39667591 -0.03629851
-0.25054619 0.20407228 -0.00313182
-0.54585564 -0.58460665 -0.00000262
-0.71871412 -0.32339066 -0.21451084
-0.48076668 0.06595109 -0.14959854
-0.01232826 0.44589266 -0.00000215
-0.50429463 0.06975119 -0.17084959
-0.60548681 -0.02020509 -0.22497261
-0.01256480 0.78359658 -0.00488170
-0.47859859 -0.06816559 -0.10073236
-0.23288959 -0.28247043 0.00000021
-0.17590056 0.00031464 -0.00000669
-0.17638408 0.33765274 0.00000050
-0.23012555 0.49403468 -0.08752511
-0.54163510 -0.22105347 -0.10048504
-0.27740493 -0.69454461 -0.00000134
-0.71202040 -0.37222224 -0.19172031
-0.51635963 0.02690228 -0.16603783
-0.33913594 -0.17628878 -0.00000010
-0.02062289 0.66394132 0.00000273
-0.36259735 -0.62089980 -0.00000163
-0.28852451 -0.52391320 -0.00000088
-0.17078875 -0.63848335 -0.00000053
-0.35363355 0.22779574 -0.09872335
-0.59182960 -0.44922149 -0.06296736
-0.02790252 -0.61440516 0.00000041
-0.03864921 0.47933984 -0.00000065
-0.70591795 -0.52684349 -0.13233301
-0.46901399 -0.11827231 -0.07504722
-0.59709018 -0.65383613 -0.00000315
-0.35026836 0.18010937 -0.07915223
-0.27247000 0.41641995 -0.09615622
-0.57165539 -0.05420893 -0.18440723
-0.47401032 -0.69975984 -0.00000255
-0.65148920 -0.76630247 -0.00228357
-0.54992652 -0.07361046 -0.15920831
-0.05064237 -0.66967702 0.00000010
-0.13982642 -0.65951556 -0.00000040
-0.08243131 0.63540882 -0.01206477
-0.67008376 -0.68973166 -0.04487653
-0.04057442 -0.58872008 0.00000042
-0.10047102 -0.41215417 0.00000061
-0.44977877 -0.22445977 -0.02152615
-0.22228397 -0.66667700 -0.00000092
-0.10237044 -0.53752106 0.00000020
-0.22902441 -0.15191138 0.00000064
-0.55026919 -0.35901707 -0.05941481
-0.05952871 0.15317336 -0.00000695
-0.60084385 -0.47542754 -0.06140901
-0.12495770 -0.30359659 0.00000080
-0.34042922 -0.09068408 0.00000016
-0.66535622 -0.68059403 -0.04407862
-0.53774178 -0.74680960 -0.00000308
-0.15359543 -0.19728667 0.00000096
-0.13525990 -0.25705793 0.00000088
-0.03648149 -0.54764360 0.00000057
-0.34974664 -0.46279472 -0.00000106
-0.47006381 -0.12024151 -0.07524544
-0.00960784 0.42204857 -0.00000274
-0.07359870 -0.18743862 0.00000147
-0.41909516 -0.63336217 -0.00000201
-0.46382141 0.10917343 -0.15040968
-0.25755876 -0.29612839 0.00000002
-0.04398883 0.10797522 -0.00000838
-0.14893541 0.07103692 -0.00000600
-0.53211421 -0.39604366 -0.03106095
-0.61089981 -0.35301438 -0.11284888
-0.68271852 -0.48640513 -0.12687343
-0.41743702 -0.60567290 -0.00000191
-0.00496628 -0.55059654 0.00000082
-0.06941790 -0.43211609 0.00000073
-0.19390368 0.13055141 -0.00000337
-0.65218711 -0.23036803 -0.19081061
-0.02759845 -0.68994814 0.00000018
-0.06629424 0.67439115 -0.01207327
-0.03080948 -0.32183385 0.00000131
-0.14412725 0.40724456 0.00000100
-0.30858561 -0.55918002 -0.00000111
-0.03991215 0.19551575 -0.00000664
-0.33505639 -0.46206099 -0.00000097
-0.12968694 -0.47966903 0.00000022
-0.20375596 0.06365938 -0.00000450
-0.34778085 -0.14310735 -0.00000005
-0.13843410 -0.19606185 0.00000105
-0.52261865 -0.79548818 -0.00000314
-0.15683584 -0.49228960 0.00000002
-0.14186630 -0.34869698 0.00000055
-0.46147415 -0.54730600 -0.00000200
-0.23723736 0.43381625 -0.07242908
-0.68021572 -0.57524109 -0.09360248
-0.10646736 -0.58088648 0.00000004
-0.39027727 -0.14523692 -0.00000031
-0.46951133 0.02783620 -0.12670416
-0.10218593 -0.41547716 0.00000058
-0.29790804 0.35536820 -0.09628271
-0.35671702 0.27680722 -0.11852066
-0.65757608 -0.13808627 -0.22773328
-0.12524234 -0.47190580 0.00000027
-0.30872598 -0.45784736 -0.00000079
-0.29643849 -0.67803591 -0.00000141
-0.67163014 -0.75645238 -0.02278868
-0.54228979 -0.09117360 -0.14658429
-0.55641633 0.05563620 -0.21002544
-0.70883536 -0.47576228 -0.15271546
-0.16571271 -0.21161413 0.00000084
-0.08737489 -0.42072093 0.00000066
-0.55220866 -0.26134720 -0.09530668
-0.38463801 -0.65742612 -0.00000188
-0.70335048 -0.63381040 -0.09264928
-0.57263994 -0.44474608 -0.04829101
-0.01949745 -0.60602152 0.00000049
-0.44390723 0.12248284 -0.13821781
-0.03994912 -0.46576351 0.00000080
-0.03058743 -0.20002978 0.00000169
-0.19444577 -0.48242891 -0.00000018
-0.27645728 -0.57749283 -0.00000097
-0.65887630 -0.30638874 -0.16981539
-0.70405418 -0.74934101 -0.05273181
-0.30170810 -0.50288481 -0.00000089
-0.68049866 -0.40010563 -0.15525687
-0.49935743 -0.40576473 -0.00000178
-0.53393018 -0.64965451 -0.00000275
-0.24732509 0.29688147 -0.03295030
-0.29469833 -0.26255402 -0.00000010
-0.00543131 0.34796202 -0.00000444
-0.13468440 0.28234148 -0.00000194
-0.15245835 0.40829459 0.00000128
-0.39045745 -0.41667524 -0.00000116
-0.23903148 -0.52699244 -0.00000059
-0.02015268 0.42154339 -0.00000243
-0.20038866 -0.48736981 -0.00000023
-0.57426637 -0.44688562 -0.04891766
-0.33017826 -0.16421972 -0.00000001
-0.27168986 -0.15690023 0.00000037
-0.09286658 0.45724666 0.00000052
-0.03614440 -0.25856796 0.00000147
-0.40524086 -0.31496784 -0.00000093
-0.25834411 0.29616034 -0.04202597
-0.26318806 -0.18450923 0.00000033
-0.36243820 -0.70893288 -0.00000190
-0.07685800 0.24232008 -0.00000453
-0.01507070 -0.27902555 0.00000154
-0.44505885 -0.71559739 -0.00000242
-0.54255790 0.09292374 -0.21136869
-0.19491585 -0.35295188 0.00000022
-0.45848489 -0.05923590 -0.08683572
-0.36571383 -0.67378521 -0.00000181
-0.40176561 -0.36045787 -0.00000105
-0.20878038 0.32112435 -0.00882008
-0.72367436 -0.74712831 -0.07011774
-0.34951088 -0.79159546 -0.00000208
-0.26917183 -0.07245465 0.00000065
-0.71671945 -0.73236680 -0.06940628
-0.13854633 -0.56195563 -0.00000009
-0.38505948 -0.56139785 -0.00000158
-0.15410136 -0.08808053 0.00000129
-0.29369450 0.22476082 -0.04691547
-0.64388460 -0.20544314 -0.19252221
-0.27405882 0.30115595 -0.05708164
-0.13696246 0.61932170 -0.05258886
-0.18384393 -0.66158795 -0.00000068
-0.51500642 -0.28014854 -0.05721865
-0.33676732 -0.31839043 -0.00000053
-0.34356365 0.02635657 -0.01955961
-0.64369917 -0.58310699 -0.05992978
-0.40855902 -0.73222095 -0.00000225
-0.33789301 0.16437480 -0.06315779
-0.25468144 0.36959243 -0.06467565
-0.38650459 -0.58705199 -0.00000167
-0.30578637 -0.19145396 0.00000006
-0.44116089 0.04393476 -0.10834831
-0.62341470 -0.68612152 -0.00663314
-0.21671076 -0.41502401 -0.00000010
-0.38393721 0.29981127 -0.14963175
-0.63297606 -0.56699848 -0.05650055
-0.11539071 0.64716756 -0.04409121
-0.43531883 -0.55149209 -0.00000185
-0.26405296 0.31665939 -0.05404742
-0.19483151 0.42902720 -0.03484946
-0.08506289 0.21319023 -0.00000490
-0.14505155 0.12496873 -0.00000497
-0.70625621 -0.18732397 -0.25167888
-0.19452430 0.13314843 -0.00000330
-0.70567155 -0.74483484 -0.05568121
-0.28957537 -0.56863916 -0.00000102
-0.24180597 0.05275464 -0.00000358
-0.10973694 -0.20450330 0.00000120
-0.00320467 -0.22385062 0.00000182
-0.17823265 -0.43901461 0.00000005
-0.55476570 -0.21160465 -0.11491464
-0.06319643 -0.32806763 0.00000109
-0.28996813 0.37146339 -0.09520500
-0.32571229 -0.19621509 -0.00000008
-0.23379093 0.35165018 -0.04069820
-0.06777239 0.36512825 -0.00000220
-0.02044617 -0.77490145 -0.00000004
-0.65051633 -0.25219849 -0.18174088
-0.21361542 0.42892191 -0.05071475
-0.20423777 0.01023681 -0.00000562
-0.54583645 -0.14166656 -0.13188045
-0.29274952 -0.47676089 -0.00000076
-0.58827859 -0.43873006 -0.06364016
-0.53320521 -0.04664656 -0.15450770
-0.04065035 0.28936914 -0.00000462
-0.09724155 0.42301920 -0.00000008
-0.18322580 -0.65710932 -0.00000066
-0.72012186 -0.68355739 -0.08940272
-0.36133277 0.31285709 -0.13506988
-0.24010731 -0.37397358 -0.00000012
-0.05676520 0.44992578 -0.00000073
-0.33897212 0.22633781 -0.08579993
-0.66108155 -0.48481899 -0.10911217
-0.08132883 0.37665090 -0.00000154
-0.08112528 -0.10519048 0.00000168
-0.24991783 0.21014656 -0.00472993
-0.37869093 -0.40477556 -0.00000105
-0.30833137 0.15297624 -0.03413415
-0.15504438 -0.06696849 0.00000135
-0.15989123 0.34142619 0.00000008
-0.53636676 -0.51352680 -0.00000234
-0.45777115 -0.77780420 -0.00000269
-0.67480630 -0.04675998 -0.27434561
-0.62102669 -0.42938232 -0.09464221
-0.11347574 -0.59250742 -0.00000004
-0.20969567 0.11020006 -0.00000333
-0.09470537 -0.66040462 -0.00000014
-0.40270132 -0.68906569 -0.00000208
-0.60568446 -0.58681256 -0.02644761
-0.50939530 -0.09642500 -0.11689475
-0.14098106 0.43337414 0.00000146
-0.10307498 0.49460986 0.00000162
-0.05929309 -0.53599989 0.00000047
-0.33653915 -0.70365483 -0.00000173
-0.25040147 0.33178568 -0.04779458
-0.35906568 0.36302271 -0.15074219
-0.01303770 0.35215899 -0.00000412
-0.37963513 0.06170439 -0.06249270
-0.51275808 0.10538511 -0.19051038
-0.50483930 -0.27907985 -0.04898607
-0.01631944 -0.56643170 0.00000063
-0.13612925 0.59834123 -0.04452626
-0.00627437 -0.31174883 0.00000149
-0.51677185 -0.56221348 -0.00000238
-0.44012150 -0.39013049 -0.00000138
-0.02170718 0.21806210 -0.00000671
-0.01034694 0.49321502 -0.00000121
-0.31856820 0.00091941 -0.00000237
-0.51545477 -0.43476504 -0.00337883
-0.52734333 -0.49372998 -0.00000223
-0.13575672 -0.36677036 0.00000053
-0.07228201 -0.47692281 0.00000057
-0.59084320 -0.62165844 -0.00166379
-0.30413237 -0.31943828 -0.00000033
-0.12289592 -0.53535151 0.00000009
-0.17318533 0.15128115 -0.00000356
-0.23816511 0.48941135 -0.09271004
-0.45665881 -0.21851726 -0.02943457
-0.64277744 -0.19911578 -0.19380376
-0.42245856 -0.12103447 -0.03466539
-0.05401834 0.22066663 -0.00000568
-0.26834208 0.34676287 -0.06823492
-0.46148068 -0.49955115 -0.00000185
-0.22386120 0.06621326 -0.00000384
-0.57302117 -0.68415833 -0.00000310
-0.33351770 0.12705401 -0.04636643
-0.68345511 -0.65330631 -0.06896971
-0.13594753 0.61091864 -0.04878292
-0.52015209 0.08894758 -0.19100593
-0.28746852 -0.74227202 -0.00000155
-0.33648145 -0.63405186 -0.00000151
-0.55128175 -0.46139875 -0.02436986
-0.16677275 0.23638269 -0.00000194
-0.34492984 0.20787978 -0.08437098
-0.11969621 0.19760360 -0.00000419
-0.45700032 -0.66688991 -0.00000234
-0.34523898 -0.05062809 0.00000026
-0.22665605 -0.15825279 0.00000064
-0.07641032 0.36590227 -0.00000192
-0.00596913 -0.22900744 0.00000175
-0.18718441 -0.15319443 0.00000089
-0.31661084 -0.76029682 -0.00000179
-0.43446365 0.06112870 -0.10870792
-0.47911301 -0.42004284 -0.00000170
-0.24509630 -0.29918966 0.00000009
-0.50082797 -0.77951318 -0.00000296
-0.47085422 -0.17122237 -0.05803714
-0.20235609 0.32345247 -0.00419777
-0.39739463 -0.67170978 -0.00000200
-0.56966043 -0.07307511 -0.17610253
-0.56578422 -0.47978136 -0.03020125
-0.72700322 -0.74203861 -0.07472063
-0.70933223 -0.61758012 -0.10340474
-0.37160581 -0.15780252 -0.00000024
-0.44524726 -0.07450774 -0.07027354
-0.04145718 -0.63495195 0.00000027
-0.13052092 -0.32422379 0.00000070
-0.66870922 -0.36836770 -0.15640564
-0.64306587 -0.58929205 -0.05722476
-0.54038697 -0.14873971 -0.12478669
-0.30300307 0.30775890 -0.08390095
-0.17958704 -0.45543230 -0.00000001
-0.42219615 -0.75437886 -0.00000241
-0.33743975 0.31448287 -0.11541247
-0.23245297 -0.40283579 -0.00000016
-0.59527224 -0.10800610 -0.18553586
-0.30072102 -0.24273436 -0.00000007
-0.30692735 0.01937155 -0.00000233
-0.63021916 -0.35114157 -0.12986118
-0.49070701 0.09785934 -0.16920318
-0.64808661 -0.16592552 -0.20993724
-0.30966482 -0.60829264 -0.00000127
-0.05063946 0.29659185 -0.00000417
-0.23589714 0.04121833 -0.00000401
-0.53339726 0.01343068 -0.17573754
-0.42572668 -0.06173288 -0.05822743
-0.31545311 0.25522614 -0.07601932
-0.23947527 0.45855775 -0.08299976
-0.65900517 -0.11938848 -0.23549990
-0.45780206 0.17542261 -0.16854538
-0.18380418 -0.43084222 0.00000004
-0.34435669 -0.74300253 -0.00000190
-0.42401150 0.26496756 -0.17133947
-0.28537253 -0.21836430 0.00000010
-0.60268992 -0.74263442 -0.00000346
-0.01574072 0.51337844 -0.00000062
-0.21665698 -0.20789908 0.00000054
-0.15068316 -0.07725959 0.00000135
-0.28001162 0.03019769 -0.00000291
-0.22324507 -0.41081557 -0.00000013
-0.49165571 -0.29719791 -0.03147154
-0.18726540 0.22749613 -0.00000151
-0.55676359 -0.22367300 -0.11237401
-0.10578750 -0.64821631 -0.00000016
-0.36398140 -0.22667418 -0.00000041
-0.29716101 -0.15121853 0.00000023
-0.44161165 0.11142178 -0.13239560
-0.25393268 0.27234173 -0.02993883
-0.68234318 -0.80198801 -0.01589008
-0.05691537 -0.50062913 0.00000059
-0.06968613 0.00998909 -0.00000968
-0.01574874 -0.65939391 0.00000034
-0.23822097 -0.32254308 0.00000005
-0.10582510 -0.17261638 0.00000132
-0.67328304 -0.06971288 -0.26500711
-0.55697447 -0.26200610 -0.09911030
-0.43851227 -0.26785958 -0.00000098
-0.63115710 -0.20901936 -0.18049321
-0.15436794 0.07965790 -0.00000565
-0.35048771 0.20326926 -0.08745943
-0.30917439 0.14228161 -0.03109756
-0.28819257 -0.16444214 0.00000025
-0.20528814 0.18787988 -0.00000181
-0.24480547 0.08961636 -0.00000271
-0.24397278 -0.55313134 -0.00000070
-0.17222565 -0.69280988 -0.00000070
-0.06296662 -0.01043656 0.00000209
-0.34023216 -0.28073746 -0.00000043
-0.63406074 -0.66039264 -0.02466827
-0.04103202 0.73854268 -0.01318262
-0.18372490 0.11306118 -0.00000405
-0.29962942 -0.39247763 -0.00000053
-0.06006082 0.26407927 -0.00000458
-0.21193536 -0.13096166 0.00000081
-0.57727981 -0.34226713 -0.08815539
-0.04529279 0.08926170 -0.00000874
-0.40662232 -0.29635429 -0.00000088
-0.22293445 0.16012830 -0.00000187
-0.00182095 0.08216287 -0.00001020
-0.07195588 -0.40399250 0.00000080
-0.51022446 -0.24511804 -0.06545446
-0.26430887 0.29273698 -0.04587519
-0.65732956 -0.13434374 -0.22883695
-0.04182919 -0.43598747 0.00000089
-0.02777588 -0.56726009 0.00000056
-0.21522088 0.40820020 -0.04480744
-0.24123986 -0.68858773 -0.00000111
-0.20567690 0.45984295 -0.05483718
-0.39399844 -0.21641997 -0.00000055
-0.09125762 -0.65907592 -0.00000011
-0.13862118 -0.05422326 0.00000149
-0.34238166 -0.32652676 -0.00000059
-0.27055708 -0.38929358 -0.00000035
-0.34233680 0.16214961 -0.06613954
-0.04508921 -0.26892939 0.00000139
-0.60951346 -0.09693233 -0.20147558
-0.43175676 0.13047270 -0.13073318
-0.10461743 -0.52597594 0.00000022
-0.59695607 -0.04281749 -0.20982112
-0.49531060 -0.72678292 -0.00000276
-0.26491827 0.13026211 -0.00000124
-0.24594483 -0.66317850 -0.00000106
-0.60613668 -0.09356615 -0.19979724
-0.73211193 -0.70812601 -0.09093774
-0.02089805 0.36104575 -0.00000370
-0.54892576 -0.19593202 -0.11546654
-0.75490445 -0.70639068 -0.11084180
-0.01351283 -0.32340744 0.00000141
-0.21233901 -0.44223210 -0.00000016
-0.59628725 -0.14075479 -0.17491122
-0.06728552 0.70238227 -0.02272812
-0.43442005 -0.63872874 -0.00000212
-0.12276313 -0.72685379 -0.00000051
-0.29294139 0.33493030 -0.08491104
-0.56188858 -0.26648995 -0.10169814
-0.58441359 -0.48779479 -0.04316254
-0.12070642 -0.14125137 0.00000133
-0.02669789 0.25660741 -0.00000574
-0.35068092 -0.67908841 -0.00000174
-0.67435670 -0.54381281 -0.09966336
-0.34954196 -0.75324363 -0.00000196
-0.23968153 0.21667919 -0.00000016
-0.43195698 -0.63061154 -0.00000208
-0.17115737 -0.65221441 -0.00000057
-0.02792428 -0.36315182 0.00000120
-0.35459340 -0.67801589 -0.00000176
-0.52673978 -0.04262931 -0.15044285
-0.33985749 -0.70214623 -0.00000175
-0.29922590 -0.70351011 -0.00000150
-0.26146990 -0.53613496 -0.00000075
-0.37751022 0.29832542 -0.14366969
-0.41589454 0.25315666 -0.16032602
-0.23068134 -0.41244164 -0.00000018
-0.11121502 -0.16865739 0.00000130
-0.35370445 -0.00244146 -0.01804608
-0.16530232 0.25619137 -0.00000157
-0.01210306 -0.60314697 0.00000054
-0.16087969 -0.38435805 0.00000033
-0.20791239 0.54571831 -0.08684362
-0.44659710 -0.33298242 -0.00000124
-0.03587107 -0.19491959 0.00000167
-0.62882859 -0.01565702 -0.24632829
-0.04575007 0.55964386 0.00000127
-0.04196554 0.10039835 -0.00000860
-0.36985090 -0.20107195 -0.00000036
-0.21022969 -0.24209107 0.00000047
-0.02286155 0.14578854 -0.00000821
-0.44868806 0.16022219 -0.15549926
-0.30551887 0.18259333 -0.04213895
-0.01283339 -0.77998763 -0.00000001
-0.21829619 0.52495033 -0.08835162
-0.38247848 0.29639679 -0.14719945
-0.26459318 0.37750185 -0.07584038
-0.00602344 -0.09064061 0.00000218
-0.13826144 -0.36228934 0.00000053
-0.62418044 0.03866517 -0.26144245
-0.18230933 -0.04368229 0.00000126
-0.36647686 -0.09281924 -0.00000000
-0.40508917 -0.70767212 -0.00000216
-0.12567762 0.49934947 -0.00096458
-0.40736976 -0.64979190 -0.00000199
-0.19581230 -0.38739124 0.00000011
-0.25708944 -0.10919772 0.00000061
-0.08008049 -0.17005368 0.00000149
-0.49080694 0.09424257 -0.16801947
-0.23507895 0.50916296 -0.09702364
-0.38853624 -0.41085067 -0.00000113
-0.14303133 -0.62168920 -0.00000031
-0.53389752 -0.71913779 -0.00000297
-0.32219067 -0.13698237 0.00000013
-0.02361359 0.58329093 0.00000111
-0.65267253 -0.13475399 -0.22475053
-0.12310760 0.01743202 -0.00000791
-0.43779632 -0.76090479 -0.00000252
-0.55885541 -0.53972524 -0.00331486
-0.12455793 -0.16401856 0.00000124
-0.12899590 0.53299880 -0.01557361
-0.04359375 -0.07343669 0.00000201
-0.59160084 -0.03759592 -0.20711847
-0.52754313 -0.52448392 -0.00000232
-0.37166959 -0.30930921 -0.00000071
-0.44351658 0.21279959 -0.16955847
-0.06897128 0.64596838 -0.00437260
-0.41423190 -0.46789438 -0.00000146
-0.31797689 -0.48672068 -0.00000094
-0.45632809 -0.07335068 -0.08006018
-0.32398158 -0.69855338 -0.00000164
-0.03494333 0.62716222 0.00000238
-0.06168384 -0.22557998 0.00000142
-0.64113837 -0.00346360 -0.26102552
-0.30617866 0.05843699 -0.00000152
-0.26318771 -0.37381202 -0.00000026
-0.47734946 0.16281150 -0.18067163
-0.32884860 0.12733275 -0.04251137
-0.38985541 0.02445231 -0.05808186
-0.49647593 -0.64892620 -0.00000252
-0.60976428 -0.62526685 -0.01641675
-0.01981746 0.03777254 -0.00001060
-0.26668134 0.46798617 -0.10933825
-0.49722025 0.05481271 -0.15962204
-0.70008361 -0.49224335 -0.13952702
-0.44894183 -0.16534752 -0.04154652
-0.74377215 -0.70737529 -0.10107221
-0.31384197 -0.48059657 -0.00000090
-0.06408913 0.33886561 -0.00000287
-0.02566892 -0.08401828 0.00000208
-0.56600684 -0.24440803 -0.11292811
-0.67559773 -0.13458911 -0.24421656
-0.58104807 -0.42233267 -0.06326896
-0.13438329 0.35935265 -0.00000031
-0.46715194 -0.31863871 -0.00320832
-0.08270183 -0.73138142 -0.00000028
-0.17656305 -0.70637989 -0.00000077
-0.29831201 0.40408558 -0.11370844
-0.52973843 0.07948627 -0.19580381
-0.13368563 0.48819402 -0.00383218
-0.68663567 -0.70468557 -0.05364512
-0.28387526 0.45150778 -0.11811599
-0.12189458 -0.08330436 0.00000150
-0.00526401 -0.00670580 0.00000252
-0.31841236 -0.48844564 -0.00000095
-0.70791024 -0.67633408 -0.08159762
-0.59539747 -0.58967876 -0.01673372
-0.41121170 -0.00426004 -0.06609326
-0.41087094 -0.62280977 -0.00000193
-0.57653952 0.03041259 -0.21821631
-0.07030518 0.51677877 0.00000110
-0.33049637 0.11978480 -0.04125952
-0.12522037 0.12648083 -0.00000553
-0.41338292 -0.12243436 -0.02649116
-0.14214960 0.18421623 -0.00000380
-0.46344110 0.12631740 -0.15609960
-0.12714919 0.40939522 0.00000054
-0.23314673 0.27193195 -0.01219801
-0.65086818 -0.32408613 -0.15682986
-0.15939792 -0.07714651 0.00000130
-0.47705933 -0.37540495 -0.00000155
-0.57369840 0.09587626 -0.23876721
-0.36562708 -0.65932393 -0.00000177
-0.28222212 -0.01799222 0.00000074
-0.10501492 0.44996119 0.00000073
-0.22363007 -0.31627497 0.00000016
-0.05654826 -0.17422554 0.00000161
-0.35671952 0.01046416 -0.02512420
-0.47506449 -0.62015307 -0.00000231
-0.03237166 0.74370843 -0.00766234
-0.22715171 -0.68571943 -0.00000101
-0.50242680 -0.21780783 -0.06842993
-0.14058889 0.35953110 -0.00000012
-0.03562995 0.73698860 -0.00806434
-0.48011953 -0.69985348 -0.00000258
-0.28594100 -0.59746319 -0.00000109
-0.57666773 -0.59903985 -0.00000285
-0.32710063 -0.48837543 -0.00000100
-0.49699447 0.17391635 -0.20119698
-0.14809607 -0.03011876 0.00000151
-0.04040563 -0.56152380 0.00000050
-0.10834628 -0.70456094 -0.00000036
-0.20774420 0.01192540 -0.00000548
-0.59352279 -0.73910922 -0.00000339
-0.23885308 -0.62151104 -0.00000088
-0.32499239 0.40546611 -0.13677981
-0.16160622 0.46613491 -0.01973392
-0.57274562 -0.09146804 -0.17226453
-0.61364591 -0.42170605 -0.09108559
-0.31354168 0.26016185 -0.07613193
-0.55149585 -0.21388061 -0.11134833
-0.54260379 -0.32436967 -0.06507520
-0.38060999 0.19041868 -0.10845424
-0.37434259 0.23528746 -0.11888247
-0.53426099 -0.07687994 -0.14479958
-0.52349442 -0.54247898 -0.00000235
-0.21726850 -0.32833111 0.00000016
-0.58264208 -0.45714304 -0.05241146
-0.43815991 -0.74874449 -0.00000248
-0.70706230 -0.47291848 -0.15221170
-0.04685810 0.08204275 -0.00000884
-0.28939220 -0.75539559 -0.00000161
-0.57699990 0.09212998 -0.24024849
-0.44096214 -0.20904265 -0.01946845
-0.47508392 0.21140805 -0.19579501
-0.15122513 -0.37159249 0.00000043
-0.74363399 -0.65721470 -0.11854509
-0.61137277 -0.62358546 -0.01836811
-0.50661939 -0.33466437 -0.03100122
-0.62665308 -0.25006980 -0.16228501
-0.01995333 0.55811256 0.00000046
-0.13149939 -0.45849377 0.00000027
-0.66004789 -0.70863163 -0.02975267
-0.47480223 -0.32178834 -0.00858049
-0.01135513 0.20077211 -0.00000739
-0.09895549 -0.59077936 0.00000006
-0.32487592 -0.40489444 -0.00000073
-0.44906732 -0.21669792 -0.02364572
-0.60147959 -0.18600532 -0.16343895
-0.46833450 -0.08992064 -0.08441407
-0.42001474 0.01988768 -0.08201368
-0.27662650 -0.26961040 -0.00000001
-0.12588030 0.34877455 -0.00000079
-0.53589773 -0.47698262 -0.00588114
-0.70649952 -0.54063755 -0.12798817
-0.28436640 -0.13103759 0.00000037
-0.22879189 0.47861865 -0.08099012
-0.00814765 0.53929424 -0.00000029
-0.18744391 -0.33221531 0.00000033
-0.71044171 -0.37513712 -0.18936166
-0.51757872 -0.29589084 -0.05387601
-0.00130219 -0.14700145 0.00000205
-0.48152724 -0.45642939 -0.00000183
-0.27889130 -0.41176060 -0.00000047
-0.26617503 0.32322642 -0.05814678
-0.65797460 -0.07516486 -0.25013533
-0.28445598 0.21252201 -0.03480247
-0.25248560 -0.54608715 -0.00000073
-0.49573767 -0.23302504 -0.05743078
-0.42216700 0.02595685 -0.08596403
-0.27539632 -0.49580228 -0.00000071
-0.66748750 -0.37194148 -0.15411817
-0.17442745 0.13116433 -0.00000395
-0.12120610 -0.44867980 0.00000037
-0.05039081 0.33799803 -0.00000330
-0.17946593 -0.23754530 0.00000067
-0.40702483 0.29160583 -0.16630001
-0.44388980 -0.01842862 -0.08878961
-0.07175380 0.20639847 -0.00000545
-0.31693488 0.36649379 -0.11629201
-0.26276162 -0.77496457 -0.00000151
-0.07277317 0.50434399 0.00000091
-0.34699059 -0.01642388 -0.00745897
