ply
format ascii 1.0
element vertex 1364
property float x
property float y
property float z
end_header
0.21023345 -0.20408677 -0.00000037
-0.76982796 -0.29943624 0.00000000
0.64539218 -0.32234600 -0.00000049
-0.65501887 -0.29695255 -0.00000010
-0.63339704 -0.74847859 -0.00000003
0.64706737 0.04329309 -0.00000088
-0.47903302 0.02630959 -0.00000035
0.07935394 -0.40580723 -0.00000025
0.67959344 -0.42761517 -0.00000042
-0.77581578 -0.18560115 0.00000000
-0.22665702 0.72119844 -0.00000072
0.26003492 -0.76175988 -0.00000002
-0.07372325 0.11171205 -0.00000057
-0.20328711 -0.65789855 -0.00000009
-0.33271295 -0.20491575 -0.00000037
-0.55615360 0.59189796 -0.00000030
0.44738162 0.00240251 -0.00000063
-0.16886304 -0.51767766 -0.00000018
-0.43404904 -0.65879989 -0.00000009
-0.61610287 0.15052570 -0.00000022
-0.22119471 0.40012866 -0.00000069
-0.53325862 0.46987289 -0.00000033
0.21091031 0.34340656 -0.00000074
0.18805157 -0.16812596 -0.00000039
-0.32878932 -0.22729050 -0.00000036
0.11168763 -0.00145276 -0.00000050
0.73122287 -0.73110068 -0.00000009
0.50674564 0.22497101 -0.00000093
-0.10215573 0.65554190 -0.00000086
-0.69346237 -0.10914724 -0.00000009
0.66671693 -0.42585510 -0.00000040
0.30854601 0.21693988 -0.00000071
-0.30718249 -0.16395766 -0.00000040
0.56346685 -0.05638993 -0.00000069
-0.77313203 0.07063471 -0.00000003
-0.38755509 -0.78121710 -0.00000001
-0.78722405 -0.73229730 0.00000000
-0.55327755 0.33917952 -0.00000031
0.28242582 0.37363306 -0.00000085
-0.65307516 -0.70753044 -0.00000003
0.36360517 0.05806680 -0.00000060
-0.22294895 0.25047132 -0.00000066
0.53412747 -0.12444124 -0.00000058
0.40999803 0.28528035 -0.00000089
0.35029393 -0.73036277 -0.00000004
-0.64455479 0.36770406 -0.00000019
-0.74814487 0.07376119 -0.00000006
0.26119816 -0.08808000 -0.00000044
-0.43693212 -0.42752445 -0.00000023
-0.32949233 0.77168018 -0.00000059
-0.69528306 -0.17947683 -0.00000008
-0.46321109 -0.55952919 -0.00000015
0.37596437 -0.07448578 -0.00000047
-0.36271861 -0.49572450 -0.00000019
-0.15329401 0.52436799 -0.00000079
0.35186332 -0.03436055 -0.00000049
-0.10698253 0.08116337 -0.00000055
0.75814223 -0.22242618 -0.00000072
-0.51996630 -0.42150447 -0.00000022
-0.46869412 -0.36839491 -0.00000027
-0.78829926 0.23129068 -0.00000001
-0.19279782 0.78729266 -0.00000076
0.10027054 0.28688946 -0.00000068
0.21449354 0.12323706 -0.00000058
-0.71002465 0.25013328 -0.00000011
-0.15618914 -0.38223514 -0.00000026
0.26766881 0.44042850 -0.00000090
-0.11777696 0.15734527 -0.00000060
0.48204166 -0.56458509 -0.00000015
-0.42126712 -0.21538793 -0.00000036
0.22491395 -0.32613856 -0.00000030
0.20924424 0.16934569 -0.00000061
0.06151106 0.09174321 -0.00000056
0.19714801 -0.72681290 -0.00000005
0.28344774 0.21827301 -0.00000068
-0.23754187 0.70361584 -0.00000070
-0.12607099 -0.62030262 -0.00000011
-0.66704834 -0.58456743 -0.00000003
-0.66713309 0.26886779 -0.00000017
0.77545172 -0.66919684 -0.00000016
-0.66465396 0.77567011 -0.00000017
-0.10198052 0.03975093 -0.00000052
-0.16952513 0.49036294 -0.00000076
-0.66252387 -0.22110575 -0.00000011
0.19261231 -0.53155887 -0.00000017
0.29000378 -0.61123627 -0.00000012
-0.04268450 0.23794949 -0.00000065
0.78291869 -0.52638537 -0.00000034
-0.64566863 0.01835503 -0.00000017
-0.49676111 0.07188632 -0.00000034
-0.65222865 -0.65848833 -0.00000004
0.37604138 0.20439310 -0.00000077
0.04456435 -0.46729317 -0.00000021
-0.39388445 -0.50175416 -0.00000019
-0.68995214 0.37264735 -0.00000014
0.01793920 -0.29048625 -0.00000032
0.42497930 0.25109416 -0.00000087
0.05080462 -0.53793925 -0.00000016
0.21447212 -0.57772642 -0.00000014
0.39073065 -0.16715169 -0.00000040
-0.06592027 -0.50367582 -0.00000019
-0.21773364 0.69820827 -0.00000073
0.04028308 0.22610763 -0.00000064
-0.33110112 -0.29472560 -0.00000032
-0.51296580 0.73071128 -0.00000036
-0.05405284 0.44286135 -0.00000078
0.37629652 0.09579796 -0.00000065
0.77880520 -0.68219882 -0.00000015
-0.10093571 0.29811069 -0.00000069
0.04444813 -0.13961287 -0.00000041
-0.54771972 0.30369532 -0.00000032
0.67356795 -0.33779329 -0.00000050
-0.59836334 0.74250102 -0.00000025
0.26909408 -0.46330985 -0.00000021
0.14045084 0.58202827 -0.00000092
-0.59036094 -0.41610023 -0.00000015
0.25072035 -0.78269219 -0.00000001
0.66970950 0.07451284 -0.00000094
-0.61089545 -0.75199389 -0.00000003
0.64839870 -0.40648663 -0.00000040
-0.44513059 0.66952717 -0.00000044
0.64546996 -0.04854213 -0.00000078
-0.23168673 -0.08845805 -0.00000044
-0.18391751 -0.58734137 -0.00000013
-0.17217605 -0.07417328 -0.00000045
0.73867273 -0.04132812 -0.00000089
0.28287849 -0.56302249 -0.00000015
-0.60327446 0.66515297 -0.00000025
-0.31971633 -0.07890699 -0.00000045
0.02495136 0.20448346 -0.00000063
0.51140440 0.06302448 -0.00000076
-0.43140730 0.00792126 -0.00000039
-0.21241994 0.30771995 -0.00000068
-0.21966369 0.20138168 -0.00000063
-0.62400120 -0.24880955 -0.00000014
-0.17290381 -0.76327461 -0.00000002
0.50857288 -0.43849227 -0.00000023
0.33821586 -0.65725023 -0.00000009
0.13401479 0.36493275 -0.00000073
-0.56384075 0.18486887 -0.00000029
-0.52293116 -0.46544999 -0.00000021
-0.70774424 -0.62317711 0.00000000
-0.20056020 -0.41058892 -0.00000024
0.28165680 -0.04282764 -0.00000047
-0.69845295 0.60671067 -0.00000013
-0.56694031 0.32971564 -0.00000029
-0.28502741 -0.74416643 -0.00000003
0.01774883 -0.53753877 -0.00000016
-0.71167165 0.34249640 -0.00000011
-0.69724792 -0.65482962 0.00000000
0.45552576 -0.31453288 -0.00000030
0.30715883 -0.34681469 -0.00000028
0.14646342 -0.57740605 -0.00000014
-0.01215383 -0.68799961 -0.00000007
0.52640450 -0.65739846 -0.00000009
0.25296095 -0.29598215 -0.00000032
0.23914428 -0.38967460 -0.00000026
0.29090038 -0.47691622 -0.00000020
0.54958397 -0.76238304 -0.00000002
-0.18565074 0.16400340 -0.00000060
0.25816914 -0.02008954 -0.00000049
-0.75135696 -0.66400522 0.00000000
0.19351628 0.23448758 -0.00000065
-0.54768801 0.39794734 -0.00000032
0.62985319 -0.13867897 -0.00000067
0.40110523 0.07264137 -0.00000065
-0.45749184 -0.41752422 -0.00000024
0.21590687 0.23824716 -0.00000065
0.63727814 -0.33684051 -0.00000047
0.12051022 0.12020995 -0.00000058
0.58647066 -0.78483421 -0.00000001
0.50189942 -0.00656178 -0.00000067
0.35368013 -0.24639055 -0.00000035
0.20168366 0.04677351 -0.00000053
-0.53368092 -0.63624883 -0.00000010
-0.24719571 -0.49925533 -0.00000019
-0.27189654 -0.11566936 -0.00000043
-0.10349175 0.39096832 -0.00000074
0.53544980 0.08776506 -0.00000081
0.19258308 -0.43417850 -0.00000023
-0.39503816 0.38015553 -0.00000050
-0.56425554 0.10822372 -0.00000027
-0.50611460 0.35043603 -0.00000037
0.12251529 -0.71700084 -0.00000005
0.34287480 0.00714758 -0.00000052
0.11075454 0.47900224 -0.00000080
-0.15607853 0.05681997 -0.00000054
-0.37071952 -0.04664391 -0.00000045
-0.64466012 0.25682396 -0.00000019
-0.00690564 0.46209997 -0.00000079
-0.14423414 0.13625802 -0.00000059
-0.17479806 0.08500622 -0.00000055
-0.02188509 -0.30447376 -0.00000031
-0.51529860 0.77547985 -0.00000036
0.37165022 -0.55072212 -0.00000016
-0.35901472 0.23958276 -0.00000051
-0.53773206 0.31216449 -0.00000033
0.43353325 -0.77762485 -0.00000001
-0.08137693 -0.24963649 -0.00000034
-0.13252430 -0.34236473 -0.00000029
-0.60728586 0.11199614 -0.00000023
-0.33049861 -0.32438412 -0.00000030
0.55057085 0.09538678 -0.00000084
-0.55639195 0.10823850 -0.00000028
0.72586840 0.01519037 -0.00000094
-0.02332618 0.76706690 -0.00000097
-0.69543028 -0.40822980 -0.00000004
0.75222170 -0.13130306 -0.00000081
0.23816092 0.30055627 -0.00000072
-0.66859269 -0.21860600 -0.00000010
0.15965794 0.15843837 -0.00000060
-0.08903489 0.31274036 -0.00000070
-0.45584485 0.14833020 -0.00000039
0.41253218 -0.70224613 -0.00000006
-0.10212782 0.31124717 -0.00000069
0.31127471 -0.36826321 -0.00000027
0.72767681 -0.42905283 -0.00000046
-0.15296932 -0.19056858 -0.00000038
0.07984196 0.58906597 -0.00000087
-0.68574464 0.29213503 -0.00000014
-0.48391578 -0.03270916 -0.00000033
0.06750024 -0.31392145 -0.00000030
0.07528035 0.32072207 -0.00000070
0.17444073 0.54396915 -0.00000091
-0.17497635 0.02499725 -0.00000052
0.58877337 -0.76965380 -0.00000002
-0.03114677 0.28456178 -0.00000068
0.01023782 0.02583260 -0.00000052
-0.43355680 0.46919358 -0.00000046
0.65668857 -0.58262801 -0.00000023
-0.24386197 0.48311022 -0.00000068
0.07752938 -0.25534034 -0.00000034
-0.29841122 -0.49362919 -0.00000019
-0.79930866 -0.63229549 0.00000000
0.15071215 0.43355525 -0.00000077
0.31705338 0.32273713 -0.00000083
-0.75144094 -0.66389722 0.00000000
-0.44170842 0.42473009 -0.00000045
-0.69243288 0.62647319 -0.00000013
-0.50645149 0.63701630 -0.00000037
-0.21654329 -0.70037353 -0.00000006
0.19029722 0.09831711 -0.00000056
-0.03395416 0.68765676 -0.00000093
-0.09884286 -0.26757985 -0.00000033
0.75717837 -0.43604231 -0.00000045
-0.57274604 -0.50467467 -0.00000015
0.72586226 -0.06317993 -0.00000085
0.44980517 -0.36810079 -0.00000027
-0.63866478 -0.08796123 -0.00000016
-0.57619005 0.65878326 -0.00000028
-0.63043272 0.49107951 -0.00000021
-0.36806098 -0.69167346 -0.00000007
0.23719271 -0.77565998 -0.00000002
0.04865963 -0.62385231 -0.00000011
0.15210246 -0.27765313 -0.00000033
-0.02250124 -0.54209775 -0.00000016
0.44048393 -0.48741931 -0.00000020
-0.75033420 0.09419240 -0.00000006
0.02998455 0.73272991 -0.00000096
-0.66558111 0.31612957 -0.00000017
0.25605935 0.29308888 -0.00000073
-0.35882115 -0.03972814 -0.00000046
-0.67132217 0.05017846 -0.00000015
0.18954752 0.38880935 -0.00000076
-0.74179441 0.55071431 -0.00000007
-0.07903257 -0.56988823 -0.00000014
0.02769684 0.42080772 -0.00000076
-0.28627434 -0.66313076 -0.00000009
-0.43547827 -0.61594582 -0.00000012
-0.06460442 -0.51817471 -0.00000018
0.79606724 -0.66191912 -0.00000017
-0.60400909 -0.47739944 -0.00000012
0.66003501 -0.20529494 -0.00000063
0.67809534 -0.79382706 -0.00000001
-0.62702465 0.25776598 -0.00000022
-0.39080721 0.25250554 -0.00000048
-0.19287874 -0.20918603 -0.00000037
0.61541653 -0.42813268 -0.00000035
-0.53827000 0.63837868 -0.00000033
0.23358528 -0.38687783 -0.00000026
0.23482572 -0.54278857 -0.00000016
0.34630233 0.35479009 -0.00000089
-0.72387886 -0.37252927 -0.00000001
0.06772008 0.12654427 -0.00000058
-0.61462826 -0.39632627 -0.00000013
-0.40043452 0.70598131 -0.00000050
-0.40744439 -0.62145120 -0.00000011
0.07560024 -0.50503498 -0.00000018
-0.63982010 0.23536789 -0.00000020
0.07745966 0.04001055 -0.00000053
-0.44033065 0.18016113 -0.00000042
-0.47159758 -0.13168684 -0.00000033
0.18053341 -0.18908899 -0.00000038
-0.57570910 -0.26600158 -0.00000019
-0.32632661 0.70754862 -0.00000059
-0.38505667 -0.56164849 -0.00000015
-0.70648456 0.45090213 -0.00000012
0.46322495 -0.02292666 -0.00000062
-0.72974759 -0.43530947 0.00000000
-0.47418967 -0.11073629 -0.00000033
0.22985606 -0.27654198 -0.00000033
0.47115344 0.02045391 -0.00000067
0.11656710 0.56973618 -0.00000088
-0.04042325 -0.19517818 -0.00000038
0.37116218 -0.14689013 -0.00000041
-0.13810113 -0.08414558 -0.00000045
-0.06370574 0.54235756 -0.00000084
-0.58719385 -0.09383721 -0.00000021
0.34007785 -0.61164403 -0.00000012
-0.56130171 -0.76535815 -0.00000002
0.49196091 -0.49523047 -0.00000019
-0.63542140 0.03845861 -0.00000018
-0.06775624 -0.19710247 -0.00000038
0.41407782 -0.08547817 -0.00000050
0.20736505 0.54051352 -0.00000094
-0.35973495 -0.32298115 -0.00000030
0.43830502 0.30010775 -0.00000093
0.18381201 -0.16573010 -0.00000040
-0.08817045 -0.67271125 -0.00000008
0.16996297 0.24180920 -0.00000065
-0.50826234 0.48741066 -0.00000036
-0.65881020 -0.09841053 -0.00000013
-0.17834674 0.18634839 -0.00000062
0.55386275 -0.25071663 -0.00000047
-0.35491070 -0.38097155 -0.00000026
-0.50944382 -0.58299172 -0.00000014
0.53794944 -0.40955395 -0.00000028
0.03380552 -0.45482361 -0.00000022
-0.48482594 -0.20625024 -0.00000030
-0.30156368 -0.32225004 -0.00000030
0.21663637 -0.54004502 -0.00000016
0.36266917 -0.70808250 -0.00000006
0.01132249 0.77396262 -0.00000098
-0.37489942 -0.35388130 -0.00000028
0.33507234 0.20788012 -0.00000073
-0.69734931 0.01869024 -0.00000011
-0.16796218 -0.70561844 -0.00000006
-0.23048681 -0.27526596 -0.00000033
0.18157920 0.16548218 -0.00000060
-0.32449415 -0.78449768 -0.00000001
-0.46458679 -0.51417851 -0.00000018
-0.38043973 -0.73744774 -0.00000004
0.78154683 -0.78305930 -0.00000002
-0.36932865 0.59620816 -0.00000054
0.10224821 0.59264505 -0.00000089
-0.43830252 -0.56054163 -0.00000015
0.02141637 -0.07925056 -0.00000045
0.09768534 -0.30708554 -0.00000031
-0.15076081 0.22391340 -0.00000064
-0.36868739 0.01804520 -0.00000046
-0.27588364 -0.26687342 -0.00000033
-0.48101258 -0.15466917 -0.00000031
-0.73621053 -0.47043452 0.00000000
-0.44333830 -0.30367580 -0.00000031
0.13314654 -0.79982919 -0.00000000
-0.65079612 -0.68070549 -0.00000003
-0.28308848 -0.56980181 -0.00000014
0.58830863 -0.14642988 -0.00000062
0.38050041 0.37100670 -0.00000095
-0.04698100 0.15062670 -0.00000059
-0.30893975 -0.07605841 -0.00000045
-0.73473698 -0.09834924 -0.00000005
-0.16770060 -0.73103833 -0.00000004
0.73993093 -0.00019511 -0.00000094
0.60708106 -0.08828514 -0.00000070
-0.78362054 -0.51181573 0.00000000
0.66701889 -0.42767888 -0.00000040
0.56365734 -0.76593733 -0.00000002
0.29302856 -0.13597709 -0.00000042
-0.03045876 0.07065768 -0.00000054
-0.67249775 -0.03896626 -0.00000013
0.45955542 -0.05468300 -0.00000058
-0.48501095 0.56992036 -0.00000039
0.23572765 0.19142412 -0.00000062
-0.59208971 0.49809542 -0.00000026
-0.14993802 -0.38305408 -0.00000026
0.18006282 0.60998565 -0.00000099
0.79734993 -0.78859377 -0.00000001
-0.07900745 -0.10231990 -0.00000044
-0.32414702 -0.35647997 -0.00000028
0.14619946 0.45386964 -0.00000079
0.50859791 0.17833784 -0.00000088
0.44590753 -0.24090108 -0.00000037
-0.38774976 0.36700496 -0.00000051
0.18007013 -0.48006633 -0.00000020
-0.72636068 -0.61866391 0.00000000
-0.40267196 -0.75366932 -0.00000003
-0.75120336 -0.66607523 0.00000000
-0.30273101 -0.17061730 -0.00000039
-0.38604733 0.03734769 -0.00000045
0.74356323 -0.48981932 -0.00000039
-0.76581413 0.60265976 -0.00000004
0.34043998 0.32183912 -0.00000085
0.24992213 -0.05307966 -0.00000047
0.29904220 -0.56423771 -0.00000015
-0.60680807 -0.45444477 -0.00000012
-0.37577409 -0.00900459 -0.00000045
-0.45431909 0.21772178 -0.00000041
-0.27936614 -0.62640840 -0.00000011
-0.33671498 0.28452641 -0.00000055
0.12910359 -0.39721796 -0.00000025
-0.38560870 -0.44021335 -0.00000022
-0.71956813 0.15670313 -0.00000010
-0.02490976 0.79600358 -0.00000097
-0.16087434 -0.37189150 -0.00000027
-0.77977240 -0.22128510 0.00000000
-0.22898616 -0.70947021 -0.00000006
-0.61991656 0.22182450 -0.00000023
0.02979858 -0.45691413 -0.00000021
-0.35955203 -0.03319076 -0.00000046
-0.13819826 0.14920805 -0.00000059
0.15853716 0.36906445 -0.00000073
-0.20627780 0.47208193 -0.00000072
0.34724620 -0.28787419 -0.00000032
-0.43410644 -0.05118479 -0.00000038
-0.72870958 0.49075627 -0.00000009
-0.27131632 -0.63974148 -0.00000010
0.22253662 -0.25306219 -0.00000034
-0.50842971 -0.72504193 -0.00000005
-0.27572912 0.32316780 -0.00000062
-0.51955903 0.48036647 -0.00000035
0.77854097 -0.41440108 -0.00000048
0.11339590 0.20874727 -0.00000063
-0.63106918 0.74655217 -0.00000021
-0.28556871 -0.56831747 -0.00000014
-0.73969465 -0.69445199 0.00000000
0.06553317 0.10008811 -0.00000056
-0.75691164 -0.28225163 0.00000000
0.49524012 -0.16174652 -0.00000050
-0.47646582 0.22108021 -0.00000039
0.73815280 -0.28868195 -0.00000063
-0.04914465 0.30042532 -0.00000069
-0.64399695 0.58423901 -0.00000020
0.01943161 0.56593108 -0.00000085
0.09489319 0.41546246 -0.00000076
0.27968413 -0.74204189 -0.00000004
-0.02449627 0.41516468 -0.00000076
-0.49201661 0.62923771 -0.00000038
0.18745792 -0.57099169 -0.00000014
-0.73474395 -0.06655467 -0.00000006
-0.07854519 0.17401405 -0.00000061
0.28559965 0.40350449 -0.00000088
-0.74415165 0.38467163 -0.00000007
0.14357583 -0.23267159 -0.00000035
0.06197497 -0.44854423 -0.00000022
-0.43997699 0.76674801 -0.00000045
-0.56079483 -0.72437507 -0.00000005
0.05017759 0.09190132 -0.00000056
-0.50232047 -0.19823320 -0.00000028
0.76675123 -0.54739040 -0.00000032
-0.26012361 -0.13940515 -0.00000041
0.43802032 -0.65411067 -0.00000009
-0.10769744 0.36489263 -0.00000073
-0.07046879 0.42646283 -0.00000077
0.15685154 0.11609229 -0.00000057
-0.74944186 0.49077722 -0.00000006
-0.29784739 -0.04184942 -0.00000047
-0.49987456 -0.25417668 -0.00000027
0.28255007 0.28911549 -0.00000076
0.27704656 -0.23216918 -0.00000035
0.06372971 -0.56111842 -0.00000015
-0.05801522 0.57517183 -0.00000086
-0.69087100 -0.49438635 -0.00000003
-0.48193735 0.51774651 -0.00000040
0.27543509 -0.03673387 -0.00000048
-0.76891387 -0.74805748 0.00000000
-0.22700801 -0.56017107 -0.00000015
0.59528047 -0.19939990 -0.00000057
-0.18291213 -0.18965052 -0.00000038
-0.73439813 0.47757784 -0.00000008
0.22256109 0.31667122 -0.00000072
0.60242045 0.13914427 -0.00000094
0.35244051 -0.13398312 -0.00000042
0.11720895 -0.34567073 -0.00000028
0.54847360 0.10452796 -0.00000084
-0.55252445 0.70506853 -0.00000031
0.08862138 -0.00673858 -0.00000050
-0.36689526 0.74817187 -0.00000054
-0.23077093 -0.20667043 -0.00000037
-0.38199383 0.48430404 -0.00000052
0.21206486 0.56261265 -0.00000097
-0.21650285 -0.41795695 -0.00000024
0.36252904 -0.35894138 -0.00000028
-0.58355975 -0.49548551 -0.00000014
0.68506426 -0.34202242 -0.00000051
0.13158062 -0.60595226 -0.00000012
-0.12735914 0.41783008 -0.00000076
0.26871130 -0.67744702 -0.00000008
0.57231885 0.21372546 -0.00000099
-0.15411744 -0.12468001 -0.00000042
-0.05366137 0.16630706 -0.00000060
0.18566228 -0.54752630 -0.00000016
-0.36927873 -0.70520669 -0.00000006
0.14155298 -0.58821249 -0.00000013
-0.42298827 0.60421062 -0.00000047
-0.58031100 0.00727492 -0.00000024
0.37497041 -0.79964894 -0.00000000
0.59887844 -0.17856179 -0.00000059
0.15648313 -0.31285569 -0.00000030
0.66774148 -0.78018010 -0.00000002
0.20750798 -0.13460220 -0.00000042
0.77798259 -0.76373971 -0.00000005
-0.75677854 0.45379743 -0.00000005
0.70607328 -0.60618204 -0.00000024
-0.79871649 0.52796268 -0.00000000
-0.25919592 0.69685405 -0.00000068
0.61343551 -0.10332955 -0.00000069
-0.16936900 -0.38036117 -0.00000026
-0.08648899 0.62849188 -0.00000088
-0.14249019 -0.24258342 -0.00000035
-0.44225648 0.23815621 -0.00000043
0.53829175 0.22780754 -0.00000096
-0.36971438 0.51988339 -0.00000054
-0.79548442 -0.53946865 0.00000000
-0.48558399 -0.52765763 -0.00000017
-0.70171636 0.31748262 -0.00000012
-0.39894396 -0.51920140 -0.00000018
-0.01459327 0.36046979 -0.00000073
-0.36483711 -0.48392275 -0.00000020
0.18949011 0.55749887 -0.00000094
0.14273240 -0.26266509 -0.00000034
0.05969709 -0.28478596 -0.00000032
-0.07113347 0.44241974 -0.00000078
0.33693352 -0.58161724 -0.00000014
0.06739094 0.54486328 -0.00000084
-0.15184861 0.37712958 -0.00000074
-0.14698365 0.05347760 -0.00000053
-0.18750671 0.51134759 -0.00000075
0.10772452 0.64177579 -0.00000095
-0.78548086 0.60141075 -0.00000002
-0.16038258 -0.68021011 -0.00000007
0.20092300 -0.56318027 -0.00000015
0.65950686 -0.24590707 -0.00000059
-0.34164155 0.30162886 -0.00000054
-0.37850443 0.01996979 -0.00000045
-0.13531066 0.75890875 -0.00000083
0.47656918 0.22810604 -0.00000090
-0.49697751 -0.65663344 -0.00000009
-0.55954540 0.05316270 -0.00000027
0.35479823 -0.20587006 -0.00000037
-0.43461105 -0.63821477 -0.00000010
0.08946890 -0.76138431 -0.00000002
0.04817715 -0.32297218 -0.00000030
0.11310349 -0.49127510 -0.00000019
-0.29560131 0.62887746 -0.00000063
0.08586494 -0.61924922 -0.00000011
0.01186947 0.31814891 -0.00000070
-0.16811340 0.17476352 -0.00000061
0.46168616 -0.62225747 -0.00000011
0.27793637 0.21470445 -0.00000067
0.12090728 0.44489297 -0.00000078
0.33268270 -0.30124041 -0.00000031
0.23577522 -0.32610333 -0.00000030
0.66907346 -0.34778103 -0.00000049
-0.62168449 -0.37413338 -0.00000012
0.20096287 -0.72739834 -0.00000005
-0.42513859 -0.40370449 -0.00000025
0.71570760 0.03897526 -0.00000095
-0.56934512 -0.36934271 -0.00000018
-0.47102043 0.69436836 -0.00000041
0.07231649 0.16619129 -0.00000060
-0.17657758 -0.47799563 -0.00000020
-0.58991319 -0.70416409 -0.00000006
-0.56671780 -0.76254052 -0.00000002
-0.34206712 0.45905468 -0.00000057
-0.23139344 -0.69940454 -0.00000006
-0.55616677 0.52282327 -0.00000030
-0.22108962 0.02617071 -0.00000052
0.26968786 0.02776314 -0.00000052
-0.78959036 0.19621290 -0.00000001
0.10634459 0.46711594 -0.00000079
0.36983728 -0.57416534 -0.00000014
-0.53282571 -0.54129398 -0.00000016
0.10281880 -0.40101200 -0.00000025
-0.79386711 -0.75978845 0.00000000
-0.07776456 0.29115918 -0.00000068
0.60470653 -0.17349979 -0.00000061
-0.53511876 0.25795084 -0.00000033
-0.21796101 0.72939771 -0.00000073
-0.67239243 -0.52033633 -0.00000004
0.58791506 -0.39692697 -0.00000035
-0.22961967 0.60819811 -0.00000071
-0.77718383 0.31516865 -0.00000003
0.06041874 0.40310007 -0.00000075
-0.78007656 0.15675092 -0.00000002
-0.32467028 0.27001497 -0.00000056
0.30191362 -0.13305229 -0.00000042
0.37508360 -0.61667961 -0.00000011
-0.70264208 0.18598361 -0.00000012
-0.55694950 -0.27420309 -0.00000021
-0.34392509 0.15532453 -0.00000052
-0.64356297 0.18591189 -0.00000020
-0.49086097 0.48644295 -0.00000039
0.32717696 -0.43060651 -0.00000023
0.32060358 0.28185141 -0.00000079
-0.17758276 0.15592450 -0.00000060
-0.45239761 0.59905618 -0.00000043
0.42927042 -0.19184653 -0.00000040
-0.32892686 -0.16992334 -0.00000039
-0.68572980 -0.10495856 -0.00000010
-0.27570745 0.22995000 -0.00000060
-0.26191768 0.06500361 -0.00000054
0.40988261 -0.25118890 -0.00000034
0.16773717 -0.46128172 -0.00000021
-0.64349020 0.61430609 -0.00000020
-0.64774454 0.05426515 -0.00000017
-0.21554779 0.32317013 -0.00000068
-0.50818765 -0.25884351 -0.00000026
-0.61005396 0.26318455 -0.00000024
-0.69859350 0.75215107 -0.00000013
0.26715359 -0.15360270 -0.00000040
0.72779024 -0.23478492 -0.00000067
-0.06908445 0.70955735 -0.00000091
0.20824155 -0.05008676 -0.00000047
-0.53859860 0.64139634 -0.00000033
0.12700398 -0.37161127 -0.00000027
-0.31249517 0.43019307 -0.00000060
0.75758982 -0.68366617 -0.00000015
-0.62589455 -0.74713868 -0.00000003
0.42635411 0.16684932 -0.00000078
-0.68665177 -0.48933604 -0.00000003
0.22061010 -0.54367286 -0.00000016
-0.74217325 0.37133807 -0.00000007
-0.16206916 -0.12322288 -0.00000042
0.10022654 -0.37076935 -0.00000027
-0.41932774 0.03903078 -0.00000041
0.64242041 -0.16954266 -0.00000065
-0.15312377 -0.07975891 -0.00000045
-0.74206746 -0.51123446 0.00000000
-0.43173891 0.68248498 -0.00000046
-0.67483556 0.17872214 -0.00000016
-0.30211040 0.71152008 -0.00000062
0.34755638 -0.45808861 -0.00000021
0.15131088 -0.23731668 -0.00000035
0.55654740 0.19576605 -0.00000095
0.63304162 -0.41034430 -0.00000038
-0.15328787 -0.78029412 -0.00000001
-0.04328718 -0.38068482 -0.00000026
-0.07325880 -0.16681954 -0.00000040
-0.70950508 0.20193639 -0.00000011
-0.27537277 0.61924911 -0.00000066
0.10897267 0.06829941 -0.00000054
-0.16193235 -0.73606670 -0.00000004
-0.61270833 -0.63898486 -0.00000008
0.62946880 -0.47334477 -0.00000031
-0.68910456 0.74015146 -0.00000014
0.36271006 -0.59813106 -0.00000013
-0.03163881 -0.51607996 -0.00000018
-0.26222223 0.74567676 -0.00000067
0.25200042 -0.13703029 -0.00000041
0.76876014 -0.48706827 -0.00000039
-0.63005984 0.53298509 -0.00000021
-0.40852234 -0.25795838 -0.00000034
-0.72641379 -0.03526708 -0.00000007
0.73426980 -0.61132085 -0.00000024
0.17090692 -0.16935878 -0.00000039
0.27301428 0.48260054 -0.00000095
-0.23613554 0.44296500 -0.00000068
-0.06622279 0.51056212 -0.00000082
0.43089008 0.28943151 -0.00000091
-0.16231675 0.07631093 -0.00000055
-0.61764562 -0.03929984 -0.00000019
-0.00906324 0.08077663 -0.00000055
-0.17561923 -0.06381854 -0.00000046
-0.06532172 0.21158922 -0.00000063
-0.77089179 0.00214782 -0.00000003
0.59007633 -0.04532976 -0.00000073
0.39875025 -0.21100898 -0.00000037
-0.53294104 -0.27047205 -0.00000024
-0.56111127 0.72076637 -0.00000030
-0.48364529 -0.75433701 -0.00000003
-0.21570276 -0.41172433 -0.00000024
0.32614854 -0.41489184 -0.00000024
-0.70632374 -0.15390033 -0.00000007
0.43774790 -0.75604862 -0.00000003
-0.74324787 -0.79263484 0.00000000
-0.46763703 -0.76077658 -0.00000002
-0.02401958 0.61086363 -0.00000088
0.23977727 0.31612325 -0.00000074
0.47902641 0.27069885 -0.00000095
-0.64893001 -0.28767714 -0.00000011
-0.46865582 0.15902130 -0.00000038
-0.61317593 -0.78668249 -0.00000001
0.56655252 0.05604521 -0.00000081
0.13822562 0.29369256 -0.00000068
0.28646806 -0.25998878 -0.00000034
-0.64914018 -0.19842099 -0.00000012
0.21800748 -0.68494856 -0.00000007
-0.79677093 0.71271372 -0.00000000
0.07177597 -0.58330911 -0.00000014
0.17917897 0.25513783 -0.00000066
-0.04866480 -0.19729596 -0.00000038
0.19668734 0.13995527 -0.00000059
-0.66779053 -0.17151228 -0.00000011
-0.03670769 -0.06615694 -0.00000046
-0.40096712 0.57928079 -0.00000050
0.21490461 0.56819057 -0.00000098
0.49888825 -0.68942970 -0.00000007
0.67684197 -0.25701934 -0.00000059
0.02751056 -0.11330141 -0.00000043
0.22483717 0.26506659 -0.00000067
-0.53981334 0.49247971 -0.00000033
-0.44865897 -0.25936651 -0.00000033
0.09935637 0.43029103 -0.00000077
-0.74105299 -0.26390713 -0.00000001
-0.31728372 -0.12858714 -0.00000042
0.13355123 -0.26084656 -0.00000034
0.04799664 -0.27950570 -0.00000033
-0.30866972 -0.45964584 -0.00000021
-0.06829415 -0.62758404 -0.00000011
0.41016617 -0.17201492 -0.00000040
0.23249213 0.49324480 -0.00000092
-0.60208571 -0.52322918 -0.00000012
0.46818510 -0.50792420 -0.00000018
0.57567292 -0.08776463 -0.00000067
-0.12386663 -0.38693380 -0.00000026
-0.26672029 0.41780338 -0.00000065
0.56639242 -0.59718430 -0.00000013
0.43126801 -0.70800036 -0.00000006
0.55462986 -0.54378611 -0.00000016
0.40296960 -0.71478134 -0.00000005
-0.78815979 0.22226374 -0.00000001
-0.66955966 -0.79489768 0.00000000
-0.16535451 0.70840865 -0.00000079
-0.05745287 0.48296699 -0.00000080
-0.29575247 -0.64858752 -0.00000009
-0.06758825 0.00608374 -0.00000050
0.02997375 -0.26928806 -0.00000033
-0.76889157 -0.00502026 -0.00000003
-0.19989702 0.60544920 -0.00000075
0.18880905 -0.05030187 -0.00000047
-0.15308575 -0.66644645 -0.00000008
0.13940363 -0.45838371 -0.00000021
0.16307709 0.57782227 -0.00000094
-0.41705754 0.16883005 -0.00000044
-0.77184737 0.75017452 -0.00000004
0.28945938 0.32440999 -0.00000080
-0.21203595 -0.16428395 -0.00000040
0.17970628 -0.10180955 -0.00000044
-0.64349389 0.65900248 -0.00000020
-0.18780679 0.68479931 -0.00000077
-0.40862489 -0.33107731 -0.00000029
-0.54241997 -0.31023818 -0.00000022
-0.09842683 0.25338677 -0.00000066
-0.41639274 0.67821670 -0.00000048
0.53399247 0.03545048 -0.00000075
-0.39136213 0.49287134 -0.00000051
-0.37146756 0.15814593 -0.00000049
-0.59249753 0.51922953 -0.00000026
-0.30784935 0.25837886 -0.00000057
0.58149338 -0.53409821 -0.00000020
-0.61286598 -0.75608039 -0.00000003
-0.27563927 -0.43650329 -0.00000023
0.37243021 0.25306046 -0.00000081
-0.35469273 -0.42257425 -0.00000024
0.04550305 -0.76067477 -0.00000002
-0.60100877 0.21618813 -0.00000025
-0.79849470 -0.36859149 0.00000000
0.60560244 -0.58557338 -0.00000017
-0.79721451 -0.14927185 0.00000000
-0.40045300 -0.60245377 -0.00000012
0.56376857 -0.44694099 -0.00000027
0.51025730 0.02387841 -0.00000072
-0.36112151 0.55790162 -0.00000055
-0.74453783 0.70199108 -0.00000007
-0.36443529 -0.04198345 -0.00000046
-0.74413115 0.19464791 -0.00000007
-0.08487280 -0.12025679 -0.00000042
0.26949015 -0.47297105 -0.00000020
-0.71380252 0.74407232 -0.00000011
-0.77593303 -0.62588376 0.00000000
-0.30375350 -0.65919709 -0.00000009
-0.59808415 -0.32499897 -0.00000016
-0.13152747 -0.34123132 -0.00000029
0.30969414 -0.74528021 -0.00000003
-0.48195630 -0.70712245 -0.00000006
-0.10434110 -0.79120058 -0.00000001
0.01006781 0.22323510 -0.00000064
-0.10060248 0.42083269 -0.00000076
0.06768756 0.71710861 -0.00000098
-0.25547773 0.69073355 -0.00000068
0.76356459 -0.22747113 -0.00000072
-0.23168962 0.72060746 -0.00000071
0.71631700 -0.05576789 -0.00000085
0.02272640 0.29969189 -0.00000069
0.11350552 0.55690640 -0.00000086
0.66312492 -0.49234912 -0.00000033
-0.11801149 0.14579883 -0.00000059
0.14026652 -0.47100240 -0.00000021
-0.06676851 -0.73081756 -0.00000004
0.44868988 -0.51142573 -0.00000018
-0.27847746 0.79350162 -0.00000065
0.60118306 0.05453651 -0.00000085
0.38602433 -0.44246867 -0.00000022
0.42500520 0.34373006 -0.00000097
-0.00072931 -0.19000667 -0.00000038
-0.23577580 -0.79588193 -0.00000000
-0.69979453 -0.51337290 -0.00000001
0.55876243 -0.38099995 -0.00000034
0.36487705 -0.27726009 -0.00000033
-0.47176442 -0.32176200 -0.00000029
-0.53060418 0.35008055 -0.00000034
-0.09286372 0.21907780 -0.00000064
-0.66159856 0.60427213 -0.00000017
-0.42846358 0.26063070 -0.00000044
0.08857394 0.57229167 -0.00000086
-0.41019434 0.37266397 -0.00000048
-0.58285874 0.11491169 -0.00000025
0.67534864 -0.67817402 -0.00000014
-0.46453965 0.36657131 -0.00000042
-0.68748134 -0.34549052 -0.00000006
-0.21114253 0.05196948 -0.00000053
-0.60819024 0.64146662 -0.00000024
0.63443190 -0.13362685 -0.00000068
0.38942751 0.03893091 -0.00000060
0.00584661 -0.16230503 -0.00000040
-0.51741320 0.76633549 -0.00000035
-0.02427640 0.04231223 -0.00000053
-0.58782184 0.28930777 -0.00000027
-0.36398995 -0.69819200 -0.00000006
-0.53726101 -0.66045344 -0.00000009
0.36004582 -0.09536400 -0.00000044
0.21213815 -0.44408929 -0.00000022
0.15039916 0.49548519 -0.00000084
-0.75556719 0.14290109 -0.00000006
0.20491229 -0.14032884 -0.00000041
-0.33733186 0.62419891 -0.00000058
0.50695020 -0.69050467 -0.00000007
-0.77689767 0.14414036 -0.00000003
0.24752603 -0.60289150 -0.00000012
0.42031032 -0.36609218 -0.00000027
-0.14288297 -0.03515394 -0.00000048
0.09331542 0.61307234 -0.00000090
-0.03864911 -0.51947016 -0.00000018
0.72368759 -0.55923110 -0.00000030
-0.12131574 0.23062250 -0.00000064
0.49978068 -0.27525038 -0.00000039
-0.69496197 -0.67269176 0.00000000
-0.57852817 0.08081309 -0.00000025
-0.08755401 -0.49408710 -0.00000019
0.01347711 0.03208193 -0.00000052
-0.58760905 -0.41163817 -0.00000015
-0.01987592 -0.70076585 -0.00000006
0.12204387 0.48169732 -0.00000080
-0.38892671 0.42658007 -0.00000051
-0.27136564 0.00916001 -0.00000051
-0.24228075 -0.52622569 -0.00000017
-0.15512761 -0.22178952 -0.00000036
0.13547847 0.27124235 -0.00000067
-0.32643229 -0.58714491 -0.00000013
0.45196286 0.08666409 -0.00000072
-0.48398694 0.05547299 -0.00000035
-0.52237689 0.07398038 -0.00000031
-0.31153256 0.65370899 -0.00000061
-0.19939774 -0.23039939 -0.00000036
0.62073416 -0.27308294 -0.00000052
0.24398477 0.52511275 -0.00000097
0.42444444 -0.10652273 -0.00000049
-0.45531562 0.75569832 -0.00000043
0.00292360 0.04730194 -0.00000053
0.43289620 0.31172574 -0.00000094
0.02634865 -0.31419554 -0.00000030
-0.20836800 0.76238436 -0.00000074
0.01861012 -0.14617044 -0.00000041
0.00099826 -0.03983019 -0.00000048
-0.29004946 -0.36915004 -0.00000027
0.57792258 -0.44700792 -0.00000029
-0.29493576 -0.49896154 -0.00000019
-0.12011514 -0.10367891 -0.00000044
0.36424705 0.28621712 -0.00000084
-0.31945887 -0.61670941 -0.00000011
-0.73774940 -0.18029989 -0.00000003
-0.74150532 0.40254292 -0.00000007
-0.03999376 -0.70397592 -0.00000006
-0.46136358 -0.45194346 -0.00000022
0.14196619 -0.24477114 -0.00000035
-0.28551275 -0.49085802 -0.00000019
-0.51876855 0.37899712 -0.00000035
0.31177470 0.31589884 -0.00000082
-0.44073445 -0.47303864 -0.00000020
-0.54282385 0.03076246 -0.00000028
-0.31741765 0.51868045 -0.00000060
-0.14296813 0.67917681 -0.00000082
0.07493501 -0.41135240 -0.00000024
0.20247944 -0.22721463 -0.00000036
-0.73830026 -0.68628287 0.00000000
-0.44542253 0.45559746 -0.00000044
0.58533281 -0.17727932 -0.00000058
-0.07483995 0.07496029 -0.00000055
-0.13534230 0.41161466 -0.00000076
0.58905500 -0.02920772 -0.00000074
-0.60085756 -0.60846674 -0.00000010
0.59505475 0.08792331 -0.00000088
0.33565024 -0.70158213 -0.00000006
-0.78958976 0.62334746 -0.00000001
0.67786825 -0.73654914 -0.00000008
-0.04452708 -0.69360608 -0.00000007
0.62580144 -0.37930772 -0.00000041
-0.72138953 -0.29654148 -0.00000003
0.63606226 -0.16498373 -0.00000065
-0.50055176 0.67859107 -0.00000037
-0.44430462 0.29520124 -0.00000043
-0.76112860 -0.01937446 -0.00000004
-0.33211440 0.21266957 -0.00000054
0.22324948 0.04877244 -0.00000053
-0.11946558 0.19885018 -0.00000062
-0.38022906 -0.49173951 -0.00000019
0.31266475 -0.69344574 -0.00000007
0.68713176 -0.64344317 -0.00000019
-0.51393890 -0.25462809 -0.00000026
-0.43771866 -0.74176878 -0.00000004
-0.21187915 -0.21286105 -0.00000037
-0.29474366 -0.42892087 -0.00000023
-0.79379904 0.55128890 -0.00000001
0.43700826 0.18169998 -0.00000081
0.26260287 0.35809293 -0.00000081
-0.60986215 -0.13582860 -0.00000018
0.24910337 0.46620435 -0.00000091
0.39020061 -0.27125600 -0.00000033
-0.55272317 0.10953275 -0.00000028
0.75641549 -0.22409537 -0.00000071
0.08841648 0.24174888 -0.00000065
-0.12663940 0.52230537 -0.00000081
-0.62200141 0.44714823 -0.00000022
-0.74557883 -0.52663457 0.00000000
-0.35886988 0.10626890 -0.00000049
-0.22256818 -0.32887265 -0.00000029
0.14551391 -0.54767215 -0.00000016
-0.35279593 0.11606815 -0.00000050
0.23087159 -0.11477702 -0.00000043
0.63002199 0.02510880 -0.00000085
0.04603430 -0.68716049 -0.00000007
0.11619304 0.22320186 -0.00000064
0.19698747 -0.12266866 -0.00000042
0.40748551 0.29914418 -0.00000090
-0.73938745 0.23405039 -0.00000008
-0.46628904 -0.36350912 -0.00000027
-0.48980853 0.74560589 -0.00000039
0.02165766 -0.15438084 -0.00000040
-0.25074118 0.18332745 -0.00000061
-0.15727089 0.69218558 -0.00000080
-0.79717189 -0.04462307 0.00000000
-0.19819683 -0.06632084 -0.00000046
0.09442719 -0.75340539 -0.00000003
-0.44574535 -0.00570066 -0.00000038
0.10446723 0.65843010 -0.00000096
-0.25903407 0.52423239 -0.00000067
0.67915738 0.09853456 -0.00000098
0.26602626 -0.39018556 -0.00000026
-0.78531784 0.22486925 -0.00000002
-0.69133949 -0.38401297 -0.00000005
-0.54264015 -0.10883207 -0.00000025
0.46757010 0.05077171 -0.00000070
-0.45979089 0.45592058 -0.00000043
0.57649904 -0.19179131 -0.00000056
-0.00229369 0.78557462 -0.00000099
-0.68899649 -0.38696739 -0.00000005
-0.55656952 -0.30126122 -0.00000020
0.10443705 0.38372353 -0.00000074
0.49251217 -0.17004544 -0.00000049
-0.01288631 -0.46724275 -0.00000021
0.55464923 -0.65277100 -0.00000009
0.18851598 0.21103610 -0.00000063
-0.64166057 0.57939237 -0.00000020
-0.55975389 -0.62666738 -0.00000011
-0.31307426 -0.66623932 -0.00000008
-0.10635993 -0.21671605 -0.00000036
-0.06386686 -0.18222736 -0.00000039
-0.17130320 0.06803402 -0.00000054
0.59910017 -0.30920604 -0.00000046
-0.17669789 -0.11134983 -0.00000043
0.11857246 0.13306656 -0.00000058
-0.69980294 0.77283931 -0.00000013
0.14152782 0.41097802 -0.00000076
0.28010941 0.08768592 -0.00000055
-0.02300793 -0.11973973 -0.00000043
-0.29430917 0.30895609 -0.00000060
-0.46635795 -0.62238914 -0.00000011
0.71331841 -0.29951644 -0.00000059
0.13240007 -0.76004255 -0.00000002
-0.65918213 -0.56421566 -0.00000005
-0.09633413 -0.14763626 -0.00000041
0.03890487 0.65006888 -0.00000091
-0.47523791 0.43658498 -0.00000041
0.02162621 0.46961558 -0.00000079
-0.45121875 -0.46007246 -0.00000021
-0.62347382 -0.63969290 -0.00000007
0.19321059 0.35293022 -0.00000073
0.07365250 0.70925164 -0.00000098
0.46784911 -0.08874233 -0.00000055
-0.29855540 -0.25026408 -0.00000034
-0.47361958 0.59848362 -0.00000041
0.33363196 -0.57750285 -0.00000014
0.48460469 -0.06422904 -0.00000059
0.26997933 -0.35910389 -0.00000028
0.75398511 -0.38207838 -0.00000052
0.79084206 -0.19586316 -0.00000076
-0.73086506 -0.76061499 0.00000000
-0.65629542 -0.40932477 -0.00000008
0.18197076 -0.10014550 -0.00000044
-0.22272573 0.45522174 -0.00000070
-0.43448415 -0.02533709 -0.00000039
0.73723191 -0.13810022 -0.00000079
0.23313063 -0.21980187 -0.00000036
0.45931870 0.04584715 -0.00000069
0.44971344 0.31899658 -0.00000097
-0.46258891 -0.14500611 -0.00000033
0.21475232 0.20997189 -0.00000063
-0.53717530 -0.48962590 -0.00000019
-0.50938720 0.33190295 -0.00000036
-0.69778931 -0.77192533 0.00000000
0.39865986 -0.12031087 -0.00000044
0.15148088 -0.13588637 -0.00000042
0.26671734 0.22031628 -0.00000067
-0.61701155 0.37558794 -0.00000023
-0.39844793 -0.67009133 -0.00000008
0.04353118 0.59483510 -0.00000087
-0.31105459 -0.75119942 -0.00000003
-0.24850865 0.28109446 -0.00000064
0.54916507 -0.46945822 -0.00000023
-0.69272959 0.64328921 -0.00000013
0.03672881 -0.43325615 -0.00000023
0.13185395 -0.48610985 -0.00000020
-0.17166892 0.37982941 -0.00000074
-0.50801259 -0.15303139 -0.00000028
0.28608030 0.50065404 -0.00000099
0.41552469 -0.01940817 -0.00000057
0.02686764 -0.74519062 -0.00000003
0.37318739 -0.54715365 -0.00000016
-0.30931658 0.32759202 -0.00000058
-0.77946770 -0.75497627 0.00000000
-0.49691549 -0.65493691 -0.00000009
0.21237648 -0.62663865 -0.00000011
-0.40471733 -0.43247992 -0.00000023
0.52868599 0.01493131 -0.00000073
-0.00719543 0.10342784 -0.00000056
-0.29267186 0.21683964 -0.00000058
-0.12172407 0.43637085 -0.00000077
0.04247014 0.13886057 -0.00000059
-0.65704191 0.23273638 -0.00000018
0.32451960 -0.38426641 -0.00000026
-0.36192453 -0.07784796 -0.00000045
0.30115488 -0.38012102 -0.00000026
-0.40951589 0.37289160 -0.00000048
0.15913723 -0.33380735 -0.00000029
-0.30844060 0.33562964 -0.00000059
-0.69700933 0.29883814 -0.00000013
-0.52396804 0.57569939 -0.00000035
-0.69831252 0.55460715 -0.00000013
-0.03021056 0.74880475 -0.00000096
-0.32184127 0.39240518 -0.00000058
-0.41492057 -0.03520334 -0.00000040
-0.34067577 -0.50843847 -0.00000018
-0.71811694 0.30485937 -0.00000010
0.53587013 0.06212388 -0.00000078
-0.15562712 -0.61628574 -0.00000011
-0.40118355 0.04913227 -0.00000043
-0.44059137 -0.11923145 -0.00000036
-0.25623515 0.64380509 -0.00000068
0.52017367 0.26579812 -0.00000099
-0.44266483 -0.33864111 -0.00000029
-0.69122458 -0.72713768 0.00000000
-0.66978604 0.44169170 -0.00000016
0.21867403 0.47452351 -0.00000089
-0.50919473 -0.07792931 -0.00000030
0.36366311 0.13071910 -0.00000067
0.61488104 -0.66419286 -0.00000009
-0.01211359 0.18363634 -0.00000061
0.17190339 0.39997727 -0.00000076
-0.22044732 0.62992096 -0.00000072
-0.39132953 -0.22020403 -0.00000036
-0.74952507 -0.00977444 -0.00000005
0.50605506 -0.30679852 -0.00000036
-0.32263771 0.49724546 -0.00000060
-0.05355604 -0.60519564 -0.00000012
-0.12058306 -0.33882302 -0.00000029
-0.62613636 -0.52557337 -0.00000009
-0.47962666 -0.07992219 -0.00000033
-0.15516548 -0.64730054 -0.00000010
-0.29517007 0.78020829 -0.00000063
0.59865946 0.18414719 -0.00000098
-0.60489708 0.12279649 -0.00000023
0.10258395 0.18073107 -0.00000061
-0.69930458 0.07957563 -0.00000012
0.34902838 -0.63738108 -0.00000010
0.12865540 0.07610613 -0.00000055
-0.63107812 -0.31926787 -0.00000012
0.48199871 -0.59587789 -0.00000013
-0.62172520 -0.79876274 -0.00000000
0.26876405 -0.47383916 -0.00000020
-0.31448677 -0.58005255 -0.00000014
-0.21265677 0.70322520 -0.00000073
-0.04446536 0.66648746 -0.00000092
0.33737275 -0.69772786 -0.00000006
-0.03608405 0.42060274 -0.00000076
0.11368944 0.10145075 -0.00000056
-0.58992851 -0.10663963 -0.00000020
0.60505027 0.18950345 -0.00000099
0.02429958 0.02930117 -0.00000052
0.11635089 -0.19285102 -0.00000038
-0.53115177 -0.35142133 -0.00000022
-0.06957154 -0.46117824 -0.00000021
0.70887971 -0.16390915 -0.00000073
0.31097165 -0.57654154 -0.00000014
-0.66642070 -0.75944507 -0.00000000
0.26036051 -0.70257717 -0.00000006
-0.18925357 -0.09450120 -0.00000044
-0.19398198 0.38360456 -0.00000072
0.15342456 -0.38395596 -0.00000026
-0.13104571 -0.47609621 -0.00000020
-0.45467803 -0.57160836 -0.00000014
-0.53444582 0.14961272 -0.00000031
0.70812839 -0.73178697 -0.00000009
-0.78580898 0.16894339 -0.00000002
-0.52277011 -0.02425421 -0.00000029
-0.09452787 -0.69624412 -0.00000006
0.49978092 0.28209192 -0.00000098
0.12743731 -0.44825333 -0.00000022
0.27913925 -0.23725288 -0.00000035
0.17727388 -0.07628157 -0.00000045
-0.73867404 -0.03569111 -0.00000006
-0.17497516 0.56813586 -0.00000077
0.38615319 -0.25566310 -0.00000034
0.33305368 -0.62861609 -0.00000011
0.39078635 -0.12430794 -0.00000043
-0.22666559 0.03906283 -0.00000052
0.65270931 -0.05046737 -0.00000079
-0.09635894 -0.22597143 -0.00000036
-0.75542849 0.00466777 -0.00000005
-0.37547883 -0.26322162 -0.00000034
-0.64981627 0.28445151 -0.00000019
0.10498602 -0.75096339 -0.00000003
-0.25672555 0.44672179 -0.00000066
0.40606588 0.01035093 -0.00000059
0.09369094 -0.37664312 -0.00000026
-0.00012991 -0.63759261 -0.00000010
-0.19201010 0.23390003 -0.00000065
-0.22314082 -0.33613160 -0.00000029
0.12822907 -0.10725275 -0.00000043
0.17078383 0.16249251 -0.00000060
-0.38078400 0.34644619 -0.00000051
-0.02549299 0.35203248 -0.00000072
-0.56777298 0.65030402 -0.00000029
-0.45713916 -0.66872227 -0.00000008
0.48976237 -0.01076596 -0.00000066
-0.26645640 -0.43079162 -0.00000023
-0.69575626 -0.75409830 0.00000000
0.34753826 -0.28391781 -0.00000032
-0.04490089 -0.01750348 -0.00000049
-0.67762625 0.22872066 -0.00000015
0.47751716 0.04439553 -0.00000070
0.44410118 -0.31592250 -0.00000030
-0.53532827 0.34347311 -0.00000033
-0.12669867 0.72829193 -0.00000084
-0.18008406 -0.61754572 -0.00000011
-0.16770923 0.00950737 -0.00000051
0.76072890 0.03525144 -0.00000100
-0.48511380 0.58539838 -0.00000039
-0.19748491 0.04898491 -0.00000053
0.18149698 -0.22052920 -0.00000036
0.27178010 -0.00796104 -0.00000050
-0.32778192 0.60317659 -0.00000059
-0.04323236 -0.57785004 -0.00000014
-0.32402724 -0.36570910 -0.00000027
0.69842082 -0.32098740 -0.00000055
-0.36707550 -0.07963994 -0.00000045
0.59977430 -0.23965231 -0.00000053
-0.40678367 -0.62651920 -0.00000011
-0.74553454 -0.39697012 0.00000000
0.39465538 -0.05480143 -0.00000051
-0.21478543 -0.61260492 -0.00000012
-0.54329562 0.07219912 -0.00000029
-0.26893035 0.25156635 -0.00000061
-0.04692217 0.44028717 -0.00000078
-0.25802949 0.26323289 -0.00000063
0.05918005 0.23615454 -0.00000065
-0.71835560 -0.28262490 -0.00000004
-0.66535914 -0.11956105 -0.00000012
-0.47362927 0.04104337 -0.00000036
-0.32072204 -0.37419119 -0.00000027
0.27317899 0.43173367 -0.00000090
0.72584212 -0.06617012 -0.00000085
-0.49191883 0.52524900 -0.00000039
0.47662646 0.09801030 -0.00000076
-0.08001571 -0.77566814 -0.00000002
0.22254211 0.33827850 -0.00000074
0.57714546 -0.41582343 -0.00000032
0.79382360 -0.37602478 -0.00000053
0.22894947 -0.61128050 -0.00000012
-0.09252564 0.53901303 -0.00000084
-0.51141286 -0.74511403 -0.00000003
0.14762446 0.22341207 -0.00000064
-0.29672787 0.17397124 -0.00000057
-0.05256699 0.26398221 -0.00000066
-0.78540719 0.30359200 -0.00000002
-0.24637911 0.53315330 -0.00000069
-0.57270479 0.67805928 -0.00000028
-0.13050461 -0.63506734 -0.00000010
0.37624985 0.04638953 -0.00000060
0.58440965 -0.46156764 -0.00000028
0.38320622 0.26220429 -0.00000084
-0.04048946 0.26792789 -0.00000067
0.77279538 -0.01018624 -0.00000096
-0.68484813 -0.35428789 -0.00000006
-0.77246231 0.65455693 -0.00000003
-0.55110317 0.35502884 -0.00000031
-0.14697169 -0.31731677 -0.00000030
0.01921446 -0.40137607 -0.00000025
0.73888689 -0.76765335 -0.00000004
0.37876689 0.18467370 -0.00000075
0.17828634 0.47741100 -0.00000085
-0.06317284 0.09644635 -0.00000056
0.09006851 0.47947302 -0.00000080
-0.19463842 0.22212555 -0.00000064
0.23853560 -0.52607191 -0.00000017
-0.48156953 0.59418392 -0.00000040
-0.43502527 0.35023946 -0.00000045
0.76892239 0.01388782 -0.00000098
-0.59514397 0.76214445 -0.00000026
-0.28032854 -0.63529325 -0.00000010
-0.37625957 -0.37885034 -0.00000026
0.34128460 0.35256708 -0.00000089
-0.50827658 -0.59346592 -0.00000013
-0.72320879 0.56635755 -0.00000010
0.14436121 -0.38145447 -0.00000026
-0.17875159 0.63999182 -0.00000078
-0.07289335 -0.05124730 -0.00000047
-0.60846150 0.71462649 -0.00000024
-0.63695365 -0.55155933 -0.00000007
0.70440096 -0.73894262 -0.00000008
-0.55540949 0.04273730 -0.00000027
0.32512921 -0.22572063 -0.00000036
0.20403680 -0.59490687 -0.00000013
-0.77348202 -0.02920240 -0.00000002
0.03648365 0.62902445 -0.00000089
0.68102330 0.08077536 -0.00000096
0.71187794 -0.60292292 -0.00000025
-0.38775325 -0.38297451 -0.00000026
0.19252831 0.23672251 -0.00000065
0.67331570 -0.09118844 -0.00000077
0.63618761 -0.23595437 -0.00000057
-0.78978997 0.64050269 -0.00000001
-0.59411013 -0.72172737 -0.00000005
-0.52618605 0.72541279 -0.00000034
-0.74482667 -0.26729816 -0.00000001
-0.45355204 0.53752083 -0.00000043
0.47265801 -0.71461791 -0.00000005
0.11797026 0.68074369 -0.00000100
-0.20008317 0.68408233 -0.00000075
-0.36645365 0.02004401 -0.00000047
0.23703338 -0.27459002 -0.00000033
0.75827718 -0.09924337 -0.00000085
0.35149267 -0.66982251 -0.00000008
-0.66351634 0.49310946 -0.00000017
0.62813705 -0.00228471 -0.00000081
0.55666298 -0.07678768 -0.00000066
-0.25564533 -0.47275019 -0.00000020
-0.28429958 -0.48544738 -0.00000020
-0.75364095 -0.47344184 0.00000000
-0.51283389 0.42195016 -0.00000036
0.79595435 -0.08641500 -0.00000089
0.23449843 -0.30237341 -0.00000031
0.11660632 0.18767111 -0.00000062
-0.46752635 -0.13799866 -0.00000033
-0.27277881 0.45340478 -0.00000065
0.76295686 -0.75814098 -0.00000005
-0.20015644 0.27864459 -0.00000067
0.15976816 -0.40710774 -0.00000025
0.24567311 -0.66112608 -0.00000009
-0.41910240 -0.04530158 -0.00000040
-0.26529244 0.73953205 -0.00000067
0.00653899 0.42222476 -0.00000076
-0.45019001 -0.73354757 -0.00000004
-0.02352177 -0.20462605 -0.00000037
-0.30397791 -0.76679504 -0.00000002
0.52015358 -0.16923654 -0.00000052
0.11511999 0.43484041 -0.00000077
0.20518109 -0.21002206 -0.00000037
-0.50848645 0.26947206 -0.00000036
0.14855708 -0.41937342 -0.00000024
-0.69808900 -0.54377431 -0.00000001
-0.18287386 0.30309963 -0.00000069
0.18299995 0.07881257 -0.00000055
-0.01560422 0.03341772 -0.00000052
0.79939240 -0.02026933 -0.00000097
-0.41112646 -0.19124034 -0.00000038
0.46209502 -0.57290405 -0.00000014
0.22093675 -0.06797704 -0.00000046
-0.10831082 0.62884104 -0.00000085
-0.61442339 -0.69817102 -0.00000006
0.16436607 -0.68618196 -0.00000007
0.53083229 -0.05869530 -0.00000065
0.14525536 0.20700745 -0.00000063
0.01337415 0.67859197 -0.00000092
-0.42228031 -0.40955058 -0.00000024
0.54865772 -0.48042837 -0.00000022
-0.74953687 0.79507744 -0.00000006
-0.68844479 0.72651994 -0.00000014
-0.12549077 0.09154398 -0.00000056
-0.35790691 -0.22404565 -0.00000036
0.32140321 -0.13950923 -0.00000041
-0.27349439 -0.16976412 -0.00000039
-0.16878641 -0.72449088 -0.00000005
0.34549436 -0.68150800 -0.00000007
-0.39165300 0.70356095 -0.00000051
0.02973049 -0.71517098 -0.00000005
-0.50399446 -0.72482002 -0.00000005
-0.64389890 -0.22545248 -0.00000013
0.77105206 -0.02005754 -0.00000095
-0.61012465 0.34766573 -0.00000024
-0.04960345 0.19924460 -0.00000062
-0.20019741 0.13616151 -0.00000059
-0.59972292 0.68916297 -0.00000025
-0.38495535 0.07614662 -0.00000046
-0.17090239 -0.53335685 -0.00000017
0.61581528 -0.73353982 -0.00000004
0.39910758 0.31088033 -0.00000090
-0.49385256 0.10483801 -0.00000035
-0.09217805 -0.26638997 -0.00000033
-0.27480632 0.62362915 -0.00000066
-0.18927087 0.41124463 -0.00000073
-0.66360521 -0.76772398 -0.00000000
-0.06632535 -0.69783926 -0.00000006
0.55282879 -0.49823296 -0.00000020
-0.18070047 -0.00812410 -0.00000049
0.24472374 -0.49129328 -0.00000019
-0.08415565 0.04067867 -0.00000053
-0.71289992 0.02134947 -0.00000010
-0.52812046 -0.67002302 -0.00000008
-0.21486779 0.11628703 -0.00000057
-0.17868683 0.22762053 -0.00000064
0.50082207 -0.24828848 -0.00000042
-0.21666588 0.26789916 -0.00000067
-0.54272848 0.49474290 -0.00000032
-0.57343155 0.56934088 -0.00000028
-0.35589731 -0.14152928 -0.00000041
0.69669992 -0.41473216 -0.00000045
0.54987723 0.09928190 -0.00000084
-0.37088820 -0.45129034 -0.00000022
0.54992753 -0.53559351 -0.00000017
0.19749565 -0.12214373 -0.00000042
0.74833077 -0.46376565 -0.00000042
0.50564337 -0.19888455 -0.00000047
-0.08046379 -0.67464346 -0.00000008
0.57480675 0.18472257 -0.00000096
-0.46721593 0.10153078 -0.00000037
-0.42005408 0.32767394 -0.00000047
0.60717738 -0.09590344 -0.00000069
-0.32087037 -0.55057001 -0.00000016
0.44055873 -0.08326524 -0.00000053
-0.25630432 -0.36387202 -0.00000027
-0.29021636 -0.46334803 -0.00000021
-0.23571876 -0.35994247 -0.00000028
-0.68620330 -0.53864479 -0.00000002
-0.78501672 -0.05736687 -0.00000001
-0.53046465 -0.51685476 -0.00000018
-0.59394431 0.63381565 -0.00000026
-0.19818664 -0.78897345 -0.00000001
0.38150027 -0.29262897 -0.00000032
0.27352330 -0.67736644 -0.00000008
-0.16452710 -0.25998458 -0.00000034
-0.21545410 0.56099224 -0.00000073
-0.42437771 0.78600442 -0.00000047
-0.48295116 0.78702152 -0.00000040
