ply
format ascii 1.0
element vertex 1086
property float x
property float y
property float z
end_header
-0.12027684 -0.46027401 0.00000000
-0.16394418 -0.08291053 0.00000000
-0.29266125 0.33285907 -0.00000042
-0.40935761 -0.60846227 0.00000000
-0.43590397 0.23137510 -0.00000086
-0.29897916 0.33518919 -0.00000045
-0.16250402 0.18424024 0.00000000
-0.02023863 0.66103280 0.00000000
-0.34175473 -0.64923984 0.00000000
-0.33413026 -0.02796654 0.00000000
-0.49999830 -0.00732819 -0.00000071
-0.03990225 -0.50130737 0.00000000
-0.20573375 0.32789156 -0.00000004
-0.08068577 -0.24270120 0.00000000
-0.60814685 0.08461659 -0.00000133
-0.29618466 0.11040523 -0.00000005
-0.31572223 0.30525425 -0.00000047
-0.05281862 0.71789622 -0.00000008
-0.61022437 0.09277874 -0.00000135
-0.23028688 -0.73467517 0.00000000
-0.30241665 -0.78410619 0.00000000
-0.01596542 0.37367997 0.00000000
-0.52297211 -0.38574740 -0.00000014
-0.20019495 -0.38696393 0.00000000
-0.65582579 0.10100330 -0.00000156
-0.31543952 0.23841794 -0.00000035
-0.20977356 -0.62764865 0.00000000
-0.55218214 -0.12553762 -0.00000072
-0.09337601 0.35550690 0.00000000
-0.21833350 0.25583610 0.00000000
-0.32658464 -0.20566969 0.00000000
-0.40818870 0.37741289 -0.00000100
-0.70278555 -0.75932330 -0.00000010
-0.32367638 0.37185380 -0.00000062
-0.17704642 -0.01677734 0.00000000
-0.25359976 -0.10132821 0.00000000
-0.18023819 0.41235873 -0.00000008
-0.54561841 -0.75358933 0.00000000
-0.69362861 0.00634322 -0.00000156
-0.23411962 -0.59098011 0.00000000
-0.51594967 -0.46954438 0.00000000
-0.60087413 -0.14928804 -0.00000089
-0.45595759 0.25106546 -0.00000098
-0.21627145 -0.69386506 0.00000000
-0.40932140 -0.31526855 0.00000000
-0.32687631 -0.13953175 0.00000000
-0.77047408 -0.37948704 -0.00000105
-0.04051427 -0.52815431 0.00000000
-0.10536380 0.61987990 -0.00000013
-0.05348843 -0.07558906 0.00000000
-0.72828096 -0.25956342 -0.00000124
-0.69633812 -0.56701791 -0.00000056
-0.68412113 -0.58472669 -0.00000047
-0.46835014 -0.14184561 -0.00000033
-0.32152140 -0.40875933 0.00000000
-0.25714380 -0.30886021 0.00000000
-0.36945856 0.18170352 -0.00000048
-0.08346868 -0.39644173 0.00000000
-0.70711321 -0.60051233 -0.00000050
-0.10060750 -0.11284958 0.00000000
-0.59223104 -0.12425546 -0.00000089
-0.12528238 -0.34816852 0.00000000
-0.51540273 0.15875326 -0.00000107
-0.42281878 -0.53008723 0.00000000
-0.48922700 -0.34180582 -0.00000007
-0.31370831 0.14470308 -0.00000018
-0.06645108 -0.69493049 0.00000000
-0.06623643 0.15860283 0.00000000
-0.34770265 -0.14797430 0.00000000
-0.65671158 0.04620701 -0.00000147
-0.15684915 -0.61186343 0.00000000
-0.02943685 0.41299719 0.00000000
-0.01670773 -0.50040793 0.00000000
-0.79744893 -0.52644211 -0.00000068
-0.01242365 -0.77174920 0.00000000
-0.33435759 0.27257606 -0.00000049
-0.24555780 -0.26873967 0.00000000
-0.17053939 -0.49094865 0.00000000
-0.28097844 0.37085146 -0.00000044
-0.06688052 0.01512538 0.00000000
-0.41357639 -0.17728814 -0.00000004
-0.22307955 0.35119581 -0.00000016
-0.28514937 0.44243410 -0.00000058
-0.35217902 0.26564410 -0.00000056
-0.31040338 0.09999269 -0.00000009
-0.72632927 -0.64200383 -0.00000039
-0.17202926 0.03070523 0.00000000
-0.65984923 -0.70695513 -0.00000015
-0.05842485 0.73911035 -0.00000014
-0.46862730 -0.53790271 0.00000000
-0.08109725 -0.49971968 0.00000000
-0.61209571 -0.62520391 -0.00000009
-0.38244280 -0.73770100 0.00000000
-0.48902354 -0.36062670 -0.00000004
-0.06371774 0.71550995 -0.00000012
-0.49138495 0.30678853 -0.00000123
-0.29008016 -0.38728252 0.00000000
-0.14160931 -0.76941419 0.00000000
-0.16816975 -0.66361153 0.00000000
-0.37094200 -0.65682727 0.00000000
-0.23180103 -0.59120923 0.00000000
-0.26311022 -0.12015831 0.00000000
-0.07289846 -0.45178443 0.00000000
-0.24944995 -0.02886922 0.00000000
-0.52134079 -0.19857123 -0.00000046
-0.11308243 -0.14253069 0.00000000
-0.75393438 -0.60419905 -0.00000049
-0.36925924 0.02216023 -0.00000020
-0.18827336 -0.65649712 0.00000000
-0.21245456 -0.48478776 0.00000000
-0.59634429 0.00370221 -0.00000114
-0.04154648 0.42076567 0.00000000
-0.15915544 -0.02959287 0.00000000
-0.46251136 0.03285555 -0.00000062
-0.50491142 -0.71982187 0.00000000
-0.38479620 -0.33298713 0.00000000
-0.28133461 0.30773902 -0.00000033
-0.52375805 0.25249150 -0.00000127
-0.03882361 -0.11080181 0.00000000
-0.13063982 -0.20174776 0.00000000
-0.05022424 -0.66324288 0.00000000
-0.37749675 -0.45026419 0.00000000
-0.03481920 -0.58617550 0.00000000
-0.56973284 0.13834082 -0.00000126
-0.13305584 -0.39935294 0.00000000
-0.31447649 -0.06505548 0.00000000
-0.78861767 -0.73307335 -0.00000017
-0.67968148 -0.35881692 -0.00000085
-0.20539623 -0.40577200 0.00000000
-0.17690392 0.56284893 -0.00000034
-0.17347360 0.39267147 -0.00000002
-0.53609413 -0.14318615 -0.00000062
-0.04282196 0.12198048 0.00000000
-0.79913235 -0.75171769 -0.00000012
-0.68422085 -0.44844401 -0.00000071
-0.38675356 -0.78670985 0.00000000
-0.62504119 0.16732067 -0.00000155
-0.00912459 -0.23606224 0.00000000
-0.44011298 -0.18007104 -0.00000015
-0.41467303 0.01829969 -0.00000039
-0.33373502 -0.05563017 0.00000000
-0.79727077 -0.67291009 -0.00000032
-0.65028131 -0.65632737 -0.00000020
-0.37912759 0.19219649 -0.00000054
-0.15602551 0.01698902 0.00000000
-0.68837440 -0.68433774 -0.00000029
-0.20582178 0.21505380 0.00000000
-0.35545030 0.44245926 -0.00000088
-0.34523258 -0.58616865 0.00000000
-0.39628777 0.18075323 -0.00000060
-0.43511674 -0.12004417 -0.00000023
-0.70653242 -0.42122540 -0.00000086
-0.54958665 -0.49034664 -0.00000006
-0.13065553 0.07888159 0.00000000
-0.68449587 -0.38559976 -0.00000083
-0.00928387 0.68241948 0.00000000
-0.36470509 0.13941570 -0.00000039
-0.15344928 -0.49570626 0.00000000
-0.54448098 -0.56844300 0.00000000
-0.40497166 0.38075492 -0.00000099
-0.21543436 0.51025683 -0.00000041
-0.22399072 0.51429772 -0.00000045
-0.40745848 0.02382050 -0.00000037
-0.18675455 0.50424844 -0.00000027
-0.06150535 -0.16928959 0.00000000
-0.13678937 0.53855133 -0.00000012
-0.19490165 0.01550261 0.00000000
-0.37118268 -0.01409269 -0.00000014
-0.67793870 -0.03843966 -0.00000141
-0.20538972 0.18186900 0.00000000
-0.51542109 -0.73664141 0.00000000
-0.50333744 -0.57251984 0.00000000
-0.15278804 0.20611136 0.00000000
-0.34502959 -0.47834730 0.00000000
-0.09075147 0.69983399 -0.00000021
-0.02102508 -0.13609692 0.00000000
-0.25504813 -0.15000451 0.00000000
-0.37738481 -0.74111462 0.00000000
-0.73197299 -0.12998852 -0.00000148
-0.01411328 0.53695208 0.00000000
-0.14965618 -0.56584543 0.00000000
-0.26818064 0.25693023 -0.00000018
-0.36491528 0.17453039 -0.00000045
-0.13700777 -0.35096344 0.00000000
-0.42009655 -0.42528751 0.00000000
-0.18042825 0.34379351 0.00000000
-0.54399306 -0.78488344 0.00000000
-0.59446323 -0.77548522 0.00000000
-0.16672650 -0.59138656 0.00000000
-0.68076879 -0.63067496 -0.00000038
-0.03266843 0.53872281 0.00000000
-0.07205771 0.54668576 0.00000000
-0.27566466 -0.00049471 0.00000000
-0.65097731 -0.76523417 -0.00000001
-0.31454623 -0.04974745 0.00000000
-0.44420952 0.14790070 -0.00000074
-0.22924787 -0.41259429 0.00000000
-0.00910120 0.57842118 0.00000000
-0.29787546 -0.45838866 0.00000000
-0.15261121 -0.57453805 0.00000000
-0.47733498 -0.44187063 0.00000000
-0.57928908 0.10749358 -0.00000125
-0.14034408 -0.52079403 0.00000000
-0.57871467 0.07878894 -0.00000119
-0.18716049 0.61178154 -0.00000045
-0.33932033 -0.07135201 0.00000000
-0.60040963 -0.64465117 -0.00000001
-0.44681665 -0.27146104 -0.00000001
-0.66209656 -0.32805583 -0.00000083
-0.00542873 -0.25382179 0.00000000
-0.69932997 -0.10265296 -0.00000139
-0.08758576 0.46688226 0.00000000
-0.29178348 -0.33583421 0.00000000
-0.69701838 -0.19087030 -0.00000122
-0.17030749 -0.40104732 0.00000000
-0.38709408 -0.03208548 -0.00000018
-0.40462035 0.09329461 -0.00000048
-0.28897437 0.05577377 0.00000000
-0.03621261 0.48818812 0.00000000
-0.39193335 -0.28422886 0.00000000
-0.26050028 -0.05044435 0.00000000
-0.05394174 0.25118542 0.00000000
-0.25299603 -0.34141105 0.00000000
-0.63622791 0.12518707 -0.00000152
-0.12909670 -0.63000709 0.00000000
-0.44256046 0.33825493 -0.00000107
-0.45238906 -0.08374342 -0.00000037
-0.51481795 -0.45611894 0.00000000
-0.62062812 -0.02850086 -0.00000118
-0.63882524 -0.46635216 -0.00000049
-0.16564077 0.53548276 -0.00000024
-0.03809481 -0.06621557 0.00000000
-0.68088955 -0.53057611 -0.00000055
-0.05303298 -0.61786473 0.00000000
-0.47663003 0.22663802 -0.00000102
-0.51247054 -0.44030035 0.00000000
-0.16668484 -0.23561963 0.00000000
-0.23577575 -0.40852448 0.00000000
-0.57567376 -0.61023068 0.00000000
-0.15081719 0.12926938 0.00000000
-0.03461360 -0.18042810 0.00000000
-0.08814105 0.67144608 -0.00000015
-0.15599638 -0.48182541 0.00000000
-0.06573830 0.35795850 0.00000000
-0.09547310 0.46870753 0.00000000
-0.12255880 0.06272621 0.00000000
-0.41666710 -0.44810268 0.00000000
-0.11588802 -0.20998892 0.00000000
-0.06251477 -0.29563633 0.00000000
-0.65530026 -0.25671485 -0.00000093
-0.48785716 -0.66657817 0.00000000
-0.60502309 -0.31982926 -0.00000060
-0.22075613 -0.41826865 0.00000000
-0.02807156 -0.09044651 0.00000000
-0.74255019 -0.38908416 -0.00000103
-0.79605353 -0.38760918 -0.00000103
-0.26989675 0.52450794 -0.00000058
-0.62398213 -0.63324279 -0.00000013
-0.20659015 -0.66076815 0.00000000
-0.33274221 -0.39396778 0.00000000
-0.69656312 -0.12157758 -0.00000134
-0.76832110 -0.41331851 -0.00000097
-0.55435330 -0.50151128 -0.00000007
-0.37863475 -0.66670418 0.00000000
-0.62212753 -0.23411201 -0.00000083
-0.54399914 0.16837399 -0.00000121
-0.47522238 0.30765265 -0.00000116
-0.58269858 -0.41023287 -0.00000035
-0.31438407 0.14475811 -0.00000018
-0.24430408 -0.64212191 0.00000000
-0.46028817 -0.15010980 -0.00000028
-0.66932243 0.07203099 -0.00000157
-0.69760293 0.07315640 -0.00000169
-0.33580649 0.16705059 -0.00000031
-0.70902205 -0.40625897 -0.00000089
-0.29566509 0.47957367 -0.00000070
-0.02464277 0.03834503 0.00000000
-0.33384803 -0.48629731 0.00000000
-0.55473375 0.21951909 -0.00000134
-0.27443469 -0.24266183 0.00000000
-0.18080483 -0.05881334 0.00000000
-0.44207466 -0.28772715 0.00000000
-0.23011968 0.06105348 0.00000000
-0.57858014 -0.64284819 0.00000000
-0.66394627 -0.16880167 -0.00000112
-0.60307366 -0.43216959 -0.00000040
-0.19662803 0.04856153 0.00000000
-0.40473613 0.00033776 -0.00000031
-0.24040781 -0.03636045 0.00000000
-0.03910649 -0.11308509 0.00000000
-0.22058170 0.56979424 -0.00000053
-0.78615272 -0.17399314 -0.00000157
-0.19998214 -0.59348953 0.00000000
-0.77446032 0.01397021 -0.00000192
-0.25880784 -0.43331051 0.00000000
-0.18903784 -0.19452041 0.00000000
-0.51628143 -0.37792221 -0.00000012
-0.21830578 0.08554958 0.00000000
-0.33684352 0.46179351 -0.00000084
-0.60881114 -0.48511019 -0.00000033
-0.70192289 -0.73748225 -0.00000016
-0.19017462 -0.13848628 0.00000000
-0.20774747 -0.68904275 0.00000000
-0.37173790 -0.02923348 -0.00000012
-0.20999201 -0.42386201 0.00000000
-0.79328346 -0.09568745 -0.00000176
-0.55386287 0.14267600 -0.00000120
-0.56325620 0.21987665 -0.00000138
-0.06315007 0.33695415 0.00000000
-0.50735676 -0.12378533 -0.00000053
-0.57252598 -0.59690195 0.00000000
-0.29248706 0.24577391 -0.00000027
-0.11432904 0.01581649 0.00000000
-0.43841818 -0.50792348 0.00000000
-0.67478842 -0.62535155 -0.00000036
-0.47823074 -0.32893610 -0.00000005
-0.44210425 -0.70412976 0.00000000
-0.30460730 -0.01179039 0.00000000
-0.26001894 -0.77617007 0.00000000
-0.27142391 0.46593741 -0.00000057
-0.45579547 0.27874506 -0.00000102
-0.75888628 -0.69817466 -0.00000025
-0.22957292 0.50166690 -0.00000045
-0.14401186 0.46103588 -0.00000002
-0.58880556 -0.17271417 -0.00000079
-0.25446293 0.06752825 0.00000000
-0.38932052 0.31985897 -0.00000081
-0.21099100 0.32353249 -0.00000006
-0.06267758 -0.57682425 0.00000000
-0.06371838 0.15920796 0.00000000
-0.07598412 0.42834264 0.00000000
-0.01052733 -0.59485650 0.00000000
-0.17877197 -0.26309502 0.00000000
-0.78988624 -0.09137702 -0.00000177
-0.62549406 -0.47317955 -0.00000042
-0.51178765 -0.17250158 -0.00000047
-0.51320404 -0.58503968 0.00000000
-0.66250551 -0.09372562 -0.00000125
-0.12384379 -0.68606025 0.00000000
-0.78085065 -0.34762892 -0.00000113
-0.50838208 -0.04390771 -0.00000068
-0.19160260 -0.16350646 0.00000000
-0.54733729 -0.41230178 -0.00000019
-0.09609910 0.70387727 -0.00000024
-0.30734015 0.03873108 0.00000000
-0.12285462 -0.01225046 0.00000000
-0.37506321 -0.12447025 0.00000000
-0.04785767 -0.76409250 0.00000000
-0.41878623 0.07756564 -0.00000051
-0.56731308 -0.42576656 -0.00000025
-0.34340182 0.17257421 -0.00000036
-0.10193848 -0.14281431 0.00000000
-0.67886555 -0.02597676 -0.00000144
-0.37655357 -0.18084192 0.00000000
-0.44098315 -0.09976746 -0.00000029
-0.77375174 -0.36075827 -0.00000110
-0.63112903 -0.63574064 -0.00000016
-0.48886108 -0.65044457 0.00000000
-0.16859822 0.53155667 -0.00000024
-0.34534839 -0.18105568 0.00000000
-0.32283899 0.34138873 -0.00000057
-0.24335684 0.32779562 -0.00000020
-0.71475077 -0.25893852 -0.00000118
-0.77724022 -0.47151127 -0.00000082
-0.22176656 0.23878828 0.00000000
-0.00343793 -0.00732449 0.00000000
-0.56419832 -0.04225832 -0.00000092
-0.65718842 -0.38073665 -0.00000072
-0.31893611 -0.49743482 0.00000000
-0.08275911 -0.59710473 0.00000000
-0.21638152 -0.32241395 0.00000000
-0.52883065 -0.55120945 0.00000000
-0.60734797 0.00796221 -0.00000119
-0.17498069 -0.22478241 0.00000000
-0.04116387 -0.01974573 0.00000000
-0.00415477 0.33899990 0.00000000
-0.35954612 -0.05295988 -0.00000003
-0.79500806 -0.00955734 -0.00000196
-0.77307528 -0.27076593 -0.00000132
-0.67688686 -0.48183820 -0.00000062
-0.06382834 0.47309968 0.00000000
-0.32783574 -0.44708779 0.00000000
-0.62461960 -0.37534961 -0.00000059
-0.42995411 0.17823732 -0.00000074
-0.09966900 -0.45925799 0.00000000
-0.10728020 0.49279532 0.00000000
-0.58968538 -0.02825308 -0.00000105
-0.17465585 0.19087858 0.00000000
-0.05065631 0.43881035 0.00000000
-0.06214937 0.30024403 0.00000000
-0.24289256 -0.75940990 0.00000000
-0.11122050 0.37067491 0.00000000
-0.37452242 -0.49885580 0.00000000
-0.48850960 -0.61619341 0.00000000
-0.22856259 0.15738775 0.00000000
-0.06471969 -0.65716457 0.00000000
-0.09209968 -0.04735854 0.00000000
-0.57154512 0.20977665 -0.00000140
-0.15063594 0.42950594 0.00000000
-0.77890760 -0.67473727 -0.00000031
-0.11098625 -0.13170668 0.00000000
-0.47159734 -0.52003145 0.00000000
-0.72512758 -0.24130020 -0.00000125
-0.66933107 -0.59627694 -0.00000039
-0.05436114 -0.40690628 0.00000000
-0.33384427 -0.65197617 0.00000000
-0.29110086 0.30058202 -0.00000036
-0.04077452 0.71986693 -0.00000003
-0.09696937 0.22382341 0.00000000
-0.51004839 -0.59153944 0.00000000
-0.04607523 0.68330246 0.00000000
-0.15359084 0.51137280 -0.00000015
-0.03499075 -0.20542964 0.00000000
-0.52011341 -0.41172451 -0.00000008
-0.42477882 -0.54652584 0.00000000
-0.64849007 -0.43893850 -0.00000058
-0.10230294 0.10366160 0.00000000
-0.34100610 -0.13047019 0.00000000
-0.17334916 -0.01935813 0.00000000
-0.19738583 -0.48356172 0.00000000
-0.65035641 -0.15193897 -0.00000109
-0.06328528 -0.50488567 0.00000000
-0.22802205 -0.79054505 0.00000000
-0.12037193 -0.50199336 0.00000000
-0.55877888 -0.14505179 -0.00000071
-0.25879547 -0.79761893 0.00000000
-0.66453886 -0.01615205 -0.00000139
-0.79108953 -0.40322167 -0.00000099
-0.49693626 -0.79047388 0.00000000
-0.48348975 -0.59826595 0.00000000
-0.01175779 0.62369919 0.00000000
-0.12717982 -0.46205258 0.00000000
-0.44000500 0.31304589 -0.00000102
-0.70564997 -0.18138516 -0.00000128
-0.14427269 -0.58130133 0.00000000
-0.22866718 0.29552194 -0.00000008
-0.20554772 -0.49653807 0.00000000
-0.52879483 -0.27488780 -0.00000036
-0.49831110 -0.50838464 0.00000000
-0.07700845 0.31651825 0.00000000
-0.34747756 -0.06236263 0.00000000
-0.64781916 -0.41191912 -0.00000062
-0.02765997 -0.07802223 0.00000000
-0.62451684 0.05972145 -0.00000136
-0.62763774 0.02820219 -0.00000131
-0.55570072 -0.27411899 -0.00000047
-0.13342161 -0.27216402 0.00000000
-0.35393193 0.09961031 -0.00000027
-0.75545955 -0.39647153 -0.00000101
-0.15283874 -0.71533269 0.00000000
-0.21802913 0.12899336 0.00000000
-0.06536368 -0.25284493 0.00000000
-0.12318725 -0.75293612 0.00000000
-0.50364757 -0.52184081 0.00000000
-0.54143327 -0.43668145 -0.00000012
-0.59229022 -0.05735045 -0.00000101
-0.55900669 -0.16662312 -0.00000068
-0.36871928 -0.15550867 0.00000000
-0.29621205 0.27370921 -0.00000033
-0.26939166 0.06130953 0.00000000
-0.63961494 0.12558371 -0.00000154
-0.00837928 0.02277207 0.00000000
-0.04586826 -0.13650130 0.00000000
-0.73229569 -0.14301588 -0.00000146
-0.58485675 -0.11787535 -0.00000087
-0.30138555 0.31394112 -0.00000043
-0.11721938 0.43384290 0.00000000
-0.70341229 -0.78533757 -0.00000004
-0.25861552 0.24783193 -0.00000013
-0.26762870 -0.64524984 0.00000000
-0.31885761 -0.47618747 0.00000000
-0.38116378 -0.22957458 0.00000000
-0.14900135 -0.43552265 0.00000000
-0.50598735 -0.68685919 0.00000000
-0.04341541 -0.47569528 0.00000000
-0.39394411 0.09039504 -0.00000043
-0.53538728 -0.39019373 -0.00000018
-0.76698387 -0.13625085 -0.00000162
-0.48728940 0.10996980 -0.00000086
-0.76575416 -0.28223905 -0.00000129
-0.01039898 0.37883365 0.00000000
-0.39174205 -0.42576504 0.00000000
-0.34402165 -0.23782137 0.00000000
-0.48928076 -0.77542454 0.00000000
-0.76862514 -0.48767099 -0.00000078
-0.15589242 0.35085854 0.00000000
-0.54850823 -0.13853975 -0.00000068
-0.52372891 -0.07783134 -0.00000068
-0.09890320 0.09121959 0.00000000
-0.48110011 -0.30416107 -0.00000010
-0.17947704 -0.79913127 0.00000000
-0.19889233 -0.76328385 0.00000000
-0.12750480 0.36729640 0.00000000
-0.49103662 0.15197963 -0.00000095
-0.01352189 0.58186591 0.00000000
-0.78088880 -0.01964867 -0.00000188
-0.05238187 -0.20911130 0.00000000
-0.56666189 -0.49689043 -0.00000013
-0.44054025 -0.07427452 -0.00000033
-0.08345222 0.11649596 0.00000000
-0.08363214 0.43180966 0.00000000
-0.53903937 -0.50317144 0.00000000
-0.69814873 -0.36152199 -0.00000093
-0.76921546 -0.55751151 -0.00000061
-0.35565814 -0.08739131 0.00000000
-0.44600233 -0.50403237 0.00000000
-0.29499826 0.41304487 -0.00000057
-0.02226620 -0.28156999 0.00000000
-0.44231471 -0.67690116 0.00000000
-0.62264371 -0.53780252 -0.00000029
-0.04596911 0.65452933 0.00000000
-0.39251202 0.35613388 -0.00000089
-0.31862533 -0.77100605 0.00000000
-0.51409978 0.02717076 -0.00000083
-0.50186270 0.05763532 -0.00000083
-0.54996532 -0.75100470 0.00000000
-0.65162998 -0.36072838 -0.00000073
-0.04925144 0.44209492 0.00000000
-0.70972502 -0.28114480 -0.00000112
-0.07054936 -0.37468606 0.00000000
-0.13338491 0.45579621 0.00000000
-0.40648845 -0.22557582 0.00000000
-0.16047242 -0.40212867 0.00000000
-0.26540491 0.09610496 0.00000000
-0.76255387 -0.34476158 -0.00000114
-0.04620392 -0.29948312 0.00000000
-0.17267400 -0.38617754 0.00000000
-0.14620048 -0.59803569 0.00000000
-0.50989598 -0.15971193 -0.00000048
-0.37829232 -0.49405348 0.00000000
-0.66080385 -0.33674103 -0.00000081
-0.69336152 -0.68432730 -0.00000029
-0.53106183 -0.59539998 0.00000000
-0.23580991 0.44693235 -0.00000038
-0.14428169 0.48712361 -0.00000006
-0.50706130 -0.59133536 0.00000000
-0.36006093 -0.01832908 -0.00000009
-0.19779053 -0.12678713 0.00000000
-0.52541184 0.27398667 -0.00000130
-0.25195566 -0.67123383 0.00000000
-0.15115277 0.22562458 0.00000000
-0.60603768 -0.68363112 0.00000000
-0.15578572 0.40117213 0.00000000
-0.53190958 0.07547602 -0.00000099
-0.01332630 0.01991453 0.00000000
-0.36321229 -0.03066862 -0.00000008
-0.16628812 0.46511385 -0.00000012
-0.22695474 -0.63582438 0.00000000
-0.18780413 -0.26012045 0.00000000
-0.05631343 0.33473769 0.00000000
-0.15493910 -0.22834970 0.00000000
-0.73702598 -0.65607756 -0.00000036
-0.20597205 0.11432364 0.00000000
-0.63510633 -0.37877822 -0.00000063
-0.61615694 -0.04466966 -0.00000114
-0.34792823 -0.06705501 0.00000000
-0.36134154 -0.68546772 0.00000000
-0.24409539 0.07565476 0.00000000
-0.16809489 0.36080071 0.00000000
-0.65137959 0.08646509 -0.00000152
-0.26282808 -0.14130919 0.00000000
-0.77667671 -0.18879899 -0.00000153
-0.24609683 0.34591007 -0.00000025
-0.69279283 -0.12378710 -0.00000132
-0.05660087 -0.34209892 0.00000000
-0.18836845 0.15147868 0.00000000
-0.16283268 0.02841898 0.00000000
-0.63108599 -0.72405827 0.00000000
-0.76635361 -0.65540338 -0.00000036
-0.39030731 0.30705088 -0.00000079
-0.35878253 -0.12303376 0.00000000
-0.44379395 -0.55307925 0.00000000
-0.35596165 0.21646354 -0.00000049
-0.53300971 -0.16818379 -0.00000056
-0.10749153 -0.46076468 0.00000000
-0.31024936 0.43562409 -0.00000068
-0.04274399 0.24060898 0.00000000
-0.00516597 -0.69611490 0.00000000
-0.33515221 -0.78744155 0.00000000
-0.76089907 -0.06331094 -0.00000172
-0.79233319 -0.27077481 -0.00000132
-0.63660717 -0.19154666 -0.00000096
-0.75766474 -0.69800872 -0.00000025
-0.08566788 0.21108328 0.00000000
-0.18927951 -0.00645033 0.00000000
-0.00347665 -0.55311626 0.00000000
-0.07612002 -0.50637764 0.00000000
-0.69191766 -0.50964963 -0.00000064
-0.42177406 0.10313085 -0.00000057
-0.64672941 -0.07743932 -0.00000121
-0.70105880 -0.23612028 -0.00000116
-0.45992735 -0.03063431 -0.00000049
-0.06968946 0.71235079 -0.00000014
-0.58323365 0.17508180 -0.00000138
-0.34852242 -0.51354945 0.00000000
-0.27324319 0.27917689 -0.00000025
-0.62966961 -0.36384457 -0.00000063
-0.07274483 0.72619247 -0.00000018
-0.50095069 -0.03965343 -0.00000065
-0.18369196 0.31894091 0.00000000
-0.19511408 0.11561484 0.00000000
-0.41330275 0.15433291 -0.00000062
-0.10969335 -0.37019929 0.00000000
-0.01308023 -0.61881673 0.00000000
-0.11125359 0.28498238 0.00000000
-0.42429373 0.31007975 -0.00000094
-0.61875820 -0.16304529 -0.00000094
-0.68516672 -0.73764431 -0.00000016
-0.12359246 0.47411519 0.00000000
-0.70154655 -0.28127944 -0.00000108
-0.22384502 0.01108060 0.00000000
-0.49364761 -0.62928617 0.00000000
-0.18977302 0.45016885 -0.00000019
-0.38646680 -0.45123404 0.00000000
-0.35592476 -0.73300147 0.00000000
-0.12300132 -0.29627755 0.00000000
-0.23255178 -0.12768254 0.00000000
-0.26336455 -0.65384102 0.00000000
-0.17905805 0.26534089 0.00000000
-0.31894270 0.28857589 -0.00000046
-0.05575744 -0.02617743 0.00000000
-0.19936921 -0.47891927 0.00000000
-0.19426225 0.22196668 0.00000000
-0.37707236 0.19823526 -0.00000055
-0.61925697 -0.12205908 -0.00000101
-0.12943265 0.04986247 0.00000000
-0.50824755 -0.02554683 -0.00000071
-0.15662853 0.46073225 -0.00000007
-0.40352827 0.16693094 -0.00000060
-0.04623347 0.74538153 -0.00000010
-0.72333300 -0.66428560 -0.00000034
-0.75869656 -0.73878020 -0.00000015
-0.64247334 -0.07170478 -0.00000120
-0.13604736 -0.00793851 0.00000000
-0.47517326 0.17013775 -0.00000091
-0.72158575 -0.63928020 -0.00000040
-0.30010682 -0.72692502 0.00000000
-0.15022202 0.39222723 0.00000000
-0.04904033 -0.21286224 0.00000000
-0.14363298 0.64130139 -0.00000033
-0.07126111 -0.35488862 0.00000000
-0.29241163 0.11947141 -0.00000004
-0.25399750 -0.02578179 0.00000000
-0.53415942 -0.62459773 0.00000000
-0.32367784 -0.27860060 0.00000000
-0.05849733 0.46474051 0.00000000
-0.10880813 0.62372929 -0.00000015
-0.18204239 -0.29053691 0.00000000
-0.47794929 -0.46625119 0.00000000
-0.31492519 -0.61967343 0.00000000
-0.74616438 -0.06718273 -0.00000165
-0.38777021 0.13920309 -0.00000049
-0.23159952 -0.39707878 0.00000000
-0.53009599 -0.79070497 0.00000000
-0.48081663 0.14761557 -0.00000090
-0.48779845 0.28248045 -0.00000117
-0.09681657 0.26305255 0.00000000
-0.52438420 -0.15923154 -0.00000054
-0.22538535 -0.19821501 0.00000000
-0.44239059 -0.03933406 -0.00000040
-0.57259411 -0.01231655 -0.00000101
-0.05867566 0.52363771 0.00000000
-0.77128816 -0.27627030 -0.00000131
-0.37825596 -0.53598303 0.00000000
-0.37862650 -0.36989033 0.00000000
-0.13136846 -0.69223261 0.00000000
-0.50254571 0.21930721 -0.00000112
-0.68813860 -0.25434518 -0.00000107
-0.45601904 -0.70287383 0.00000000
-0.27723038 0.46130162 -0.00000058
-0.05686811 0.28944129 0.00000000
-0.67815936 0.02368684 -0.00000152
-0.23051289 -0.01574190 0.00000000
-0.79736310 -0.57528800 -0.00000056
-0.61624050 0.15014750 -0.00000148
-0.57722425 -0.71230394 0.00000000
-0.59680104 -0.05941508 -0.00000103
-0.53098655 -0.54905462 0.00000000
-0.53884810 -0.35434467 -0.00000026
-0.29255426 -0.52892870 0.00000000
-0.38203838 -0.12785922 0.00000000
-0.10867682 0.37996808 0.00000000
-0.11827945 0.35147181 0.00000000
-0.37267411 -0.09389473 -0.00000001
-0.27946213 -0.73922110 0.00000000
-0.46292633 0.01121862 -0.00000058
-0.38003972 -0.69486547 0.00000000
-0.59463000 -0.11124461 -0.00000093
-0.19140118 0.03943460 0.00000000
-0.11919501 0.49376443 0.00000000
-0.29961458 0.14105904 -0.00000011
-0.32588625 -0.48753798 0.00000000
-0.40265134 0.35352483 -0.00000093
-0.45736316 0.03143010 -0.00000059
-0.10266683 0.62959999 -0.00000014
-0.04715497 0.64771152 0.00000000
-0.02678264 -0.50742936 0.00000000
-0.62718302 -0.00024688 -0.00000126
-0.21513970 -0.19265990 0.00000000
-0.64326376 -0.52771199 -0.00000040
-0.21729229 -0.05510524 0.00000000
-0.54757732 -0.49882698 -0.00000004
-0.07079370 0.05532273 0.00000000
-0.33100086 0.22423933 -0.00000039
-0.64275193 0.00864070 -0.00000134
-0.41635591 -0.35914847 0.00000000
-0.00229611 -0.38292563 0.00000000
-0.19267890 -0.78459382 0.00000000
-0.41814908 0.24578296 -0.00000080
-0.21534738 0.48415622 -0.00000036
-0.43171582 0.00803997 -0.00000044
-0.57753205 -0.09598175 -0.00000088
-0.09297852 0.36701846 0.00000000
-0.50841469 0.15906681 -0.00000104
-0.32213473 0.18901242 -0.00000029
-0.58815461 -0.07545559 -0.00000096
-0.77861702 -0.32785809 -0.00000118
-0.12214032 0.42885196 0.00000000
-0.17586434 -0.39226857 0.00000000
-0.01068821 -0.69720346 0.00000000
-0.26918429 -0.28592476 0.00000000
-0.26811063 0.13636234 0.00000000
-0.45616686 -0.27691612 -0.00000004
-0.61217815 -0.46478957 -0.00000038
-0.04526948 -0.73991913 0.00000000
-0.36661112 0.16492864 -0.00000044
-0.28541794 -0.57112062 0.00000000
-0.27169678 -0.23475710 0.00000000
-0.11081590 -0.43098661 0.00000000
-0.71157396 -0.07294464 -0.00000149
-0.48647740 -0.31350172 -0.00000011
-0.48649195 -0.28689939 -0.00000015
-0.33974883 -0.70437855 0.00000000
-0.63202697 -0.18964604 -0.00000095
-0.19095300 -0.30177319 0.00000000
-0.70525211 -0.11031797 -0.00000140
-0.30463549 -0.38860092 0.00000000
-0.06043446 -0.19041987 0.00000000
-0.77002400 -0.36767256 -0.00000108
-0.03375982 -0.63512075 0.00000000
-0.09197485 0.55284607 0.00000000
-0.20412353 0.23485246 0.00000000
-0.69953179 -0.75196248 -0.00000012
-0.50971931 -0.22206303 -0.00000037
-0.14681502 -0.15573072 0.00000000
-0.31412548 0.23866221 -0.00000035
-0.65650123 -0.29818654 -0.00000086
-0.79456216 -0.35914698 -0.00000110
-0.64032805 -0.45021960 -0.00000052
-0.25754052 -0.05664092 0.00000000
-0.28119677 -0.40466923 0.00000000
-0.27321365 -0.54417717 0.00000000
-0.49789953 -0.01307828 -0.00000069
-0.20242983 0.35216314 -0.00000007
-0.03849410 -0.64655775 0.00000000
-0.76253450 -0.74422532 -0.00000014
-0.39065057 -0.50420296 0.00000000
-0.14190872 -0.05839383 0.00000000
-0.04108160 0.53742236 0.00000000
-0.00897011 0.10352862 0.00000000
-0.23188819 0.18243363 0.00000000
-0.49015093 -0.57246149 0.00000000
-0.21713346 0.56420988 -0.00000051
-0.09006098 -0.47161824 0.00000000
-0.06203024 0.16294190 0.00000000
-0.50314969 0.23742625 -0.00000115
-0.45967981 0.00360859 -0.00000055
-0.67646170 -0.77587163 -0.00000006
-0.17567734 -0.31747746 0.00000000
-0.03856521 0.62541020 0.00000000
-0.77356809 -0.43435913 -0.00000091
-0.52531058 0.07708170 -0.00000096
-0.00465859 -0.06032865 0.00000000
-0.36513370 -0.60694927 0.00000000
-0.31877020 -0.66019958 0.00000000
-0.58552462 0.16364171 -0.00000137
-0.30237350 -0.08117016 0.00000000
-0.71328896 0.04488592 -0.00000171
-0.22880869 -0.52514023 0.00000000
-0.34996375 -0.19451573 0.00000000
-0.08770890 -0.05333517 0.00000000
-0.74488676 -0.56180519 -0.00000060
-0.29884627 -0.42126474 0.00000000
-0.35619655 -0.17636485 0.00000000
-0.31975022 -0.30333176 0.00000000
-0.37527367 -0.26566061 0.00000000
-0.77802116 -0.10224199 -0.00000173
-0.03504088 0.42817801 0.00000000
-0.38690042 -0.11399208 -0.00000004
-0.14399107 -0.58500874 0.00000000
-0.09072332 0.49144307 0.00000000
-0.20754021 -0.38390714 0.00000000
-0.34072304 0.19332336 -0.00000038
-0.58649981 -0.57654995 -0.00000007
-0.36941925 -0.63914764 0.00000000
-0.43100235 -0.28413931 0.00000000
-0.34116828 -0.41319343 0.00000000
-0.04244934 0.48236260 0.00000000
-0.74185735 -0.42021099 -0.00000095
-0.00807153 -0.32256615 0.00000000
-0.78696615 -0.60644859 -0.00000048
-0.08270673 -0.15406451 0.00000000
-0.05247733 -0.72018617 0.00000000
-0.29521206 0.02965788 0.00000000
-0.43776226 -0.79381311 0.00000000
-0.10264979 -0.02398230 0.00000000
-0.73501742 -0.62385541 -0.00000044
-0.02697349 -0.63375068 0.00000000
-0.58212340 -0.40101179 -0.00000036
-0.29725230 0.24581636 -0.00000029
-0.65859711 -0.08598421 -0.00000124
-0.24409322 0.41939044 -0.00000037
-0.00290304 -0.65857828 0.00000000
-0.57906175 0.05032428 -0.00000115
-0.42342740 0.04016654 -0.00000046
-0.52710438 -0.33643192 -0.00000024
-0.11931340 0.52239799 -0.00000002
-0.06605324 0.19397710 0.00000000
-0.25653166 -0.72474021 0.00000000
-0.23656833 0.49739513 -0.00000047
-0.38305449 -0.06292079 -0.00000011
-0.32425830 -0.63738376 0.00000000
-0.55288333 -0.13761564 -0.00000070
-0.07780275 -0.20156829 0.00000000
-0.73486739 -0.01114598 -0.00000170
-0.72262394 -0.22213860 -0.00000128
-0.45097831 -0.73243105 0.00000000
-0.79356694 -0.23120466 -0.00000142
-0.41175655 -0.10718829 -0.00000015
-0.18643042 0.03403800 0.00000000
-0.12057079 -0.67662108 0.00000000
-0.23447745 -0.37748051 0.00000000
-0.39595741 -0.07346128 -0.00000015
-0.70716119 -0.36631590 -0.00000096
-0.63257992 -0.61812639 -0.00000019
-0.03954757 -0.37355217 0.00000000
-0.04348680 -0.26471615 0.00000000
-0.39808467 0.03567588 -0.00000035
-0.59674066 -0.54660171 -0.00000017
-0.77378607 -0.13228114 -0.00000165
-0.55770910 -0.40359950 -0.00000025
-0.39461187 -0.11226892 -0.00000007
-0.00197592 0.64269161 0.00000000
-0.36433101 0.31699845 -0.00000070
-0.08081854 -0.00115551 0.00000000
-0.66860229 -0.68551731 -0.00000023
-0.00650418 0.65287840 0.00000000
-0.18023758 0.15514898 0.00000000
-0.75022185 -0.41250411 -0.00000097
-0.17082347 0.07213296 0.00000000
-0.40573299 0.05988486 -0.00000042
-0.41776255 0.18887398 -0.00000070
-0.71527344 -0.04029599 -0.00000157
-0.09550417 -0.11689234 0.00000000
-0.24203975 -0.09281665 0.00000000
-0.75664377 -0.78198445 -0.00000005
-0.38709101 -0.67917562 0.00000000
-0.34660783 -0.57261699 0.00000000
-0.61782444 -0.17406084 -0.00000091
-0.35140139 -0.55788630 0.00000000
-0.27867076 -0.23261373 0.00000000
-0.27189213 -0.71649683 0.00000000
-0.46628484 -0.56418103 0.00000000
-0.19721799 -0.16532473 0.00000000
-0.57000917 0.22964075 -0.00000142
-0.34962854 -0.13510682 0.00000000
-0.61759520 -0.22145002 -0.00000083
-0.46911561 -0.27039760 -0.00000011
-0.16343372 0.04837057 0.00000000
-0.54356349 -0.24680494 -0.00000047
-0.39131489 -0.42668062 0.00000000
-0.07009575 0.72557747 -0.00000017
-0.27170897 0.37079495 -0.00000040
-0.47984198 0.07003748 -0.00000076
-0.76500934 -0.35187253 -0.00000112
-0.11130961 -0.54150397 0.00000000
-0.33327335 -0.45437258 0.00000000
-0.20415609 0.25389802 0.00000000
-0.04357370 0.56311250 0.00000000
-0.27892420 -0.64431357 0.00000000
-0.09990409 -0.43002993 0.00000000
-0.29500657 -0.13977554 0.00000000
-0.47778454 -0.32197848 -0.00000006
-0.41111553 -0.77434200 0.00000000
-0.38302198 -0.47274795 0.00000000
-0.78500503 -0.69980353 -0.00000025
-0.24599648 -0.73497188 0.00000000
-0.61471766 -0.52062351 -0.00000029
-0.11701760 -0.43313223 0.00000000
-0.16498734 -0.77598548 0.00000000
-0.22482710 0.28537163 -0.00000005
-0.70491093 -0.77165610 -0.00000007
-0.06887919 0.34258696 0.00000000
-0.06947946 -0.71339887 0.00000000
-0.06441702 0.39828759 0.00000000
-0.56490070 -0.64405710 0.00000000
-0.56024241 -0.03444798 -0.00000092
-0.14680533 -0.55371714 0.00000000
-0.06346748 0.73299658 -0.00000015
-0.73278761 -0.55565584 -0.00000061
-0.30238548 0.01655519 0.00000000
-0.38991818 -0.32055712 0.00000000
-0.21123081 0.07135735 0.00000000
-0.12053345 -0.33474830 0.00000000
-0.49850914 -0.11413500 -0.00000051
-0.77270651 -0.11080329 -0.00000169
-0.57535464 -0.06610782 -0.00000092
-0.26087019 0.30337462 -0.00000024
-0.51838410 -0.54921442 0.00000000
-0.23665376 -0.73925710 0.00000000
-0.04420905 -0.69729334 0.00000000
-0.09118061 -0.24167967 0.00000000
-0.30604666 0.00501703 0.00000000
-0.59128046 0.04285453 -0.00000118
-0.51976317 -0.73156470 0.00000000
-0.31518921 0.26305342 -0.00000040
-0.11241004 0.11978112 0.00000000
-0.50123566 -0.68875343 0.00000000
-0.13527142 -0.44892198 0.00000000
-0.65687197 -0.74445450 -0.00000007
-0.14283371 0.29893211 0.00000000
-0.21666694 -0.14124621 0.00000000
-0.71204334 -0.27326182 -0.00000114
-0.30312750 0.38899317 -0.00000057
-0.12899014 -0.48612535 0.00000000
-0.27838323 0.00937739 0.00000000
-0.00291859 -0.73720258 0.00000000
-0.68942803 -0.29314417 -0.00000101
-0.27004689 -0.22415943 0.00000000
-0.49318060 -0.28191382 -0.00000019
-0.32854265 0.38028929 -0.00000066
-0.73970836 -0.00823697 -0.00000173
-0.07750624 0.56207716 0.00000000
-0.51088434 -0.16488659 -0.00000047
-0.10366002 0.41784459 0.00000000
-0.08011007 -0.34563568 0.00000000
-0.13991512 0.12134288 0.00000000
-0.16930881 -0.72345531 0.00000000
-0.41843417 -0.27034950 0.00000000
-0.74949855 -0.10117716 -0.00000161
-0.08979156 0.67542803 -0.00000016
-0.38073599 -0.09623069 -0.00000004
-0.49754664 -0.21620597 -0.00000033
-0.16921245 -0.58657140 0.00000000
-0.41583803 0.05199319 -0.00000045
-0.16060740 -0.53183097 0.00000000
-0.51355755 -0.72446811 0.00000000
-0.07913003 -0.23324615 0.00000000
-0.24500296 -0.49038756 0.00000000
-0.67691791 -0.67466295 -0.00000028
-0.46659464 0.12930781 -0.00000081
-0.09877805 -0.08897788 0.00000000
-0.57732201 -0.17218608 -0.00000075
-0.21074231 0.33418775 -0.00000008
-0.13439758 -0.32431883 0.00000000
-0.38545123 0.35906205 -0.00000087
-0.05226254 -0.37850472 0.00000000
-0.78812248 -0.13872159 -0.00000165
-0.60684466 -0.73231584 0.00000000
-0.00971915 -0.77908695 0.00000000
-0.17696887 0.10952268 0.00000000
-0.04902807 -0.11142419 0.00000000
-0.20988007 -0.77569908 0.00000000
-0.02193551 -0.78169978 0.00000000
-0.39513341 0.13010737 -0.00000050
-0.00727610 0.58815962 0.00000000
-0.00953854 0.29160258 0.00000000
-0.07182775 -0.29877928 0.00000000
-0.16211189 0.51190478 -0.00000018
-0.24263979 0.37726140 -0.00000029
-0.06024014 0.46976128 0.00000000
-0.72306508 -0.41361406 -0.00000094
-0.26579121 -0.13890485 0.00000000
-0.24782591 -0.59798461 0.00000000
-0.06649999 -0.31122765 0.00000000
-0.04627722 -0.47963277 0.00000000
-0.61189550 -0.59525490 -0.00000014
-0.04257609 0.52537775 0.00000000
-0.29814878 -0.64268601 0.00000000
-0.20545965 0.46308365 -0.00000028
-0.50077099 -0.03344724 -0.00000066
-0.44168475 0.31192982 -0.00000102
-0.79063457 -0.02114847 -0.00000192
-0.38677844 -0.76416010 0.00000000
-0.54943991 0.23003086 -0.00000134
-0.72874063 -0.50744170 -0.00000073
-0.45691156 -0.01169136 -0.00000052
-0.17198309 0.26515648 0.00000000
-0.23472698 -0.69595706 0.00000000
-0.17183466 -0.34581402 0.00000000
-0.38562176 -0.36690161 0.00000000
-0.57492530 -0.52931243 -0.00000010
-0.52483153 -0.04226212 -0.00000075
-0.29954553 0.20608284 -0.00000023
-0.13348797 -0.53613055 0.00000000
-0.06031783 0.11512440 0.00000000
-0.15996477 -0.03168410 0.00000000
-0.78722817 -0.25367770 -0.00000137
-0.42926490 -0.02776222 -0.00000037
-0.20940223 -0.32770148 0.00000000
-0.02172595 -0.50633168 0.00000000
-0.67285699 0.07462190 -0.00000159
-0.65146446 -0.21795207 -0.00000098
-0.04573198 0.65767652 0.00000000
-0.12008130 -0.24003272 0.00000000
-0.01547440 -0.02600175 0.00000000
-0.44428748 0.04313968 -0.00000056
-0.41190833 0.18811919 -0.00000068
-0.05054996 0.66217548 0.00000000
-0.39595133 -0.57322836 0.00000000
-0.25339288 -0.34084558 0.00000000
-0.65587896 -0.54393446 -0.00000042
-0.34238791 0.20858477 -0.00000042
-0.18969084 -0.59311968 0.00000000
-0.70324290 -0.28764409 -0.00000108
-0.33839655 -0.14038625 0.00000000
-0.36506519 -0.15324204 0.00000000
-0.49972647 -0.77850211 0.00000000
-0.02488596 -0.79462790 0.00000000
-0.38920337 0.07633050 -0.00000038
-0.77880538 -0.09628357 -0.00000174
-0.61318880 -0.02713813 -0.00000115
-0.24750219 -0.50128400 0.00000000
-0.40192217 -0.24494068 0.00000000
-0.22340317 -0.22888114 0.00000000
-0.50794798 -0.75805211 0.00000000
-0.76132053 -0.08024293 -0.00000169
-0.72443914 -0.21363623 -0.00000130
-0.42856893 -0.71777290 0.00000000
-0.77117252 -0.39998168 -0.00000100
-0.43771538 0.02183382 -0.00000049
-0.08727869 0.49551764 0.00000000
-0.41635874 0.33225319 -0.00000095
-0.28417945 -0.52026242 0.00000000
-0.03240909 0.68598509 0.00000000
-0.73075497 -0.04971249 -0.00000162
-0.60573465 -0.01937567 -0.00000114
-0.04919488 -0.48419133 0.00000000
-0.24864607 -0.14697675 0.00000000
-0.57639068 0.12357745 -0.00000126
-0.16869180 0.18691476 0.00000000
-0.09716878 -0.38669163 0.00000000
-0.25539443 0.48022717 -0.00000052
-0.42504385 -0.07390121 -0.00000027
-0.29242283 0.04188461 0.00000000
-0.37788531 -0.47825494 0.00000000
-0.09592966 -0.23982209 0.00000000
-0.30746731 -0.27267089 0.00000000
-0.57761306 -0.70078498 0.00000000
-0.31175327 0.17862850 -0.00000023
-0.37069753 -0.63927662 0.00000000
-0.28733361 -0.11518447 0.00000000
-0.38836658 -0.57597756 0.00000000
-0.50218379 -0.06535424 -0.00000061
-0.05942844 0.36811703 0.00000000
-0.07730871 -0.17905489 0.00000000
-0.33111152 -0.59285849 0.00000000
-0.36871427 -0.04477080 -0.00000008
-0.34212562 -0.03221517 0.00000000
-0.47465101 0.09985992 -0.00000079
-0.21997422 0.43206036 -0.00000029
-0.52562392 -0.78077728 0.00000000
-0.29116508 -0.29321408 0.00000000
-0.55808592 -0.41985974 -0.00000023
-0.74310434 -0.04355148 -0.00000168
-0.22201884 -0.19554335 0.00000000
-0.18424430 0.11710290 0.00000000
-0.72106618 -0.44640243 -0.00000087
-0.55297697 -0.16512610 -0.00000065
-0.05918446 -0.39793339 0.00000000
-0.71510708 -0.74504775 -0.00000014
-0.63478136 -0.76963449 0.00000000
-0.62564111 -0.31963679 -0.00000069
-0.06400265 -0.72666377 0.00000000
-0.08628360 -0.55885929 0.00000000
-0.40623605 0.00864428 -0.00000033
-0.74005264 -0.72734332 -0.00000018
-0.30621901 -0.03702326 0.00000000
-0.54617155 -0.03063976 -0.00000086
-0.39178348 -0.78197759 0.00000000
-0.28239670 0.36930567 -0.00000044
-0.28609946 -0.21667290 0.00000000
-0.31153280 0.39510274 -0.00000061
-0.24385290 -0.30326420 0.00000000
-0.67343336 -0.24719352 -0.00000102
-0.67069590 -0.65213442 -0.00000030
