ply
format ascii 1.0
element vertex 1021
property float x
property float y
property float z
end_header
-0.62398255 -0.70643800 0.16236511
-0.65720856 -0.61263162 -0.07525900
-0.48538026 -0.37182662 0.19130994
-0.61618131 -0.68760467 0.15608180
-0.09808906 0.56318694 0.07280830
-0.39261150 -0.01796270 -0.05617532
-0.52474344 -0.46685076 0.01799575
-0.28356457 0.26925403 -0.06653524
-0.47822914 -0.35456243 0.19575208
-0.35021299 -0.02775050 -0.00766638
-0.40339491 -0.11224885 -0.02665237
-0.49502859 -0.39512122 0.22339012
-0.40691772 -0.17444466 -0.00342820
-0.65050197 -0.77046001 0.05499172
-0.54029065 -0.44782928 -0.02445153
-0.67212665 -0.82266521 0.06342288
-0.32001436 0.02741936 0.06651788
-0.46963280 -0.33380651 0.13876431
-0.68062514 -0.56381130 -0.12082922
-0.50100201 0.01610185 -0.18409607
-0.55433196 0.01192961 -0.23798287
-0.58809912 0.03711854 -0.28414133
-0.32556424 0.01402190 0.05447709
-0.10052392 0.66587859 -0.04695592
-0.14442752 0.45131549 0.09709608
-0.12553260 0.49693570 0.04162886
-0.26878586 0.15107878 0.25982413
-0.24400131 0.21092720 0.08445909
-0.15077400 0.59455580 -0.06857929
-0.72504783 -0.70933431 -0.10427147
-0.70878762 -0.51069927 -0.17321171
-0.19864227 0.49334136 -0.07478524
-0.54149252 0.05054418 -0.24127831
-0.39312798 -0.04705051 -0.04413267
-0.32873458 0.21618915 -0.09075138
-0.03471330 0.73166120 -0.00668641
-0.29619008 0.13203333 -0.02036267
-0.33227769 -0.00219212 0.13586242
-0.57182539 -0.33385983 -0.10667983
-0.50019908 -0.40760466 0.24063729
-0.27760205 0.12980412 0.14461935
-0.48868555 -0.37980264 0.10452747
-0.31358877 0.04291539 0.27264425
-0.49101382 -0.38542566 0.15263741
-0.67924088 -0.62522876 -0.09281745
-0.68644881 -0.48783717 -0.15977338
-0.44598952 -0.27673116 0.25184646
-0.55888641 -0.54928541 0.15766905
-0.48732820 -0.37652588 0.10828231
-0.45495811 -0.29838169 0.21317682
-0.57790667 -0.13321038 -0.19982164
-0.68499243 -0.22838628 -0.27047858
-0.04125129 0.70040840 0.01367496
-0.09143061 0.57926697 0.00638363
-0.38825923 0.20005001 -0.14593069
-0.22105695 0.45663655 -0.08231521
-0.66004163 -0.55265188 -0.10416187
-0.26109949 0.39311260 -0.09665254
-0.31614190 0.03676628 0.08987388
-0.33887535 -0.01811726 0.10019687
-0.66092432 -0.19985586 -0.25768623
-0.45285892 0.07060498 -0.15739736
-0.50076228 -0.40895978 0.13245133
-0.57467401 -0.58739978 0.23792791
-0.18500981 0.44832435 -0.04107619
-0.38700756 0.07961940 -0.09252924
-0.16952883 0.48235407 -0.03962981
-0.59944487 -0.34988886 -0.12858847
-0.24135564 0.21730407 0.21341909
-0.24480930 0.20898277 0.00761017
-0.62290639 -0.70383734 0.00142051
-0.44382000 -0.20433123 -0.02903637
-0.66584390 -0.80749786 0.08366324
-0.65757793 -0.52186042 -0.11490804
-0.39013255 -0.14187475 0.12791792
-0.70478088 -0.44209734 -0.19870158
-0.52170366 -0.26298177 -0.08499801
-0.40343225 -0.17397881 0.02519188
-0.14469783 0.45065984 0.13578455
-0.21754782 0.27479124 0.07849767
-0.58261293 -0.47111312 -0.05857568
-0.16753536 0.39552340 0.16596159
-0.58773869 -0.54717618 -0.03102706
-0.53014296 -0.09064930 -0.16835362
-0.38424715 -0.12766312 0.05792008
-0.08180824 0.68640506 -0.03629051
-0.50043017 -0.40816370 0.32036543
-0.12608849 0.49559170 0.06700824
-0.34283212 -0.00905519 -0.00804550
-0.50583279 -0.42120296 0.17438769
-0.36128238 -0.07223079 0.33694804
-0.31325877 0.08131501 -0.01624809
-0.33318734 -0.00438418 0.08556959
-0.23438208 0.23414421 0.15434748
-0.26485881 0.28930315 -0.05567375
-0.52759653 -0.47374749 0.23053606
-0.41269267 0.18732896 -0.16594344
-0.31604081 0.03701169 0.07292986
-0.70666510 -0.76476103 -0.06110033
-0.26619837 0.15733945 0.08474381
-0.42286202 -0.18258467 -0.01655724
-0.51571542 -0.44506344 0.21549100
-0.58182567 -0.60466361 0.10231239
-0.54195875 -0.50841910 0.17805941
-0.64209634 -0.37751022 -0.16118015
-0.67553163 -0.79950106 -0.01356225
-0.72915882 -0.76124483 -0.08611035
-0.52379537 -0.46456751 0.14987047
-0.41672453 0.11475593 -0.13876110
-0.43586445 -0.25228205 0.13484287
-0.50625134 -0.42221689 0.28209823
-0.30603769 0.06115812 0.10966859
-0.46510115 -0.32286891 0.20437028
-0.40647411 -0.18133472 0.31171677
-0.38961327 -0.14062338 0.18162316
-0.69155020 -0.50320280 -0.15845411
-0.37987146 -0.11710106 0.10174502
-0.50313693 0.04520008 -0.19891249
-0.32944319 0.00465144 0.12841156
-0.53537118 -0.49251667 0.21638958
-0.22838514 0.24861833 0.19921112
-0.53395021 -0.39465153 -0.04083261
-0.35035658 -0.04585223 0.31552315
-0.56045163 -0.55306464 0.24321961
-0.63918358 -0.26045918 -0.20876913
-0.39966890 0.17664275 -0.14772041
-0.19390480 0.38938594 -0.02487024
-0.35864267 -0.06584682 0.02665831
-0.57181484 -0.35122186 -0.09915883
-0.70616359 -0.60527343 -0.12956332
-0.35744318 -0.06296071 0.31685871
-0.57456660 -0.21460181 -0.16112772
-0.59732103 -0.64207304 0.16733037
-0.51223767 0.13753787 -0.24835853
-0.54220408 -0.43743914 -0.03094398
-0.40895417 -0.18732028 0.26760843
-0.53850639 -0.42196807 -0.03377465
-0.59104955 -0.45347151 -0.07501667
-0.24107689 0.21798091 0.16491424
-0.37954754 -0.11632706 0.34667325
-0.15938441 0.49223375 -0.03330980
-0.26087490 0.40031290 -0.09953264
-0.17278460 0.38286284 0.01610060
-0.55230200 -0.06019813 -0.20466518
-0.61289281 -0.66745317 -0.00526853
-0.34988174 -0.04470145 0.26034215
-0.25222039 0.19107817 0.16852644
-0.25208583 0.19141585 0.00801570
-0.49540979 -0.39604378 0.30168512
-0.10614333 0.57329655 -0.01277617
-0.29770160 0.08128711 0.05786849
-0.41830006 -0.02804261 -0.07864085
-0.42248660 -0.21999206 0.30266738
-0.21869932 0.27200723 0.12975809
-0.47953600 0.12613340 -0.20927556
-0.69294906 -0.32047039 -0.23895612
-0.24291094 0.21356407 0.02863329
-0.41074347 -0.19164406 0.36223760
-0.32928231 0.00503866 0.14369759
-0.28713042 0.10679333 0.23940980
-0.41865680 -0.21073909 0.13927531
-0.56036818 -0.15473504 -0.17219628
-0.46496704 -0.32254502 0.20243406
-0.68227041 -0.78171933 -0.02829072
-0.54876691 -0.44654825 -0.03385714
-0.63668376 -0.47063953 -0.11524473
-0.22364038 0.27481672 -0.00636369
-0.33899188 -0.01840016 0.12069046
-0.33586830 -0.01087561 0.32441762
-0.70717925 -0.51512516 -0.16961776
-0.61255413 -0.33090636 -0.15048888
-0.19025362 0.34067917 0.14412655
-0.35565263 0.24960677 -0.13331683
-0.65789300 -0.78830302 0.00496871
-0.37245497 -0.09919765 0.26394567
-0.60681552 -0.41735846 -0.10710123
-0.57399350 -0.36400124 -0.09590617
-0.54782206 -0.40083963 -0.05264181
-0.65578425 -0.08726082 -0.30102190
-0.74585068 -0.78483188 -0.09333827
-0.33957848 -0.01981976 0.16364968
-0.57520664 -0.58868027 0.01913997
-0.28100333 0.14669684 -0.01084633
-0.41287431 -0.19677925 0.14808881
-0.54453963 -0.51465070 0.26668248
-0.50694364 -0.08771084 -0.14539845
-0.27685899 0.13160621 0.04184148
-0.52571869 -0.46921402 0.25970775
-0.67845857 -0.17804933 -0.28542894
-0.42877319 -0.23516692 0.24699156
-0.55565208 -0.35554171 -0.08041212
-0.31826749 0.03161479 0.33869252
-0.31733632 0.03386579 0.30192488
-0.46753711 -0.32874179 0.01493212
-0.50869727 -0.42812178 0.31313646
-0.11190568 0.52983284 0.05054165
-0.26010054 0.17205547 0.15091404
-0.57016516 -0.57651061 0.05729650
-0.60120744 -0.28386480 -0.15898788
-0.48028591 -0.35953236 0.32464448
-0.39961946 -0.00465100 -0.06924699
-0.65153831 -0.77296191 0.05945679
-0.56936574 0.05027415 -0.27026901
-0.59267485 -0.63085651 0.21344072
-0.37543005 -0.10637419 0.00020983
-0.45847157 -0.15522429 -0.06557780
-0.35617787 -0.05990891 0.35357976
-0.46210524 -0.26981989 -0.01980374
-0.56821543 -0.55480397 -0.00734027
-0.49175915 -0.26205519 -0.05412888
-0.67536056 -0.18569507 -0.27888668
-0.50795227 -0.42632300 0.24961552
-0.59043550 -0.62544560 0.00911965
-0.52165091 -0.17634295 -0.12241872
-0.45738068 0.07866164 -0.16560438
-0.40370536 -0.17464332 0.14737101
-0.60391021 -0.65798026 0.13549192
-0.27051890 0.14689936 0.20430593
-0.34297860 0.07453938 -0.04435311
-0.48784646 -0.37777472 0.05368026
-0.41794941 -0.20903768 0.28898755
-0.39357981 -0.15019470 0.06940958
-0.51764941 -0.44973353 0.25727457
-0.29486132 0.08814305 0.07063803
-0.27187768 0.14362089 0.18103288
-0.33390343 -0.00613185 0.32225993
-0.09536343 0.67037362 -0.04351130
-0.20809245 0.32568902 -0.01213295
-0.39267775 -0.14801876 0.11313305
-0.39594492 -0.15590605 0.10258474
-0.30309069 0.06826332 0.22734568
-0.50312221 -0.41465682 0.12544233
-0.24718724 0.20323266 0.12397390
-0.50281769 -0.41392335 0.16389067
-0.43908572 -0.19872870 -0.02651595
-0.38147253 0.24203251 -0.15700376
-0.66203427 -0.10775293 -0.29868463
-0.50133383 0.04726845 -0.19792426
-0.42383602 -0.22324345 0.15268517
-0.40555677 0.19793075 -0.16307753
-0.44133037 -0.26548025 0.18762454
-0.39016098 -0.14195117 0.31152803
-0.55647016 -0.32653844 -0.09381180
-0.52090776 -0.45759484 0.12021498
-0.27189457 0.26360929 -0.05190674
-0.44555432 -0.27567631 0.15263855
-0.45054290 -0.21017943 -0.03352719
-0.65822685 -0.42928427 -0.15562966
-0.33862713 -0.01752635 0.20498767
-0.53938693 -0.50220269 0.00030165
-0.65000254 -0.76925433 0.14519750
-0.59312010 -0.63193148 0.22314742
-0.17756885 0.37130210 0.14910528
-0.38895962 -0.13905275 0.35754111
-0.24741159 0.31724122 -0.04953901
-0.14816231 0.44230101 0.07263674
-0.30632323 0.35883826 -0.12905298
-0.60493952 -0.55812663 -0.04425263
-0.24597625 0.30599111 -0.04317368
-0.61711460 -0.68985784 0.15469141
-0.55968851 -0.37704551 -0.07532570
-0.47353014 -0.34321025 0.01307255
-0.54918140 0.00305185 -0.22876401
-0.63332182 -0.72898269 0.00577424
-0.65286756 -0.57663947 -0.08629437
-0.42389151 0.20182227 -0.18390752
-0.41393667 -0.19934167 0.09151806
-0.64289486 -0.49538672 -0.11102626
-0.22620086 0.50669837 -0.10934201
-0.12298285 0.50309217 0.03066936
-0.09515916 0.57026494 0.01392983
-0.64487070 -0.12848952 -0.27179173
-0.56035274 -0.00483890 -0.23701677
-0.34894997 0.18204437 -0.09709205
-0.50501239 -0.41921544 0.01274813
-0.54373300 -0.19106396 -0.13911065
-0.48952255 -0.18413234 -0.08549894
-0.48128343 -0.36193243 0.10780066
-0.25436357 0.18591152 0.07612309
-0.43548727 -0.25136921 0.08213379
-0.14910085 0.59448147 -0.06679990
-0.50970322 -0.43054092 0.03290915
-0.41895154 -0.21145783 0.30756465
-0.01789256 0.76552325 -0.00376840
-0.61925352 -0.61166799 -0.03604079
-0.40785092 -0.18466060 0.35798147
-0.23826852 0.22477001 0.04995522
-0.59465718 -0.63563985 0.05762375
-0.46289539 -0.22515945 -0.03994682
-0.30934319 0.05317031 0.20654979
-0.34227458 -0.02633193 0.20481041
-0.44733775 0.19533446 -0.20558561
-0.61473507 -0.19112873 -0.21322747
-0.67577112 -0.15074149 -0.29443461
-0.03149053 0.72397161 0.02629151
-0.13222209 0.48078454 0.06103470
-0.51591259 -0.44553244 0.04774408
-0.34719321 -0.03820271 0.15875091
-0.43913618 -0.26017556 0.01368608
-0.64407146 -0.74911362 -0.00250485
-0.12986808 0.48646307 0.11650276
-0.38156924 -0.12120894 0.31513619
-0.11641673 0.51894575 0.00835452
-0.20067203 0.47257486 -0.06792196
-0.49639243 0.05439207 -0.19584548
-0.56400526 -0.56164199 0.12194352
-0.30010420 0.07546616 0.31560683
-0.34300607 -0.02809556 0.17556393
-0.60195088 0.02124435 -0.29173973
-0.42696345 -0.21586116 -0.00644642
-0.24780275 0.20173524 0.26744789
-0.58033109 -0.60105669 0.14996958
-0.36649048 0.18274400 -0.11571194
-0.62773383 -0.13910982 -0.24930251
-0.42920971 0.09780585 -0.14446712
-0.35885862 -0.06638031 0.34819245
-0.41580844 -0.20386259 0.14133322
-0.57134145 -0.22394028 -0.15372041
-0.26845506 0.15189107 0.08895299
-0.42098138 0.12942302 -0.14955097
-0.45715064 -0.30367756 0.27513921
-0.60455304 -0.26241896 -0.17175800
-0.24342029 0.21233521 0.01846461
-0.33831033 -0.01675858 0.16770872
-0.56987303 0.05698994 -0.27370378
-0.48058596 -0.36024401 0.00040547
-0.70062470 -0.36999035 -0.22555150
-0.54432845 -0.51413661 0.09595546
-0.62588674 -0.40605173 -0.13190737
-0.06519640 0.64259940 0.02728070
-0.55063689 -0.52936494 0.05598297
-0.64038008 -0.74602282 0.00404070
-0.36899444 -0.09084416 0.27480090
-0.60576719 -0.02679700 -0.27494392
-0.48282376 -0.36564943 0.06785648
-0.61485058 -0.51025653 -0.07530871
-0.59259635 -0.24805117 -0.16548690
-0.23241819 0.39678484 -0.06828965
-0.38815218 0.04612341 -0.07923528
-0.07306076 0.64345628 -0.00857743
-0.73555428 -0.79997355 -0.07603663
-0.07704479 0.61399674 0.00910424
-0.64018977 -0.46684527 -0.12054710
-0.42972964 -0.23747110 0.13260297
-0.67827606 -0.20320173 -0.27435863
-0.68307412 -0.48452026 -0.15768412
-0.52508926 -0.42259344 -0.01949312
-0.40537295 -0.17867251 0.22274385
-0.47798383 -0.03287234 -0.13887732
-0.21049239 0.52697760 -0.10171004
-0.41213545 -0.19500041 0.26473868
-0.42807773 0.18924271 -0.18283761
-0.53971177 -0.50299340 0.15272605
-0.45066375 -0.28801996 0.37389201
-0.40379688 0.23628914 -0.17783228
-0.37628087 0.10517821 -0.09238346
-0.43643400 0.23440056 -0.21109775
-0.22733326 0.37878892 -0.05519508
-0.50527322 -0.41984996 0.12706007
-0.54108709 -0.50631005 0.06808203
-0.53302819 -0.48685551 0.10232159
-0.45739806 -0.30426723 0.09340031
-0.16037498 0.57379717 -0.06962592
-0.68087077 -0.61732697 -0.09793742
-0.27534109 0.13525829 0.19691078
-0.26081824 0.20919450 -0.01680184
-0.08301588 0.59957784 0.05374079
-0.44839668 -0.28254464 0.30108523
-0.17242301 0.38372216 0.18629614
-0.49828643 -0.22631823 -0.07640316
-0.08753223 0.61072826 -0.00953268
-0.46592271 0.07431404 -0.17264406
-0.47525579 -0.34738684 0.26039621
-0.62175393 -0.15292858 -0.23708060
-0.43434966 -0.24862985 0.24909268
-0.54275894 -0.47510532 -0.01523080
-0.44600499 0.12606680 -0.17423090
-0.49259236 -0.38923392 0.08942661
-0.46958524 -0.17812715 -0.06727670
-0.32242337 0.05612126 -0.01492055
-0.17964667 0.42767471 -0.02654320
-0.30566719 0.06205294 0.10478406
-0.37576908 -0.10719352 0.02034531
-0.55843073 -0.53584272 -0.00532419
-0.66353822 -0.62156463 -0.07800488
-0.45768678 0.16460711 -0.20310128
-0.50983161 -0.43085134 0.04270007
-0.11984631 0.51065981 0.08701925
-0.54919171 -0.29763216 -0.09871467
-0.09566756 0.56903142 0.09111149
-0.36895487 0.10976729 -0.08671814
-0.51471305 -0.44264194 0.17877816
-0.50529480 -0.41990533 0.20472056
-0.45182419 -0.29081267 0.14196458
-0.55189770 -0.08312058 -0.19432789
-0.44436148 -0.27279645 0.15205579
-0.39764455 -0.16002315 0.43015116
-0.58342183 -0.60851538 0.06288227
-0.69272768 -0.37141228 -0.21668994
-0.19609977 0.32657200 0.06291847
-0.66527009 -0.73143989 -0.03228659
-0.43115658 -0.24092039 0.23486833
-0.42947534 -0.23685589 0.10266712
-0.62053233 -0.10522577 -0.25643882
-0.44881389 -0.28354454 0.12696089
-0.53826559 -0.49950427 0.28245404
-0.20455942 0.30614269 0.14012401
-0.01616146 0.76098019 0.00872773
-0.60769212 -0.31759569 -0.15116921
-0.53512496 -0.16188823 -0.14274158
-0.30494702 0.06378441 0.19445160
-0.39770648 -0.16016150 0.16604242
-0.41898113 0.05821737 -0.11666088
-0.10945638 0.53574938 0.00748033
-0.44977292 -0.28585726 0.06562780
-0.12051751 0.50904018 0.07729934
-0.59104556 -0.38814318 -0.10327035
-0.50386131 -0.29438576 -0.05278204
-0.50986630 -0.43093729 0.09525390
-0.29056448 0.09850163 0.25488985
-0.29996532 0.07580198 0.30903238
-0.22205280 0.26391822 0.04372721
-0.25838515 0.17726028 -0.00044732
-0.39854366 -0.06329766 -0.04276033
-0.63512146 -0.06613654 -0.28858188
-0.22143406 0.26541021 0.06594686
-0.60145438 -0.65205157 0.10305190
-0.45959556 -0.30956873 0.00598289
-0.66688782 -0.32592607 -0.20938174
-0.14983355 0.57294160 -0.05824760
-0.20758386 0.49762464 -0.08597559
-0.65198714 -0.76329285 -0.00463766
-0.30503193 0.33454469 -0.11719586
-0.25818181 0.17668514 0.18216582
-0.62726206 -0.71435440 0.03954027
-0.51388937 -0.44065630 0.24556386
-0.47021419 -0.33520725 0.07102284
-0.25402492 0.35301778 -0.07192098
-0.41416013 -0.14060523 -0.02562848
-0.22862636 0.24804969 0.02835870
-0.41391093 -0.19928285 0.17097092
-0.56994146 -0.57597458 0.24184684
-0.33618012 0.31210083 -0.14001493
-0.56803560 -0.57137358 0.23159584
-0.22020160 0.27064767 -0.00096923
-0.16492701 0.40182269 0.13882157
-0.27502224 0.44001803 -0.13148171
-0.68042487 -0.74215227 -0.04347835
-0.43825069 -0.25804779 0.24853557
-0.01310576 0.77389747 -0.00239220
-0.47342208 -0.07828616 -0.11446981
-0.54376501 -0.50473046 -0.00346698
-0.64311755 -0.75263286 0.12931876
-0.66994989 -0.26816511 -0.23756398
-0.26485917 0.37207690 -0.09147937
-0.38639119 0.09870682 -0.10014219
-0.19151603 0.33764198 0.01323423
-0.40962449 -0.18893160 0.10372522
-0.57228208 -0.58161998 0.02631163
-0.38200492 -0.12225420 0.16090624
-0.47113261 -0.33743057 0.21403503
-0.67109364 -0.51969540 -0.12995841
-0.53201395 -0.12209863 -0.15670398
-0.42462513 -0.22515363 0.27191275
-0.46144903 -0.31405091 0.18306209
-0.18752584 0.49146953 -0.06236684
-0.49277350 -0.38967937 0.31010479
-0.71822029 -0.69765556 -0.10219348
-0.62116551 -0.27841258 -0.18218777
-0.34632334 -0.03610856 0.23159298
-0.65700972 -0.78617066 0.06770778
-0.15669712 0.42170000 0.02766677
-0.25652590 0.18068147 0.19881088
-0.22913189 0.24681260 0.23608144
-0.73809457 -0.78428632 -0.08547491
-0.64081252 -0.74706817 0.12314082
-0.44858733 -0.28299847 0.14752635
-0.20753923 0.29894289 0.21520989
-0.43900093 -0.25984958 0.02577277
-0.41468877 -0.20116469 0.26382107
-0.64754385 -0.59205210 -0.07406822
-0.48814344 -0.37849161 0.05163884
-0.43622980 -0.25317279 0.34064361
-0.12554762 0.49689904 0.04671466
-0.39492768 0.15954030 -0.13537128
-0.68870741 -0.30544636 -0.24102546
-0.12382929 0.50104427 0.08594160
-0.17163925 0.38561681 0.15464582
-0.41165864 -0.19384035 0.05350216
-0.54006785 -0.42931876 -0.03222562
-0.05535322 0.70828497 -0.01812854
-0.66418499 -0.07016744 -0.31718826
-0.25425217 0.39973390 -0.09236616
-0.34754586 -0.03905775 0.05154179
-0.21629946 0.34779856 -0.03026726
-0.65391898 -0.39347160 -0.16662195
-0.11363213 0.62459314 -0.04278585
-0.61089611 -0.67484409 0.05501970
-0.13155459 0.48240024 0.00772092
-0.30152228 0.07206578 0.02634297
-0.68161285 -0.74577373 -0.04315240
-0.69718623 -0.49617100 -0.16738117
-0.48113525 0.09082647 -0.19567300
-0.58611751 -0.61502600 0.17672978
-0.40521076 0.26904857 -0.19347958
-0.21845035 0.27260438 0.17846128
-0.54496980 -0.06655564 -0.19425853
-0.71805996 -0.58981001 -0.14867485
-0.33034980 0.00245672 0.20388992
-0.44827268 0.01416122 -0.12819229
-0.52003300 -0.08249400 -0.16132379
-0.38140562 0.01465642 -0.05857837
-0.61482680 -0.68433470 0.13894089
-0.66255760 -0.34399992 -0.19704203
-0.30340454 0.06750071 0.28806183
-0.53994882 -0.47027403 -0.01438609
-0.13335672 0.47804046 0.12148901
-0.14569189 0.44826579 0.06336403
-0.42351130 -0.22246189 0.20928362
-0.44712240 -0.27945763 0.05041908
-0.49869984 -0.36385417 -0.01734341
-0.49749124 -0.40106809 0.25920430
-0.51723337 -0.09227949 -0.15416747
-0.44233572 0.07415030 -0.14794175
-0.29146382 0.38005108 -0.12271153
-0.42175102 -0.21821722 0.32671362
-0.39522234 -0.05820128 -0.04149645
-0.13844854 0.46574986 0.09711583
-0.55674303 -0.49338078 -0.02192876
-0.55065864 -0.52942216 0.16763505
-0.52132314 -0.45860159 0.20910525
-0.44818795 -0.17815571 -0.04491996
-0.25339818 0.18824764 0.00814737
-0.44511059 -0.27460673 0.19198585
-0.67287701 -0.25243396 -0.24742514
-0.27292320 0.26351085 -0.05293833
-0.43034628 -0.23895869 0.10593299
-0.23511083 0.41856968 -0.08052494
-0.51059324 -0.43269888 0.30366313
-0.67784327 -0.68622100 -0.06497570
-0.05398525 0.66966349 0.04901374
-0.40759978 -0.18404001 0.02124992
-0.52518463 -0.42794424 -0.01727822
-0.29028159 0.09918899 0.19974791
-0.01754403 0.77628261 -0.00805861
-0.42925173 0.13847843 -0.16210462
-0.36101422 -0.07157182 0.01572211
-0.48600867 -0.37334272 0.16721967
-0.62434798 -0.63703102 -0.03038990
-0.29200158 0.09504950 0.03853603
-0.30228046 0.27709842 -0.08947319
-0.28846765 0.37403539 -0.11698045
-0.40127110 -0.16877270 0.29276744
-0.35899234 0.17563602 -0.10480709
-0.30012703 0.07542462 0.14564818
-0.56236249 -0.06694199 -0.21225391
-0.69862932 -0.72339821 -0.07060052
-0.19603443 0.32673401 0.00949841
-0.49998698 -0.40709379 0.31381074
-0.57331151 -0.58411038 0.18258622
-0.25663108 0.18042126 0.27726209
-0.56191725 -0.26190236 -0.12745848
-0.61837596 -0.44072628 -0.10906555
-0.36704719 -0.08613673 0.01471056
-0.62866098 -0.63121885 -0.03740790
-0.46679485 -0.18242048 -0.06250572
-0.49902633 -0.40477458 0.27086550
-0.39017749 0.25159919 -0.17023242
-0.20359227 0.30847597 0.16035628
-0.65546376 -0.47948787 -0.13102858
-0.20437980 0.30657113 0.20502704
-0.33166662 -0.00073247 0.33040237
-0.60283804 -0.65539199 0.14236820
-0.31298521 0.05733918 -0.00559128
-0.19873422 0.36634284 -0.01994583
-0.04043497 0.73392069 -0.01363884
-0.45926237 -0.27778351 -0.01339036
-0.44815463 -0.28194815 0.01366262
-0.66496021 -0.80536431 0.04201012
-0.61287367 -0.67961949 0.12217681
-0.51881218 0.05951887 -0.22147575
-0.38342667 -0.12569305 0.31138921
-0.29888108 0.19496892 -0.05039672
-0.14557505 0.53935623 -0.03927256
-0.28662363 0.10803112 0.06077243
-0.48244074 -0.36473444 0.33164358
-0.64069766 -0.57566214 -0.07400851
-0.07298569 0.62379563 0.01517065
-0.43339050 -0.24630609 0.05748455
-0.62295628 -0.70395905 0.03291097
-0.54026049 -0.50431567 0.09579110
-0.32905146 0.35026801 -0.14908047
-0.09030302 0.58198279 0.08602103
-0.33641198 -0.01217677 0.18261166
-0.15551418 0.42454609 0.14957125
-0.23325244 0.32325044 -0.03735224
-0.69536757 -0.49013907 -0.16809113
-0.48548603 -0.24172546 -0.05637172
-0.63391608 -0.73041916 0.11563994
-0.57596618 -0.02930913 -0.24273659
-0.55513352 -0.16555238 -0.16205086
-0.29231313 0.09427781 0.28343216
-0.39328232 -0.03474772 -0.04961545
-0.59376925 -0.44488817 -0.08156945
-0.23434530 0.23422939 0.19976364
-0.42909753 -0.15864927 -0.03342208
-0.54946834 -0.52654451 0.07331677
-0.54345214 -0.34346521 -0.07289588
-0.29463342 0.32445005 -0.10197027
-0.25962096 0.17321780 0.09430339
-0.35479036 -0.05655011 0.24001855
-0.18338926 0.35726231 0.00260426
-0.54272461 0.07127387 -0.25153193
-0.61615223 -0.43926936 -0.10737364
-0.42856601 -0.02588525 -0.09029439
-0.17057350 0.40393826 -0.00680062
-0.38530812 -0.13023469 0.29829237
-0.33415443 -0.00672095 0.11090664
-0.18853442 0.34483358 0.09491811
-0.29763103 0.32206631 -0.10406950
-0.40293545 0.08957212 -0.11346771
-0.37224746 -0.09869235 0.03874346
-0.25648293 0.18079810 0.03741264
-0.21961027 0.26981482 0.04523097
-0.03610237 0.71283937 0.00631532
-0.51969010 -0.45465103 0.02065101
-0.53568572 0.03348090 -0.22783330
-0.42800835 -0.23332149 0.27167079
-0.55897027 -0.13239963 -0.18039775
-0.59667820 -0.25149453 -0.16825996
-0.33886459 -0.01809708 0.00140362
-0.44060436 0.05758500 -0.13896811
-0.38012722 -0.11771460 0.00962432
-0.40240777 0.07238252 -0.10548100
-0.18852746 0.34485346 0.05588710
-0.18865675 0.48524612 -0.06085578
-0.37922004 -0.11552512 0.02378082
-0.43351635 -0.24661633 0.20947976
-0.58549017 -0.02118040 -0.25619856
-0.37741026 -0.11116541 0.24829014
-0.34175023 -0.02507796 0.35284346
-0.33317220 0.36916810 -0.16155924
-0.69303882 -0.67216361 -0.08692427
-0.29036462 0.09899526 0.11601676
-0.07597536 0.65122139 -0.01498003
-0.24703149 0.20360942 0.11480248
-0.47372353 -0.34368309 0.15383647
-0.53386253 -0.48887295 0.17566518
-0.60525888 -0.18746315 -0.20491742
-0.24655756 0.25787175 -0.02296586
-0.19945580 0.47089872 -0.06592684
-0.67637235 -0.76534724 -0.02921348
-0.32824552 0.00754221 0.13692790
-0.15923701 0.41556793 0.03150315
-0.07546691 0.69977969 -0.03545380
-0.39464802 -0.15278043 0.22987133
-0.21548229 0.27976587 0.22797948
-0.44392571 -0.21012212 -0.02664192
-0.42367053 -0.22284487 0.17395078
-0.44055960 -0.00087072 -0.11363531
-0.42650229 -0.22302659 -0.00286543
-0.19004650 0.34117723 0.16853429
-0.24970835 0.19713967 0.20567636
-0.67762303 -0.25696030 -0.25042334
-0.44803506 -0.28167382 0.35336995
-0.45852846 0.01512596 -0.13931952
-0.65115774 -0.77204311 0.12701628
-0.65991521 -0.79318494 0.03551969
-0.45595354 -0.30078971 0.32654706
-0.28463542 0.30957595 -0.08509548
-0.34531671 -0.03367384 0.17540798
-0.41191748 -0.19446741 0.10371747
-0.18860519 0.52370089 -0.07743623
-0.55888402 -0.54927456 0.03672539
-0.17930412 0.36712012 0.05851117
-0.41656554 -0.20569871 0.33614719
-0.61422372 -0.57865763 -0.04506707
-0.65672052 -0.25198999 -0.23074569
-0.25545695 0.18326432 0.17062543
-0.68096757 -0.24300303 -0.25995311
-0.65900654 -0.57312870 -0.09422363
-0.32200819 0.11988107 -0.04206740
-0.41749072 -0.20792928 0.26488766
-0.15709759 0.42072818 0.09004517
-0.06532962 0.64227450 0.06757150
-0.68509340 -0.51549757 -0.14639346
-0.46884656 -0.03024355 -0.13047270
-0.39819497 -0.16134045 0.15651205
-0.43805394 0.11093293 -0.15938134
-0.25818673 0.17666912 0.23373733
-0.32854745 0.10489539 -0.04241390
-0.09503222 0.57057071 0.02225430
-0.17192473 0.51408172 -0.05585617
-0.43704659 -0.25513193 0.03959911
-0.24952640 0.19758986 0.06981199
-0.26600459 0.15780243 0.14525257
-0.56547803 -0.36859626 -0.08502619
-0.39486676 -0.15330149 0.06514906
-0.50532037 -0.41996410 0.13484083
-0.38468373 0.03336756 -0.07009547
-0.31292772 0.09551891 -0.02204652
-0.30577937 0.21810520 -0.06760848
-0.61814421 -0.53051710 -0.06998439
-0.31686080 0.09340686 -0.02524018
-0.38051939 -0.11867329 0.28946066
-0.45980337 -0.31007615 0.14116113
-0.39439121 -0.15215620 0.12978731
-0.42362553 0.18717103 -0.17729209
-0.63883311 -0.74228907 0.02958734
-0.60422009 -0.23471005 -0.18339588
-0.48674041 -0.37511444 0.28864494
-0.06462049 0.64398777 0.05207989
-0.32130143 0.38376805 -0.15547828
-0.58033997 0.02744496 -0.27185401
-0.62658811 -0.71272826 0.12911370
-0.63614494 -0.26611707 -0.20314865
-0.30730939 0.05807683 0.24932611
-0.42361480 -0.22271802 0.35610539
-0.52574182 -0.27967116 -0.08199589
-0.68474138 -0.54283053 -0.13420296
-0.41967601 0.00712304 -0.09528480
-0.38330385 -0.12538843 0.12155316
-0.20873462 0.34551591 -0.02138003
-0.39287743 -0.14850357 0.17681855
-0.56235868 -0.52127033 -0.01572928
-0.44714215 -0.27951252 0.21974666
-0.50457966 -0.41818014 0.23403943
-0.39537725 0.04135408 -0.08471724
-0.63437235 -0.50984907 -0.09587080
-0.58857948 -0.28875738 -0.14368467
-0.43425238 -0.24838737 0.06912042
-0.03785453 0.70860887 0.01241372
-0.55410224 -0.41918999 -0.05126244
-0.40360785 -0.17440449 0.06566544
-0.50108182 0.02477656 -0.18793182
-0.33154464 0.08312459 -0.03612648
-0.58219379 -0.60555041 0.05791735
-0.39055437 0.19653897 -0.14680873
-0.01414627 0.76584536 0.00728087
-0.38621059 -0.13240469 0.09117834
-0.57486635 -0.14293617 -0.19243985
-0.34740943 0.21862045 -0.11130492
-0.06596414 0.64074528 0.03573834
-0.04381149 0.69422507 0.04465646
-0.45620760 -0.30140057 0.26747042
-0.47023371 -0.33526334 0.28146121
-0.64500797 -0.67817110 -0.03416914
-0.33701685 0.28788155 -0.13041222
-0.70516872 -0.45011336 -0.19563922
-0.46402901 -0.32027683 0.11852732
-0.37206003 -0.09824209 0.09143064
-0.66831100 -0.45792431 -0.15377180
-0.54844558 -0.51642913 -0.00329443
-0.63306934 -0.72837502 0.16854203
-0.68861508 -0.72959679 -0.05746190
-0.35406366 0.15434262 -0.09044932
-0.34222111 -0.01359861 -0.00544220
-0.42233580 -0.21962997 0.34942216
-0.40258110 -0.17193970 0.39622346
-0.21619463 0.27805379 0.13237096
-0.67734849 -0.37209916 -0.20033312
-0.54188877 -0.39995891 -0.04682687
-0.14269076 0.45551166 0.05548005
-0.61858785 -0.02661611 -0.28841057
-0.46501169 -0.32264581 0.03641233
-0.45706049 -0.30345449 0.14673655
-0.40792575 -0.18483402 0.18786775
-0.43276063 -0.21806321 -0.01154769
-0.08400045 0.67498946 -0.03364179
-0.22800106 0.24954441 0.21393603
-0.39529353 -0.15433870 0.22808264
-0.17249979 0.38354039 0.14140825
-0.30524719 0.37005219 -0.13278006
-0.24125019 0.21756195 0.17207405
-0.50719428 -0.42448315 0.01605017
-0.09880867 0.57706827 -0.00674824
-0.27857059 0.12745690 0.25639719
-0.25206977 0.32882243 -0.05941312
-0.13600779 0.47163951 0.13175938
-0.49154824 -0.38672137 0.32105044
-0.39790431 0.03558812 -0.08486202
-0.17761329 0.42151591 -0.02175567
-0.63715112 -0.73822910 0.11935731
-0.36191761 -0.07376029 0.19165961
-0.65727544 -0.72959220 -0.02473731
-0.19182096 0.33689857 0.10345233
-0.23398136 0.23511747 0.08171046
-0.28726766 0.10646009 0.26356131
-0.53685236 -0.12469558 -0.16063321
-0.27533379 0.13527086 0.26052707
-0.32915801 0.24093717 -0.10189876
-0.66830933 -0.12415883 -0.29814103
-0.32379368 0.32216924 -0.13143523
-0.71970356 -0.80851567 -0.05578956
-0.45215678 -0.29161003 0.00997186
-0.43727824 -0.25570202 0.29570931
-0.24639042 0.20516232 0.04960612
-0.55146945 -0.04597838 -0.20994657
-0.43171051 -0.03661740 -0.08893584
-0.23002566 0.40344319 -0.06867137
-0.09543268 0.59980881 -0.01305956
-0.46489918 -0.32238093 0.19672203
-0.55455756 0.05481039 -0.25676730
-0.29594988 0.08550884 0.14857183
-0.32340381 0.01922425 0.22061679
-0.54714984 -0.46972978 -0.02214124
-0.25828132 0.22143506 -0.01944745
-0.51987362 -0.24656102 -0.09018981
-0.37402025 -0.10297815 0.17697787
-0.55698335 -0.54469180 0.24889477
-0.59148908 -0.05927035 -0.24598818
-0.59413570 -0.63438094 0.05857129
-0.20764299 0.29870957 0.00059895
-0.25301978 0.18916060 0.01429127
-0.20044684 0.42259938 -0.04606905
-0.33125022 0.26035258 -0.11248211
-0.16037939 0.54368120 -0.05660334
-0.44854367 -0.28289646 0.22829622
-0.28467032 0.11273151 0.25075531
-0.14498426 0.45476669 -0.00206494
-0.28867647 0.10307608 0.04908892
-0.48783463 -0.37775451 0.25049955
-0.68056113 -0.61052853 -0.10055477
-0.69101250 -0.29716718 -0.24701373
-0.34385088 0.10599128 -0.05886908
-0.44027406 -0.26292837 0.14816220
-0.50142360 -0.41056198 0.30006948
-0.21371201 0.31718865 -0.01432437
-0.43562576 -0.25170267 0.06172285
-0.58282870 -0.60708636 0.16594920
-0.07161658 0.63324308 -0.00265141
-0.38656387 -0.13326468 0.25803590
-0.37653172 0.30041423 -0.17709817
-0.56707573 -0.56905258 0.07213262
-0.49082437 -0.16568045 -0.09483979
-0.37350139 -0.10173387 0.38865334
-0.31489617 0.31889841 -0.12072887
-0.57505238 -0.31496128 -0.11822429
-0.19217031 0.41961914 -0.03613684
-0.19661286 0.36921600 -0.01897337
-0.28776339 0.10527650 0.09839710
-0.60533625 -0.66141897 0.00087101
-0.53160948 -0.02704870 -0.19739345
-0.61969393 -0.59128290 -0.04531832
-0.34152359 0.08767174 -0.04851430
-0.34007889 0.14050160 -0.06985811
-0.19051667 0.34004125 0.18039130
-0.53164899 -0.48352638 0.11586589
-0.39229453 -0.14710346 0.34606537
-0.45867950 -0.30737096 0.33132836
-0.72161233 -0.69570053 -0.10658128
-0.15093698 0.53918004 -0.04479574
-0.70909274 -0.47605899 -0.18851401
-0.16806088 0.39425373 0.17572559
-0.24955113 0.19752853 0.09003203
-0.16296557 0.40656781 0.01527185
-0.59242624 -0.40239394 -0.09854797
-0.55146056 -0.53135884 0.22970095
-0.45774794 -0.26002744 -0.01948933
-0.57212394 -0.27005151 -0.13459204
-0.51221198 -0.43660468 0.19919837
-0.58261889 -0.60657996 0.18480712
-0.49270955 -0.38951361 0.01383365
-0.35092795 0.25222373 -0.12951493
-0.11495168 0.52247518 0.10131198
-0.34412107 0.03233472 -0.02728979
-0.60192025 -0.12454192 -0.22864766
-0.62091887 -0.41334277 -0.12356585
-0.40856624 0.00335311 -0.08205230
-0.32288948 0.02047425 0.11655628
-0.38276580 -0.12408891 0.10690556
-0.57461590 -0.28540289 -0.13055404
-0.17063998 0.51456326 -0.05472282
-0.48745862 -0.37683797 0.04397570
-0.51009756 -0.43149248 0.01920257
-0.44651017 -0.27799201 0.34285548
-0.49593362 -0.13675573 -0.11268664
-0.70155102 -0.39647332 -0.21506356
-0.32742858 0.00950620 0.23924308
-0.35768941 -0.06354960 0.24780485
-0.11265209 0.64933318 -0.05246424
-0.53333563 -0.48759535 0.04472451
-0.19777083 0.32253724 0.06953789
-0.23601715 0.24288107 -0.00547422
-0.55857861 -0.37469473 -0.07518350
-0.14298055 0.45481065 0.07322077
-0.58510774 -0.61258841 0.23175877
-0.16902959 0.51598269 -0.05365512
-0.55087990 -0.05766923 -0.20427404
-0.18758219 0.40716258 -0.02595724
-0.54013288 -0.50401217 0.26185814
-0.36276692 0.25249791 -0.14199679
-0.51161897 -0.43516830 0.08545500
-0.51832289 -0.45135400 0.10885295
-0.73359764 -0.63855994 -0.14381319
-0.45549449 -0.21629322 -0.03605345
-0.24024302 0.22000597 0.01545905
-0.57103682 -0.00125022 -0.24972633
-0.69114310 -0.73486865 -0.05782142
-0.47567603 -0.34839222 0.04507818
-0.51763594 -0.36070737 -0.03847885
-0.61298811 -0.55017698 -0.05609610
-0.54127580 -0.32339653 -0.07930397
-0.34241584 -0.02667765 0.26314875
-0.33719751 -0.01407794 0.24146892
-0.50814623 -0.03681359 -0.16867001
-0.37632614 0.16751970 -0.11939764
-0.56781006 -0.57082373 0.03111494
-0.35133323 -0.04821522 0.37925616
-0.66641712 -0.06852417 -0.32022995
-0.35008168 -0.04518439 0.26330405
-0.51355368 0.00863239 -0.19397253
-0.60467350 -0.65982306 0.09955051
-0.28606847 0.10937148 0.05936854
-0.34826857 -0.04080391 0.08451983
-0.30341393 0.06749193 0.11494756
-0.53046799 -0.04495340 -0.18845887
-0.45170039 -0.29051211 0.10167213
-0.53844982 -0.49994889 0.20323938
-0.52791452 -0.47450978 0.09607645
-0.18110435 0.36277023 0.10632317
-0.33258885 0.04739643 -0.02176212
-0.57541424 -0.20494932 -0.16618808
-0.34945717 0.30900237 -0.15253963
-0.29125881 0.09683658 0.11481169
-0.66535896 -0.30995923 -0.21469176
-0.21257675 0.28679362 0.06263582
-0.45501170 -0.21807240 -0.03477968
-0.60371149 -0.26456037 -0.16995291
-0.30301601 0.27649754 -0.08998136
-0.42196959 -0.21874765 0.39280659
-0.52740401 -0.17773034 -0.12782638
-0.25910422 0.17446347 0.11693309
-0.66177011 -0.70296276 -0.04094955
-0.52918291 -0.47757590 0.19040103
-0.06001934 0.65509808 0.02392043
-0.21366914 0.28414309 0.22860777
-0.52851623 0.07531167 -0.23844099
-0.52421415 -0.18836582 -0.11989487
-0.62459904 -0.17302655 -0.23135819
-0.62109762 -0.65281594 -0.02016789
-0.37836975 -0.11347584 0.10716993
-0.64317203 -0.75276440 0.15422948
-0.44773787 -0.28094339 0.04713991
-0.67861450 -0.20122197 -0.27556837
-0.48551926 -0.17183574 -0.08663738
-0.30319065 0.13163723 -0.02750190
-0.27714196 0.13092341 0.03835830
-0.57722205 -0.59355110 0.15840505
-0.55337757 -0.32394338 -0.09170481
-0.30888942 0.20412114 -0.06480720
-0.54920334 -0.52590531 0.08755755
-0.67900401 -0.65929919 -0.07783287
-0.39754143 -0.01918697 -0.06079391
-0.10407706 0.66348559 -0.04963126
-0.29605439 0.08525277 0.19544789
-0.45946562 -0.13369291 -0.07592930
-0.49564007 -0.39659756 0.22557221
-0.49685523 -0.39953327 0.28908110
-0.66658133 -0.80927807 0.13574439
-0.20405172 0.49786252 -0.08238994
-0.63559157 -0.21645920 -0.22405037
-0.38992605 -0.14138339 0.29682344
-0.50684428 0.07134871 -0.21409509
-0.56766373 -0.12149125 -0.19419441
-0.44127348 0.14552528 -0.17770696
-0.31934422 0.02904227 0.00320188
-0.74007654 -0.68050998 -0.13243328
-0.34643653 -0.03638045 0.21432480
-0.72732443 -0.73392779 -0.09601084
-0.64762616 -0.76351732 0.07275592
-0.62856966 -0.46706721 -0.10831665
-0.60632521 -0.66381061 0.19114910
-0.15682597 0.42138728 0.04790451
-0.41778862 -0.20865124 0.32970285
-0.44330692 -0.27025029 0.14639349
-0.41908109 0.06670532 -0.12043687
-0.67489332 -0.26645023 -0.24346794
-0.70051289 -0.67567617 -0.09320966
-0.41859990 -0.21060331 0.17649540
-0.63955712 -0.17438281 -0.24639168
-0.52230835 -0.17145869 -0.12521794
-0.46984977 -0.33432794 0.08200836
-0.69305652 -0.47891676 -0.17053203
-0.25575769 0.18255045 0.01920787
-0.34811002 0.09682417 -0.05935143
-0.29270828 0.09333540 0.13901755
-0.42033386 -0.21479668 0.34532943
-0.46509361 -0.07538012 -0.10702969
-0.22942989 0.28748736 -0.01789047
-0.48079976 -0.36077145 0.26638237
-0.45323470 -0.29421753 0.13125309
-0.74145699 -0.68738997 -0.13089883
-0.70924550 -0.44354460 -0.20273772
-0.24942996 0.19780721 0.26283181
-0.12029970 0.50957114 0.01369324
-0.55659944 -0.14066917 -0.17434496
-0.19510037 0.42871720 -0.04313219
-0.55571175 -0.47915542 -0.02700501
-0.71675473 -0.53593278 -0.17061660
-0.66119134 -0.79626584 0.02742890
-0.41140884 -0.03855588 -0.06689706
-0.70482552 -0.64261621 -0.11201333
-0.36181515 -0.07351589 0.32300970
-0.42274839 -0.15713510 -0.02744685
-0.24378563 0.32864761 -0.05068654
-0.54104179 -0.33287412 -0.07496003
-0.56975490 -0.57552415 0.16522712
-0.59291112 -0.63142687 0.19972560
-0.40123850 -0.16868503 0.08213190
-0.65617716 -0.78416085 0.14207239
-0.11209581 0.52937359 0.05363831
-0.39398369 -0.13340922 -0.00767161
-0.24572121 0.20676406 0.22250274
-0.40219748 0.21648663 -0.16759613
-0.34999791 -0.04497098 0.12358996
-0.64907807 -0.18045138 -0.25370908
-0.50071144 -0.40884218 0.25387520
-0.32678151 0.01106657 0.26182541
-0.38718721 -0.13476428 0.13437742
-0.52252877 -0.12607121 -0.14508060
