ply
format ascii 1.0
element vertex 1064
property float x
property float y
property float z
end_header
-0.38481477 0.28438652 0.00000336
-0.45384106 -0.04001406 0.00000172
-0.58798653 -0.32281357 0.27414802
-0.15929019 0.46019784 0.04136160
-0.74778593 -0.07760470 -0.00000139
-0.49965015 0.04321546 0.00000337
-0.30412397 0.30225971 0.21850155
-0.72545666 -0.07952409 -0.00000115
-0.63996869 -0.62816489 0.10797456
-0.49709490 -0.33255371 0.06241117
-0.33930257 0.28612790 0.00000421
-0.52009583 -0.09462997 0.00000105
-0.63081181 -0.64319360 0.07366435
-0.62847531 -0.53994215 0.16384932
-0.34190577 0.06570685 0.08420705
-0.21632022 0.44492319 0.15446183
-0.59242749 -0.22623508 0.00000037
-0.43132699 -0.12363229 0.10874084
-0.77568096 -0.02891458 -0.00000172
-0.47937542 -0.16030855 0.18202883
-0.54946834 0.19538294 0.00000101
-0.65576822 0.04437273 0.00000036
-0.42483088 -0.11821704 0.09925428
-0.19285949 0.47864890 0.13329139
-0.63500071 -0.35825777 0.00000000
-0.53193945 -0.37916735 0.09706587
-0.52700430 0.02342919 0.00000303
-0.60871059 0.00045943 0.00000167
-0.53700072 -0.01163718 0.00000081
-0.54779071 -0.09420945 0.39570275
-0.36504015 0.13172045 0.19680756
-0.68512768 0.01323047 0.00000008
-0.40543413 -0.16491254 0.00000232
-0.66450304 -0.54337078 -0.00000019
-0.54846323 -0.22636656 0.27509949
-0.75189370 -0.36083138 -0.00000110
-0.29324719 0.12791792 0.00000655
-0.16510853 0.42159307 0.01866986
-0.02329785 -0.72112781 0.00000030
-0.64606708 -0.58686829 0.00000004
-0.53893822 -0.10224107 0.00000085
-0.58048081 -0.49428192 0.00000067
-0.42402494 0.32838252 0.00000220
-0.37275124 0.42055866 0.00000228
-0.54548341 -0.04043614 0.00000074
-0.12526958 -0.76855731 0.00000012
-0.33050328 0.15356164 0.13994902
-0.45293206 0.02316939 0.29256338
-0.22984570 0.38133445 0.12587710
-0.26424003 0.16686440 0.00000675
-0.49288195 0.25024900 0.00000159
-0.38737574 -0.12475114 0.00967194
-0.65112180 -0.19957815 -0.00000028
-0.50971156 -0.33797103 0.00000132
-0.41890880 -0.13302194 0.07236621
-0.71896350 -0.49445939 -0.00000076
-0.42542312 0.08697012 0.29015180
-0.31480846 0.27719563 0.21917589
-0.55460751 -0.53177494 0.00000097
-0.45911205 0.30105492 0.00000178
-0.22550654 0.38748533 0.12188132
-0.55270207 -0.45754546 0.00000094
-0.49971879 -0.05671694 0.32311395
-0.53121597 -0.30764392 0.00000107
-0.72540051 -0.20437761 -0.00000107
-0.04498386 -0.79124594 0.00000003
-0.56964904 0.21131898 0.00000048
-0.44405419 0.23969744 0.00000263
-0.22161853 0.28222421 0.01594842
-0.34308818 0.15991883 0.00000530
-0.08966781 0.58742583 0.00000623
-0.67629069 -0.63898414 0.17899583
-0.33988738 0.01837423 0.00000667
-0.55873340 -0.14331937 0.37473702
-0.48622286 -0.04029328 0.30818456
-0.49417025 0.11474006 0.00000282
-0.07504029 -0.75849581 0.00000016
-0.40248030 0.04660913 0.20168135
-0.34952495 0.44365665 0.00000251
-0.34179062 0.29414755 0.00000409
-0.64260536 -0.46954608 -0.00000001
-0.25196338 0.51809597 0.00000376
-0.62908006 -0.63107187 0.08100117
-0.39348298 0.02473753 0.00000558
-0.27614048 0.43123332 0.00000409
-0.29023781 0.21494621 0.00000581
-0.19637410 0.42734829 0.09373010
-0.70357549 -0.37215000 -0.00000072
-0.75993443 -0.34634602 -0.00000113
-0.40678164 -0.16030310 0.00000230
-0.68227923 -0.06634939 -0.00000070
-0.60075033 -0.13753800 0.00000022
-0.76816505 -0.78349918 -0.00000004
-0.65650535 -0.20159282 -0.00000033
-0.30821848 0.31802276 0.00000452
-0.23917630 0.30660596 0.00000595
-0.54644549 -0.45374992 0.00000101
-0.71264797 -0.64883542 -0.00000038
-0.19150612 0.53349143 0.00000478
-0.50155389 -0.06037026 0.32383171
-0.60540164 -0.15650477 0.00000018
-0.09524574 0.61510921 0.04163747
-0.46049386 -0.09696434 0.19843803
-0.51009047 -0.37613761 0.05113009
-0.49709398 -0.33225077 0.06268898
-0.70390540 -0.78985900 0.10119443
-0.14374064 0.45577723 0.00000641
-0.24530712 0.23531690 0.02544743
-0.30677405 0.29626283 0.21887182
-0.49364713 0.00484951 0.00000384
-0.20721349 0.32222816 0.02077903
-0.03951825 -0.76181644 0.00000014
-0.38192970 0.16837753 0.26835290
-0.33775944 0.00135191 0.01549481
-0.23688719 0.40519345 0.16362961
-0.17129363 0.51091224 0.11499656
-0.66003573 -0.05308715 -0.00000047
-0.51358801 -0.41270730 0.00000133
-0.41472858 -0.00098672 0.00000211
-0.08719810 -0.72811025 0.00000027
-0.72369820 -0.76678139 -0.00000008
-0.50086474 -0.28886133 0.11118852
-0.65213537 -0.71785003 0.00000006
-0.65792638 -0.29491246 -0.00000029
-0.74905419 -0.13792311 -0.00000136
-0.68689460 -0.22267556 -0.00000064
-0.37610322 -0.10046359 0.00000259
-0.63292617 -0.07250203 -0.00000017
-0.12530281 0.50007999 0.00239836
-0.58290642 -0.44368246 0.15114285
-0.77599418 -0.72447515 -0.00000019
-0.23981898 0.39182138 0.15781376
-0.65549856 -0.38644785 -0.00000020
-0.14286093 0.55046815 0.08812251
-0.20851682 0.51936406 0.00000458
-0.30702025 0.43254060 0.00000349
-0.64112902 -0.73875540 0.00838529
-0.66313213 -0.67390925 0.11737711
-0.56482351 -0.36377218 0.18463928
-0.62728190 -0.71355051 0.00078621
-0.58934999 -0.54688078 0.00000061
-0.53135270 -0.46123937 0.00000118
-0.45423204 -0.29264566 0.00367575
-0.68496281 -0.33788064 -0.00000055
-0.37462562 -0.06884761 0.00000258
-0.70892829 -0.32509527 -0.00000081
-0.36044946 -0.00861778 0.05689634
-0.39137909 0.00337074 0.13696666
-0.32413328 0.12142028 0.09604152
-0.42938167 -0.17329277 0.05851912
-0.55303788 -0.39069930 0.13347229
-0.63276535 -0.36319652 0.00000003
-0.53208047 -0.40511888 0.00000113
-0.48194149 -0.18405473 0.00000152
-0.62985682 -0.64382958 0.07094667
-0.61724573 -0.52599674 0.00000030
-0.63523668 0.13364477 -0.00000007
-0.72264194 -0.03336177 -0.00000115
-0.74887520 -0.60606533 -0.00000048
-0.36183521 0.10705974 0.00000543
-0.35798395 0.21563371 0.25860259
-0.34951800 0.26672548 0.00000420
-0.79246777 -0.70734715 -0.00000023
-0.56980419 -0.40836710 0.15454645
-0.48826534 0.19518144 0.00000219
-0.61958146 -0.38410181 0.28799596
-0.34683397 0.23420838 0.00000455
-0.61238980 -0.53282642 0.13454443
-0.40867823 0.04731462 0.21615861
-0.73710370 -0.74511027 -0.00000014
-0.69343066 -0.73929578 0.12454678
-0.66936958 -0.49308938 -0.00000028
-0.54662871 -0.19825026 0.00000084
-0.14001808 0.56425124 0.09451649
-0.40975192 -0.09983185 0.08260659
-0.37750888 -0.02688087 0.00000253
-0.39617470 0.22475313 0.00000369
-0.42852750 -0.14569421 0.08211290
-0.51102686 -0.41404647 0.01819377
-0.38592061 0.26561475 0.00000351
-0.59271336 0.19705199 0.00000017
-0.10928668 0.58899754 0.04883094
-0.63800645 -0.22785877 -0.00000012
-0.59089482 -0.56195688 0.00000061
-0.38952979 0.10249352 0.22442991
-0.60507888 -0.33683240 0.29932076
-0.46989515 -0.18676260 0.13644111
-0.29242575 0.40344313 0.00000403
-0.25989279 0.30988505 0.12688307
-0.11165819 0.55684751 0.02441466
-0.21792462 0.43605512 0.14984667
-0.46245509 0.13599481 0.00000323
-0.21349388 0.35709301 0.06700314
-0.52469772 -0.05714310 0.37843934
-0.47276601 -0.24797677 0.00000166
-0.40945527 0.10913162 0.27501017
-0.48609403 -0.04949517 0.29939473
-0.71617413 0.06179509 -0.00000096
-0.30536538 0.28875336 0.20879090
-0.56498450 -0.39404479 0.15702873
-0.10271389 -0.78920299 0.00000004
-0.08037458 -0.76520205 0.00000013
-0.13453998 0.48539823 0.00943748
-0.19265290 0.39046654 0.05135104
-0.29277685 0.19460887 0.09372184
-0.45209634 -0.20597377 0.00000185
-0.13907047 0.56051636 0.08895173
-0.44007948 -0.08098475 0.16766685
-0.47842646 0.28277466 0.00000157
-0.54714030 -0.43318215 0.08106636
-0.34806558 0.31466147 0.00000378
-0.12873343 0.59776676 0.00000539
-0.38969895 0.28080606 0.00000329
-0.48916239 -0.36673695 0.01313462
-0.42386711 0.17377038 0.00000362
-0.19856273 0.38846874 0.06268781
-0.61116397 -0.63432014 0.00000044
-0.31190571 0.21891700 0.15885203
-0.47621661 0.14052203 0.00000292
-0.62334305 0.07582112 0.00000069
-0.60180253 -0.52914965 0.11432607
-0.72273910 -0.42105958 -0.00000089
-0.43869916 0.08285547 0.00000418
-0.34891120 0.15344290 0.18090086
-0.58905160 -0.39427024 0.21050309
-0.54587293 -0.33646697 0.00000094
-0.59707731 -0.35801935 0.26189792
-0.62987477 -0.46818322 0.23327067
-0.44924650 0.15240417 0.00000333
-0.08155250 0.65167636 0.04488032
-0.72877163 -0.03625317 -0.00000122
-0.29578072 0.24245730 0.00000545
-0.14874230 -0.75442332 0.00000017
-0.45354134 -0.04310267 0.23268779
-0.55269903 0.08386058 0.00000198
-0.48579258 0.03655710 0.00000370
-0.67979372 -0.75869006 0.07621019
-0.78658879 -0.23906364 -0.00000140
-0.56070745 -0.46883798 0.07838514
-0.48475885 0.17900372 0.00000241
-0.66603750 -0.09301834 -0.00000051
-0.36385766 0.18141229 0.24008459
-0.30679697 0.42481413 0.00000356
-0.53820026 -0.40130413 0.09057812
-0.69191217 -0.77010506 0.09269428
-0.63938951 -0.58385098 0.00000010
-0.04571482 -0.76974303 0.00000011
-0.35843730 0.34285960 0.00000332
-0.35291159 0.00262962 0.00000656
-0.46289372 0.05042755 0.00000401
-0.41033080 -0.07324875 0.10845862
-0.42960522 -0.22671852 0.00965640
-0.58039296 -0.47510296 0.11650613
-0.63538569 -0.45554504 0.00000006
-0.12914526 0.54853415 0.00000583
-0.57704598 0.09949061 0.00000137
-0.55295026 -0.16866994 0.33841544
-0.27255896 0.14412397 0.00000680
-0.77336258 -0.65112478 -0.00000037
-0.33775634 0.35388950 0.00000362
-0.59523278 -0.35097480 0.26429224
-0.49551520 -0.07801542 0.29406208
-0.73033750 -0.65349513 -0.00000037
-0.39535287 0.12747175 0.26049876
-0.51953506 -0.14123265 0.28923133
-0.72264051 0.05791685 -0.00000105
-0.09547037 0.63032186 0.05619485
-0.70990098 -0.28756505 -0.00000085
-0.72476524 -0.34075111 -0.00000097
-0.65829575 -0.57347566 0.19938241
-0.53941804 -0.08507467 0.38546675
-0.62575585 -0.41512558 0.27310452
-0.54053730 -0.04931166 0.00000080
-0.64741272 -0.60503072 0.14595294
-0.29018825 0.24757449 0.00000551
-0.69162315 -0.77153724 0.09072635
-0.39211103 0.27162167 0.00000333
-0.48000467 -0.08135356 0.25638098
-0.43284565 -0.03670413 0.19243520
-0.53961647 -0.01866147 0.00000079
-0.16500375 0.42441386 0.02104248
-0.04208044 0.71030366 0.00000602
-0.50365877 -0.18285890 0.21535911
-0.41991556 0.09834282 0.28837463
-0.32468101 0.26826268 0.23294421
-0.54249454 -0.27500978 0.00000093
-0.52847922 -0.43270180 0.03988591
-0.57151139 -0.49047765 0.08249042
-0.19705085 0.35340521 0.02691709
-0.34296778 0.11098291 0.12841059
-0.22327343 0.28857866 0.02551134
-0.31030944 0.31629980 0.00000449
-0.70984048 -0.13925444 -0.00000094
-0.52660072 -0.46333465 0.00739324
-0.49912652 -0.27326664 0.12171964
-0.39150733 -0.12543926 0.00000244
-0.40002331 0.25080958 0.00000337
-0.48509631 -0.27829775 0.08577626
-0.65808189 -0.74089223 0.00000001
-0.51814204 0.24071120 0.00000120
-0.15085192 0.59651905 0.00000498
-0.44565812 -0.26325405 0.01170696
-0.28571105 0.41524580 0.00000405
-0.67821258 -0.78522974 0.04816283
-0.64870310 -0.71929550 0.00000010
-0.20902367 0.31940755 0.00000641
-0.77201700 -0.02668136 -0.00000168
-0.32778245 0.32327259 0.00000409
-0.13030706 0.54106241 0.05142845
-0.46956030 -0.01491104 0.29446921
-0.45333388 -0.24267212 0.04784421
-0.22795396 0.40799782 0.14629395
-0.58060873 -0.24196361 0.00000050
-0.34097064 0.24078137 0.24388810
-0.79337180 -0.76200891 -0.00000009
-0.67625231 -0.03576214 -0.00000066
-0.62916267 -0.63597411 0.07665616
-0.53582937 -0.14062925 0.00000091
-0.33014050 0.13966753 0.00000574
-0.70060480 -0.73575562 0.14381969
-0.26368776 0.36536708 0.18661311
-0.20146166 0.38741386 0.00000593
-0.59616947 -0.45555189 0.00000048
-0.57821089 -0.56088918 0.03237895
-0.21527158 0.32904559 0.04505301
-0.10717283 -0.74204320 0.00000022
-0.65974343 -0.68308306 -0.00000005
-0.30636266 0.06612687 0.00531104
-0.28745407 0.26923195 0.00000537
-0.30245566 0.18523142 0.10664722
-0.58614117 -0.26091096 0.32722530
-0.07222886 0.68308097 0.00000569
-0.74047935 0.01951247 -0.00000104
-0.60597342 -0.05519159 0.00000011
-0.38650864 -0.12922391 0.00360533
-0.21433575 0.57329261 0.00000397
-0.48347035 0.06035182 0.00000352
-0.49682733 -0.22421084 0.16191509
-0.26876813 0.17358559 0.02074161
-0.26585767 0.15968262 0.00000679
-0.02958500 -0.76484746 0.00000013
-0.53893608 -0.22908202 0.25133985
-0.29549661 0.30237421 0.19936267
-0.77324355 -0.17465450 -0.00000156
-0.10055599 0.57340091 0.01494473
-0.19295830 -0.77506387 0.00000009
-0.61182278 -0.55187559 0.11567952
-0.62570298 -0.03259614 -0.00000012
-0.43074936 0.04554717 0.26375839
-0.11867309 0.54216158 0.02649277
-0.39133993 0.14137311 0.00000455
-0.69220734 -0.12303767 -0.00000077
-0.63898486 0.08064205 0.00000035
-0.68778723 -0.71882570 0.13087171
-0.79520237 -0.08310184 -0.00000179
-0.63070858 -0.49717346 0.20834564
-0.54288006 -0.35638836 0.00000098
-0.29213306 0.31575862 0.00000485
-0.17950873 0.61963940 0.00000421
-0.74955881 -0.29721764 -0.00000126
-0.66011304 -0.69357884 -0.00000004
-0.16198017 0.43163368 0.00000628
-0.43310669 0.07746570 0.29850918
-0.48566619 -0.23244488 0.00000151
-0.60975701 -0.61851782 0.00000044
-0.59529889 -0.58401614 0.04912684
-0.30669346 0.28167707 0.20521495
-0.54701042 -0.20168415 0.29466364
-0.33220804 0.20103876 0.18762010
-0.58810556 0.11516490 0.00000101
-0.62440705 -0.48791239 0.00000020
-0.42575091 -0.04566730 0.16833702
-0.62333637 -0.33289304 0.00000011
-0.31494564 0.09901810 0.05484774
-0.34520325 0.06241263 0.08851877
-0.74707127 -0.10673821 -0.00000136
-0.70853007 -0.61622709 -0.00000046
-0.18308967 -0.79987705 0.00000000
-0.40390280 -0.05921592 0.10708600
-0.24654229 0.27027488 0.06050345
-0.40504888 0.27684942 0.00000304
-0.29456830 0.30554780 0.00000489
-0.15420999 0.63502693 0.00000456
-0.47383121 -0.03230986 0.28791979
-0.30025870 0.23294035 0.14582910
-0.21960166 0.40766466 0.00000539
-0.58073372 0.02974470 0.00000194
-0.64306909 -0.54477274 0.00000004
-0.62536573 -0.45194596 0.23821509
-0.57551533 -0.32096523 0.24803828
-0.37411216 0.13022318 0.21566051
-0.60107046 -0.34838155 0.00000036
-0.60915005 0.18462415 -0.00000003
-0.56375390 -0.17440520 0.35721448
-0.48814744 -0.35629025 0.02052270
-0.57489669 -0.31692305 0.25039300
-0.61555171 -0.07827837 0.00000002
-0.41532376 -0.11242081 0.08340353
-0.39385894 0.05204930 0.18747680
-0.53334159 -0.43166119 0.05169297
-0.59744626 -0.33083236 0.28783953
-0.29611567 0.21352668 0.11864948
-0.46536866 -0.05677987 0.24643281
-0.13088267 0.56824547 0.07782925
-0.54165280 -0.27400783 0.21589155
-0.69350737 -0.38735646 -0.00000060
-0.64429969 -0.55079621 0.18911779
-0.56090474 -0.19837745 0.32871073
-0.38760942 0.11628974 0.23289384
-0.55133533 -0.09762697 0.00000072
-0.69619864 -0.74769604 0.12295967
-0.47482559 -0.02718346 0.29487458
-0.34754288 0.10544828 0.13350208
-0.67812455 -0.72883081 -0.00000018
-0.75040960 -0.31697825 -0.00000121
-0.79716033 -0.11647271 -0.00000171
-0.76958764 -0.44079268 -0.00000090
-0.45360890 -0.19432624 0.00000183
-0.62557125 0.00725063 0.00000128
-0.68348193 -0.73225498 0.10886092
-0.35622948 0.23502934 0.00000436
-0.37167090 0.00478871 0.09431486
-0.08418619 0.66340321 0.00000564
-0.54533279 -0.35297054 0.00000095
-0.18337259 0.59336120 0.00000438
-0.60591006 0.05875469 0.00000119
-0.68126488 -0.64008778 0.18907125
-0.37939709 0.36427733 0.00000272
-0.64888602 -0.67915744 0.08075168
-0.50819099 0.07211245 0.00000294
-0.48709872 0.16227378 0.00000252
-0.68575180 0.08329104 -0.00000057
-0.30030969 0.30865598 0.21590336
-0.51024741 -0.25838304 0.16027661
-0.35583514 0.19399942 0.23381951
-0.76250386 -0.05667829 -0.00000156
-0.02975558 -0.70720536 0.00000035
-0.51021981 -0.36486471 0.06183393
-0.58420479 -0.35271230 0.00000054
-0.55723339 -0.40159753 0.13276134
-0.65357202 -0.24236406 -0.00000028
-0.41996032 -0.10232567 0.10307277
-0.20856237 -0.79199272 0.00000003
-0.52505094 -0.39512038 0.06696130
-0.48686537 -0.31604147 0.05484983
-0.13596503 0.48380983 0.01114861
-0.54544032 -0.28587338 0.21337683
-0.24324568 0.34204817 0.00000554
-0.58000869 0.11675770 0.00000115
-0.30898684 0.24096946 0.17271729
-0.50492632 0.10125081 0.00000273
-0.50601178 -0.10132392 0.29593989
-0.62494993 -0.09679212 -0.00000007
-0.61680663 -0.53110814 0.00000031
-0.56383657 -0.30634713 0.23549432
-0.48434442 -0.10886293 0.24064434
-0.44397750 -0.17276165 0.09156652
-0.64853597 -0.67947334 0.07967898
-0.43309075 -0.17194372 0.00000203
-0.41610947 -0.14764930 0.05260760
-0.34760734 0.11914499 0.14630151
-0.75941294 -0.62660539 -0.00000043
-0.56166518 -0.33899328 0.20048828
-0.24786238 0.30066815 0.09153120
-0.22405957 0.41872311 0.14751698
-0.29711774 0.22596052 0.13237344
-0.51933974 -0.34158346 0.10368650
-0.53748739 -0.12303188 0.00000088
-0.09813026 -0.71242344 0.00000033
-0.52582490 -0.28089532 0.17422315
-0.48719129 -0.26092479 0.00000151
-0.33458009 0.18858208 0.18140145
-0.55197352 -0.35127044 0.16752742
-0.44095540 -0.03872195 0.20866075
-0.52381128 -0.24603735 0.00000111
-0.12112149 0.64734221 0.00000508
-0.56155390 -0.25371301 0.27903268
-0.61772871 -0.64232296 0.04528634
-0.43149301 -0.02150739 0.20345958
-0.48201883 0.00087315 0.33684418
-0.21488947 0.33479977 0.00000616
-0.66050804 -0.27967909 -0.00000032
-0.33096898 0.16207390 0.14885306
-0.56479704 -0.27875388 0.26313081
-0.29231232 0.29563889 0.00000503
-0.02319108 -0.68346190 0.00000044
-0.51446813 -0.28906798 0.00000124
-0.22579964 0.27402878 0.01770246
-0.39994940 -0.13107128 0.03187870
-0.39037621 0.01918637 0.14934306
-0.73454148 -0.05877944 -0.00000126
-0.15861940 -0.77631325 0.00000009
-0.66176713 0.12163280 -0.00000046
-0.48115942 -0.21932852 0.13147803
-0.34894368 0.03950925 0.07569985
-0.57767165 -0.32047099 0.25330469
-0.40604839 -0.06548287 0.10608160
-0.43772832 -0.21817541 0.00000201
-0.57626784 -0.32928282 0.00000061
-0.62725371 -0.61746401 0.08950009
-0.26612812 0.51757544 0.00000349
-0.64833850 0.11663964 -0.00000016
-0.30562142 0.29828602 0.00000475
-0.40707254 -0.14608717 0.00000229
-0.63108379 -0.58685130 0.12632707
-0.65581787 -0.34569377 -0.00000023
-0.42783707 -0.13810940 0.08758067
-0.36137170 0.08417056 0.14468893
-0.65005249 -0.51487702 0.23513623
-0.53579688 -0.21892172 0.25372523
-0.28094485 0.43896550 0.00000393
-0.58976650 -0.58453208 0.03630989
-0.60249853 -0.05973451 0.00000015
-0.14352150 0.47741595 0.02209654
-0.65228170 -0.57837725 0.18143912
-0.46379855 -0.00424230 0.00000159
-0.59241575 -0.60359919 0.00000062
-0.11057457 0.57436752 0.03818579
-0.46151489 0.17369904 0.00000290
-0.19772196 0.46674323 0.13313715
-0.28851637 0.14795011 0.04110606
-0.50548351 0.18616486 0.00000194
-0.22119643 0.46840873 0.00000480
-0.30323100 0.14234249 0.06874779
-0.49216378 -0.23158164 0.14470276
-0.13371956 0.66617388 0.00000466
-0.33151242 0.39206249 0.00000339
-0.46726421 -0.19725788 0.12087584
-0.44592482 -0.19552764 0.00000191
-0.48996970 -0.03026587 0.32580769
-0.51378441 -0.12088157 0.29520717
-0.41774005 0.10122520 0.28618512
-0.64165044 -0.35942656 -0.00000007
-0.77271503 -0.15193571 -0.00000161
-0.27698907 0.27259877 0.13056673
-0.65562749 -0.54307389 0.22151968
-0.17559835 0.43859059 0.05777449
-0.64401996 -0.03986517 -0.00000031
-0.27209178 0.28784639 0.13373122
-0.53211969 0.17875557 0.00000150
-0.41179183 -0.16958363 0.02271119
-0.55064189 -0.12644228 0.00000075
-0.10465779 0.58876413 0.03828986
-0.58423203 -0.46439573 0.13496213
-0.66847128 -0.04158552 -0.00000057
-0.42208570 0.02894333 0.22909108
-0.53409773 -0.15509178 0.30890930
-0.41101158 0.29401135 0.00000276
-0.11272874 -0.72184575 0.00000029
-0.59115994 -0.05225954 0.00000026
-0.01659508 -0.67478985 0.00000047
-0.39383814 0.32844654 0.00000278
-0.66558665 -0.45519939 -0.00000026
-0.33790672 0.13746326 0.14158875
-0.71322137 0.08193713 -0.00000113
-0.41580591 -0.16303685 0.03771349
-0.72798443 -0.19538341 -0.00000110
-0.41538513 -0.04728648 0.14371969
-0.50661588 0.06855373 0.00000300
-0.57111996 -0.47278243 0.09796634
-0.51272047 0.00799904 0.00000344
-0.51477021 -0.12865308 0.29022571
-0.12318483 0.52532083 0.02099620
-0.33833149 0.41729560 0.00000303
-0.35509205 0.18700227 0.22569665
-0.57408738 -0.48388225 0.09432992
-0.55403608 -0.13149238 0.37518674
-0.54093719 -0.24608921 0.24009015
-0.54598761 -0.09413445 0.00000077
-0.29026648 0.24819276 0.13763307
-0.49149480 -0.26015961 0.11680670
-0.53273982 0.02416980 0.00000291
-0.37287441 0.17197739 0.25148001
-0.23111311 0.41822663 0.16279222
-0.72196490 -0.28566903 -0.00000098
-0.57857883 -0.53431129 0.00000072
-0.39693785 -0.01527686 0.13213614
-0.33588648 0.12132256 0.12216847
-0.20120873 0.39703360 0.00000585
-0.50464213 -0.12666003 0.26947609
-0.14384307 -0.76049173 0.00000015
-0.59084457 -0.37721726 0.23025808
-0.74300784 -0.38238439 -0.00000104
-0.28499201 0.25281098 0.00000556
-0.66936582 -0.65170312 0.15179831
-0.14554133 0.46781534 0.01773120
-0.33718079 0.05859218 0.06709341
-0.32779044 0.11342351 0.00000602
-0.44217816 -0.19595696 0.06612222
-0.52883190 -0.27577361 0.00000108
-0.61433220 -0.60928875 0.06823147
-0.01340218 -0.69105971 0.00000041
-0.50382513 0.05437227 0.00000319
-0.33195201 0.13105918 0.12238859
-0.23507538 0.30593038 0.06787012
-0.77523816 -0.22120059 -0.00000145
-0.79062104 -0.20895426 -0.00000148
-0.21428064 0.58472764 0.00000387
-0.52195662 0.19773054 0.00000152
-0.54330873 -0.17520057 0.00000086
-0.56758642 -0.34550473 0.20767985
-0.78445363 -0.42219290 -0.00000094
-0.63578796 -0.54781491 0.17288662
-0.48420665 -0.31508654 0.04980171
-0.57616019 -0.44397369 0.13582598
-0.49731332 -0.07696230 0.00000128
-0.59379905 -0.45083880 0.16882741
-0.25229150 0.31311560 0.00000564
-0.40420911 0.03460813 0.19444893
-0.01321509 -0.77498090 0.00000009
-0.66609424 -0.52764881 -0.00000022
-0.71686882 -0.55294973 -0.00000062
-0.12540489 0.67335433 0.00000475
-0.18098629 0.43534216 0.06679152
-0.13098361 0.54438406 0.05600678
-0.49577609 -0.01995297 0.34828866
-0.79925090 -0.64550799 -0.00000039
-0.59952599 -0.31802136 0.30431482
-0.66349435 0.13527042 -0.00000063
-0.37136909 -0.07284055 0.02192993
-0.04349518 -0.77206159 0.00000010
-0.45845497 0.18654232 0.00000284
-0.56397516 -0.35350105 0.19223668
-0.67274410 -0.65630436 0.15508249
-0.05516402 0.69338357 0.00000592
-0.78740776 -0.09994820 -0.00000175
-0.63750088 -0.54744452 0.17704950
-0.43467942 0.02028387 0.00000483
-0.10583664 -0.74752426 0.00000020
-0.36422580 -0.00317007 0.00000265
-0.47488314 0.03775549 0.00000390
-0.17589793 0.47174835 0.08908011
-0.26488438 0.19310884 0.00000650
-0.53464246 -0.15592968 0.00000094
-0.73166460 -0.52196419 -0.00000070
-0.75361657 -0.27020642 -0.00000132
-0.71498013 -0.14350472 -0.00000100
-0.63986325 -0.15197045 -0.00000019
-0.61970723 -0.32757166 0.00000014
-0.30872169 0.05686745 0.00201756
-0.11052680 -0.75131816 0.00000018
-0.75586003 -0.29211637 -0.00000127
-0.60481477 -0.10511063 0.00000015
-0.09770476 -0.74218810 0.00000022
-0.15022720 0.47921550 0.03871736
-0.58856189 0.05232684 0.00000158
-0.33841056 0.17248236 0.17506988
-0.39385039 0.02938244 0.16651379
-0.50766361 -0.20510934 0.20373432
-0.47331315 0.06967543 0.00000363
-0.37923396 -0.00846671 0.09893752
-0.77095944 -0.25947943 -0.00000135
-0.39306709 0.01588492 0.00000567
-0.53667158 -0.23817745 0.00000097
-0.20942400 0.58680475 0.00000394
-0.57808656 0.21958454 0.00000022
-0.39345604 0.29110467 0.00000313
-0.75906920 -0.20478337 -0.00000143
-0.51639140 -0.29556885 0.13962416
-0.00323926 -0.72580409 0.00000028
-0.38094154 0.04408726 0.15130579
-0.68860716 0.03741868 -0.00000021
-0.41863114 0.10081348 0.28779241
-0.03611715 -0.74268442 0.00000021
-0.30912384 0.06060063 0.00636405
-0.79619163 -0.28176093 -0.00000130
-0.69252002 0.02067107 -0.00000013
-0.79986024 -0.36418191 -0.00000109
-0.50556457 -0.20662393 0.19765288
-0.24982370 0.36429229 0.15469418
-0.54483789 -0.28184038 0.21575932
-0.27400708 0.33706960 0.18348533
-0.05185859 0.69050145 0.01451766
-0.21448474 0.37234524 0.00000582
-0.37075907 0.03719509 0.00000590
-0.65604204 -0.04111636 -0.00000044
-0.78843111 -0.28530404 -0.00000129
-0.24251604 0.25280362 0.00000638
-0.59502417 -0.35872349 0.00000043
-0.03794131 -0.77333009 0.00000010
-0.21878092 0.37332612 0.09379588
-0.41849691 -0.07543832 0.00000212
-0.44855833 -0.03017227 0.23352002
-0.31273982 0.23966283 0.17988153
-0.56347817 -0.43626383 0.00000082
-0.59719270 -0.47744763 0.15181245
-0.27875590 0.20044474 0.06783836
-0.62490892 -0.66911429 0.03654885
-0.64535958 0.13186868 -0.00000024
-0.30338696 0.24572986 0.16462453
-0.77011955 0.01918247 -0.00000160
-0.34376174 0.14310656 0.15986358
-0.63203561 -0.36230782 0.00000003
-0.39885861 -0.12239306 0.03746370
-0.50646996 -0.36975455 0.00000138
-0.48892003 -0.02787330 0.32567695
-0.03825166 -0.69265378 0.00000040
-0.48103994 -0.24761061 0.10508101
-0.32444763 0.22377938 0.19132143
-0.47612646 -0.08650693 0.00000151
-0.52681506 0.17164937 0.00000167
-0.39857772 0.32524157 0.00000272
-0.67945725 -0.79336244 -0.00000002
-0.53647220 -0.44862229 0.04300520
-0.09125713 -0.72699553 0.00000027
-0.07059733 0.68022984 0.04682630
-0.24803008 0.50165004 0.00000398
-0.20393662 0.46535814 0.14572017
-0.63950425 -0.56808573 0.16244721
-0.20735960 0.38711870 0.08106311
-0.68718821 -0.79306221 0.06094665
-0.41528147 -0.07838124 0.11475926
-0.27883407 0.22394389 0.08972571
-0.49311388 -0.26450258 0.00000145
-0.23510498 0.32210457 0.08288091
-0.06030696 0.73662525 0.00000540
-0.48360083 -0.09801474 0.24900866
-0.47481644 -0.01225746 0.30864564
-0.41225040 0.12325961 0.29429924
-0.56151563 -0.16355804 0.36224386
-0.47648191 -0.08531807 0.24486038
-0.61758792 -0.42917868 0.24190170
-0.51539844 0.14352603 0.00000214
-0.38012859 0.06201544 0.16605787
-0.20466179 0.52898210 0.00000456
-0.47235402 -0.31869581 0.02002924
-0.53864336 -0.46524844 0.00000110
-0.44242853 -0.17140359 0.08936623
-0.68995410 -0.67449570 0.17666262
-0.68136477 -0.68532020 0.14750268
-0.32156789 0.34191751 0.00000404
-0.79069531 -0.43318626 -0.00000092
-0.30114374 0.30394468 0.21341053
-0.40968758 -0.00479854 0.17025813
-0.42619866 -0.16724236 0.00000210
-0.73915088 0.05016910 -0.00000129
-0.73443305 -0.63355792 -0.00000042
-0.06045835 -0.71259141 0.00000033
-0.02613925 -0.78049988 0.00000007
-0.79425365 -0.45698234 -0.00000086
-0.62980878 -0.43841344 0.26062846
-0.37297666 0.19075872 0.26906183
-0.64130831 -0.52690423 0.00000005
-0.59423715 -0.58469343 0.04613274
-0.53421682 0.09952476 0.00000219
-0.54530931 -0.35139662 0.15254611
-0.36483204 -0.00169644 0.07306758
-0.48238763 0.07759281 0.00000339
-0.60710216 -0.45270002 0.19678082
-0.60362357 -0.50552082 0.14021918
-0.22762336 0.30694532 0.00000617
-0.03050052 0.73337716 0.00649203
-0.51720971 0.21274661 0.00000147
-0.70688236 -0.58746362 -0.00000053
-0.66123050 -0.79103285 0.00492215
-0.58147049 0.21191837 0.00000025
-0.62073731 -0.57308441 0.11596851
-0.18986905 0.41581598 0.06856388
-0.51744527 -0.33131447 0.00000124
-0.20814840 0.35019603 0.00000614
-0.49729985 -0.08376070 0.29273456
-0.61147445 -0.56334740 0.10430347
-0.49622253 0.13402170 0.00000260
-0.69951642 -0.19436519 -0.00000080
-0.65788805 -0.36586282 -0.00000024
-0.51699376 -0.27654758 0.00000120
-0.58633560 -0.18591247 0.00000040
-0.66914344 0.02294914 0.00000030
-0.24425954 0.26002485 0.04594053
-0.54889214 -0.42161211 0.09566386
-0.36690852 0.33697188 0.00000322
-0.42420226 -0.00195757 0.20526026
-0.37778559 -0.01038994 0.09392964
-0.39396632 -0.00885586 0.00000234
-0.70135611 -0.50386488 -0.00000061
-0.47098649 -0.14557353 0.17693101
-0.28128937 0.29323339 0.00000526
-0.24268690 0.29281980 0.07273468
-0.30000666 0.26850477 0.00000513
-0.68641633 -0.44976702 -0.00000049
-0.34246349 0.19071490 0.20095724
-0.58198476 0.20691365 0.00000028
-0.38833302 -0.04538942 0.08513158
-0.44185913 -0.20464396 0.05738447
-0.56358844 -0.38064170 0.16629811
-0.41409454 -0.05146353 0.13698168
-0.18283992 0.35957140 0.00091495
-0.26064032 0.22424930 0.04942407
-0.53975207 -0.16830662 0.30931199
-0.01083641 0.78046727 0.00613913
-0.43960994 0.04419957 0.28227809
-0.25874937 0.44586718 0.00000429
-0.56392801 0.01663509 0.00000238
-0.62261367 -0.40782264 0.27284312
-0.52047127 -0.07550928 0.35204142
-0.19674876 0.34440139 0.01792377
-0.24779883 0.32743201 0.11611891
-0.33798221 0.02912750 0.04165605
-0.19938566 0.57470495 0.00000424
-0.23097415 0.38246396 0.12943794
-0.30146798 0.23371689 0.14924411
-0.31265670 0.30426392 0.00000456
-0.62616748 -0.46600357 0.22701526
-0.44660828 0.00138776 0.25833127
-0.11944386 0.51296180 0.00000635
-0.47774482 -0.29534262 0.05363024
-0.54252005 -0.41193894 0.00000102
-0.55761856 -0.17382839 0.34406230
-0.26611766 0.27094612 0.10478940
-0.76240236 -0.53990406 -0.00000065
-0.49175647 0.08077219 0.00000318
-0.68322420 -0.41371372 -0.00000048
-0.53041446 -0.26061940 0.20319383
-0.38651767 -0.01815409 0.10623387
-0.78021461 -0.66788286 -0.00000033
-0.23377572 0.27021748 0.03197269
-0.59526265 -0.42016986 0.00000047
-0.79224569 -0.37520033 -0.00000106
-0.34172603 0.15865107 0.00000534
-0.71968353 -0.65205848 -0.00000037
-0.27284086 0.32797304 0.17247872
-0.47476080 -0.15949991 0.17248283
-0.60705703 -0.62733293 0.00000048
-0.23996530 0.29881451 0.07220282
-0.49229258 -0.13422264 0.23494259
-0.70633185 -0.21211712 -0.00000086
-0.64966005 -0.04045916 -0.00000037
-0.43804246 0.02082535 0.25718403
-0.18841513 0.51555783 0.00000500
-0.66655082 -0.55219626 -0.00000021
-0.65418398 -0.07721572 -0.00000039
-0.48898542 0.27192661 0.00000147
-0.49385703 -0.05113230 0.31519857
-0.25752702 0.37807596 0.18461356
-0.17613207 0.39489830 0.01859382
-0.56038803 -0.13535599 0.38578528
-0.49024329 -0.32644555 0.05277184
-0.74007946 -0.68773592 -0.00000028
-0.63271171 -0.55559105 0.00000016
-0.54627496 -0.11309058 0.00000078
-0.30353218 0.26886147 0.00000506
-0.11385219 0.56034976 0.00000602
-0.67904133 -0.56169236 -0.00000033
-0.46385536 -0.01781705 0.00000160
-0.33399457 0.10920648 0.10675316
-0.16856286 0.43821281 0.00000609
-0.67993522 -0.11980305 -0.00000064
-0.61325473 -0.36136520 0.29489085
-0.14151908 0.46567214 0.00677869
-0.05152739 0.74725139 0.00000550
-0.76089370 0.03158384 -0.00000160
-0.37020066 0.14075029 0.21666227
-0.38263726 -0.05916902 0.05969556
-0.37240711 0.12504537 0.20707297
-0.45521224 0.14124055 0.00000332
-0.52423680 -0.00985595 0.00000095
-0.18764161 0.36287647 0.01467966
-0.46749720 -0.16592950 0.15034062
-0.65167791 -0.61940092 0.14218961
-0.33943278 -0.01002878 0.00872802
-0.49184161 -0.16932604 0.00000140
-0.51918960 -0.42467651 0.00000128
-0.16220665 -0.77889025 0.00000008
-0.37162924 -0.03764413 0.00000260
-0.26164192 0.21635830 0.00000635
-0.38318080 0.09835061 0.20643955
-0.47291911 -0.26178405 0.07387192
-0.53000504 -0.24313746 0.21843265
-0.32975841 0.09812596 0.00000613
-0.61332142 -0.53043950 0.13882770
-0.33094099 0.02574614 0.02282522
-0.55896741 -0.24024019 0.00000073
-0.39933968 0.14637573 0.28685912
-0.64361727 -0.48318639 0.25006196
-0.45859548 -0.24442081 0.05796482
-0.54265928 -0.17765889 0.30715579
-0.60062116 -0.59109801 0.00000052
-0.21563292 0.34326819 0.05900055
-0.39398739 -0.03856662 0.10404760
-0.70655441 -0.20191537 -0.00000087
-0.35477659 0.21097714 0.24714547
-0.63080698 -0.45703501 0.24565016
-0.46013492 -0.30230469 0.00791813
-0.76861763 -0.76203936 -0.00000009
-0.67802274 -0.16012622 -0.00000059
-0.20080671 0.39880529 0.07724423
-0.76069111 -0.25885913 -0.00000135
-0.10711062 0.59608924 0.05052956
-0.73155510 -0.21036249 -0.00000113
-0.48380119 0.28256655 0.00000147
-0.56689805 -0.10289371 0.00000056
-0.09458855 0.62910718 0.00000576
-0.42940143 0.29909003 0.00000236
-0.57983267 -0.42662972 0.00000063
-0.33566749 0.13305828 0.13252369
-0.58201289 -0.59305203 0.00000072
-0.41659632 -0.11993443 0.00000217
-0.55830294 -0.22368060 0.00000073
-0.49880993 -0.31069440 0.08643299
-0.68501151 -0.78847694 0.06032787
-0.41741177 -0.07651410 0.12123605
-0.53740919 -0.14172308 0.32864732
-0.11087614 0.61115193 0.07284687
-0.74438322 -0.14894812 -0.00000131
-0.62883729 -0.67505485 0.03982266
-0.24101330 0.39766309 0.16587560
-0.34379017 0.17136471 0.18603720
-0.46754563 -0.07243747 0.23682836
-0.24765249 0.23337308 0.02888306
-0.50790083 -0.21881840 0.00000126
-0.44592136 0.06046839 0.00000424
-0.41688722 -0.06487411 0.00000213
-0.12790623 0.58421522 0.08594580
-0.59913278 -0.35009575 0.27380350
-0.08802070 -0.76040453 0.00000015
-0.69936478 -0.08978804 -0.00000087
-0.51935494 -0.31312951 0.13000964
-0.43283114 -0.16196458 0.07667972
-0.18270773 0.49938235 0.00000526
-0.57491142 -0.49306074 0.00000073
-0.40311190 -0.10624486 0.06187054
-0.45402113 0.08031844 0.00000391
-0.56661624 -0.25284818 0.29112354
-0.26788270 0.27362749 0.00000570
-0.53760684 0.16451712 0.00000152
-0.28781217 0.15472683 0.04579683
-0.53245467 0.04302029 0.00000274
-0.64814019 -0.69226682 0.00000008
-0.48187643 -0.16789441 0.18059868
-0.71037441 0.07624833 -0.00000098
-0.50285959 -0.28472427 0.00000136
-0.33715257 0.00222014 0.01494329
-0.79260892 -0.74892443 -0.00000013
-0.77427036 -0.45504323 -0.00000086
-0.20762163 0.32691547 0.02602049
-0.71159405 -0.40974247 -0.00000078
-0.35023007 0.02781527 0.00000638
-0.48321846 -0.20199002 0.00000152
-0.47551557 -0.20858373 0.12881659
-0.49969736 0.27625656 0.00000122
-0.78706592 -0.03572518 -0.00000184
-0.03478494 0.72447968 0.00000603
-0.65170157 -0.77133608 0.00186580
-0.19538675 -0.79454893 0.00000002
-0.41976309 0.28321901 0.00000270
-0.19000892 0.35880184 0.00000641
-0.48179817 0.11434820 0.00000306
-0.59400839 -0.33324042 0.27794638
-0.47737396 -0.28240347 0.06475784
-0.24703985 0.31158453 0.09978299
-0.20248617 0.42908248 0.10896628
-0.03719669 -0.72205454 0.00000029
-0.53600371 -0.43306425 0.00000111
-0.52612489 -0.17743452 0.00000104
-0.64959079 -0.50928140 0.23927635
-0.41797879 0.23997845 0.00000313
-0.43734995 -0.14437035 0.10301495
-0.23392856 0.34628862 0.10260255
-0.45100221 -0.14646262 0.13153380
-0.54957849 -0.25980583 0.24669176
-0.47574192 0.01821570 0.33886695
-0.26251253 0.29147288 0.11571415
-0.28159994 0.45479774 0.00000377
-0.38205421 0.14952077 0.25120720
-0.70206779 -0.21254723 -0.00000081
-0.68294835 -0.05340782 -0.00000072
-0.58165359 -0.54002225 0.00000069
-0.75050771 -0.73611426 -0.00000016
-0.35834369 0.02185929 0.00000628
-0.43413067 -0.12927568 0.10978051
-0.09054253 0.67074180 0.00000545
-0.68345416 -0.77680677 -0.00000006
-0.44937423 -0.00138678 0.26193747
-0.57283264 -0.22373065 0.33189186
-0.36610916 -0.02924250 0.00000265
-0.49538285 -0.29591554 0.09244331
-0.51785481 -0.29968110 0.13908891
-0.30632740 0.11220297 0.04780622
-0.52059937 0.27853593 0.00000079
-0.15502936 0.52603996 0.09269456
-0.71629488 -0.52054107 -0.00000070
-0.29810834 0.28926212 0.19307312
-0.05883332 0.66755259 0.00887132
-0.58473700 -0.29793173 0.00000050
-0.56262970 0.16037779 0.00000108
-0.69699657 0.00013187 -0.00000002
-0.61684281 0.16290119 0.00000002
-0.45403770 -0.14060453 0.00000179
-0.48637816 -0.07693043 0.27468395
-0.45039612 -0.14020602 0.13596250
-0.31514454 0.29629052 0.00000458
-0.11833695 -0.74789822 0.00000020
-0.58273172 -0.04293994 0.00000035
-0.44063365 -0.08135292 0.16856278
-0.58637321 -0.44299176 0.15951374
-0.33788067 0.23779109 0.23423247
-0.62002873 -0.06414767 -0.00000004
-0.19681571 0.59497148 0.00000411
-0.61247033 0.02888192 0.00000134
-0.73036778 -0.06932167 -0.00000121
-0.09979439 0.56989521 0.00000620
-0.11985068 0.53158140 0.01934360
-0.67424893 -0.08198015 -0.00000060
-0.77226955 -0.55598801 -0.00000061
-0.15368208 -0.75136530 0.00000018
-0.33179131 0.36497563 0.00000363
-0.69197243 -0.76067346 0.10154278
-0.28605786 0.24073000 0.12134959
-0.59466541 -0.41780561 0.20128006
-0.26903862 0.44741115 0.00000408
-0.30918193 0.11284365 0.05476562
-0.39182910 0.13528897 0.25986153
-0.66499329 -0.10122135 -0.00000049
-0.45068002 -0.09354673 0.17970549
-0.53098047 -0.23545384 0.22770745
-0.51076269 0.01539599 0.00000341
-0.62003684 -0.69069964 0.00000038
-0.06906052 -0.76401603 0.00000013
-0.58748770 -0.54999185 0.06313956
-0.36846834 0.16887586 0.23878585
-0.51026541 0.22607762 0.00000148
-0.47073710 -0.06561405 0.25025141
-0.45088196 -0.21845341 0.00000187
-0.51694089 -0.21076308 0.21920408
-0.07616190 -0.74559635 0.00000020
-0.08925328 0.61827010 0.03119103
-0.38209352 0.16873033 0.26904431
-0.56358993 -0.15221521 0.37735066
-0.64065349 -0.48459709 0.24214774
-0.05750349 -0.75420457 0.00000017
-0.53269720 -0.41018414 0.07009884
-0.12304876 -0.79275006 0.00000003
-0.51006365 0.22867052 0.00000146
-0.38662568 0.13695347 0.24979247
-0.28197017 0.16752210 0.04458811
-0.57409120 -0.24705122 0.31315270
-0.58032882 0.03041699 0.00000194
-0.46371737 -0.25237784 0.00000176
-0.24918678 0.39111334 0.17805582
-0.37733567 -0.02871394 0.07600836
-0.47582671 -0.10306573 0.22700144
-0.29184595 0.41313547 0.00000396
-0.46153018 -0.27509186 0.03617303
-0.27902538 0.26154989 0.12489993
-0.30719113 0.13057837 0.00000626
-0.28758490 0.13399577 0.00000661
-0.35211128 0.43710369 0.00000258
-0.13376191 0.49527848 0.01683111
-0.78074765 -0.45632994 -0.00000086
-0.18741517 0.52615404 0.00000492
-0.60121179 -0.09364532 0.00000018
-0.31672558 0.22901475 0.17893367
-0.52896357 -0.38798955 0.08227707
-0.46487319 -0.13936479 0.16903149
-0.52736145 -0.42923844 0.04059258
-0.74227339 -0.72901189 -0.00000018
-0.44264892 -0.24159412 0.02500692
-0.42725140 -0.07071969 0.14853741
-0.63104457 -0.37784740 0.00000006
-0.23004961 0.26318395 0.01716218
-0.10711956 -0.72568238 0.00000028
-0.63389677 0.05040032 0.00000073
-0.52433813 -0.21334483 0.23331857
-0.45499319 -0.18137319 0.10818102
