ply
format ascii 1.0
element vertex 1368
property float x
property float y
property float z
end_header
-0.40706760 -0.18276596 0.28259522
-0.01837698 0.00596402 0.00001149
-0.41443619 -0.20055954 0.37510163
-0.23552385 0.24121425 -0.00928616
-0.56604707 -0.22383595 -0.32460442
-0.21074361 -0.32365820 0.00000248
-0.31844741 0.03120078 0.08669178
-0.07530276 -0.75322586 0.00000066
-0.48297191 -0.28977129 -0.07218271
-0.42978626 -0.23760365 0.05117282
-0.53020823 -0.48005256 0.28322160
-0.03514940 0.11043083 0.00000991
-0.29543194 0.28162339 -0.18455666
-0.64301491 -0.68859768 -0.06038646
-0.31408769 0.04171338 0.24640650
-0.33388552 -0.00608138 0.23484839
-0.22453786 0.25791991 0.04055670
-0.39665499 -0.15762682 0.26612559
-0.45375374 -0.29546812 0.08566084
-0.06748521 0.17983113 0.00000835
-0.59134012 -0.76721609 0.00000452
-0.37018159 -0.01401435 -0.07545595
-0.54863566 -0.48697948 -0.03554129
-0.47223258 -0.04771417 -0.27689880
-0.48151934 -0.29267853 -0.06610734
-0.56148994 -0.45187241 -0.09818848
-0.53926176 -0.15564935 -0.32794043
-0.55487221 -0.46932170 -0.06652778
-0.51147616 -0.18801908 -0.23374254
-0.06149199 0.33146480 0.00000679
-0.50470436 -0.71403819 0.00000397
-0.31425712 0.04130366 0.25576514
-0.52328902 -0.28919870 -0.16491827
-0.14666238 0.16548219 0.00000660
-0.07004624 0.64896894 -0.01711500
-0.40434861 -0.12903591 -0.04464257
-0.58239847 -0.24945609 -0.33772767
-0.12591685 -0.19053636 0.00000209
-0.51576459 -0.69685030 0.00000408
-0.52016306 -0.37750724 -0.07412459
-0.26793355 0.15314840 0.11788675
-0.47426251 -0.53490955 0.00000408
-0.63763392 -0.55276990 -0.17673706
-0.52592361 -0.78705180 0.00000399
-0.21367238 -0.27455965 0.00000260
-0.03356491 0.41453928 0.00000653
-0.57270694 -0.78345847 0.00000435
-0.60303766 -0.55924547 -0.09149234
-0.08134807 0.60360515 0.06569983
-0.33132446 -0.74760890 0.00000260
-0.07410451 0.66997415 -0.04629173
-0.36645341 -0.03645677 -0.04567814
-0.26080760 0.17035735 0.04692673
-0.40495855 -0.17766757 0.13296390
-0.12038418 0.15092996 0.00000740
-0.42258996 -0.22024484 0.38049817
-0.50642204 -0.42262217 0.10436231
-0.00263771 -0.27697507 0.00000100
-0.20490077 0.36154270 -0.05323658
-0.59465611 -0.44201154 -0.18336976
-0.46304700 -0.15763432 -0.15177993
-0.35868734 -0.06595738 0.23136070
-0.36957264 -0.09223987 0.17584729
-0.33833268 0.15325511 -0.16106661
-0.42731738 -0.54297620 0.00000371
-0.26615921 0.15743282 0.10680614
-0.45835361 -0.79673398 0.00000346
-0.31229594 0.04603487 0.29950079
-0.26388782 0.36197057 -0.18852980
-0.30976039 -0.32000688 0.00000324
-0.64576602 -0.53967047 -0.20774041
-0.36276150 -0.61832887 0.00000308
-0.63762486 -0.57797629 -0.15284105
-0.41433895 -0.72491801 0.00000327
-0.20251995 -0.28033131 0.00000250
-0.32732013 0.00976022 0.34209380
-0.63650781 -0.73667514 0.02686071
-0.09976730 0.34877002 0.00000567
-0.43129852 -0.11085907 -0.12348597
-0.59372079 -0.63338161 0.18450665
-0.12957118 0.48717961 0.13990535
-0.34663746 -0.34147513 0.00000347
-0.44926885 -0.28465232 0.34910721
-0.01028221 0.63968748 0.00000456
-0.38775462 -0.13614163 0.31719357
-0.16088890 0.41157424 0.12064829
-0.30419019 0.06561217 0.19171514
-0.32337561 0.01929851 0.14668563
-0.52761972 -0.47379753 0.09103156
-0.22671518 0.27838823 -0.02435492
-0.13674346 -0.10907351 0.00000233
-0.08628122 -0.39185372 0.00000142
-0.40731907 -0.18336508 0.10314221
-0.58087683 -0.60237265 0.09902867
-0.28180075 0.11965684 0.28892979
-0.12738186 -0.36585161 0.00000178
-0.19190311 -0.46459067 0.00000208
-0.49905157 -0.40482420 0.01626367
-0.04626540 0.47962791 0.00000549
-0.23177376 0.24045330 0.01166732
-0.31106755 0.04900794 0.20448993
-0.54140699 -0.68589300 0.00000430
-0.64515221 -0.56927776 -0.17829295
-0.30642745 0.24736413 -0.17724946
-0.01986217 0.48430115 0.00000607
-0.34863093 0.03405621 -0.07170858
-0.65112382 -0.58363241 -0.17835149
-0.41490057 -0.58874243 0.00000353
-0.48220441 -0.35310215 -0.01044096
-0.70561486 -0.76198840 -0.13401788
-0.46157742 -0.31436169 0.20774014
-0.24846692 0.31627756 -0.10998500
-0.58436430 -0.49315482 -0.11139277
-0.20399696 0.30750167 0.14023602
-0.37395018 -0.10280896 0.28399333
-0.30015886 0.24227104 -0.15809058
-0.27754748 -0.18510680 0.00000325
-0.23707631 0.22765052 0.03010758
-0.43745366 -0.47985852 0.00000390
-0.46755341 -0.63086826 0.00000384
-0.66879135 -0.60794747 -0.19572055
-0.37824282 0.16904621 -0.26728827
-0.14395116 0.54782987 -0.09031543
-0.52579218 -0.46938971 0.18611465
-0.57673854 -0.59238386 0.23279268
-0.42908293 -0.51364899 0.00000377
-0.62589937 -0.52480012 -0.17639664
-0.48873115 -0.23319142 -0.13894454
-0.34098709 -0.32050100 0.00000347
-0.35135037 -0.61563283 0.00000300
-0.64144558 -0.74343210 -0.00485907
-0.36200479 -0.04508741 -0.02733060
-0.15743151 0.41992071 0.12449438
-0.38013619 0.05348199 -0.16215332
-0.42025143 -0.77898377 0.00000321
-0.34555641 -0.03426794 0.37190771
-0.63280058 -0.50805604 -0.20803741
-0.13405859 0.47635427 0.03712194
-0.39280456 -0.47945511 0.00000356
-0.61328036 -0.38040116 -0.28431460
-0.23085326 -0.10425404 0.00000305
-0.31353065 0.16778019 -0.11810922
-0.03121173 0.33775365 0.00000745
-0.26552415 0.15895602 0.23316409
-0.02477278 0.03565864 0.00001100
-0.13820092 0.46635401 0.03561187
-0.11626817 -0.60534912 0.00000124
-0.38769123 -0.13598578 0.25467381
-0.12096281 0.50796264 0.12972891
-0.10206451 -0.67115045 0.00000101
-0.13305306 0.47877988 0.06149936
-0.32253030 0.02132988 0.26466191
-0.36978561 -0.09276397 0.39903486
-0.08474588 0.32665789 0.00000628
-0.20859475 0.36938316 -0.06911036
-0.11510499 -0.53478438 0.00000137
-0.45440522 -0.16925269 -0.12101392
-0.06761687 0.11105361 0.00000912
-0.35667959 -0.00444847 -0.05364136
-0.56536293 -0.41216803 -0.14465269
-0.43156394 0.03409885 -0.26139510
-0.59205788 -0.42891434 -0.18983401
-0.12160756 0.50641012 0.07916870
-0.55227143 -0.12373212 -0.38792148
-0.49599704 -0.39745808 0.19991198
-0.39509842 -0.08407499 -0.06607694
-0.08846724 -0.40707263 0.00000140
-0.23722972 -0.21085019 0.00000289
-0.49440053 -0.39360535 0.23601504
-0.46290562 -0.31756610 0.15974061
-0.55689043 -0.54446369 0.09093605
-0.28769356 0.20809051 -0.09720928
-0.08584660 0.62114847 -0.02689424
-0.10086716 0.55648243 0.06560747
-0.37998179 0.14977038 -0.25300646
-0.59657264 -0.79614258 0.00000451
-0.11674842 0.54975396 -0.02993237
-0.19469030 0.02098557 0.00000706
-0.12092518 -0.59434801 0.00000130
-0.23979349 0.22108775 0.06779366
-0.26942027 0.14955679 0.14807384
-0.17400236 -0.29702979 0.00000226
-0.43025732 -0.23875074 0.27214897
-0.02572413 -0.49834573 0.00000076
-0.60022891 -0.47971296 -0.16040239
-0.61684126 -0.44354036 -0.23265234
-0.37207049 -0.09826365 0.02711264
-0.20280993 0.43822494 -0.12109022
-0.36904776 -0.09098088 0.37670258
-0.23326449 0.35080114 -0.10792238
-0.15471753 -0.16124059 0.00000236
-0.31630421 0.24710749 -0.19959193
-0.15376519 0.43897164 -0.00964495
-0.04588644 -0.75475085 0.00000043
-0.09948948 0.34957743 0.00000567
-0.54375494 -0.27744254 -0.22285298
-0.43948841 -0.26103246 0.17723364
-0.11299983 0.56412053 -0.03496866
-0.13759992 0.07666397 0.00000782
-0.26522598 0.17737734 -0.01673967
-0.55444646 -0.53856540 0.13629073
-0.01672429 0.45102894 0.00000652
-0.06473155 0.65162396 -0.00747658
-0.36981606 -0.78578657 0.00000282
-0.13437556 -0.02178875 0.00000247
-0.44480598 -0.02671569 -0.23407149
-0.30071342 -0.28495398 0.00000323
-0.46752781 -0.32872695 0.20039421
-0.46392909 0.01861720 -0.32074121
-0.15455382 0.43455335 -0.00726327
-0.64428359 -0.69427562 -0.05790950
-0.10806002 0.61950123 -0.07613023
-0.28872603 0.10295771 0.03837230
-0.35596836 -0.34691459 0.00000354
-0.49924412 -0.68522131 0.00000398
-0.18907738 0.02239884 0.00000718
-0.48045826 -0.27853242 -0.07708013
-0.36663786 -0.00685049 -0.07413812
-0.51206553 -0.15649249 -0.26495215
-0.20861240 0.29636729 0.03675418
-0.29322851 0.09208988 0.01255586
-0.51097918 -0.43361989 0.00935288
-0.18415962 0.35540158 0.02829282
-0.58295709 -0.74624187 0.00000450
-0.32728603 0.08667443 -0.07273927
-0.35913551 -0.06704918 0.35550791
-0.09634184 0.24779670 0.00000689
-0.05101681 -0.44029206 0.00000106
-0.25420639 0.30032799 -0.10800194
-0.51904100 -0.45309001 0.16804057
-0.17640439 -0.62096763 0.00000167
-0.12075891 0.56790125 -0.05629277
-0.27613699 0.13334265 0.13095430
-0.20357379 0.30853134 0.03799143
-0.11269967 -0.22708614 0.00000192
-0.48319614 -0.36654717 0.04971461
-0.63102067 -0.72342920 0.17277369
-0.28227669 0.11852630 0.05466517
-0.46710691 -0.32770422 0.05276527
-0.09742918 0.22814453 0.00000708
-0.23769999 -0.23343550 0.00000286
-0.43906620 0.03387840 -0.27834201
-0.64758146 -0.70329201 -0.05691043
-0.37527773 0.15167238 -0.24405105
-0.49280629 -0.38974908 0.06981339
-0.49528894 -0.34606007 -0.04703158
-0.40016696 -0.16611221 0.41661343
-0.54992694 -0.52765644 0.25859252
-0.17749669 0.37148198 0.09425569
-0.47022799 -0.32901019 -0.00587427
-0.51235169 -0.18222755 -0.24123037
-0.27174625 -0.53568763 0.00000255
-0.35920015 -0.06719509 0.22694816
-0.55711299 -0.35589984 -0.17908449
-0.01029817 0.22338355 0.00000924
-0.40186238 -0.14080600 -0.02780874
-0.40625083 -0.18078490 0.07672848
-0.61015427 -0.49596092 -0.16770875
-0.55972493 -0.46579635 -0.08096374
-0.33312500 0.15729789 -0.15298741
-0.37874585 -0.06599043 -0.04581312
-0.25212741 0.19129933 0.21971850
-0.16083631 0.11876119 0.00000678
-0.37405437 -0.37179080 0.00000362
-0.28210205 -0.73895854 0.00000224
-0.12201234 0.25562465 0.00000618
-0.18225127 0.36000901 0.02423185
-0.32017478 0.02701386 0.29892844
-0.41078651 -0.19173792 0.13981269
-0.48234415 -0.24868266 -0.10966614
-0.30004781 0.16027090 -0.08016455
-0.52802795 -0.67796052 0.00000421
-0.48666894 -0.20750913 -0.15855506
-0.34594908 -0.02753607 -0.00724048
-0.52708131 -0.13116899 -0.32327515
-0.42008474 -0.62524247 0.00000350
-0.23318011 0.37824678 -0.13372643
-0.12692218 -0.36124706 0.00000178
-0.14991917 -0.35408762 0.00000197
-0.42289981 -0.10098919 -0.11362931
-0.33999744 -0.00307383 -0.01679573
-0.37004226 -0.07921909 -0.01338045
-0.28724310 -0.71472973 0.00000233
-0.44394514 -0.27178657 0.05437729
-0.38257337 -0.12362655 0.17556490
-0.68537921 -0.68412173 -0.16150007
-0.60611892 -0.56486553 -0.09321501
-0.66866708 -0.68694919 -0.12060652
-0.38784593 0.01040674 -0.13898177
-0.61713070 -0.41148534 -0.26367638
-0.25362405 0.18768197 0.27300537
-0.34408721 0.11041366 -0.13364549
-0.11482176 0.13265765 0.00000774
-0.13124757 0.14917901 0.00000715
-0.21868245 -0.16488206 0.00000284
-0.00497500 0.06447918 0.00001115
-0.43922687 -0.19079097 -0.06590458
-0.32970804 -0.68937200 0.00000269
-0.08006235 0.60670841 0.07485401
-0.56764424 -0.43554837 -0.12772352
-0.26948783 -0.54848158 0.00000250
-0.16500300 0.40164047 0.14013997
-0.56987834 -0.26417279 -0.29515842
-0.32390112 0.01803793 0.04376595
-0.29012397 0.23868777 -0.13174926
-0.07280144 0.11315714 0.00000897
-0.58429229 -0.39029950 -0.20865215
-0.29024005 0.09928281 0.28835016
-0.40006572 -0.14876573 -0.01616089
-0.67609411 -0.80497199 -0.02579933
-0.54292375 -0.51074308 0.04830201
-0.52123976 -0.13717379 -0.30422950
-0.44245902 -0.54695648 0.00000381
-0.25496224 0.18446089 0.15195584
-0.65963167 -0.79250056 0.10849507
-0.00471582 0.56259906 0.00000556
-0.20977837 0.29355142 0.04914247
-0.37668398 -0.10940472 0.09691662
-0.64866251 -0.53313363 -0.22055544
-0.26466179 0.26197723 -0.09558410
-0.01107270 -0.05697624 0.00000148
-0.20876896 -0.70693600 0.00000175
-0.61472946 -0.40800646 -0.26148072
-0.40942714 -0.57911807 0.00000350
-0.38742903 -0.55797452 0.00000338
-0.00955404 0.11369445 0.00001049
-0.06533310 -0.60137290 0.00000087
-0.40143171 -0.68171227 0.00000325
-0.56690329 -0.39956260 -0.16011475
-0.04128704 0.24925195 0.00000820
-0.51055312 -0.06062595 -0.35229766
-0.63413119 -0.56754601 -0.15473165
-0.10164826 0.62606305 -0.06768364
-0.24750233 -0.21306618 0.00000297
-0.09017081 0.37463072 0.00000561
-0.43033290 -0.62281078 0.00000358
-0.45040190 -0.73700517 0.00000352
-0.36554715 0.12065610 -0.19242059
-0.35326713 -0.05287381 0.25443646
-0.04097844 0.51004648 0.00000527
-0.61582285 -0.41019750 -0.26190567
-0.21724272 0.27553141 0.04492815
-0.08689255 -0.61761135 0.00000100
-0.21091686 0.29079184 0.18900976
-0.56250036 -0.55800468 0.03248766
-0.52559811 -0.08715148 -0.36157605
-0.54521739 -0.21803737 -0.28246552
-0.09445319 0.64399844 -0.06821919
-0.58549243 -0.52653205 -0.08235769
-0.63833302 -0.74108231 0.13090073
-0.70470482 -0.80468154 -0.09149823
-0.25522831 0.33253452 -0.14084540
-0.11625330 -0.44185838 0.00000155
-0.45766738 -0.49445331 0.00000403
-0.22175846 -0.13928051 0.00000291
-0.53532559 -0.43183029 -0.05734227
-0.08752715 -0.09884586 0.00000197
-0.53004807 -0.21585476 -0.24984522
-0.31583107 0.03752063 0.04265096
-0.64198172 -0.74989086 0.11780066
-0.35210478 0.05750434 -0.10186283
-0.01096213 -0.46031520 0.00000072
-0.39277527 -0.06339078 -0.08035655
-0.67329413 -0.67236459 -0.14500149
-0.45518911 0.05092550 -0.33135819
-0.19691905 0.32458618 0.17654461
-0.49950194 -0.13453868 -0.25701755
-0.26400492 0.16263436 0.09881472
-0.28294781 0.32665080 -0.19865949
-0.52681845 -0.35741037 -0.10837921
-0.63078976 -0.71779650 -0.00477431
-0.33353010 -0.00522109 0.20612502
-0.31671935 0.03535276 0.33970305
-0.18617879 0.43032208 -0.07557341
-0.09647227 0.56709111 0.08377687
-0.46452826 -0.54655015 0.00000398
-0.56606460 -0.28814676 -0.26372948
-0.47363457 -0.18240272 -0.15253004
-0.02113312 -0.54810548 0.00000063
-0.14316265 0.45437038 0.09974376
-0.34108862 -0.02347089 0.23305622
-0.41549248 -0.48235300 0.00000373
-0.60146409 -0.59069753 -0.05810279
-0.47632140 -0.34995839 0.23955189
-0.05729692 -0.39055750 0.00000120
-0.64912665 -0.68204206 -0.08057162
-0.56504029 -0.34021816 -0.21206549
-0.08119930 0.14575782 0.00000840
-0.20197290 -0.26945513 0.00000252
-0.05067884 0.10208490 0.00000963
-0.65557975 -0.54839849 -0.22191416
-0.07488668 0.17671973 0.00000820
-0.45342624 -0.29468825 0.32821858
-0.50483346 -0.41878363 0.02947322
-0.59410834 -0.63431537 0.07308085
-0.50605136 -0.09596868 -0.30852744
-0.12149146 0.50669622 0.00505090
-0.04626097 -0.04146750 0.00000177
-0.32766688 -0.48996222 0.00000305
-0.10885892 -0.09804882 0.00000214
-0.16838363 -0.37692773 0.00000206
-0.01263479 0.06181281 0.00001100
-0.22180237 0.27856782 -0.01329074
-0.27667242 0.13204250 0.22681721
-0.48143572 -0.36230326 0.18864138
-0.53442502 -0.49023157 0.19147187
-0.28401953 -0.67666817 0.00000237
-0.38722846 -0.12314856 -0.01107036
-0.45246339 -0.29236454 0.34694529
-0.41429293 -0.06574961 -0.12732679
-0.02234932 0.28705066 0.00000823
-0.03794965 0.16545339 0.00000922
-0.49824199 -0.59141493 0.00000415
-0.45584947 -0.18013170 -0.11401192
-0.28542247 0.11849105 -0.00714556
-0.45610487 -0.27232182 -0.02727384
-0.00217124 -0.46381754 0.00000065
-0.41331640 -0.19785339 0.31367370
-0.46263087 -0.02134218 -0.27992228
-0.61999458 -0.69681048 0.18287711
-0.29308698 0.27199340 -0.17007262
-0.20816697 0.29743102 0.18374349
-0.22990577 -0.63824856 0.00000204
-0.24668311 0.32095116 -0.11033279
-0.03020054 0.42033738 0.00000654
-0.10814914 0.62067908 -0.07744969
-0.59063226 -0.62592399 0.08792557
-0.39177001 -0.14583290 0.25451872
-0.26461065 0.17216456 -0.01039490
-0.33627722 -0.52465785 0.00000305
-0.64131433 -0.52054411 -0.21567716
-0.34870669 -0.04185451 0.13393857
-0.44122928 -0.26523665 0.20703216
-0.07767983 0.41359332 0.00000547
-0.55990916 -0.26060489 -0.27574149
-0.58599752 -0.38520661 -0.21737555
-0.50724196 -0.42460844 0.27665818
-0.21111041 0.29033664 0.03638022
-0.31924951 -0.32263094 0.00000330
-0.18560158 0.35191181 0.13749954
-0.52521253 -0.19611202 -0.25748804
-0.27345785 0.13979784 0.29303882
-0.52507699 -0.37114605 -0.09138654
-0.66938174 -0.74563754 -0.06665153
-0.26376683 -0.44716236 0.00000265
-0.43380553 -0.73077506 0.00000340
-0.71482015 -0.79115582 -0.12744027
-0.20367476 0.30828142 0.11585657
-0.34109244 -0.02348918 0.34758648
-0.57269287 -0.58261508 0.10728695
-0.38276574 -0.12409387 0.24058947
-0.38178554 -0.76856941 0.00000294
-0.51921487 -0.43885440 -0.01384869
-0.32211998 0.02231695 0.30930033
-0.22437000 0.38344517 -0.11850408
-0.60379469 -0.64551342 -0.01151091
-0.32745016 0.21078052 -0.19067027
-0.60660946 -0.55275333 -0.10580934
-0.35231411 0.05148891 -0.09664359
-0.39221644 -0.14691374 0.32390320
-0.52699751 -0.75588542 0.00000406
-0.36301142 0.02306595 -0.09418281
-0.03827812 -0.13296071 0.00000154
-0.36382505 -0.37940791 0.00000353
-0.45127323 -0.28948766 0.26658782
-0.21467069 -0.50846022 0.00000217
-0.23371229 0.23576882 0.06927524
-0.36863628 -0.68591797 0.00000300
-0.45684063 -0.30293092 0.31770805
-0.13631397 0.18267871 0.00000665
-0.27764994 0.12969752 0.03788040
-0.14760448 0.55593908 -0.10635081
-0.46211511 -0.31565386 0.07425548
-0.54763681 -0.28067094 -0.22867176
-0.06797204 0.42616132 0.00000556
-0.36283237 0.19276586 -0.25451630
-0.30390301 0.06630130 0.24470039
-0.25293428 -0.50215161 0.00000247
-0.34019375 -0.02131485 0.28800181
-0.31764925 0.03313172 0.03585387
-0.54341155 -0.42657492 -0.08081022
-0.06477124 -0.55208290 0.00000095
-0.15438680 -0.66249257 0.00000142
-0.28857574 -0.56691682 0.00000261
-0.47115615 -0.33747920 0.03560769
-0.57947975 -0.46907267 -0.12303371
-0.37245908 -0.09920769 0.15938145
-0.24955180 0.19752209 0.15992619
-0.24392425 0.21111283 0.10011051
-0.18613744 0.45768747 -0.10139987
-0.06128490 -0.36629000 0.00000128
-0.22303838 0.40138441 -0.13245137
-0.20623381 -0.58799213 0.00000195
-0.34458500 -0.03191372 0.25752336
-0.58242309 -0.26842451 -0.31981733
-0.28188097 0.30439785 -0.17514151
-0.44639447 -0.27769861 0.02852146
-0.41108736 -0.13290450 -0.05638779
-0.33369732 -0.38352779 0.00000330
-0.25408402 0.25152019 -0.06149040
-0.09259310 0.57645625 0.08249812
-0.28548852 0.11075782 0.23901621
-0.44888389 -0.28370970 0.05187405
-0.01994158 -0.35283786 0.00000099
-0.47234434 -0.09139420 -0.23578253
-0.17112844 -0.18960890 0.00000244
-0.25049806 -0.17659399 0.00000306
-0.55813730 -0.54747748 0.17512083
-0.20878677 0.30075026 -0.00453906
-0.50337946 -0.60448766 0.00000416
-0.10774884 0.53987050 0.04340051
-0.44363475 0.00959008 -0.26578271
-0.08644441 0.43877843 0.00000498
-0.22335351 -0.22547159 0.00000276
-0.38212988 -0.68917352 0.00000309
-0.51143378 -0.43472290 0.13356455
-0.04391048 -0.76421070 0.00000040
-0.19277310 0.43796149 -0.09788909
-0.38608491 -0.13209943 0.06802739
-0.03586690 -0.46669605 0.00000090
-0.51107436 -0.12750970 -0.29013798
-0.56982297 -0.57568526 0.08106963
-0.60802048 -0.66790313 0.10288047
-0.46698475 -0.32740772 0.01714589
-0.28687122 0.23995566 -0.12551206
-0.06767032 0.25279927 0.00000752
-0.30915055 0.05363275 0.24424309
-0.58108860 -0.58085942 -0.02082888
-0.11105893 -0.67899626 0.00000106
-0.25607720 0.18178102 0.00117426
-0.37644643 -0.57300419 0.00000327
-0.29144129 0.09640137 0.05255242
-0.59895879 -0.64602691 0.12022344
-0.55253959 -0.19003443 -0.32573339
-0.30756363 0.19593123 -0.13112941
-0.33206230 0.25335965 -0.24154879
-0.44169378 -0.73282719 0.00000346
-0.49917084 -0.40512082 0.21070881
-0.40229511 0.00647822 -0.16830213
-0.27797672 0.12890436 0.09150374
-0.11911819 -0.05919210 0.00000229
-0.33387414 -0.00604089 0.06942059
-0.60764384 -0.66699052 0.01625453
-0.04820196 -0.07637610 0.00000172
-0.26152432 0.31367108 -0.13737491
-0.20214257 0.31198457 0.06327903
-0.24980536 0.26692128 -0.06629443
-0.36034557 -0.06995792 0.04771625
-0.61398852 -0.68231094 0.11545031
-0.38699496 -0.13429713 0.08187196
-0.11837659 -0.75775069 0.00000097
-0.14430153 -0.07015786 0.00000246
-0.21402796 0.35326275 -0.06626514
-0.18357757 0.35680249 0.08216923
-0.46769607 -0.31870782 -0.00984283
-0.55799365 -0.29892394 -0.23506555
-0.16754276 0.51155770 -0.10990555
-0.41523531 -0.20248844 0.36685297
-0.32032466 0.02665103 0.31148055
-0.54790860 -0.51661742 -0.00580583
-0.05431203 0.66887742 0.03865914
-0.19922212 -0.05747225 0.00000290
-0.49055806 -0.38432220 0.08799774
-0.20648700 0.39309517 -0.08675092
-0.33737957 -0.01451918 0.26607162
-0.20069283 -0.60349578 0.00000188
-0.13830875 0.01986442 0.00000844
-0.38785669 -0.13637911 0.11811399
-0.63712531 -0.66536593 -0.06892381
-0.14615150 0.04074489 0.00000801
-0.39660931 -0.69864112 0.00000318
-0.44559687 -0.27578244 0.23939264
-0.40227693 -0.17118967 0.04605408
-0.29801217 0.08051913 0.29198319
-0.36901322 -0.38408655 0.00000356
-0.54090506 -0.50587577 0.19056296
-0.45780039 -0.28812855 -0.01617892
-0.54473937 -0.38919264 -0.11925495
-0.45003492 -0.10706972 -0.16991979
-0.09860486 0.62845939 -0.06299407
-0.12645335 -0.51147944 0.00000149
-0.39541879 0.12869772 -0.26834637
-0.30776244 0.05698725 0.20256944
-0.31976727 -0.47980827 0.00000301
-0.65186185 -0.55607754 -0.20613898
-0.32850555 0.00691341 0.15218470
-0.40140602 -0.70601714 0.00000320
-0.00120759 -0.41993135 0.00000072
-0.19099273 0.33889127 0.20428871
-0.01003749 0.61192602 0.00000487
-0.50078690 -0.40902346 0.23373856
-0.65781128 -0.78810585 0.09125159
-0.67210001 -0.61466068 -0.19692773
-0.34128428 0.17581461 -0.18918489
-0.26527163 0.31928179 -0.15125860
-0.56386417 -0.53220332 -0.02752859
-0.50659043 -0.42303053 0.14579980
-0.19498689 -0.25845182 0.00000249
-0.61483979 -0.39174229 -0.27713835
-0.17185891 -0.44284683 0.00000197
-0.44229922 -0.26781690 0.14378931
-0.30693507 -0.61443812 0.00000266
-0.44396859 -0.27185434 0.30513096
-0.47290805 -0.34171659 0.21225306
-0.50702029 -0.28232920 -0.13422327
-0.13771930 0.54906803 -0.07723760
-0.19304331 -0.51342863 0.00000199
-0.10219728 0.62463212 -0.06758372
-0.22346108 0.28130081 -0.01967250
-0.07288239 0.03231191 0.00000988
-0.14512488 -0.08384238 0.00000244
-0.50229961 -0.07967639 -0.31537902
-0.47687927 0.01391518 -0.34590110
-0.48001912 -0.35888708 0.27431855
-0.61854333 -0.69330692 0.17227684
-0.03498441 -0.65053958 0.00000054
-0.18053900 -0.61190534 0.00000171
-0.47936967 -0.35731292 0.13459316
-0.59343290 -0.63268650 0.11473286
-0.34579858 -0.03483948 0.07683371
-0.14536104 0.44906893 0.02545266
-0.50758231 -0.77470928 0.00000388
-0.25671718 0.34274068 -0.15391751
-0.60420728 -0.44007140 -0.20704803
-0.17154980 0.38583401 0.15596727
-0.35185999 -0.60695863 0.00000302
-0.60719204 -0.66590321 0.11703238
-0.57221794 -0.49425507 -0.08257545
-0.04166466 -0.12867729 0.00000157
-0.05475387 0.54067397 0.00000460
-0.10764006 0.12899923 0.00000795
-0.10590103 -0.12130883 0.00000207
-0.22837472 -0.55632216 0.00000218
-0.23110880 0.29644153 -0.05150241
-0.40413740 -0.17569587 0.37370378
-0.11933817 0.20596088 0.00000680
-0.50085002 -0.40917727 0.29887265
-0.02726139 0.39398420 0.00000691
-0.30051324 -0.74738652 0.00000237
-0.14163303 -0.24359164 0.00000211
-0.52457082 -0.37055796 -0.09078623
-0.31239042 0.04581090 0.24707569
-0.35480130 -0.05657078 0.00154291
-0.34891710 -0.79172248 0.00000265
-0.45349145 -0.17486615 -0.11360731
-0.52119720 -0.45829833 0.23012801
-0.53448224 -0.20183924 -0.27326030
-0.07244199 0.66228336 -0.03520513
-0.60197502 -0.39141756 -0.24802823
-0.10431557 0.57974899 -0.02991359
-0.28745341 0.22363737 -0.11138638
-0.30252132 0.10555657 -0.03399443
-0.62399322 -0.57192159 -0.12740462
-0.04507148 -0.24954987 0.00000137
-0.35803017 0.08026627 -0.13697319
-0.24120875 0.21767093 0.06947603
-0.23479988 -0.49168903 0.00000235
-0.29541722 -0.61164725 0.00000258
-0.62293458 -0.62056541 -0.07890875
-0.43183881 -0.24257366 0.38330624
-0.49937946 -0.40562287 0.17359266
-0.23390099 0.33599842 -0.09535647
-0.21440931 -0.67797238 0.00000185
-0.35382420 -0.05421409 0.05265938
-0.05790171 0.40751642 0.00000602
-0.38754389 -0.52401346 0.00000344
-0.44243720 -0.04423153 -0.21206339
-0.52062368 -0.41915533 -0.03572903
-0.40285727 -0.17260055 0.26580393
-0.44263834 0.01308770 -0.26681721
-0.56479520 -0.28970054 -0.25935510
-0.17903447 -0.17775916 0.00000252
-0.14837031 0.44179615 0.12464165
-0.22164431 -0.34024736 0.00000253
-0.09594171 -0.31413406 0.00000163
-0.14361855 -0.43744618 0.00000176
-0.17550248 -0.44239324 0.00000199
-0.19127804 0.33821455 0.05132729
-0.56499493 -0.38938296 -0.16539305
-0.49833331 -0.40309170 0.05026608
-0.61982214 -0.69639421 0.14940004
-0.09092031 0.58049893 0.02824193
-0.50026369 -0.24378613 -0.15528074
-0.67930436 -0.71930516 -0.11428337
-0.20542087 -0.17035016 0.00000273
-0.26074246 -0.24962209 0.00000300
-0.50032389 -0.40790674 0.25891083
-0.62454456 -0.53299868 -0.16553298
-0.23795737 0.22551206 0.17446218
-0.22289962 0.33811909 -0.07220794
-0.59482205 -0.59846753 -0.03555477
-0.69762534 -0.79233015 -0.08700883
-0.06152252 -0.59515291 0.00000085
-0.07412700 0.28696108 0.00000698
-0.19720133 0.32390335 0.19410419
-0.63056606 -0.72233170 0.11675101
-0.55109543 -0.28360313 -0.23380323
-0.20145801 0.42042983 -0.10114284
-0.58888894 -0.62171680 0.21998100
-0.39266837 -0.13992994 -0.00761457
-0.56924266 -0.57428384 0.07168938
-0.17731489 0.38291529 -0.01039937
-0.56672531 -0.56820852 0.11801149
-0.33619821 -0.01165872 0.00326623
-0.19442067 -0.63372111 0.00000178
-0.41361815 -0.19857784 0.22335017
-0.54665130 -0.40149850 -0.11197086
-0.13318104 -0.15310028 0.00000222
-0.54337919 -0.23277704 -0.26430079
-0.08898066 -0.01421310 0.00000214
-0.03964745 -0.75131929 0.00000039
-0.30562136 -0.42191198 0.00000301
-0.67393202 -0.75828016 -0.06508153
-0.14161728 -0.52905256 0.00000158
-0.09264693 -0.01094423 0.00000218
-0.26919749 0.15008339 0.28983629
-0.12373409 0.06189769 0.00000832
-0.43521780 -0.22843529 -0.02108048
-0.58199298 -0.60506630 0.07719307
-0.38096353 0.08507576 -0.19397143
-0.25965464 0.17314100 0.04492243
-0.47941935 -0.59541649 0.00000400
-0.39358556 -0.15020797 0.07399538
-0.59782743 -0.33243239 -0.29441434
-0.59083897 -0.62642157 0.05668281
-0.40750724 -0.18382064 0.13241504
-0.67444420 -0.82826030 0.12713097
-0.37422034 0.12030502 -0.21192133
-0.11794232 -0.39946663 0.00000164
-0.12830332 0.14292344 0.00000729
-0.36649442 -0.08480606 0.12429971
-0.24511968 0.20822068 0.17785527
-0.36378229 -0.07825676 0.08834141
-0.15683827 0.42135182 0.13804059
-0.01898251 0.76577288 -0.01098451
-0.59956652 -0.31780204 -0.31224892
-0.46790716 -0.28647876 -0.04085276
-0.10506343 0.54635251 0.05687939
-0.22206789 0.26387146 0.18528764
-0.45890823 -0.63174379 0.00000378
-0.25123233 0.23835865 -0.04250248
-0.34781024 -0.03970942 0.37602630
-0.33421168 0.07967868 -0.08194994
-0.32208839 0.02239330 0.30897784
-0.51527691 -0.40139890 -0.04032142
-0.42158660 -0.69640470 0.00000337
-0.00965179 0.63977140 0.00000457
-0.35907406 -0.06689224 0.24723797
-0.28360221 -0.69509184 0.00000234
-0.22133049 -0.25840247 0.00000269
-0.25743291 -0.78222013 0.00000198
-0.00613398 -0.46266583 0.00000060
-0.55859667 -0.54858047 0.03681574
-0.32571515 0.01364619 0.19957510
-0.50203764 -0.07982659 -0.31463772
-0.60833824 -0.66867030 0.20148256
-0.08969253 -0.65739912 0.00000094
-0.16397302 -0.28622529 0.00000220
-0.13505332 -0.08250063 0.00000236
-0.60567749 -0.38571185 -0.26189899
-0.50184166 -0.41157132 0.31543100
-0.00318774 -0.08161987 0.00000137
-0.55182600 -0.42498782 -0.10155494
-0.66091335 -0.58052564 -0.20367979
-0.47078398 -0.29824775 -0.03628363
-0.00331044 -0.71075559 0.00000019
-0.27863082 0.21362352 -0.08172612
-0.16481891 0.40209261 0.04238044
-0.62570983 -0.71060795 0.09623390
-0.14701018 0.47880021 -0.03192443
-0.32729429 0.00983298 0.21074075
-0.38719082 -0.13478202 0.35187879
-0.05195345 0.59484547 0.00000405
-0.43857718 -0.25883350 0.19958021
-0.51361233 -0.06935543 -0.35102451
-0.21089280 0.38548037 -0.08961294
-0.04324017 0.42686474 0.00000615
-0.38146502 -0.73054206 0.00000301
-0.19782478 -0.61912882 0.00000183
-0.13350566 -0.74989152 0.00000110
-0.34558076 -0.03430708 0.12265524
-0.12962201 -0.06158115 0.00000236
-0.15030040 0.50213856 -0.06155479
-0.49730328 -0.40061492 0.28479269
-0.34050375 -0.02205673 0.20493472
-0.35118940 -0.04786465 0.34186432
-0.08605455 0.01354449 0.00000977
-0.46003285 0.02973207 -0.32235971
-0.16480196 0.47740534 -0.07128830
-0.38115671 -0.12020973 0.24939500
-0.62716222 -0.59738821 -0.11052930
-0.07869592 0.64391184 -0.03210437
-0.02105311 -0.33264875 0.00000104
-0.19238457 0.33554497 0.02861457
-0.16234547 0.49720946 -0.08442979
-0.40328607 0.05134105 -0.21306308
-0.55058074 -0.19388272 -0.31760904
-0.48501745 -0.01743510 -0.33481538
-0.31153819 0.04786186 0.32871121
-0.24478114 -0.36878261 0.00000266
-0.48247790 -0.31532377 -0.04684985
-0.21358407 -0.48613578 0.00000220
-0.38124156 -0.00759794 -0.10682496
-0.43056515 -0.05158441 -0.17795366
-0.63060206 -0.66883570 -0.05072053
-0.26442385 0.29985389 -0.13091750
-0.16959408 -0.22913560 0.00000235
-0.36652061 0.09147810 -0.16700865
-0.39868554 -0.16252623 0.20309816
-0.46484193 -0.32224789 0.31893066
-0.22405536 0.37685066 -0.11153810
-0.39210618 -0.14663364 0.01212274
-0.44179463 -0.22305816 -0.04121296
-0.33229268 -0.00222333 0.07453907
-0.29018140 0.14579247 -0.04388844
-0.36318469 0.01560993 -0.08751656
-0.18005949 -0.35777491 0.00000219
-0.40623310 0.03235005 -0.20181359
-0.39715579 -0.15883572 0.26306462
-0.66317022 -0.69170958 -0.10352797
-0.40689817 -0.18234622 0.04185904
-0.21783414 0.31868455 -0.04221576
-0.05386336 0.66995990 0.04780183
-0.02041361 -0.01260658 0.00000163
-0.32942337 -0.66409808 0.00000274
-0.19073397 0.33952215 0.12608039
-0.50453883 -0.13994789 -0.26341191
-0.13015030 0.48630419 -0.00047819
-0.32200053 0.02262002 0.12295798
-0.44540682 -0.78716493 0.00000338
-0.34632170 0.19574893 -0.21958634
-0.00630675 0.18528022 0.00000976
-0.40178585 -0.02052873 -0.14155608
-0.19184560 -0.13566160 0.00000269
-0.42421886 -0.19240199 -0.03005982
-0.34176072 -0.27719802 0.00000356
-0.14771894 0.44337383 0.05977607
-0.52514875 -0.44783941 -0.01890705
-0.00525374 0.12572613 0.00001046
-0.51726508 -0.44879839 0.07411539
-0.35739687 -0.06285320 0.37367254
-0.39410216 -0.41616783 0.00000369
-0.11002481 0.53437454 0.06043001
-0.07386392 0.62167674 0.02259135
-0.25831148 0.17638117 0.07665438
-0.00875408 0.21147367 0.00000941
-0.19708624 0.37210703 -0.04537350
-0.34907570 -0.00972906 -0.03125690
-0.41254708 -0.19599657 0.32561600
-0.09114249 -0.31374639 0.00000160
-0.20291141 -0.58003658 0.00000194
-0.36727431 0.18124990 -0.25376576
-0.63629431 -0.61187583 -0.11768904
-0.65601891 -0.58375412 -0.18942982
-0.30921677 0.06289562 -0.00889588
-0.64569843 -0.51892865 -0.22723238
-0.18161272 0.50038880 -0.13150047
-0.55187953 -0.36923140 -0.15448950
-0.42738044 -0.46926826 0.00000384
-0.37756681 -0.11154140 0.21510541
-0.15569822 -0.32530007 0.00000206
-0.22385149 0.25956878 0.14366354
-0.10063429 -0.38008201 0.00000155
-0.21091013 -0.23622073 0.00000265
-0.17472973 -0.57386184 0.00000174
-0.11831074 -0.39496517 0.00000165
-0.65582424 -0.78330886 0.12713657
-0.66136158 -0.79667675 0.02715132
-0.35138303 -0.04831747 0.15601841
-0.67196375 -0.82227206 0.10632086
-0.30559951 0.06220335 0.27336156
-0.52405119 -0.33921033 -0.11929028
-0.61997420 -0.53822190 -0.15013464
-0.62317145 -0.70447868 0.03902043
-0.50966138 -0.43043879 0.01799769
-0.63682729 -0.73744643 0.02666685
-0.42732376 -0.23166853 0.27377149
-0.32663161 0.01143207 0.22021164
-0.48442796 -0.04397830 -0.30832514
-0.44122976 -0.26523462 0.13696231
-0.58237141 -0.60598129 0.10684878
-0.50998068 -0.24001671 -0.18107101
-0.27589330 -0.70775414 0.00000225
-0.36876157 0.17005448 -0.24656215
-0.08970019 0.37992504 0.00000556
-0.29269978 0.09334395 0.29596969
-0.26732266 0.15462810 0.05598804
-0.22948220 0.24598593 0.00740861
-0.32126740 0.15975870 -0.12820303
-0.01265568 -0.43066660 0.00000079
-0.33465007 -0.56906247 0.00000296
-0.32430115 -0.71532381 0.00000261
-0.38192523 -0.06781577 -0.05135443
-0.26465955 -0.68407220 0.00000221
-0.30086952 -0.34523380 0.00000312
-0.09009164 -0.42880499 0.00000138
-0.07163042 -0.24848869 0.00000157
-0.31987226 -0.73879331 0.00000253
-0.37475634 -0.10475671 0.22497496
-0.34222716 -0.02622039 0.24390173
-0.36017793 0.08785952 -0.14907704
-0.47023064 -0.33524364 0.00950640
-0.44468632 -0.27358067 0.16108407
-0.46148145 -0.31412891 0.18333723
-0.42945147 -0.23679435 0.02736628
-0.23007357 -0.36224255 0.00000256
-0.38636738 -0.13278756 0.20635422
-0.34606859 -0.53191191 0.00000311
-0.44835499 0.05734573 -0.32181168
-0.63452250 -0.55840373 -0.16428588
-0.17339398 -0.55449104 0.00000177
-0.47235718 -0.13477817 -0.19471875
-0.22245480 0.42015654 -0.14889817
-0.29787245 0.08085788 0.27455643
-0.39427179 -0.63097292 0.00000329
-0.30415851 0.06569030 0.17067152
-0.66050529 -0.79460955 0.06446490
-0.45354480 -0.72243929 0.00000357
-0.10115758 -0.44604030 0.00000143
-0.16488673 0.49167147 -0.08499530
-0.41912159 -0.08151078 -0.12343956
-0.17166306 0.44021592 -0.05175134
-0.01065200 0.14964202 0.00001006
-0.55568868 -0.31446466 -0.21507469
-0.29227448 0.21306829 -0.11239966
-0.10655548 0.62233084 -0.07536999
-0.47326985 -0.20713444 -0.12827019
-0.47417182 -0.66401106 0.00000383
-0.49974966 -0.40651518 0.14138822
-0.40943977 0.02096877 -0.19836581
-0.12602121 0.52217335 -0.02501195
-0.60108978 -0.33756319 -0.29701445
-0.43562374 -0.25169525 0.02036824
-0.35326287 -0.05285854 0.04468350
-0.38766325 0.10003487 -0.22346148
-0.38391453 -0.64835328 0.00000318
-0.00611014 -0.14920186 0.00000118
-0.66646433 -0.80899560 0.13862893
-0.39628100 -0.76471329 0.00000306
-0.33129290 0.00017398 0.28161484
-0.09595400 0.61810261 -0.04712212
-0.38663974 -0.10409433 -0.02777224
-0.16430663 -0.56854081 0.00000167
-0.30788732 -0.72004586 0.00000247
-0.46252462 -0.02817130 -0.27321064
-0.36521804 -0.08173522 0.37646541
-0.19357689 0.33265260 0.20462783
-0.12119853 0.14857745 0.00000740
-0.50693870 -0.74663848 0.00000392
-0.08837282 0.43021640 0.00000503
-0.18130945 -0.10233547 0.00000268
-0.23530467 0.23192780 0.02777562
-0.14998017 0.43790764 0.15018339
-0.44447991 -0.27308217 0.15675624
-0.33985007 -0.02048223 0.25084963
-0.56779647 -0.57079619 0.18168411
-0.52584916 -0.46951899 0.00061783
-0.07632657 0.63222313 -0.01561454
-0.01659640 -0.39502785 0.00000088
-0.00413608 -0.24506202 0.00000102
-0.66983753 -0.74837315 -0.06510255
-0.02311814 -0.59943014 0.00000055
-0.21159196 0.32405213 -0.03302578
-0.43122062 -0.20242834 -0.03657380
-0.33649364 0.21054623 -0.21112838
-0.09278833 -0.37250331 0.00000150
-0.28416494 0.11448902 -0.00047914
-0.10437733 0.57194155 -0.02265943
-0.34899852 -0.04255985 0.14351895
-0.29006991 0.09969833 0.22825176
-0.09124889 0.58365738 -0.00373558
-0.30318612 -0.34557083 0.00000314
-0.52730757 -0.47304288 0.06673669
-0.15646985 -0.42860594 0.00000188
-0.02567578 -0.05122492 0.00000160
-0.21322170 -0.15055218 0.00000283
-0.06181140 0.07152792 0.00000970
-0.23506337 -0.73090255 0.00000190
-0.35914376 -0.06705606 0.03786620
-0.36775649 0.03336975 -0.11479349
-0.34718829 0.06111922 -0.09404421
-0.54494202 -0.33546448 -0.17060938
-0.22372527 0.25987613 0.11050184
-0.11530995 0.09150251 0.00000819
-0.31721437 0.26825979 -0.22170912
-0.66568339 -0.64671671 -0.15189165
-0.36084706 -0.74665093 0.00000282
-0.39160740 0.08661357 -0.21976782
-0.63836789 -0.54510832 -0.18567249
-0.31173807 0.04740475 0.00686953
-0.37929797 -0.09835742 -0.01641775
-0.55318981 -0.34221777 -0.18307289
-0.47199103 -0.09737593 -0.22930869
-0.58878613 -0.34610501 -0.26078910
-0.33911744 0.06165815 -0.07609875
-0.02037303 -0.45913556 0.00000079
-0.24012192 0.22028445 0.19987044
-0.29729134 0.08226420 0.23070544
-0.15441501 0.05059977 0.00000770
-0.33301514 -0.00217979 -0.00168181
-0.01343778 -0.62182659 0.00000044
-0.30405390 0.06594267 0.17332201
-0.16829936 0.52164608 -0.12119166
-0.48205248 -0.07837569 -0.27031317
-0.53794616 -0.11120427 -0.36703020
-0.28051421 0.12277119 0.18237399
-0.32342145 0.01917604 0.29591730
-0.28922781 -0.34009287 0.00000304
-0.13738994 -0.51018137 0.00000158
-0.53359360 -0.30213284 -0.17623056
-0.25718123 0.17911066 0.06533853
-0.31840602 0.18078339 -0.14157481
-0.16615734 0.51246989 -0.10760151
-0.21598531 -0.15725963 0.00000283
-0.35585794 0.11309558 -0.16310240
-0.31433547 0.27957171 -0.22584079
-0.63141847 -0.55894762 -0.15667279
-0.15032905 -0.73567259 0.00000125
-0.55705929 -0.39547214 -0.14147896
-0.29999745 0.07572449 0.31484488
-0.24264506 -0.45751280 0.00000247
-0.44117334 -0.26509616 0.08489638
-0.10454849 -0.79492682 0.00000080
-0.25089663 0.19428545 0.03294402
-0.24574870 -0.36512706 0.00000267
-0.43427259 -0.14078362 -0.10194238
-0.26305920 -0.24480575 0.00000303
-0.01081997 0.31023413 0.00000825
-0.15152949 -0.15842396 0.00000235
-0.37447274 -0.10406231 0.00740784
-0.41827747 -0.20981985 0.07454432
-0.12321686 -0.46065855 0.00000157
-0.12898013 -0.18463100 0.00000213
-0.22691838 0.25216040 0.19879290
-0.10715458 -0.20673089 0.00000192
-0.50729799 -0.23526095 -0.17944109
-0.27043104 0.14711481 0.17043965
-0.30980009 0.05206849 0.19518873
-0.49568126 -0.29787612 -0.09356826
-0.45112979 -0.28913504 0.12547018
-0.13407716 0.20605026 0.00000645
-0.38282377 -0.12422954 0.14014553
-0.01172433 0.15001212 0.00001003
-0.34074280 -0.45852441 0.00000321
-0.41202462 -0.19473618 0.34599036
-0.06709100 -0.78011912 0.00000054
-0.45690534 -0.30307844 0.12265205
-0.19587317 0.41505313 -0.08327888
-0.25400954 0.18676248 0.13194600
-0.22646797 0.25325713 0.08044076
-0.64633781 -0.63827729 -0.11564808
-0.56865180 -0.57285714 0.06648287
-0.26082388 -0.73028439 0.00000210
-0.47109056 -0.07364646 -0.24972604
-0.43610582 -0.25286010 0.04233379
-0.32228142 0.02193753 0.17842811
-0.41585323 -0.20398200 0.41477582
-0.24866240 0.19966444 0.22137199
-0.59247696 -0.34553745 -0.26976639
-0.44225970 -0.12858757 -0.13175851
-0.03041298 -0.50272483 0.00000079
-0.57523632 -0.58875716 0.20180838
-0.29299301 -0.60389030 0.00000258
-0.11169457 -0.17735560 0.00000201
-0.54824704 -0.22096241 -0.28662285
-0.45578170 -0.30036873 0.19009300
-0.22223501 -0.21197613 0.00000278
-0.30176347 0.26913753 -0.18720837
-0.39788553 -0.16059732 0.25898150
-0.29648152 0.23699218 -0.14468122
-0.45322815 -0.29421076 0.34570137
-0.24684158 0.20407636 0.01675136
-0.02719156 -0.34741870 0.00000105
-0.54582995 -0.41020113 -0.10184957
-0.16697003 0.06372120 0.00000725
-0.48477319 -0.34626389 -0.02279214
-0.28768152 -0.52121264 0.00000269
-0.12886338 0.17335854 0.00000694
-0.34605446 0.09699433 -0.12543298
-0.33986107 -0.02049915 0.12934177
-0.09791558 -0.23737065 0.00000179
-0.30034104 -0.30414242 0.00000320
-0.04721108 -0.15754542 0.00000156
-0.36277151 -0.07582057 0.17844167
-0.28316659 -0.44149610 0.00000281
-0.43807179 -0.55754530 0.00000376
-0.34238800 -0.02660235 0.00464544
-0.39496043 -0.76802766 0.00000304
-0.40015706 0.00916171 -0.16595481
-0.04069058 0.61585540 0.00000409
-0.47793210 -0.35384282 0.14618242
-0.41996592 -0.08881027 -0.11845622
-0.01284485 -0.18275394 0.00000125
-0.16969492 0.39032128 0.03915109
-0.59403467 -0.46426228 -0.16087291
-0.30651733 0.06000612 0.03842955
-0.21038052 0.29208937 0.15449494
-0.11481825 0.05595918 0.00000860
-0.00738104 0.23859949 0.00000914
-0.03830406 -0.14025460 0.00000153
-0.38618764 -0.07169110 -0.05743058
-0.67658120 -0.78318363 -0.04755097
-0.13081612 0.48418358 0.01984507
-0.14886224 0.17905538 0.00000639
-0.53201216 -0.66979736 0.00000426
-0.60930109 -0.67099452 0.08210895
-0.03902992 0.06305918 0.00001035
-0.47121277 -0.75996166 0.00000363
-0.25060362 0.19499384 0.02030751
-0.64425641 -0.59357119 -0.15323400
-0.35779476 -0.06379972 0.04852287
-0.06780162 0.65367883 -0.01644343
-0.28822806 0.10414312 0.25061563
-0.39523023 0.05919556 -0.20208147
-0.14121751 -0.71626633 0.00000122
-0.37839428 -0.67579287 0.00000309
-0.07838853 -0.46301854 0.00000122
-0.36052054 -0.07038244 0.09507184
-0.33845365 -0.01709746 0.07914325
-0.25633365 0.18115856 0.04436643
-0.53625876 -0.49465179 0.03834306
-0.61120814 -0.53185159 -0.13612315
-0.37552458 -0.38326129 0.00000361
-0.23299778 0.34931204 -0.10590196
-0.41004682 -0.50677514 0.00000364
-0.40902817 -0.18750480 0.40809911
-0.03508952 0.73003334 -0.01396381
-0.07637350 0.64362931 -0.02652599
-0.64069790 -0.74679142 0.08219280
-0.50194281 -0.41181371 0.22663455
-0.38501376 -0.12952688 0.39042082
-0.46535268 -0.32347411 0.16512047
-0.22972566 -0.41238338 0.00000246
-0.32068667 0.02579128 0.13123557
-0.20433225 0.30669811 0.06581032
-0.54778779 -0.17489116 -0.32921121
-0.47073787 -0.33646870 0.02071391
-0.56616521 -0.56685716 0.13701507
-0.20363247 0.30838722 0.06903015
-0.50093418 -0.69521123 0.00000398
-0.40097612 -0.16806197 0.33223286
-0.36409560 -0.07902374 0.35500216
-0.44267926 -0.26874030 0.27672660
-0.08766897 -0.03086327 0.00000210
-0.38465825 -0.12866564 0.35252705
-0.40561274 0.00973913 -0.17897746
-0.03759689 -0.53112036 0.00000079
-0.49574384 -0.39684078 0.06441497
-0.38334879 -0.12550361 0.28664520
-0.05286985 -0.45603544 0.00000104
-0.39053720 -0.12318628 -0.01860075
-0.54578096 -0.51764745 0.20525025
-0.15439112 -0.30669215 0.00000209
-0.26077935 0.17042808 0.01528543
-0.55250233 -0.53387392 0.23383500
-0.38563240 -0.07516045 -0.05287479
-0.23612846 0.25037509 -0.01934611
-0.38451153 0.15321495 -0.26662749
-0.00639613 -0.62645578 0.00000029
-0.18085887 -0.33196881 0.00000224
-0.49143404 -0.05748272 -0.31155461
-0.68983567 -0.78543210 -0.07573011
-0.42798898 -0.23326866 0.14241791
-0.36343560 -0.75773925 0.00000282
-0.00838991 0.26614261 0.00000880
-0.17445832 -0.04708636 0.00000273
-0.06101322 -0.55855465 0.00000091
-0.30872005 -0.22087441 0.00000341
-0.13712233 -0.37044382 0.00000184
-0.50981575 -0.43082106 0.23146868
-0.33647606 -0.48157153 0.00000314
-0.45519432 -0.29894227 0.00172558
-0.49412081 -0.39292920 0.21709631
-0.08017189 -0.22653925 0.00000168
-0.42069125 -0.21564633 0.05314297
-0.40126339 -0.41148901 0.00000376
-0.23475851 0.23323347 0.19066443
-0.07154986 -0.65145153 0.00000082
-0.66222417 -0.64932090 -0.14151482
-0.58969313 -0.62365812 0.13728982
-0.27380195 -0.77138752 0.00000212
-0.23999487 0.22060026 0.08478317
-0.56333911 -0.29677898 -0.24932083
-0.22031030 0.26811060 0.23622727
-0.34173408 0.07704787 -0.09665977
-0.33957499 0.10917285 -0.12215190
-0.45631859 -0.07516583 -0.21450786
-0.05881023 0.65801901 0.02493261
-0.53842181 -0.31706327 -0.17312910
-0.18624862 -0.02174782 0.00000286
-0.58758211 -0.33884555 -0.26491198
-0.54954112 -0.45943463 -0.06370222
-0.50976700 -0.05924964 -0.35180354
-0.01624270 -0.78556544 0.00000015
-0.56123507 -0.71134406 0.00000440
-0.08051604 -0.76490742 0.00000067
-0.29522231 0.08726959 0.09943251
-0.32187980 0.02289667 0.31130758
-0.22867113 0.24794015 0.05624111
-0.19692931 -0.02023632 0.00000295
-0.36157724 -0.07293196 0.05879091
-0.26684901 -0.48392212 0.00000261
-0.44131666 -0.13643403 -0.12216999
-0.11734400 0.51670790 0.01864732
-0.47746298 -0.35271421 0.23379421
-0.48820397 -0.13829911 -0.22762059
-0.06931443 0.22303402 0.00000782
-0.70509493 -0.76991457 -0.12532145
-0.43743411 -0.01169691 -0.23144002
-0.06942741 -0.41635951 0.00000124
-0.61210018 -0.49756327 -0.17064075
-0.48054910 -0.36016250 0.18263340
-0.36131400 -0.49591541 0.00000330
-0.39421523 -0.09095490 -0.05754069
-0.35454130 0.15825906 -0.20287126
-0.38438332 -0.46296033 0.00000353
-0.06431443 -0.64939785 0.00000077
-0.37072212 -0.09501304 0.13244948
-0.02522574 -0.62637007 0.00000052
-0.30522019 0.14427359 -0.07683952
-0.11528903 -0.65380144 0.00000114
-0.33229399 -0.00223947 0.23878141
-0.36150503 -0.07276172 0.25473592
-0.58235162 -0.43789527 -0.15913191
-0.32723439 -0.49078435 0.00000305
-0.52020341 -0.76766121 0.00000399
-0.14739288 -0.41032320 0.00000184
-0.18268834 -0.33846506 0.00000224
-0.16867369 -0.43718779 0.00000195
-0.45556867 -0.29984751 0.03474319
-0.46070150 -0.31224427 0.14593016
-0.25244391 0.31963107 -0.12225584
-0.37891504 -0.11479639 0.21631521
-0.39784160 -0.01431420 -0.13842314
-0.49650893 -0.21075723 -0.17797959
-0.42845806 -0.19460265 -0.03766914
-0.38477784 0.08116097 -0.19898561
-0.29894996 0.07825374 0.30978194
-0.18742800 -0.64326894 0.00000171
-0.51723558 -0.13479137 -0.29732975
-0.40032589 -0.07868683 -0.08313423
-0.50580657 -0.09239784 -0.31134999
-0.53412580 -0.71851647 0.00000418
-0.43372819 -0.19364321 -0.05062911
-0.45899346 -0.04827857 -0.24608980
-0.26964217 0.14901000 0.28865418
-0.12925394 0.48794886 0.09726018
-0.14866965 -0.05737616 0.00000251
-0.32388708 0.12890597 -0.10496929
-0.59114558 -0.62358880 -0.00335293
-0.65021670 -0.76977062 0.00583985
-0.46505368 -0.26396278 -0.05565473
-0.25992435 -0.14296474 0.00000319
-0.54537684 -0.14790142 -0.34926251
-0.49246746 -0.38893235 0.09769353
-0.17263468 -0.64966464 0.00000158
-0.61671007 -0.68888122 0.10938468
-0.33408529 0.04757708 -0.05125366
-0.13288790 -0.15924326 0.00000220
-0.48085561 -0.15215482 -0.19769306
-0.18700565 -0.32103506 0.00000231
-0.63110566 -0.59665358 -0.12024262
-0.46675912 -0.55504245 0.00000398
-0.51225436 -0.32251582 -0.10812735
-0.08780976 -0.32735938 0.00000155
-0.28326252 -0.66691124 0.00000239
-0.14507519 0.20521238 0.00000619
-0.24422234 -0.78357619 0.00000187
-0.56852639 -0.20777749 -0.34548432
-0.28309700 -0.74871427 0.00000223
-0.10429755 -0.57499301 0.00000121
-0.36415827 -0.07917339 0.33448628
-0.28339839 0.27777678 -0.15339544
-0.10715540 -0.42260015 0.00000152
-0.42544922 -0.22617938 -0.00087945
-0.34755597 -0.45463565 0.00000327
-0.40204424 -0.17063285 0.15782893
-0.43475083 0.05442722 -0.28793812
-0.38307944 -0.12485469 0.35936737
-0.40736181 -0.18347742 0.30852696
-0.03175973 -0.40961415 0.00000097
-0.36187792 0.13860142 -0.20102815
-0.02022136 0.24146274 0.00000880
-0.38546771 -0.64049011 0.00000321
-0.19708113 -0.53374749 0.00000199
-0.34446353 -0.03162250 0.28292468
-0.44623834 -0.27732551 0.11516826
-0.47906220 -0.14299493 -0.20226824
-0.61120516 -0.61892539 -0.05364053
-0.26374358 0.16325468 0.23342824
-0.44811001 -0.00194969 -0.26508576
-0.30697736 -0.43202159 0.00000301
-0.46406722 -0.32036451 0.02611504
-0.53908372 -0.50147653 0.14327636
-0.08373556 0.59784210 0.05571347
-0.54714572 -0.28266376 -0.22566125
-0.66155022 -0.79713225 0.10906260
-0.26582643 0.20181508 -0.04126064
-0.09966126 -0.01490727 0.00000222
-0.04344631 0.70619899 -0.01049729
-0.13349560 0.20617031 0.00000646
-0.00524835 0.37980792 0.00000760
-0.18280256 0.47938010 -0.11432153
-0.37879044 -0.04453347 -0.06623899
-0.48737687 -0.20462587 -0.16290487
-0.26145688 0.34375173 -0.16571368
-0.20358796 -0.29766363 0.00000248
-0.57351279 -0.36922041 -0.20396869
-0.09628059 0.56755263 0.09899401
-0.47247350 -0.34066904 0.24638645
-0.60446072 -0.64421815 -0.01426070
-0.08521912 0.27843356 0.00000681
-0.42768869 -0.23255463 0.40126830
-0.43918443 -0.14681844 -0.10745811
-0.20260885 -0.57761705 0.00000195
-0.12188471 -0.62081546 0.00000126
-0.01616260 -0.59653318 0.00000050
-0.25717086 0.17912635 0.18396784
-0.18896103 -0.24575756 0.00000246
-0.46301362 -0.16764297 -0.14222342
-0.54425156 -0.32243326 -0.18137370
-0.29947945 0.07699298 0.08806764
-0.26821661 0.15699974 -0.00427643
-0.04623483 -0.77611750 0.00000039
-0.52358854 -0.46406710 0.13134214
-0.46020615 -0.20102280 -0.10418634
-0.26601568 -0.18029934 0.00000317
-0.65699506 -0.78613532 0.04296440
-0.50893378 -0.42868638 0.11281389
-0.24065664 0.21900593 0.04286908
-0.54262602 -0.10252089 -0.38595650
-0.40107587 -0.44336984 0.00000369
-0.56971514 -0.57542419 0.06406507
-0.28326228 0.13427281 -0.01715456
-0.16729489 0.10014419 0.00000683
-0.39314136 -0.14914633 0.31592605
-0.47611886 -0.34946999 0.25268114
-0.32795122 0.00824269 0.26610053
-0.47824207 -0.28275967 -0.06800831
-0.38526052 -0.07096243 -0.05600074
-0.19956940 0.31820154 0.00154927
-0.54924458 -0.17229955 -0.33499715
-0.47646052 -0.29638752 -0.05102618
-0.20359781 -0.33883828 0.00000240
-0.13583666 -0.20848228 0.00000213
-0.39285275 -0.14845075 0.34166634
-0.32253101 0.02134397 0.06478956
-0.14248587 0.45600030 0.15015747
-0.31715721 0.03430645 0.20243189
-0.05339854 -0.75180769 0.00000049
-0.44648352 -0.27792251 0.22885104
-0.50989687 -0.24353890 -0.17754312
-0.21170022 0.28891405 0.01973019
-0.45910403 -0.30838728 0.13941006
-0.45555344 -0.29981029 0.02442279
-0.22748350 0.25081027 0.01890909
-0.34147939 0.04283844 -0.06367352
-0.15263237 0.43151006 0.08262094
-0.04581390 0.11940983 0.00000955
-0.01870242 -0.31681469 0.00000105
-0.09213938 0.43306741 0.00000490
-0.12486839 0.49853444 0.12216573
-0.24681357 0.20412956 0.20000401
-0.55372500 -0.34670711 -0.18004446
-0.00238172 -0.49424878 0.00000059
-0.60547161 -0.47919196 -0.17288446
-0.32192564 0.24175388 -0.20737565
-0.33291602 0.21106558 -0.20343925
