ply
format ascii 1.0
element vertex 1123
property float x
property float y
property float z
end_header
-0.24377607 0.47773001 0.00851773
-0.13825610 0.54111964 0.00483062
-0.18149927 -0.15082318 0.00634132
-0.57523882 -0.65877295 0.02009799
-0.45044032 -0.22196016 0.01573785
-0.34066820 -0.66527349 0.01190244
-0.23620032 0.50042558 0.00825305
-0.00477130 -0.48657140 0.00016670
-0.25579259 -0.17788255 0.00893701
-0.58201921 -0.32845026 0.02033546
-0.19555427 -0.58018631 0.00683238
-0.59583277 0.07610892 0.02081899
-0.08196073 -0.04106928 0.00286359
-0.20555811 0.05726308 0.00718189
-0.38710296 -0.26678759 0.01352480
-0.22160055 0.06774620 0.00774239
-0.35661539 0.14733230 0.01246004
-0.17369355 0.25265199 0.00606859
-0.32921043 0.03483353 0.01150219
-0.46964386 -0.14700671 0.01640905
-0.21798696 -0.48557398 0.00761614
-0.19925056 -0.67473418 0.00696152
-0.23525967 -0.42471704 0.00821962
-0.32999885 -0.37039527 0.01152967
-0.12896945 -0.19443434 0.00450600
-0.51700038 -0.46286026 0.01806323
-0.01027354 0.48606974 0.00035894
-0.61443394 -0.35060370 0.02146810
-0.24051259 -0.04235592 0.00840315
-0.73781031 -0.64099234 0.02577857
-0.16986550 -0.48037556 0.00593485
-0.73572618 0.05267605 0.02570731
-0.44944707 0.34671390 0.01570432
-0.08416701 -0.38675973 0.00294067
-0.79201585 -0.44845024 0.02767304
-0.21189778 -0.29459253 0.00740339
-0.64979935 -0.16105901 0.02270429
-0.78679758 -0.20728150 0.02749133
-0.39532205 0.27432156 0.01381285
-0.30172357 0.13857973 0.01054191
-0.45335340 -0.49064943 0.01583949
-0.30852589 0.06995699 0.01077947
-0.15270694 -0.25135902 0.00533535
-0.45145905 -0.35019282 0.01577331
-0.66096056 0.09919761 0.02309484
-0.02632991 0.57227790 0.00091993
-0.21976665 -0.52310210 0.00767832
-0.47549328 0.22492500 0.01661422
-0.66069275 -0.39130545 0.02308446
-0.21601535 -0.64305186 0.00754726
-0.74839008 -0.68854481 0.02614812
-0.72094643 -0.39619502 0.02518993
-0.43547788 -0.43119031 0.01521495
-0.68374014 -0.54882520 0.02388949
-0.17125380 0.01620268 0.00598335
-0.19343209 -0.45906475 0.00675823
-0.50974554 0.26040357 0.01781119
-0.11267147 0.16637202 0.00393657
-0.09173843 -0.78902751 0.00320520
-0.11106709 -0.29607114 0.00388052
-0.00668064 0.07251388 0.00023341
-0.55799073 -0.68144155 0.01949537
-0.01878498 0.01426704 0.00065632
-0.50108808 -0.59815878 0.01750727
-0.16311741 -0.03130107 0.00569908
-0.18517740 -0.04812577 0.00646982
-0.59298694 -0.70982361 0.02071808
-0.09363934 0.50410622 0.00327162
-0.16304615 -0.19543505 0.00569659
-0.06071408 -0.20324607 0.00212126
-0.22444823 0.24735600 0.00784189
-0.31331784 0.35389334 0.01094750
-0.03500582 0.51572055 0.00122305
-0.73513454 -0.62428963 0.02568512
-0.12174117 -0.20422138 0.00425346
-0.73938197 -0.07805382 0.02583479
-0.36612964 -0.55782861 0.01279203
-0.62654883 -0.43012425 0.02189127
-0.07463693 -0.70405978 0.00260770
-0.57800502 -0.31598464 0.02019522
-0.15487769 -0.33511475 0.00541120
-0.57037759 -0.62191069 0.01992815
-0.22240718 -0.27288643 0.00777058
-0.60135090 -0.52828246 0.02101056
-0.05114953 -0.75155097 0.00178709
-0.10959340 0.07986909 0.00382903
-0.28207675 -0.28443831 0.00985534
-0.02279196 0.21790114 0.00079632
-0.16776186 -0.63652569 0.00586135
-0.06439529 0.18847328 0.00224988
-0.11186063 -0.17122132 0.00390824
-0.49964356 0.11546257 0.01745789
-0.26580951 -0.06529918 0.00928699
-0.63783032 -0.77672136 0.02228484
-0.70708835 -0.45934644 0.02470555
-0.77065474 -0.01810587 0.02692769
-0.18877931 0.38335657 0.00659575
-0.40111047 -0.37653854 0.01401420
-0.19995958 -0.01743162 0.00698629
-0.38116419 -0.07250114 0.01331741
-0.62336761 -0.66816390 0.02177962
-0.35343301 0.36345509 0.01234929
-0.75485659 -0.12841877 0.02637542
-0.53120619 -0.67355251 0.01855956
-0.46936956 -0.79006475 0.01639908
-0.07399222 0.09525700 0.00258518
-0.53292930 -0.52686721 0.01861976
-0.74798775 -0.60207605 0.02613428
-0.09095474 0.39004287 0.00317782
-0.41811454 -0.01945312 0.01460870
-0.61355627 -0.10974040 0.02143793
-0.64750433 -0.17129607 0.02262407
-0.47908872 -0.77179432 0.01673865
-0.15943258 0.10921884 0.00557034
-0.10357638 -0.60269463 0.00361880
-0.05259455 -0.59249908 0.00183758
-0.18148330 0.54447639 0.00634114
-0.01265198 0.50378400 0.00044204
-0.28196141 -0.49827093 0.00985131
-0.05266189 -0.41458026 0.00183993
-0.12347799 0.56061363 0.00431426
-0.31934106 -0.40145653 0.01115730
-0.38872546 0.16720536 0.01358212
-0.72659069 -0.45490566 0.02538702
-0.00603394 0.42418873 0.00021082
-0.13995975 -0.72331655 0.00488999
-0.13009778 -0.26872504 0.00454542
-0.29740077 -0.43566570 0.01039074
-0.11656617 -0.26502019 0.00407265
-0.60510981 0.02137327 0.02114305
-0.06116462 0.55118048 0.00213700
-0.18554790 0.27108178 0.00648277
-0.22591688 0.20964457 0.00789320
-0.27366641 -0.58833778 0.00956150
-0.72167450 -0.11128205 0.02521596
-0.00517452 0.29367307 0.00018079
-0.04843159 0.25679418 0.00169213
-0.74074757 0.04950034 0.02588277
-0.13442837 -0.21831551 0.00469673
-0.03516471 -0.70826960 0.00122860
-0.03004663 -0.55402255 0.00104978
-0.20624393 0.04965818 0.00720586
-0.16521376 0.26411155 0.00577232
-0.05265420 0.50696355 0.00183966
-0.30690998 -0.05153103 0.01072298
-0.58975762 -0.00538102 0.02060654
-0.66321135 -0.71850431 0.02317179
-0.13122278 0.48611471 0.00458474
-0.19827636 0.58839154 0.00692803
-0.55479050 0.18071765 0.01938505
-0.43763354 -0.10405778 0.01529058
-0.46888095 -0.34857285 0.01638200
-0.03841649 -0.16047946 0.00134222
-0.23405503 -0.52253234 0.00817753
-0.68108284 -0.31972277 0.02379711
-0.34914067 -0.18155316 0.01219846
-0.65924978 -0.64173985 0.02303352
-0.16652332 0.22992817 0.00581808
-0.55922019 -0.62165016 0.01953832
-0.41159278 -0.34787342 0.01438044
-0.47613779 -0.66272914 0.01663555
-0.59601951 -0.67518783 0.02082404
-0.12223752 0.11953104 0.00427080
-0.25590196 -0.69064629 0.00894083
-0.38417038 -0.55869091 0.01342234
-0.73922777 -0.16863956 0.02582921
-0.65848517 0.12783946 0.02300840
-0.38576818 -0.64687115 0.01347817
-0.73450029 -0.18248865 0.02566399
-0.29207504 0.13049164 0.01020474
-0.41369051 0.13346583 0.01445442
-0.79640460 -0.71730787 -0.00000021
-0.36168870 0.17027216 0.01263737
-0.79890722 -0.44654810 0.02791384
-0.14238143 0.33575916 0.00497460
-0.33599746 -0.42467448 0.01173925
-0.17732288 -0.08137918 0.00619540
-0.49010074 -0.50780576 0.01712339
-0.26950490 -0.37369394 0.00941610
-0.53199625 -0.50320643 0.01858716
-0.16806377 -0.20303048 0.00587190
-0.64939409 -0.52813250 0.02268936
-0.12830837 -0.27489483 0.00448290
-0.07258170 0.14958915 0.00253590
-0.20625581 -0.59880012 0.00720627
-0.73977000 -0.72337586 0.02584683
-0.79483998 -0.62601918 -0.00000043
-0.66735137 -0.34716773 0.02331723
-0.45449799 -0.67682195 0.01587948
-0.32793194 -0.59263909 0.01145745
-0.52687228 -0.22765854 0.01840864
-0.08910500 0.35774508 0.00311320
-0.47908273 0.08864269 0.01673936
-0.24739838 0.36666617 0.00864407
-0.39141193 -0.03096494 0.01367559
-0.14502697 -0.43223593 0.00506703
-0.06924121 -0.56298631 0.00241919
-0.00743090 0.79064745 0.00025964
-0.64212596 -0.22730677 0.02243601
-0.41546300 0.36554748 0.01451684
-0.78415167 -0.67934048 0.02739767
-0.06107191 -0.20042987 0.00213376
-0.54268301 -0.23266783 0.01896112
-0.72849458 -0.49954054 0.02545343
-0.57039505 -0.35757250 0.01992921
-0.09093557 0.01923812 0.00317715
-0.45915496 0.31613728 0.01604349
-0.66143465 0.03665926 0.02311127
-0.18624686 -0.42336014 0.00650719
-0.48859254 -0.30722576 0.01707085
-0.48105252 -0.51458740 0.01680726
-0.39845842 0.35293338 0.01392261
-0.16753396 -0.01221427 0.00585339
-0.20054331 0.23999225 0.00700669
-0.64457744 -0.72961771 0.02252064
-0.36113209 -0.22574450 0.01261742
-0.05451564 -0.26199210 0.00190470
-0.01058151 0.59658307 0.00036970
-0.69226629 -0.23184845 0.02418808
-0.35402077 -0.24817884 0.01236896
-0.73869473 0.02768545 0.02581099
-0.63893491 -0.24576451 0.02232447
-0.17014934 -0.71427518 0.00594477
-0.10853340 -0.07706443 0.00379200
-0.61845952 -0.23835051 0.02160900
-0.43950522 -0.58401597 0.01535566
-0.53219593 -0.20746748 0.01859471
-0.29620808 -0.47761971 0.01034907
-0.62684560 -0.29898983 0.02190191
-0.55516654 -0.75808161 0.01939669
-0.47248301 0.28255433 0.01650915
-0.36828291 0.13650542 0.01286773
-0.44525999 -0.38462767 0.01555672
-0.72442412 -0.51618499 0.02531117
-0.34884688 -0.12153060 0.01218819
-0.00767102 -0.05951339 0.00026801
-0.01524901 0.23873173 0.00053278
-0.79860222 -0.50934267 -0.00000073
-0.32517701 -0.60371614 0.01136120
-0.75460523 -0.29356408 0.02636628
-0.35743016 -0.76429147 0.01248808
-0.02322676 -0.08256974 0.00081151
-0.36033469 -0.64566511 0.01258956
-0.46450752 -0.37964454 0.01622920
-0.16484538 0.04893474 0.00575945
-0.51782286 -0.73874980 0.01809196
-0.28815794 -0.06918095 0.01006781
-0.05637734 0.53517616 0.00196974
-0.30983299 0.17813085 0.01082537
-0.45279881 -0.45104885 0.01582012
-0.10369559 0.61232811 0.00362310
-0.66058207 0.00798654 0.02308142
-0.48454243 -0.05409606 0.01692985
-0.23100773 0.41267270 0.00807142
-0.22488967 -0.36148751 0.00785731
-0.52600235 -0.63553083 0.01837774
-0.45331457 0.09271619 0.01583894
-0.68892598 0.10830340 0.02407203
-0.01864955 0.06807395 0.00065159
-0.61537319 -0.54390001 0.02150052
-0.18238164 0.00894710 0.00637214
-0.07335991 -0.24776532 0.00256309
-0.06860020 -0.48862565 0.00239679
-0.12816188 -0.14830841 0.00447779
-0.11932565 -0.12639582 0.00416906
-0.00595117 -0.33966246 0.00020793
-0.27728495 -0.65389061 0.00968792
-0.22413307 -0.57936352 0.00783088
-0.54956949 0.19762646 0.01920264
-0.53300864 0.20950666 0.01862397
-0.10559577 -0.70009559 0.00368936
-0.38313445 0.02877459 0.01338647
-0.23141813 0.35830855 0.00808565
-0.37972307 -0.27974829 0.01326696
-0.02691740 0.53427511 0.00094045
-0.03193783 -0.69321519 0.00111586
-0.63950872 -0.33104649 0.02234434
-0.76759624 -0.60042799 0.02681942
-0.62869197 -0.35727811 0.02196631
-0.06107562 0.26607680 0.00213389
-0.21287200 0.29336947 0.00743745
-0.78126246 -0.01769806 0.02729837
-0.02701684 0.51086891 0.00094393
-0.50564426 -0.15942352 0.01766700
-0.26375997 -0.02819209 0.00921538
-0.10821938 -0.62193578 0.00378102
-0.09712813 -0.07592177 0.00339351
-0.53838921 -0.21264553 0.01881111
-0.18951373 -0.56611580 0.00662133
-0.12495704 0.43061334 0.00436581
-0.12754950 0.39837176 0.00445639
-0.66581303 -0.64235753 0.02326286
-0.47835618 -0.43972170 0.01671305
-0.57887286 0.18637156 0.02022658
-0.59285736 0.02943050 0.02071493
-0.78769898 -0.45584211 0.02752219
-0.50268954 -0.05728155 0.01756397
-0.37334403 0.07271889 0.01304445
-0.54453397 0.04938654 0.01902638
-0.02218535 -0.79935032 0.00077512
-0.51895988 0.08810812 0.01813281
-0.21311402 -0.61448377 0.00744589
-0.56494433 -0.15963548 0.01973916
-0.26836035 -0.78558993 0.00937611
-0.65409815 -0.06602934 0.02285470
-0.48766774 -0.10343626 0.01703895
-0.26656315 0.23456834 0.00931348
-0.00909614 -0.17754441 0.00031781
-0.40391907 0.24970064 0.01411321
-0.53432268 0.12830678 0.01866972
-0.68210709 -0.76663786 0.02383194
-0.33223787 0.30638847 0.01160854
-0.15438753 -0.16378574 0.00539407
-0.31315473 0.24183033 0.01094157
-0.10493420 -0.04714162 0.00366625
-0.08295332 0.33236361 0.00289827
-0.44802257 -0.67146510 0.01565324
-0.39592698 -0.34769791 0.01383310
-0.16108628 -0.08135663 0.00562812
-0.41992471 0.13545772 0.01467227
-0.44800976 -0.25253469 0.01565286
-0.24749143 -0.05039994 0.00864698
-0.26679537 0.39197928 0.00932192
-0.62322879 -0.19099475 0.02177575
-0.66693848 -0.75213724 0.02330196
-0.07103232 0.01362041 0.00248176
-0.09121423 -0.14571300 0.00318689
-0.76324016 -0.21741439 0.02666819
-0.61389440 -0.04024894 0.02144989
-0.74343234 -0.05212465 0.02597638
-0.25180176 0.31053558 0.00879783
-0.60676420 -0.29537979 0.02120021
-0.53118330 0.17490081 0.01856012
-0.31449088 0.46055064 0.01098871
-0.58657992 -0.27561942 0.02049494
-0.19143483 -0.04757665 0.00668845
-0.37885159 -0.06197531 0.01323662
-0.44116202 -0.15224332 0.01541378
-0.50108826 0.25676283 0.01750866
-0.65300757 -0.15404914 0.02281641
-0.15223037 -0.15499999 0.00531870
-0.35661113 -0.52344662 0.01245946
-0.66862673 -0.75680071 0.02336095
-0.36696282 -0.13122538 0.01282114
-0.12930447 0.39893353 0.00451771
-0.22681114 0.12061413 0.00792444
-0.40335637 0.37252587 0.01409381
-0.43035978 -0.43764856 0.01503613
-0.28390917 -0.57532519 0.00991936
-0.79688275 -0.38239759 0.02784326
-0.73848981 -0.48399419 0.02580271
-0.62154210 -0.57710987 0.02171602
-0.46199870 0.06455788 0.01614234
-0.52894199 -0.44500786 0.01848051
-0.61771142 -0.12855420 0.02158309
-0.52034992 -0.68421066 0.01818025
-0.22327769 0.13436607 0.00780099
-0.07684832 -0.74691880 0.00268497
-0.03627838 0.46282816 0.00126751
-0.21070065 0.08199215 0.00736157
-0.39874855 -0.20502841 0.01393168
-0.14688881 -0.09676900 0.00513208
-0.30008987 0.14194795 0.01048483
-0.50723481 -0.41449147 0.01772205
-0.44020915 -0.79724127 0.01538025
-0.18789481 0.30776483 0.00656477
-0.05282761 0.61697131 0.00184572
-0.20836090 -0.49683511 0.00727982
-0.59406960 -0.30213061 0.02075660
-0.01154054 -0.12285369 0.00040321
-0.25086063 0.36322540 0.00876505
-0.08405323 0.49587601 0.00293670
-0.63210827 -0.73291570 0.02208492
-0.22751532 -0.45369318 0.00794905
-0.60862559 -0.41609168 0.02126500
-0.12448281 0.53775632 0.00434932
-0.19869988 0.58476579 0.00694283
-0.37956306 -0.62116849 0.01326137
-0.41605675 -0.47372052 0.01453641
-0.13839526 -0.26950890 0.00483533
-0.61436325 -0.43164745 0.02146546
-0.60601741 -0.79868746 0.02117335
-0.55088168 -0.55984330 0.01924699
-0.27230284 -0.38963255 0.00951386
-0.33671448 -0.69070458 0.01176430
-0.36772016 -0.08021606 0.01284761
-0.06171045 -0.46830413 0.00215607
-0.11142653 0.56763959 0.00389315
-0.77726477 -0.20753141 0.02715824
-0.70127511 -0.53661209 0.02450225
-0.22794430 0.21177647 0.00796404
-0.13164558 -0.52770638 0.00459950
-0.68956870 -0.16996118 0.02409395
-0.04200342 0.33519277 0.00146754
-0.64142132 -0.67201120 0.02241047
-0.01312479 -0.55835247 0.00045856
-0.63989711 -0.31898704 0.02235794
-0.30499616 -0.79635358 0.01065611
-0.14623728 -0.02672633 0.00510931
-0.16845031 0.15465450 0.00588540
-0.64751089 -0.31730488 0.02262399
-0.07932100 -0.19852734 0.00277136
-0.32556635 -0.05511997 0.01137480
-0.08320079 -0.38006607 0.00290691
-0.02780052 -0.67170709 0.00097131
-0.14574672 -0.57950699 0.00509217
-0.46932581 0.18934768 0.01639863
-0.18777902 0.15774359 0.00656072
-0.52758324 -0.37434554 0.01843318
-0.04291182 -0.33586636 0.00149928
-0.25122264 0.05955002 0.00877735
-0.09621261 -0.16249131 0.00336153
-0.43916598 -0.00856450 0.01534433
-0.26821065 0.26431561 0.00937111
-0.26588699 0.32814601 0.00929005
-0.25159866 0.13486248 0.00879048
-0.02764115 0.31581688 0.00096574
-0.69195348 -0.43277994 0.02417674
-0.70243186 0.06066634 0.02454391
-0.39548707 -0.71800733 0.01381773
-0.16945650 -0.58717722 0.00592056
-0.67470247 0.12475285 0.02357508
-0.27189213 -0.13118558 0.00949951
-0.19714995 0.40322205 0.00688829
-0.16720346 -0.47461537 0.00584184
-0.55873579 0.21716341 0.01952299
-0.27916029 -0.29268983 0.00975345
-0.17993669 0.49220777 0.00628698
-0.47063625 -0.45324823 0.01644333
-0.46959871 0.09993686 0.01640798
-0.38496241 -0.49166927 0.01345002
-0.26840723 -0.20762172 0.00937775
-0.26821360 0.34350812 0.00937138
-0.60376024 -0.06372344 0.02109572
-0.42625359 0.29202420 0.01489375
-0.51591390 -0.02350516 0.01802614
-0.37842673 0.39860380 0.01322273
-0.24225549 -0.31948325 0.00846405
-0.11789647 -0.49500164 0.00411913
-0.08786444 0.63274962 0.00306995
-0.35713014 -0.41462404 0.01247760
-0.47877142 -0.70121431 0.01672756
-0.28017464 -0.37100059 0.00978889
-0.34984511 0.35473180 0.01222390
-0.03641022 -0.52581328 0.00127212
-0.27748942 -0.31749430 0.00969507
-0.34454879 -0.07662912 0.01203802
-0.46448654 -0.64655071 0.01622847
-0.04666516 -0.58500272 0.00163041
-0.50258660 -0.79469514 0.01755963
-0.30455744 -0.70727503 0.01064078
-0.55925488 0.13625064 0.01954096
-0.54252410 -0.52951795 0.01895499
-0.32777545 0.18859023 0.01145236
-0.27502120 0.37786099 0.00960933
-0.61269015 -0.25436842 0.02140737
-0.62889957 -0.70140731 0.02197285
-0.22058082 0.37536106 0.00770699
-0.49945629 0.04798706 0.01745120
-0.67275006 -0.63754320 0.02350528
-0.64523101 -0.27963194 0.02254441
-0.42840132 -0.02088895 0.01496815
-0.60809165 -0.63436478 0.02124589
-0.65699774 -0.17912363 0.02295578
-0.11083580 -0.59074050 0.00387244
-0.06949274 -0.34811950 0.00242797
-0.68797076 -0.76202041 0.02403683
-0.27459508 0.05255538 0.00959394
-0.16022295 0.58583504 0.00559831
-0.17836906 -0.52891225 0.00623195
-0.77382857 -0.46519753 0.02703752
-0.29574209 -0.61574668 0.01033279
-0.11715340 0.45091125 0.00409317
-0.47784284 0.02100775 0.01669590
-0.37426728 -0.20961341 0.01307634
-0.08549184 0.43926531 0.00298696
-0.09375977 0.60399538 0.00327589
-0.56889743 -0.77704334 0.01987643
-0.11231079 -0.74606895 0.00392397
-0.19317514 -0.17868668 0.00674925
-0.19702575 -0.34203890 0.00688379
-0.08478085 -0.20982687 0.00296212
-0.09271785 -0.25225595 0.00323942
-0.11522207 -0.78221250 0.00402569
-0.41363588 -0.09935327 0.01445203
-0.39706361 -0.75947535 0.01387281
-0.47245216 0.19313142 0.01650788
-0.36781558 -0.66832864 0.01285093
-0.12645793 -0.71970093 0.00441825
-0.35549417 -0.39491394 0.01242044
-0.05818556 0.52260441 0.00203292
-0.35121715 0.24446617 0.01227161
-0.44422999 0.09514656 0.01552150
-0.00894589 -0.03404078 0.00031256
-0.72924161 -0.42277119 0.02547973
-0.07897972 -0.31831047 0.00275943
-0.42271125 0.09829575 0.01476957
-0.48337281 0.00619589 0.01688910
-0.04088446 0.02671900 0.00142844
-0.50390005 -0.41603407 0.01760552
-0.61712432 -0.35764274 0.02156210
-0.20947804 0.57728124 0.00731944
-0.08978252 -0.52245259 0.00313687
-0.35449952 -0.73981822 0.01238569
-0.56084454 -0.53689200 0.01959511
-0.41965038 -0.72842306 0.01466196
-0.31781733 -0.50141507 0.01110407
-0.21653141 -0.49629295 0.00756529
-0.74598259 -0.31851515 0.02606494
-0.66530281 0.05353516 0.02324648
-0.61567175 -0.57399470 0.02151089
-0.44750211 -0.71994120 0.01563506
-0.47291985 -0.41376436 0.01652312
-0.47181892 0.31047922 0.01648600
-0.17947592 0.35624230 0.00627062
-0.04921777 -0.02259220 0.00171960
-0.34461027 -0.63606453 0.01204017
-0.76030934 -0.43478304 0.02656523
-0.63841975 0.08623683 0.02230715
-0.12071461 -0.68951410 0.00421759
-0.56960148 -0.12986201 0.01990195
-0.15548593 -0.24186172 0.00543245
-0.38997719 0.32079735 0.01362618
-0.75608504 -0.27720976 0.02641803
-0.04423627 0.74767053 0.00154566
-0.10565969 0.48182195 0.00369159
-0.20665909 0.01906641 0.00722036
-0.21764874 0.48581707 0.00760476
-0.07265735 0.28641000 0.00253854
-0.36797178 0.10833412 0.01285680
-0.29617327 -0.63791323 0.01034785
-0.74131000 -0.43221819 0.02590138
-0.68131888 -0.41620085 0.02380516
-0.06128938 -0.21004727 0.00214136
-0.34152064 -0.51631159 0.01193222
-0.79945773 -0.53473467 0.02793285
-0.26578206 -0.06721309 0.00928603
-0.03072393 0.46675125 0.00107345
-0.15051088 0.64477694 0.00525898
-0.59934264 0.00071071 0.02094148
-0.62787372 -0.60285228 0.02193721
-0.28114519 -0.50219399 0.00982279
-0.56824535 -0.10109605 0.01985462
-0.64242125 -0.54034734 0.02244568
-0.21979488 0.02893948 0.00767931
-0.39875731 -0.77704096 0.01393199
-0.54984552 -0.12442814 0.01921162
-0.37427554 0.36634105 0.01307761
-0.15776955 0.62055081 0.00551265
-0.76367193 -0.78940791 0.02668182
-0.43251562 -0.73795277 0.01511145
-0.47699353 -0.05914042 0.01666605
-0.05112352 0.64077073 0.00178618
-0.77411354 -0.52817535 0.02704732
-0.38496780 0.38983530 0.01345128
-0.74403423 -0.38402736 0.02599669
-0.11150525 0.45880926 0.00389583
-0.64531320 0.07865499 0.02254802
-0.67595464 -0.48024780 0.02361758
-0.32508731 -0.63640922 0.01135807
-0.43868774 -0.60847360 0.01532710
-0.60877323 -0.62965339 0.02126972
-0.22793257 -0.07372243 0.00796363
-0.03675976 0.23084043 0.00128433
-0.43716449 -0.34405163 0.01527388
-0.45614067 0.14581093 0.01593781
-0.07134256 0.26555365 0.00249260
-0.09032837 -0.05190811 0.00315594
-0.08949724 0.15478100 0.00312690
-0.10871734 0.66253000 0.00379868
-0.37152481 -0.22575505 0.01298052
-0.00375326 0.53528428 0.00013113
-0.12264365 0.08845349 0.00428499
-0.06047939 -0.18210693 0.00211306
-0.44222599 -0.49833888 0.01545072
-0.21732157 -0.11724933 0.00759289
-0.27214876 -0.43192488 0.00950847
-0.75682521 -0.19070765 0.02644408
-0.61294883 -0.43488118 0.02141603
-0.13058501 0.48656914 0.00456245
-0.04752052 -0.36341342 0.00166030
-0.35713956 0.17341769 0.01247842
-0.22624631 -0.51357299 0.00790471
-0.46288747 -0.05334702 0.01617315
-0.34770870 -0.41857624 0.01214843
-0.56896311 -0.05573189 0.01987980
-0.65852457 -0.12857689 0.02300924
-0.08306329 -0.41343501 0.00290211
-0.40781504 -0.59534025 0.01424845
-0.76333112 -0.36767113 0.02667098
-0.07870627 -0.41041300 0.00274988
-0.37897909 -0.37789202 0.01324097
-0.54364908 0.02827082 0.01899541
-0.10795178 0.23662604 0.00377167
-0.23232259 -0.37387028 0.00811701
-0.01452865 0.68761373 0.00050761
-0.41799754 -0.63611704 0.01460421
-0.16690119 -0.57309788 0.00583128
-0.51156169 0.00849193 0.01787413
-0.31693369 0.35449284 0.01107386
-0.45635068 -0.75652617 0.01594421
-0.10632898 -0.01290175 0.00371498
-0.78765893 -0.76575923 0.02752000
-0.24685554 0.13840809 0.00862477
-0.52207327 -0.27866030 0.01824084
-0.13377415 -0.25546688 0.00467387
-0.10960342 0.57353204 0.00382946
-0.75064474 -0.43292594 0.02622754
-0.28627047 -0.52093899 0.01000186
-0.16928343 -0.71802050 0.00591451
-0.54521728 -0.19870722 0.01904974
-0.47947103 -0.67716396 0.01675201
-0.03087493 0.64967167 0.00107872
-0.15069503 -0.75265878 0.00526506
-0.33736464 -0.04543196 0.01178702
-0.26831642 0.15458754 0.00937458
-0.37457809 0.36613172 0.01308818
-0.17451140 -0.79763329 0.00609717
-0.03193255 -0.49505574 0.00111568
-0.34068882 -0.39315790 0.01190316
-0.06562307 0.22184199 0.00229277
-0.60524696 -0.14601906 0.02114750
-0.48569798 -0.20347387 0.01696992
-0.43196908 -0.75392437 0.01509236
-0.12990955 -0.74788183 0.00453885
-0.15066651 -0.71234131 0.00526406
-0.73602897 -0.65348279 0.02571630
-0.08440474 -0.74821663 0.00294898
-0.02869346 0.24561043 0.00100251
-0.76985961 -0.76459062 0.02689808
-0.52220362 0.15564467 0.01824630
-0.07863908 0.01843976 0.00274753
-0.08019481 -0.40888560 0.00280189
-0.20196679 -0.02418787 0.00705642
-0.45563915 -0.73144138 0.01591935
-0.75179613 -0.33744252 0.02626802
-0.67296159 -0.26355147 0.02351344
-0.51904076 -0.64030063 0.01813451
-0.54143816 -0.17418741 0.01891774
-0.07855599 0.27178326 0.00274463
-0.17800932 -0.23107255 0.00621938
-0.60837841 -0.28513384 0.02125664
-0.38429347 -0.30713859 0.01342664
-0.06302577 0.30873552 0.00220203
-0.79845887 -0.59983712 0.02789778
-0.67888188 -0.56775022 0.02371969
-0.08892767 0.43972555 0.00310700
-0.46540716 0.04663774 0.01626140
-0.03483712 0.06530696 0.00121716
-0.74257195 -0.09009548 0.02594623
-0.14585632 0.02995851 0.00509600
-0.72890961 0.03950330 0.02546909
-0.46876839 -0.77518642 0.01637807
-0.11220319 0.14583965 0.00392021
-0.23860329 0.30821458 0.00833662
-0.01842040 0.24877991 0.00064358
-0.43869376 0.04002250 0.01532793
-0.10025922 0.43556511 0.00350291
-0.23271130 -0.26614118 0.00813059
-0.47388718 -0.55130017 0.01655691
-0.56510383 -0.64089751 0.01974389
-0.40192556 -0.09628475 0.01404284
-0.61836642 -0.62899363 0.02160494
-0.10381414 -0.24465674 0.00362711
-0.38004449 -0.35281566 0.01327819
-0.73943430 -0.29061773 0.02583618
-0.76739252 -0.56752729 0.02681238
-0.45009103 -0.40724450 0.01572551
-0.08738065 0.02773644 0.00305295
-0.15505755 -0.37412706 0.00541748
-0.16241540 -0.59375930 0.00567455
-0.36929476 -0.42606601 0.01290261
-0.79113287 -0.59579229 0.02764182
-0.26138961 -0.72902936 0.00913256
-0.30310622 -0.06639269 0.01059008
-0.62220860 -0.68113959 0.02173909
-0.12268790 -0.49662930 0.00428653
-0.43656245 -0.78076971 0.01525284
-0.39387882 -0.24488874 0.01376154
-0.67003518 -0.36506641 0.02341097
-0.77169102 -0.14208330 0.02696365
-0.25853169 0.32760444 0.00903303
-0.20716888 0.52527410 0.00723864
-0.14552569 0.29856703 0.00508445
-0.67906612 -0.46544793 0.02372634
-0.55216813 -0.62494779 0.01929193
-0.58539492 -0.01919742 0.02045406
-0.24645469 0.17592546 0.00861076
-0.38457492 -0.35685164 0.01343648
-0.16602755 -0.03384968 0.00580076
-0.18471242 0.19285692 0.00645358
-0.67040455 -0.74367982 0.02342310
-0.31900024 -0.62204045 0.01114539
-0.24268807 0.01109575 0.00847916
-0.59186989 -0.72641760 0.02067906
-0.43775126 -0.18325822 0.01529453
-0.32310617 -0.22429954 0.01128885
-0.11885716 -0.66436803 0.00415269
-0.02352882 -0.47873530 0.00082206
-0.22037230 -0.03899485 0.00769948
-0.36335027 -0.44629675 0.01269492
-0.04485957 -0.17618100 0.00156733
-0.59140700 0.16042550 0.02066452
-0.00881713 0.29594347 0.00030806
-0.39366797 0.06864358 0.01375463
-0.40354532 -0.28296763 0.01409927
-0.74721628 -0.44470188 0.02610772
-0.36211240 -0.00322062 0.01265182
-0.22086152 0.14526235 0.00771657
-0.45320770 -0.65185785 0.01583440
-0.03906028 0.59136158 0.00136471
-0.38694966 -0.64003927 0.01351945
-0.19545244 -0.23913477 0.00682882
-0.68424821 -0.63348579 0.02390707
-0.27772653 -0.60352057 0.00970335
-0.79536581 -0.32933319 0.02779040
-0.47016984 -0.23655123 0.01642724
-0.39431891 -0.63620067 0.01377692
-0.14116850 0.58216214 0.00493247
-0.14703423 0.59775656 0.00513747
-0.77915061 -0.56207174 0.02722323
-0.28987864 0.29182890 0.01012833
-0.71293497 0.02844359 0.02491086
-0.55603945 0.12903593 0.01942858
-0.01685252 0.38884613 0.00058880
-0.01829572 0.07078502 0.00063923
-0.45754826 -0.15177561 0.01598637
-0.01333053 0.58727580 0.00046575
-0.12834939 -0.44409230 0.00448434
-0.09343468 0.60636181 0.00326454
-0.41301855 -0.79702741 0.01443025
-0.51791286 -0.12634978 0.01809578
-0.21892172 -0.02377831 0.00764880
-0.70008457 -0.53222299 0.02446066
-0.12154519 -0.29778588 0.00424661
-0.04418008 -0.17124745 0.00154359
-0.15390766 -0.59438622 0.00537730
-0.70647979 -0.15227637 0.02468492
-0.43261546 -0.25667962 0.01511494
-0.37006220 0.38035178 0.01293041
-0.15920162 0.51222515 0.00556247
-0.29413766 0.07767546 0.01027673
-0.25137323 0.36918926 0.00878297
-0.38052830 0.32383412 0.01329601
-0.11659640 -0.36900076 0.00407371
-0.26913366 0.28184658 0.00940340
-0.46559307 -0.52905005 0.01626713
-0.28102538 0.00055606 0.00981861
-0.45923093 -0.55591953 0.01604485
-0.55114770 0.22779261 0.01925785
-0.17661195 -0.40426928 0.00617056
-0.55232221 0.09097682 0.01929861
-0.17413332 -0.12115184 0.00608396
-0.78917515 -0.78268939 0.02757294
-0.25272757 0.10067582 0.00882993
-0.02873408 0.57332069 0.00100393
-0.01980533 -0.18210828 0.00069197
-0.43445727 -0.63423920 0.01517929
-0.30340001 0.32284492 0.01060088
-0.39788085 -0.54268402 0.01390137
-0.28874084 -0.12166357 0.01008818
-0.43084696 -0.44389501 0.01505315
-0.62224030 0.13473471 0.02174189
-0.54167902 0.07489691 0.01892667
-0.54082263 -0.55907273 0.01889554
-0.04014789 -0.74782687 0.00140271
-0.43296778 0.02973864 0.01512782
-0.20433602 -0.18661965 0.00713920
-0.30156010 -0.56302947 0.01053606
-0.02845906 0.42658782 0.00099432
-0.22788788 0.47669628 0.00796253
-0.10414578 0.30797234 0.00363870
-0.08730801 -0.19166496 0.00305041
-0.56219721 -0.69736582 0.01964233
-0.60646248 0.13112447 0.02119055
-0.39867875 -0.22603823 0.01392924
-0.09439890 0.48786905 0.00329816
-0.16481079 0.57977462 0.00575861
-0.59966856 -0.19313806 0.02095247
-0.22020379 0.14954321 0.00769359
-0.04938018 0.63391483 0.00172527
-0.78924698 -0.58237302 0.02757596
-0.51057243 -0.68733549 0.01783864
-0.19963183 0.09868854 0.00697484
-0.30871841 -0.33274707 0.01078616
-0.57118577 -0.56021136 0.01995642
-0.06129550 0.12269508 0.00214157
-0.46230510 -0.42202449 0.01615225
-0.78784341 -0.33993983 0.02752753
-0.51448590 -0.25338590 0.01797577
-0.58343416 -0.21411327 0.02038514
-0.75058174 -0.20168287 0.02622589
-0.78060055 -0.79999554 0.02727329
-0.17107812 0.24094811 0.00597721
-0.58101386 -0.42140269 0.02030014
-0.11424133 0.18579215 0.00399142
-0.37777117 0.03611784 0.01319907
-0.76021641 -0.32019863 0.02656227
-0.14127152 -0.04874010 0.00493582
-0.10198610 -0.76764572 0.00356324
-0.06866950 0.51144576 0.00239921
-0.08440006 0.35017252 0.00294881
-0.78571779 -0.53182322 0.02745277
-0.57746834 -0.43193623 0.02017622
-0.65085888 -0.12104716 0.02274139
-0.02018400 0.66568834 0.00070520
-0.24024279 0.14500266 0.00839373
-0.24990518 -0.38536352 0.00873132
-0.08551656 -0.48687401 0.00298782
-0.66902429 -0.29570380 0.02337579
-0.22853094 -0.10278015 0.00798453
-0.35729927 -0.63001144 0.01248351
-0.67899686 -0.25292882 0.02372436
-0.04272501 -0.44879261 0.00149275
-0.04122758 0.71286619 0.00144046
-0.47403413 -0.22732882 0.01656229
-0.17411079 0.48165721 0.00608338
-0.09017714 -0.18792094 0.00315066
-0.53536665 -0.39428341 0.01870512
-0.65422016 -0.57366419 0.02285791
-0.52955258 -0.29326949 0.01850217
-0.79672718 -0.05369522 0.02783867
-0.67838907 0.10806604 0.02370387
-0.18552659 0.34804744 0.00648202
-0.76289839 -0.44810960 0.02665566
-0.26675290 -0.01251466 0.00931995
-0.42800087 0.12496292 0.01495446
-0.71612680 -0.29265735 0.02502173
-0.07960686 -0.00303776 0.00278135
-0.44653901 -0.05471594 0.01560187
-0.65298045 -0.02838616 0.02281572
-0.15093684 -0.47946763 0.00527351
-0.59803379 0.12749384 0.02089601
-0.46059814 -0.55382055 0.01609262
-0.78360093 -0.67783171 0.02737844
-0.29819244 -0.28904623 0.01041840
-0.01821481 0.11195031 0.00063640
-0.43097416 -0.72339600 0.01505760
-0.30508092 -0.67891520 0.01065907
-0.51099718 -0.60698420 0.01785348
-0.29530263 0.00401133 0.01031743
-0.41035530 -0.07608332 0.01433744
-0.41980109 -0.03488751 0.01466760
-0.41894358 -0.74076039 0.01463727
-0.37562537 0.00420588 0.01312402
-0.00116425 0.11608328 0.00004068
-0.32970566 -0.76397258 0.01151943
-0.47581974 -0.33075988 0.01662447
-0.13426556 0.45196897 0.00469104
-0.10437993 0.66227955 0.00364712
-0.74135447 -0.52249920 0.02590271
-0.31513914 -0.56214952 0.01101049
-0.23620334 0.35973552 0.00825286
-0.79400724 -0.75892740 0.02774183
-0.31629574 0.42603055 0.01105171
-0.56553960 -0.35991728 0.01975954
-0.06440035 0.30858678 0.00225005
-0.71824771 -0.56664401 0.02509523
-0.18251248 0.14047626 0.00637671
-0.11661077 -0.49914911 0.00407421
-0.09969882 0.09791231 0.00348333
-0.04013266 0.02897796 0.00140218
-0.75472933 -0.08643027 0.02637106
-0.04343805 0.13161691 0.00151766
-0.48404425 -0.77004433 0.01691179
-0.32384521 0.10355490 0.01131485
-0.75286794 -0.40825799 0.02630529
-0.04986816 -0.22835466 0.00174232
-0.03615658 0.46109304 0.00126326
-0.73886853 -0.53786385 0.02581581
-0.00418177 -0.44894570 0.00014610
-0.79042906 -0.52699840 0.02761740
-0.14180434 -0.70535833 0.00495443
-0.79615712 -0.36533540 0.02781795
-0.19064222 -0.36148098 0.00666076
-0.44891408 0.03242807 0.01568505
-0.24417825 -0.66094875 0.00853123
-0.09299991 0.01250007 0.00324928
-0.17635354 -0.04780986 0.00616153
-0.75739473 -0.10125680 0.02646417
-0.02007047 -0.56388324 0.00070123
-0.35323867 -0.79948521 0.01234163
-0.44404349 0.19654255 0.01551519
-0.06999325 -0.77741802 0.00244546
-0.75458097 -0.26541093 0.02636551
-0.61902308 -0.34708393 0.02162847
-0.44380769 -0.77057302 0.01550598
-0.13835813 -0.75421506 0.00483403
-0.75766283 -0.51972198 0.02647254
-0.58997917 -0.12609811 0.02061403
-0.60772097 0.02938293 0.02123431
-0.34856614 0.06007212 0.01217859
-0.38041332 -0.49980706 0.01329108
-0.01302042 0.22584580 0.00045491
-0.72522068 -0.15774418 0.02533978
-0.14612444 -0.66140372 0.00510537
-0.09684821 0.31099308 0.00338373
-0.13454777 -0.45271251 0.00470090
-0.70399702 -0.59501410 0.02459722
-0.24922535 -0.66103423 0.00870756
-0.15986346 -0.51208323 0.00558539
-0.10700420 0.56054246 0.00373861
-0.20158269 -0.69282264 0.00704300
-0.54896301 -0.16533183 0.01918070
-0.31573036 -0.58541393 0.01103115
-0.53159207 -0.33396375 0.01857335
-0.65309548 -0.09878960 0.02281959
-0.49293450 0.05607443 0.01722333
-0.72536033 -0.44777218 0.02534405
-0.73278308 -0.51480198 0.02560324
-0.41007999 -0.10475605 0.01432776
-0.49031100 0.01742525 0.01713157
-0.46833423 -0.55480498 0.01636290
-0.36915690 0.28760725 0.01289858
-0.64769226 -0.65507048 0.02262963
-0.45965931 -0.32175669 0.01605981
-0.02000102 -0.34548584 0.00069881
-0.35315195 -0.36980969 0.01233860
-0.23532227 -0.51979548 0.00822181
-0.27666050 0.15314440 0.00966615
-0.15336584 -0.24977861 0.00535837
-0.59674072 -0.45709515 0.02084962
-0.61838710 -0.67465824 0.02160557
-0.42200413 0.34974533 0.01474538
-0.25229457 0.05475516 0.00881480
-0.55220556 -0.52362907 0.01929326
-0.50667572 -0.09537877 0.01770318
-0.31516275 0.38517642 0.01101204
-0.21948937 -0.17816547 0.00766863
-0.20991167 0.00029534 0.00733400
-0.31660932 -0.62879306 0.01106186
-0.14024632 -0.43341184 0.00490000
-0.30521286 0.22976570 0.01066403
-0.25513634 -0.63216913 0.00891408
-0.53822082 -0.58488464 0.01880464
-0.61405754 -0.19114177 0.02145528
-0.16694145 -0.10197882 0.00583269
-0.58065683 -0.75259012 0.02028729
-0.18765436 -0.66010100 0.00655636
-0.60613608 -0.06807680 0.02117873
-0.45920911 0.17250124 0.01604508
-0.61975628 -0.52848542 0.02165371
-0.13142622 -0.14092280 0.00459184
-0.42222798 -0.31594196 0.01475202
-0.59255922 0.07238906 0.02070460
-0.52390975 -0.01044259 0.01830557
-0.04831939 0.21871005 0.00168821
-0.56451440 0.05092309 0.01972457
-0.67620921 -0.43367651 0.02362657
-0.11909891 -0.65229124 0.00416114
-0.64837402 -0.34744203 0.02265409
-0.78856206 -0.12374606 0.02755319
-0.10654838 0.25478265 0.00372264
-0.36182716 -0.74719626 0.01264170
-0.73036909 -0.38701969 0.02551921
-0.51379722 -0.50729650 0.01795131
-0.42401263 -0.42154238 0.01481437
-0.22789170 -0.27859685 0.00796220
-0.65044004 -0.68929809 0.02272558
-0.41764975 0.06369351 0.01459263
-0.73427844 -0.04081386 0.02565653
-0.06573766 -0.12934971 0.00229678
-0.36798447 -0.46438444 0.01285683
-0.39276531 -0.71847177 0.01372264
-0.22743323 -0.75620627 0.00794618
-0.12539445 0.29148951 0.00438110
-0.02575623 -0.28226116 0.00089988
-0.06500390 -0.72231817 0.00227114
-0.59478223 -0.44648305 0.02078120
-0.20201282 -0.23169506 0.00705803
-0.40190277 0.13048451 0.01404251
-0.50385100 -0.09250713 0.01760448
-0.62035197 0.05552434 0.02167574
-0.41636077 -0.43877992 0.01454703
-0.35782731 0.16139632 0.01250242
-0.13260023 -0.62260705 0.00463286
-0.10073838 0.54299176 0.00351965
-0.72348106 -0.41149828 0.02527846
-0.32714438 0.30171993 0.01143054
-0.17809136 0.22763300 0.00622225
-0.11502938 0.03825905 0.00401896
-0.55457002 0.21019877 0.01937741
-0.02887120 0.47173747 0.00100872
-0.49627024 -0.42764613 0.01733895
-0.77330041 -0.23419441 0.02701966
-0.73224163 0.01490794 0.02558547
-0.16049212 0.08969652 0.00560736
-0.01524544 -0.72240317 0.00053265
-0.00234098 0.70334709 0.00008179
-0.75741839 -0.77016687 0.02646336
-0.02002184 -0.24552919 0.00069953
-0.29932994 -0.21416287 0.01045814
-0.62524074 -0.49699378 0.02184543
-0.02826027 -0.53552830 0.00098737
-0.30297318 -0.17139433 0.01058543
-0.35898653 -0.70934004 0.01254246
-0.14002214 0.03636556 0.00489217
-0.27702287 0.11912405 0.00967877
-0.31003803 -0.47466388 0.01083227
-0.02255029 0.58049268 0.00078787
-0.70986915 -0.45282817 0.02480273
-0.25400573 0.08061631 0.00887458
-0.18546607 -0.60552520 0.00647991
-0.07312646 0.28092578 0.00255493
-0.23706770 -0.63905847 0.00828279
-0.38549656 0.15386799 0.01346927
-0.53509343 -0.65059346 0.01869537
-0.11166163 -0.22587685 0.00390129
-0.38739356 0.01164913 0.01353526
-0.69164377 -0.22820424 0.02416634
-0.63997138 -0.60876119 0.02235993
-0.32472539 -0.19851689 0.01134542
-0.24621274 -0.23064141 0.00860231
-0.55331284 -0.44158280 0.01933213
-0.19510680 0.42999682 0.00681695
-0.51747656 -0.66936761 0.01807986
-0.30139631 0.45902285 0.01053114
-0.08900569 -0.52867514 0.00310973
-0.44879636 -0.46734858 0.01568028
-0.00946567 0.25535294 0.00033072
-0.65847278 0.12148825 0.02300795
-0.40544963 0.25893492 0.01416672
-0.71876639 -0.07161144 0.02511442
-0.57083750 -0.76063699 0.01994421
-0.16648610 -0.74127114 0.00581678
-0.15682985 0.52806544 0.00547962
-0.63656747 -0.36221096 0.02224150
-0.47563839 -0.27938119 0.01661824
-0.62176758 -0.67016202 0.02172370
-0.38432148 -0.35684335 0.01342762
-0.30034930 -0.45477831 0.01049376
-0.74877566 -0.37555900 0.02616238
-0.22421110 -0.68062025 0.00783360
-0.45765775 -0.56793529 0.01598988
-0.07762783 0.63494408 0.00271225
-0.50121653 -0.08092981 0.01751245
-0.14509767 -0.10111385 0.00506950
-0.62349439 -0.19822206 0.02178502
-0.33123726 -0.53099364 0.01157294
-0.61283785 -0.16099770 0.02141272
-0.04208605 -0.33909023 0.00147042
-0.68905419 -0.76420200 0.02407468
-0.53155190 -0.43540663 0.01857173
-0.20703986 0.31738830 0.00723370
-0.63899070 -0.23569112 0.02232644
-0.70851398 -0.31836954 0.02475565
-0.16999406 -0.73929924 0.00593934
-0.31300879 0.42843071 0.01093686
-0.01411303 -0.60195762 0.00049309
-0.75641787 -0.75400561 0.02642844
-0.04584228 0.60542649 0.00160166
-0.15541114 0.64001000 0.00543021
-0.35385925 -0.15931605 0.01236332
-0.36535841 0.39118740 0.01276606
-0.07038155 -0.13965119 0.00245903
-0.53931308 -0.40863377 0.01884299
-0.17736112 -0.53534466 0.00619673
-0.58852792 -0.71430373 0.02056229
-0.55907357 -0.52067846 0.01953326
-0.59880316 -0.50782853 0.02092158
-0.55543214 -0.31197229 0.01940645
-0.46149606 -0.50346726 0.01612399
-0.37389550 -0.32837513 0.01306335
-0.10825308 -0.43091878 0.00378220
-0.03169731 0.14613642 0.00110746
-0.70014834 -0.77817708 0.02446228
-0.75000674 -0.27713716 0.02620564
-0.64538616 -0.02221012 0.02255036
-0.77528715 -0.15011851 0.02708929
-0.19388974 -0.54022032 0.00677422
-0.02569622 0.36857504 0.00089779
-0.67072523 -0.40167195 0.02343501
-0.31601217 -0.35154629 0.01104100
-0.65993607 -0.14393957 0.02305853
-0.18562748 0.13881508 0.00648555
-0.31179291 0.04291270 0.01089358
-0.45494276 0.03632297 0.01589572
-0.75025690 -0.48783240 0.02621385
-0.42576703 0.01640731 0.01487618
-0.42009902 0.14940840 0.01467839
-0.24167269 -0.06803437 0.00844368
-0.25358751 0.01877877 0.00885997
-0.51070893 -0.03665228 0.01784423
-0.73651814 -0.14647056 0.02573457
-0.36034557 -0.33012241 0.01258994
-0.68522853 -0.69490111 0.02394119
-0.32151920 -0.76080871 0.01123340
-0.66182303 -0.27877548 0.02312419
-0.51162696 -0.25864813 0.01787585
-0.15822341 -0.62151599 0.00552809
-0.19977391 -0.71398705 0.00697980
-0.03681727 0.24858004 0.00128634
-0.26433349 0.50587803 0.00923613
-0.72606891 -0.05404189 0.02536963
-0.05297109 -0.17970826 0.00185073
-0.65580988 -0.22197153 0.02291419
-0.54844415 -0.79691684 0.01916182
-0.24575005 -0.57249409 0.00858614
-0.48136485 0.23089200 0.01681940
-0.30514562 -0.14028180 0.01066133
-0.10025887 -0.68005472 0.00350290
-0.34670055 -0.20240422 0.01211320
-0.06750994 0.25055248 0.00235870
-0.64930445 -0.40514052 0.02268649
-0.44319600 -0.04648987 0.01548507
-0.72670382 -0.62181336 0.02539055
-0.48860544 -0.67875719 0.01707115
-0.29761058 -0.79757708 0.01039807
-0.37322184 -0.69544250 0.01303982
-0.18339095 0.55290049 0.00640781
-0.72859591 -0.13147898 0.02545778
-0.43262073 0.10570706 0.01511585
-0.56516218 -0.15227225 0.01974678
-0.26241866 -0.35708568 0.00916852
-0.13534595 -0.74500561 0.00472879
-0.52154452 0.09504131 0.01822314
-0.71274453 -0.35335276 0.02490341
-0.73599005 -0.08492169 0.02571625
-0.72598171 -0.63638115 0.02536528
-0.25376484 0.28503844 0.00886637
-0.71161157 -0.13680127 0.02486427
-0.39115539 -0.29192224 0.01366639
-0.58897239 0.09482398 0.02057931
