ply
format ascii 1.0
element vertex 1371
property float x
property float y
property float z
end_header
-0.64749873 -0.54441571 -0.00000006
0.21900840 0.43758449 0.05055981
-0.78064990 -0.49226210 0.00000000
-0.26685551 -0.26239300 -0.00000034
0.56417900 0.03257637 -0.00000078
0.04374872 0.26805082 0.17212309
-0.24202538 0.58020359 -0.00000070
0.38152963 -0.38510078 -0.00000026
0.08044679 0.06871029 0.22946586
-0.73452389 0.04254955 -0.00000008
0.59190077 0.13477474 0.02585071
0.77301586 -0.78719562 -0.00000002
-0.33608577 0.27591810 -0.00000055
-0.11075950 0.50500578 -0.00000082
-0.01779972 -0.44541079 -0.00000022
-0.06050656 -0.50931317 -0.00000018
-0.63211262 -0.35287720 -0.00000011
-0.01055805 -0.44507602 -0.00000022
0.29709119 -0.11493596 -0.00000043
0.09127477 0.20208885 0.17862312
-0.47454509 0.42684537 -0.00000041
-0.62061507 0.62777579 -0.00000022
0.61098373 -0.71701157 -0.00000005
-0.45730290 0.41157123 -0.00000043
-0.68723297 -0.17817774 -0.00000009
0.33565229 0.02411355 -0.00000053
0.70293903 -0.34086928 -0.00000053
-0.34864685 0.08193244 -0.00000050
-0.53091562 -0.44644734 -0.00000021
0.43910807 0.16791594 0.06803634
-0.68159455 -0.68207884 -0.00000000
0.44006005 -0.67711151 -0.00000008
-0.01246250 -0.66376603 -0.00000009
0.21921198 -0.59673136 -0.00000013
-0.54882795 -0.02616419 -0.00000026
-0.43114480 0.06647821 -0.00000041
0.00007547 0.60096639 -0.00000088
-0.27558604 0.04287555 -0.00000053
0.43984625 -0.63851631 -0.00000010
-0.18407916 0.02423635 -0.00000052
0.63991475 -0.54479522 -0.00000025
0.27425438 0.31241789 0.07521176
0.10125102 0.52773947 0.06029152
-0.24160779 0.52985680 -0.00000069
-0.37747195 -0.18856902 -0.00000038
-0.14286105 0.44230929 -0.00000078
-0.37670106 0.06049653 -0.00000046
0.10681095 0.51141745 0.06408590
-0.45007154 0.10977630 -0.00000039
-0.31799650 0.56263882 -0.00000060
-0.54328758 0.39335486 -0.00000032
-0.68313122 -0.62671661 -0.00000001
0.42500627 -0.69616264 -0.00000006
0.45342094 -0.35479099 -0.00000028
0.12528490 -0.49678406 -0.00000019
-0.06157658 0.30453014 -0.00000069
0.02189564 0.47478938 0.10693816
0.78129512 -0.77950031 -0.00000003
0.10106677 0.13013539 -0.00000058
0.09262923 -0.60940403 -0.00000012
-0.40926179 -0.18940207 -0.00000038
-0.69183612 0.63013548 -0.00000014
-0.58773077 -0.36259094 -0.00000016
0.31181630 -0.13763568 -0.00000041
-0.33567783 0.06392193 -0.00000051
-0.38234007 0.02708633 -0.00000045
-0.32207519 0.56764829 -0.00000060
0.62028337 -0.11121525 -0.00000069
-0.18679918 -0.13119139 -0.00000042
-0.19467784 -0.75850868 -0.00000003
0.15074547 -0.16096102 -0.00000040
-0.47349715 0.40683079 -0.00000041
-0.26143235 0.40738443 -0.00000065
-0.16381101 0.54211408 -0.00000078
0.26173189 0.24638677 0.10290747
0.09527524 0.52318144 0.06400539
-0.21341541 0.10035373 -0.00000056
0.32000127 -0.28040710 -0.00000032
0.50870377 -0.10527705 -0.00000058
0.62999630 -0.57022816 -0.00000021
-0.15295450 0.58230346 -0.00000080
0.73929203 -0.56824130 -0.00000029
-0.11619292 0.71444005 -0.00000085
0.01542415 0.77810943 0.00227853
-0.54881036 0.26227760 -0.00000031
-0.42150265 0.00468534 -0.00000040
-0.73322225 -0.38450384 -0.00000000
-0.09581112 -0.01819357 -0.00000049
0.61016947 -0.69521749 -0.00000007
-0.54946804 -0.72284478 -0.00000005
0.48235503 0.03419270 0.09993563
-0.59948546 -0.28435284 -0.00000016
-0.56228703 -0.59646732 -0.00000013
-0.15036353 -0.73694962 -0.00000004
-0.12218005 -0.26286817 -0.00000034
0.33352348 0.20423736 0.09245651
0.11709369 -0.57320589 -0.00000014
-0.29681522 -0.41648996 -0.00000024
0.10210548 0.68623757 0.00410855
0.01301818 -0.40579903 -0.00000025
-0.02397935 0.30551013 -0.00000069
-0.74745983 -0.78568631 0.00000000
0.38560268 -0.70386237 -0.00000006
0.09772753 -0.39072362 -0.00000026
-0.71774828 -0.57473558 0.00000000
-0.66386610 0.68071979 -0.00000017
0.66586673 0.05377073 0.02833214
-0.31098041 -0.18983012 -0.00000038
0.16068240 0.50389683 0.04774406
0.13475393 -0.10298301 -0.00000044
-0.45285204 0.28168988 -0.00000042
0.65249246 -0.72470087 -0.00000007
-0.17631923 -0.57634974 -0.00000014
-0.31428251 0.46168226 -0.00000060
0.11037550 0.13473977 0.19563404
0.03699608 0.46516046 0.10500910
0.17330547 -0.21525636 -0.00000037
-0.26057303 -0.05655187 -0.00000046
-0.34845963 0.59946132 -0.00000056
-0.40495598 0.13893650 -0.00000045
-0.40005201 0.71660846 -0.00000050
0.63516641 -0.17878681 -0.00000063
-0.59425128 0.66440475 -0.00000026
-0.12232166 0.69690865 -0.00000085
0.18097793 -0.69996202 -0.00000006
0.07458381 0.54425675 0.06387002
-0.17188668 0.26956332 -0.00000067
-0.08251297 0.09634021 -0.00000056
-0.34086910 -0.63262945 -0.00000010
-0.76912123 -0.06401436 -0.00000002
0.21117879 -0.57973003 -0.00000014
-0.70783961 0.15063687 -0.00000012
0.20159504 0.11615591 0.17002513
0.58793724 0.02955353 -0.00000081
0.62565029 0.00726827 -0.00000082
-0.41438434 -0.29810259 -0.00000031
-0.25791928 -0.10592142 -0.00000043
-0.38026443 0.43068931 -0.00000052
0.76543742 -0.52252001 -0.00000035
-0.25203818 0.10964745 -0.00000057
-0.52093172 -0.14783193 -0.00000027
0.14960092 -0.65587437 -0.00000009
-0.66738099 -0.00770435 -0.00000014
-0.52937925 -0.79222012 -0.00000000
-0.61404693 0.52868354 -0.00000023
0.14578371 0.07353236 0.20473011
0.21209425 -0.50722128 -0.00000018
-0.40055260 -0.39207458 -0.00000025
0.07726707 0.31117877 0.14510006
0.39456350 -0.55964845 -0.00000015
0.78699291 -0.12019948 -0.00000085
-0.43923810 0.19468124 -0.00000042
0.34484020 -0.58112699 -0.00000014
0.30034429 0.03235848 0.16475379
0.43167993 -0.12268342 -0.00000048
0.19435576 -0.35970390 -0.00000028
0.64417380 0.06720288 0.03124464
-0.40233088 -0.47069705 -0.00000021
-0.73705834 0.25651678 -0.00000008
-0.24100135 0.43093446 -0.00000068
-0.54476351 0.02909443 -0.00000028
-0.54954529 0.52332228 -0.00000031
0.21075121 -0.18680613 -0.00000038
-0.51660246 -0.03497317 -0.00000030
-0.16751505 -0.66054356 -0.00000009
0.66109926 -0.61514956 -0.00000020
0.13431370 0.47175577 0.06837282
0.47267467 0.29273281 0.01219496
0.57169962 -0.23185860 -0.00000051
0.60732478 -0.48821509 -0.00000027
-0.16531505 -0.00547716 -0.00000050
0.06991875 0.05896696 -0.00000054
-0.06032438 0.12054290 -0.00000058
0.76136100 -0.74285585 -0.00000007
-0.42360160 0.38948241 -0.00000047
-0.19429351 0.64810801 -0.00000076
-0.55716050 0.15810844 -0.00000029
0.59327614 -0.57226139 -0.00000017
-0.54573792 -0.55938214 -0.00000015
0.32570332 -0.46581712 -0.00000021
0.35550067 0.04023376 0.14253086
-0.40200147 -0.12873429 -0.00000040
-0.62280536 -0.68241227 -0.00000006
0.46015114 -0.66449589 -0.00000008
-0.53402746 0.35026041 -0.00000033
0.08908372 0.26130682 0.15851720
-0.63505995 -0.61464024 -0.00000006
0.51590639 -0.09934942 -0.00000059
-0.07617904 -0.17049929 -0.00000039
-0.12066575 0.43854454 -0.00000077
-0.49637294 0.10606292 -0.00000034
-0.50425076 -0.31112680 -0.00000026
-0.51796132 0.68570447 -0.00000035
-0.24830098 0.41179189 -0.00000066
0.06035122 0.65691286 0.02916890
0.16029143 0.14724115 0.17362773
-0.23160651 0.32032266 -0.00000067
0.45324123 0.14235966 0.07206380
0.34262645 -0.58280337 -0.00000014
-0.54477721 0.77039599 -0.00000032
-0.17551738 0.16840470 -0.00000061
-0.63653815 0.32694173 -0.00000020
-0.45212394 -0.50159669 -0.00000019
-0.77053982 -0.74113941 0.00000000
0.01086498 -0.66400284 -0.00000008
-0.52410984 -0.48456886 -0.00000020
0.68735951 -0.06214738 -0.00000081
-0.69533557 -0.47622085 -0.00000002
0.40764022 0.30874416 0.02947907
0.50054628 -0.49204281 -0.00000019
-0.65825129 0.64472735 -0.00000018
-0.49718013 0.47687095 -0.00000038
-0.21179301 -0.01104548 -0.00000049
0.49830279 0.16595088 0.04785884
0.21941034 0.53062242 0.01761563
-0.04276162 -0.13810796 -0.00000041
-0.39149630 0.35898018 -0.00000050
0.33802828 0.42262518 0.01387109
-0.19656637 0.76608044 -0.00000075
-0.45060313 0.16442022 -0.00000040
0.37159294 0.11088519 0.11194758
-0.07749517 -0.08456351 -0.00000045
0.11518291 -0.60928363 -0.00000012
0.10321103 -0.62232590 -0.00000011
-0.59349704 -0.46016797 -0.00000014
-0.20469354 -0.11367305 -0.00000043
0.00394083 0.62903374 -0.00000089
-0.17963292 -0.06216455 -0.00000046
-0.79997396 0.07841859 -0.00000000
-0.22688146 0.31552756 -0.00000067
-0.34677899 -0.37183502 -0.00000027
0.02096243 -0.15054232 -0.00000041
0.24740440 0.35111880 0.07103349
-0.37708274 -0.56573337 -0.00000015
0.48263818 -0.52504689 -0.00000017
-0.61377966 -0.75236118 -0.00000003
-0.37537143 0.44614419 -0.00000053
-0.42739710 -0.09531485 -0.00000038
-0.61662114 0.22424477 -0.00000023
0.16730960 -0.79673630 -0.00000000
-0.60685807 -0.48589003 -0.00000012
0.08228573 -0.70413566 -0.00000006
-0.24552096 -0.65790856 -0.00000009
-0.53066349 0.26284853 -0.00000034
-0.65735328 -0.67349374 -0.00000003
-0.13958737 0.52868426 -0.00000080
0.47819501 -0.62384921 -0.00000011
-0.63850456 -0.28831011 -0.00000012
0.61207783 0.10040821 0.03085352
-0.79669154 0.02135242 -0.00000000
-0.53238195 -0.75382745 -0.00000003
-0.63223428 -0.69048876 -0.00000005
-0.27935976 -0.24266036 -0.00000035
0.35884291 0.11347002 0.11553152
-0.01062979 0.39989325 -0.00000075
0.60416514 -0.42374143 -0.00000034
0.35802007 0.17296658 0.09484489
-0.30601394 -0.06683764 -0.00000046
-0.67060131 -0.19840641 -0.00000010
-0.28396377 -0.03247116 -0.00000048
-0.29787168 0.70520175 -0.00000063
-0.07475120 0.30326912 -0.00000069
-0.41141063 0.36026499 -0.00000048
-0.42920002 -0.57806444 -0.00000014
-0.57878172 -0.59759831 -0.00000013
0.40777680 -0.49785024 -0.00000019
-0.41994682 0.15164888 -0.00000043
-0.07801102 0.44983837 -0.00000078
-0.09251893 0.40377578 -0.00000075
-0.49018678 -0.74439180 -0.00000003
-0.00448972 0.59327656 -0.00000087
0.00932678 -0.79683626 -0.00000000
0.66745228 -0.21606515 -0.00000063
-0.01366817 0.29950008 -0.00000069
-0.21818794 0.26832986 -0.00000067
-0.65534115 -0.78151780 -0.00000001
-0.46592531 -0.54298723 -0.00000016
-0.41785166 0.56845558 -0.00000048
0.62877947 -0.58282739 -0.00000020
-0.00108339 -0.29665825 -0.00000031
-0.74460304 0.77571291 -0.00000007
-0.46322775 0.29907960 -0.00000041
-0.73290908 0.30760971 -0.00000008
0.78170007 -0.52890044 -0.00000034
0.43634257 -0.24336264 -0.00000035
-0.73861790 -0.17254908 -0.00000003
0.21305136 0.26119220 0.11485072
0.47586620 0.02414494 0.10576594
0.55875403 -0.24773158 -0.00000048
0.39252490 -0.71892893 -0.00000005
-0.39612347 0.38282046 -0.00000050
0.08848198 -0.03416645 -0.00000048
0.35498375 -0.09874141 -0.00000044
-0.43243912 -0.10285399 -0.00000037
0.30650923 -0.13645343 -0.00000041
-0.78440863 0.31429169 -0.00000002
0.30853364 0.33171883 0.05632095
0.46965179 -0.74407351 -0.00000003
-0.31725782 -0.05142983 -0.00000047
0.22589131 0.43261790 0.04988417
0.64741737 -0.43021762 -0.00000038
0.75743371 -0.54450572 -0.00000032
0.10689828 -0.77708519 -0.00000001
-0.04141670 -0.51680171 -0.00000018
-0.18787444 -0.23621164 -0.00000035
-0.10670047 0.37905800 -0.00000074
-0.18470870 0.59883255 -0.00000077
-0.43046761 -0.00206393 -0.00000039
-0.46164146 0.67212814 -0.00000042
0.29564360 0.32860321 0.06196409
-0.13821927 0.44270343 -0.00000078
-0.57671636 -0.25800404 -0.00000019
-0.24087696 0.70897239 -0.00000070
-0.77160168 -0.30619630 0.00000000
-0.23720025 0.12522893 -0.00000058
-0.53140908 -0.30310187 -0.00000023
-0.02566647 0.33751971 -0.00000071
0.69979656 -0.38217819 -0.00000049
0.13074142 0.17590247 0.17394100
-0.11545711 0.60979807 -0.00000084
0.11830157 -0.20785478 -0.00000037
0.04116084 0.02561052 -0.00000052
0.63200688 0.12210972 0.01617580
-0.16539724 -0.17953259 -0.00000039
0.64320165 -0.72995621 -0.00000005
-0.69132298 0.43686014 -0.00000014
0.17567162 -0.26242420 -0.00000034
-0.79188997 0.48359123 -0.00000001
0.02923801 0.45948985 0.10974362
-0.72887474 0.05604684 -0.00000009
-0.44827712 -0.49788418 -0.00000019
0.15435247 0.48528638 0.05653730
0.07461346 -0.43180794 -0.00000023
-0.50031066 0.68498647 -0.00000037
-0.72010827 0.09376011 -0.00000010
0.61060929 0.17977798 0.00338781
0.36115453 -0.10601359 -0.00000043
-0.09462377 0.72150218 -0.00000088
0.38617149 0.36868054 0.01591650
0.36507696 0.37153578 0.02234715
-0.50477523 0.41808242 -0.00000037
0.32843852 -0.20056660 -0.00000037
-0.36232558 -0.75017720 -0.00000003
-0.25639051 -0.33738905 -0.00000029
-0.15613177 -0.10433238 -0.00000043
-0.67945951 -0.56588602 -0.00000003
-0.51027012 -0.61558998 -0.00000012
0.67689687 -0.44255030 -0.00000040
-0.59130579 0.43379754 -0.00000026
0.43279895 -0.36151499 -0.00000027
-0.28804150 -0.16502674 -0.00000040
-0.39538601 -0.48663351 -0.00000020
0.28472620 -0.11028722 -0.00000043
0.33185685 0.07940174 -0.00000059
0.50856203 0.27314433 0.00644845
0.43086144 -0.46899703 -0.00000021
-0.34443858 0.56405956 -0.00000057
0.72563714 -0.72285593 -0.00000010
0.59376895 -0.57307106 -0.00000017
-0.79729742 -0.43676084 0.00000000
0.48114365 0.17409547 0.05103711
0.47764945 -0.60030031 -0.00000012
-0.42510366 0.64256191 -0.00000047
0.75631213 -0.14137965 -0.00000080
0.25951505 -0.53946245 -0.00000016
0.79872751 -0.05026235 -0.00000094
0.23520559 -0.68355584 -0.00000007
-0.13653468 -0.75631642 -0.00000003
0.09136805 0.39614606 0.11017168
-0.00319072 0.68594033 -0.00000093
0.07192927 0.60692376 0.04271147
-0.78989589 -0.10039665 0.00000000
-0.24392623 0.17249802 -0.00000061
-0.22526610 -0.48154312 -0.00000020
-0.06980943 -0.73095268 -0.00000004
0.30646488 0.23162290 0.09234124
0.31074771 -0.44513214 -0.00000022
0.59920025 -0.03957926 -0.00000074
-0.25317365 0.72348660 -0.00000068
-0.42796290 -0.41698831 -0.00000024
0.13079232 0.33866706 0.11653730
0.78079188 -0.59460175 -0.00000026
-0.56249034 -0.78872567 -0.00000001
0.07397079 -0.62064987 -0.00000011
-0.74826807 -0.23145442 -0.00000001
0.68257648 -0.32501709 -0.00000053
0.61447042 -0.08473174 -0.00000071
0.17012769 -0.73249668 -0.00000004
-0.54041547 0.51272833 -0.00000032
-0.01866368 -0.17437138 -0.00000039
-0.66355741 0.20658824 -0.00000017
-0.17519836 -0.41974461 -0.00000024
0.04659006 0.10838299 -0.00000057
0.25315127 -0.30623010 -0.00000031
-0.59947103 -0.20024160 -0.00000018
-0.30602300 0.30445492 -0.00000058
-0.72499323 -0.23869210 -0.00000004
-0.43045041 -0.42460558 -0.00000023
0.64444691 0.12453434 0.01093496
-0.45844567 -0.20880526 -0.00000033
-0.18276367 -0.62381518 -0.00000011
-0.02880013 -0.31566796 -0.00000030
0.47265959 -0.23380436 -0.00000040
0.22625102 0.15512875 -0.00000060
0.12916693 -0.15674067 -0.00000040
-0.38089752 0.57160962 -0.00000052
-0.73143625 0.10314928 -0.00000009
-0.51395088 -0.29385212 -0.00000025
-0.24226904 -0.70121849 -0.00000006
-0.04013317 0.66398710 -0.00000091
0.20879930 0.16619781 0.14984193
0.24323431 -0.40343207 -0.00000025
0.53110033 -0.69217104 -0.00000007
-0.48052415 -0.01895546 -0.00000034
-0.73320657 0.61610556 -0.00000008
0.28763598 -0.27116671 -0.00000033
-0.56667531 0.74656188 -0.00000029
0.57364589 0.17092583 0.01954105
-0.00563610 -0.22712669 -0.00000036
-0.28466916 0.64897579 -0.00000064
-0.44861066 0.37672842 -0.00000044
0.54085082 -0.18877135 -0.00000052
-0.66460890 -0.00781282 -0.00000014
0.09737297 0.17460839 0.18616186
-0.74871528 0.31134686 -0.00000006
0.04362434 0.33162749 0.14975178
-0.69326657 0.45490786 -0.00000013
-0.79079908 0.78056431 -0.00000001
0.61703861 -0.35550088 -0.00000043
0.16568285 -0.32786670 -0.00000030
-0.11565168 -0.56472784 -0.00000015
-0.48868388 -0.57044804 -0.00000014
-0.14351724 -0.55575216 -0.00000015
-0.54865998 -0.23984528 -0.00000022
-0.48523691 0.33875948 -0.00000039
-0.08576472 0.01479850 -0.00000051
-0.59518212 -0.74944329 -0.00000003
-0.67029846 -0.13557102 -0.00000011
0.06835170 0.62013346 0.03931546
-0.45183435 0.22517461 -0.00000041
-0.27340138 -0.65962994 -0.00000009
-0.29909483 0.50539929 -0.00000063
0.15729262 0.18480171 0.16144232
-0.79425550 -0.43384537 0.00000000
0.03886670 0.29387909 0.16473809
0.50579119 -0.15899611 -0.00000052
-0.53682011 -0.44596452 -0.00000020
-0.29040834 0.12313085 -0.00000057
0.75714701 -0.01081871 -0.00000094
-0.05485658 0.57478970 -0.00000086
-0.60032994 0.49682310 -0.00000025
-0.09572003 0.77837896 -0.00000088
0.38372174 -0.09308947 -0.00000046
0.41813350 0.14125709 0.08483049
-0.06289226 -0.60914326 -0.00000012
-0.56176603 0.62773150 -0.00000030
0.07803192 0.56736666 0.05450649
-0.49695912 0.73641896 -0.00000038
0.18694907 0.32301080 0.10225820
0.35109746 0.43476391 0.00498352
0.55282313 -0.17932566 -0.00000054
-0.08106506 0.55948651 -0.00000085
-0.71853715 -0.55600262 0.00000000
0.10902917 0.29922038 0.13811794
0.08561104 -0.21892086 -0.00000036
-0.76923323 -0.28033778 0.00000000
0.62264389 -0.45910606 -0.00000032
0.72057807 -0.72505337 -0.00000009
-0.72505450 -0.05229139 -0.00000007
0.37149590 0.38310647 0.01600453
-0.25775206 0.61780041 -0.00000068
-0.62449181 -0.39333829 -0.00000012
-0.36539283 0.67288333 -0.00000054
0.19273190 0.47415829 0.04692928
0.78655118 -0.23010296 -0.00000071
0.07669166 0.14481714 -0.00000059
-0.70965362 -0.13969365 -0.00000007
0.29518077 0.30740878 0.06959981
-0.77098560 0.38592979 -0.00000004
0.28562254 -0.45834699 -0.00000021
-0.42931363 0.73663974 -0.00000046
0.29376897 -0.47313145 -0.00000020
0.13959050 -0.76746428 -0.00000002
-0.50789809 0.62782550 -0.00000037
-0.08330483 0.18253203 -0.00000061
-0.27069414 0.08942822 -0.00000056
0.31357366 0.47764388 0.00309508
-0.78692281 0.05384866 -0.00000002
0.64296037 -0.46345037 -0.00000034
-0.12201111 -0.74515939 -0.00000003
-0.57443720 0.28348947 -0.00000028
-0.14012472 -0.02749794 -0.00000048
0.31215671 -0.76392716 -0.00000002
0.13015167 0.61009181 0.02106706
0.49817413 0.06221536 0.08447831
-0.12982008 0.36688101 -0.00000073
-0.75248933 0.23112583 -0.00000006
0.01182641 -0.42997694 -0.00000023
-0.22678213 0.01277194 -0.00000051
-0.04764107 -0.68442863 -0.00000007
-0.64682317 -0.34669811 -0.00000010
-0.07754966 -0.46102142 -0.00000021
0.58898932 -0.73932558 -0.00000004
0.43903843 -0.66551769 -0.00000008
-0.70358145 -0.50625622 -0.00000001
-0.21335758 -0.43272492 -0.00000023
0.04912157 0.18534961 -0.00000062
-0.79307181 0.74280912 -0.00000001
0.30425960 -0.42029083 -0.00000024
0.57526606 -0.11651067 -0.00000064
0.15025914 0.15985626 0.17271709
0.64679182 -0.12827812 -0.00000070
0.30156404 -0.46098176 -0.00000021
-0.38865292 -0.18482302 -0.00000038
0.64824104 -0.20326456 -0.00000062
0.15426601 0.39012152 0.09012000
-0.68432266 0.01721431 -0.00000013
0.14843419 -0.07029199 -0.00000046
0.49140400 -0.71539497 -0.00000005
0.55676949 0.12760060 0.04076637
-0.62594563 0.29304749 -0.00000022
-0.24906644 0.47395071 -0.00000067
-0.02313266 -0.67661566 -0.00000008
0.00343620 0.75792116 0.01362285
0.56680673 -0.42909193 -0.00000029
0.06553379 0.04353337 0.24360029
-0.21480143 0.62902451 -0.00000073
0.06162110 0.37625042 0.12767406
-0.26446617 0.03542974 -0.00000052
-0.14769840 0.19883791 -0.00000062
-0.20190215 0.50584739 -0.00000073
-0.72711897 -0.46667537 0.00000000
-0.19885437 0.61114758 -0.00000075
-0.13049163 -0.36490291 -0.00000027
0.27694538 -0.45495236 -0.00000022
-0.30002061 0.63324803 -0.00000062
0.23042338 0.03202221 -0.00000052
0.11609184 -0.24718818 -0.00000035
-0.00194745 -0.29002172 -0.00000032
-0.06104012 -0.67559284 -0.00000008
-0.25608146 -0.49781749 -0.00000019
0.08667826 -0.62550551 -0.00000011
-0.53048819 -0.11772915 -0.00000027
-0.54203218 -0.79230613 -0.00000000
0.02208962 -0.73977447 -0.00000004
0.03778695 0.23963766 0.18424262
-0.67990744 0.12483915 -0.00000015
-0.67273968 -0.75794315 0.00000000
0.02278972 0.51826650 0.09129426
-0.31130993 0.36017600 -0.00000059
-0.56986338 0.13189678 -0.00000027
0.52602333 0.06264418 -0.00000077
0.35201183 -0.33329377 -0.00000029
0.01982830 -0.16173759 -0.00000040
0.51612878 0.05076455 -0.00000075
-0.12753712 -0.24087577 -0.00000035
-0.57602584 -0.01021614 -0.00000024
-0.06684272 -0.42389420 -0.00000024
-0.54829687 -0.64627528 -0.00000010
0.47112140 0.15412980 0.06160997
0.40419400 -0.49024907 -0.00000019
-0.00477609 0.50152898 -0.00000081
-0.32130468 -0.00884382 -0.00000049
0.11469387 -0.25402015 -0.00000034
0.76906264 -0.28203276 -0.00000065
0.46632111 -0.48382580 -0.00000020
-0.73001963 -0.28428960 -0.00000002
0.55401355 -0.26911375 -0.00000045
0.36593774 -0.69578052 -0.00000007
-0.58111548 -0.77004230 -0.00000002
0.19746274 -0.74354243 -0.00000004
-0.22259106 -0.02715671 -0.00000048
0.52000570 -0.15593034 -0.00000053
-0.60753602 -0.09546895 -0.00000019
0.06169671 -0.14503849 -0.00000041
0.39377633 0.21554975 0.06722470
0.19914265 -0.12358676 -0.00000042
-0.56528002 0.05889525 -0.00000026
-0.71319568 -0.23490034 -0.00000005
-0.26142406 -0.35635120 -0.00000028
-0.50487429 -0.18759950 -0.00000028
0.25598481 0.36728773 0.06230759
-0.58571893 -0.56940311 -0.00000012
-0.61790639 0.48907492 -0.00000023
-0.50940228 0.28213444 -0.00000036
0.04411815 -0.78369802 -0.00000001
-0.01150649 -0.43796232 -0.00000023
-0.62149894 0.40449920 -0.00000022
-0.68107945 0.11468019 -0.00000015
0.21010374 0.15466473 -0.00000060
0.00782417 -0.21055910 -0.00000037
-0.38655335 0.16416579 -0.00000047
0.09766867 0.58418405 0.04165393
0.10196690 -0.06475992 -0.00000046
0.36351630 0.05357179 0.13500218
0.16114201 -0.67716229 -0.00000008
-0.05847029 -0.08978653 -0.00000044
0.37206411 0.09527315 -0.00000065
0.72104532 -0.70021492 -0.00000012
0.74073386 -0.34535503 -0.00000057
-0.59622657 -0.13157371 -0.00000019
-0.68816638 -0.46958783 -0.00000003
-0.59699333 0.19964875 -0.00000025
-0.39480379 0.24970612 -0.00000048
-0.58219314 0.13692588 -0.00000026
0.00370220 0.01485827 -0.00000051
-0.35302487 0.21354890 -0.00000052
0.22848563 0.45675462 0.04045958
0.10637211 0.55330729 0.04947157
-0.24088672 0.47481984 -0.00000068
0.57366878 -0.44377610 -0.00000029
-0.34926999 0.17581782 -0.00000051
0.11203067 -0.53889650 -0.00000016
0.66212589 -0.72934544 -0.00000007
-0.13513879 0.64111704 -0.00000083
0.64874226 -0.52268022 -0.00000028
0.67826414 -0.52153641 -0.00000031
-0.62609905 0.59700972 -0.00000022
-0.20561790 0.06151425 -0.00000054
-0.59528321 0.22283494 -0.00000026
0.17081209 -0.76663870 -0.00000002
0.59235317 0.10029607 0.03784739
0.12635906 -0.50873548 -0.00000018
-0.21505380 -0.75771487 -0.00000003
0.15886316 -0.02140994 -0.00000049
0.25940037 -0.68239981 -0.00000007
0.02325503 0.27057016 -0.00000067
-0.10095384 -0.55886227 -0.00000015
0.22742085 0.19834787 0.13194147
0.12806912 0.23058422 0.15560406
0.38978639 0.38119337 0.01023034
-0.33896968 -0.51110774 -0.00000018
0.38175091 -0.51731527 -0.00000018
-0.09817324 -0.71319884 -0.00000005
0.13005553 0.11997800 0.19390005
-0.09928608 0.64194024 -0.00000087
0.25834569 -0.38327023 -0.00000026
0.17264464 0.59364271 0.01188474
0.25496492 -0.06346784 -0.00000046
0.32117915 -0.22801813 -0.00000036
0.70309883 -0.38651931 -0.00000048
-0.73731810 0.50812101 -0.00000008
0.48226842 -0.19056541 -0.00000046
0.16224059 -0.54649746 -0.00000016
-0.02175329 0.53516233 -0.00000083
-0.59558731 0.57908505 -0.00000026
0.76972991 -0.48899215 -0.00000039
0.19317897 0.50194013 0.03697659
0.58448035 -0.19299302 -0.00000056
0.12086376 0.34548971 0.11763232
-0.29484954 -0.23586738 -0.00000035
-0.21665508 0.28986067 -0.00000068
0.30467674 0.49057212 0.00167377
0.62294388 0.14498934 0.01130446
0.58908010 -0.60364342 -0.00000013
0.01823484 0.53471655 0.08710038
-0.38110197 -0.16441984 -0.00000040
0.16278771 0.05147880 -0.00000053
-0.27804720 -0.75242603 -0.00000003
0.75562000 -0.72493047 -0.00000009
-0.15040886 0.25191346 -0.00000066
-0.55310351 0.22741167 -0.00000031
-0.09671335 0.43074381 -0.00000077
0.43210799 0.06903174 -0.00000068
-0.65544885 0.20759416 -0.00000018
0.10019384 -0.42536166 -0.00000023
-0.71992880 -0.18238831 -0.00000005
0.30721524 0.38130090 0.03930459
0.37355563 -0.48035955 -0.00000020
0.39192405 -0.26032963 -0.00000034
-0.75776267 -0.62870049 0.00000000
-0.42931610 0.74463457 -0.00000046
-0.44676423 -0.42113677 -0.00000024
-0.43074387 0.69191217 -0.00000046
0.35181338 0.14261471 0.10773437
-0.23046432 -0.07652014 -0.00000045
0.22859369 -0.03479219 -0.00000048
0.64802539 -0.21537897 -0.00000061
0.09390411 -0.02562094 -0.00000048
-0.50970411 0.69877517 -0.00000036
-0.27771726 -0.60933757 -0.00000012
0.07879009 -0.32870832 -0.00000029
0.27760130 -0.69042736 -0.00000007
-0.29697892 0.69486159 -0.00000063
0.25901556 0.06986572 -0.00000054
0.03201919 -0.13778289 -0.00000041
-0.32064888 -0.38797694 -0.00000026
-0.55500358 0.42507574 -0.00000031
0.20086668 0.23262826 0.12921739
0.40964612 -0.43568245 -0.00000023
-0.27638599 0.41481194 -0.00000063
0.06344577 -0.28435287 -0.00000032
-0.21189930 -0.59007025 -0.00000013
-0.46436396 -0.46211100 -0.00000021
-0.22222993 -0.54094553 -0.00000016
-0.61337113 -0.51085067 -0.00000011
-0.70111263 0.37141317 -0.00000012
-0.18903016 -0.40853626 -0.00000024
0.21555935 -0.17273529 -0.00000039
-0.36554918 0.51206726 -0.00000054
0.13605221 0.64560020 0.00646748
-0.60233843 0.66921043 -0.00000025
-0.46682683 -0.49918592 -0.00000019
-0.18477421 0.00309154 -0.00000050
-0.11615448 -0.54593921 -0.00000016
-0.24602257 0.62569672 -0.00000069
-0.27777147 -0.01090042 -0.00000049
0.30544943 -0.24257413 -0.00000035
-0.77814710 0.18931845 -0.00000003
0.24629313 -0.56050014 -0.00000015
0.08366082 -0.63258183 -0.00000010
0.74165279 -0.66730142 -0.00000017
0.12132309 -0.23800522 -0.00000035
0.30690378 -0.24364825 -0.00000035
-0.55856735 -0.07593955 -0.00000024
0.43851835 0.08573903 0.09721743
0.39356467 0.24456684 0.05706875
-0.19222493 0.48006672 -0.00000074
0.35640967 -0.35576978 -0.00000028
-0.33269161 0.16741106 -0.00000053
-0.76998937 0.57200933 -0.00000004
-0.48825514 0.12646624 -0.00000036
-0.08185402 -0.16785622 -0.00000040
-0.34177396 -0.15184061 -0.00000041
-0.49405718 -0.11068453 -0.00000031
-0.19477397 -0.64311063 -0.00000010
0.26889798 0.32833138 0.07148964
-0.54767245 -0.63152480 -0.00000011
-0.74077380 0.19950794 -0.00000007
-0.37596583 0.11709445 -0.00000047
-0.73848349 -0.31341153 -0.00000001
-0.05042669 0.30921018 -0.00000069
-0.74851251 0.17117490 -0.00000006
0.22784227 0.31674352 0.09005023
-0.37259969 -0.08165082 -0.00000044
-0.65843129 -0.04918400 -0.00000014
-0.53120494 -0.48215380 -0.00000020
-0.63053387 -0.57334781 -0.00000008
-0.63232166 -0.55160850 -0.00000008
0.27537808 -0.31881726 -0.00000030
0.17367086 -0.44313407 -0.00000022
-0.15242068 0.13111061 -0.00000058
-0.32248190 -0.46058851 -0.00000021
-0.67036533 -0.39173496 -0.00000007
-0.69331986 0.08878472 -0.00000013
-0.60790724 -0.34183997 -0.00000014
0.49109942 -0.06940667 -0.00000060
0.73042953 -0.24857193 -0.00000066
-0.06613177 -0.11892369 -0.00000043
-0.43072769 0.66672522 -0.00000046
-0.36523798 -0.24173635 -0.00000035
-0.19450773 -0.42152044 -0.00000024
-0.45633632 -0.44792426 -0.00000022
0.29563567 0.47719479 0.00957784
-0.45429268 0.29519677 -0.00000042
-0.54308110 0.19376473 -0.00000031
-0.11716442 -0.25384933 -0.00000034
-0.05897679 0.08318044 -0.00000055
-0.23357385 0.35714620 -0.00000067
0.39218226 -0.75677550 -0.00000003
0.35807991 -0.76866555 -0.00000002
0.46314800 0.21896705 0.04156143
0.36227703 0.00797527 -0.00000054
0.41578487 -0.28165764 -0.00000032
0.08168502 0.31459472 0.14233807
0.12061711 0.04059456 -0.00000053
-0.09019431 0.11983633 -0.00000057
0.68381697 -0.77837384 -0.00000003
-0.16568854 0.15952660 -0.00000060
0.59277695 -0.43961236 -0.00000031
0.06335196 -0.40210661 -0.00000025
0.47223872 0.28331897 0.01566772
-0.68052757 -0.21292238 -0.00000009
0.09755324 0.08487012 -0.00000055
0.44075048 -0.27608868 -0.00000033
0.53051406 -0.22458671 -0.00000047
-0.67117953 -0.02660316 -0.00000013
-0.76483500 -0.72796059 0.00000000
-0.56999999 -0.00137709 -0.00000025
-0.29533219 0.15449832 -0.00000057
-0.41059232 -0.04093452 -0.00000041
-0.21673076 -0.25756839 -0.00000034
0.52740163 -0.37166321 -0.00000031
0.23094536 -0.00399364 -0.00000050
-0.77013791 0.25538579 -0.00000004
-0.73929930 0.42120603 -0.00000008
-0.10410851 -0.42905730 -0.00000023
-0.44934452 0.34122172 -0.00000044
0.65980083 -0.30553842 -0.00000052
-0.41503653 -0.37831470 -0.00000026
0.79738796 -0.48803401 -0.00000039
-0.42653811 0.27403048 -0.00000045
-0.67218500 -0.39100841 -0.00000006
-0.09430646 0.05283526 -0.00000053
-0.53341550 -0.46808982 -0.00000020
-0.11515768 0.44578278 -0.00000078
0.26358762 -0.45844874 -0.00000021
-0.59135801 -0.62031931 -0.00000011
0.53654140 0.17174201 0.03233525
0.14902852 0.04231907 0.21459094
-0.65739423 -0.25284740 -0.00000011
0.45270103 -0.49991646 -0.00000019
0.43119898 -0.71112925 -0.00000006
-0.57633364 -0.04827837 -0.00000023
-0.42225409 -0.64006376 -0.00000010
-0.47607759 0.17140482 -0.00000038
0.28774804 0.12570643 -0.00000059
-0.60696554 0.58007193 -0.00000024
-0.12422190 0.72498947 -0.00000084
0.52570415 -0.34667304 -0.00000034
-0.29839343 -0.09114783 -0.00000044
0.43757007 0.09633495 0.09381596
0.60485905 -0.33218035 -0.00000044
0.08125978 0.03984248 -0.00000052
0.12538531 0.51416820 0.05656736
-0.75040579 0.79895276 -0.00000006
0.15742783 0.21586671 0.15044209
0.11803090 0.42489755 0.09063436
-0.11173923 -0.50475293 -0.00000018
-0.48453897 0.60245943 -0.00000039
0.24385905 0.52409756 0.01129621
-0.37592405 0.76758015 -0.00000053
-0.71909177 -0.74340546 0.00000000
-0.64129835 0.60042977 -0.00000020
-0.03077263 -0.36465994 -0.00000027
-0.01005223 -0.59877032 -0.00000013
0.26146057 0.09987967 0.15465704
-0.66085213 -0.61043870 -0.00000004
0.76550090 -0.75921679 -0.00000005
-0.37704310 -0.62780297 -0.00000011
-0.41402453 0.41788492 -0.00000048
0.32319206 -0.59946388 -0.00000013
-0.62588423 -0.36640540 -0.00000012
0.02894722 0.35254756 0.14755069
0.54928023 0.24726003 0.00121845
0.30515423 -0.74006540 -0.00000004
0.28415978 -0.13842796 -0.00000041
-0.06386512 0.54477745 -0.00000084
-0.44327775 0.45139572 -0.00000045
-0.21148618 0.66106403 -0.00000074
-0.57280070 -0.35121289 -0.00000018
-0.37553063 0.66365337 -0.00000053
0.66285455 -0.58478028 -0.00000023
-0.03840216 0.50837362 -0.00000082
-0.49257928 0.62593710 -0.00000038
-0.16246165 -0.49793917 -0.00000019
-0.65916419 -0.52265137 -0.00000005
-0.24126276 -0.69194913 -0.00000007
-0.54925406 -0.40634653 -0.00000019
-0.53463042 -0.04293290 -0.00000028
-0.17626582 -0.03478373 -0.00000048
-0.74427181 0.42616272 -0.00000007
0.58049768 -0.50798464 -0.00000022
0.42721182 -0.53166550 -0.00000017
-0.24814425 -0.36899626 -0.00000027
-0.75353128 -0.32907617 0.00000000
-0.26070395 0.66183311 -0.00000067
-0.27905768 -0.39110202 -0.00000026
0.54501641 -0.72525662 -0.00000005
0.39379585 -0.03431356 -0.00000053
0.17220186 0.19344188 0.15313956
-0.09012590 -0.15602294 -0.00000040
-0.30853155 -0.43362963 -0.00000023
-0.04172190 0.59595031 -0.00000087
0.71753550 0.05629693 0.00922458
0.08267773 -0.55678499 -0.00000015
-0.31472021 0.27797809 -0.00000057
0.75299072 -0.25736240 -0.00000068
-0.56884819 -0.28081957 -0.00000020
0.21620329 0.31283838 0.09553061
0.07593410 -0.76028091 -0.00000002
-0.03918381 -0.17724834 -0.00000039
0.00516212 0.60482252 -0.00000088
0.14255732 -0.71900779 -0.00000005
-0.42130029 -0.17037664 -0.00000037
0.15103778 -0.29504544 -0.00000032
-0.18954201 0.75840747 -0.00000076
-0.69948959 0.40586638 -0.00000013
0.71077937 -0.76957381 -0.00000004
-0.48089784 -0.42969182 -0.00000023
-0.33935785 -0.19239685 -0.00000038
-0.17459562 0.12319538 -0.00000058
-0.09500447 0.31524357 -0.00000070
-0.01710394 -0.58885062 -0.00000013
-0.23115699 0.51546413 -0.00000070
-0.17357410 0.75760627 -0.00000078
-0.72391635 -0.34275672 -0.00000002
-0.15820354 -0.34965360 -0.00000028
0.26921639 0.33244964 0.06992541
0.36061725 -0.61971098 -0.00000011
-0.53203624 0.22651814 -0.00000033
0.33606410 0.16629241 0.10493904
-0.66344690 0.35878292 -0.00000017
-0.08772281 0.44450304 -0.00000078
-0.58774018 0.60681611 -0.00000027
-0.55574375 -0.31762591 -0.00000020
0.19156685 -0.70572591 -0.00000006
-0.33875594 -0.72805566 -0.00000004
-0.01375284 -0.75579822 -0.00000003
-0.23116764 -0.33907452 -0.00000029
-0.00775752 0.18288556 -0.00000061
-0.03196663 -0.20582508 -0.00000037
-0.59206027 0.70792276 -0.00000026
0.47501677 -0.14804356 -0.00000050
0.04415494 0.13131618 -0.00000058
0.58771086 -0.30434290 -0.00000045
0.42110258 0.22628574 0.05380507
-0.44890136 0.02229458 -0.00000038
-0.46398082 -0.61676002 -0.00000011
-0.20686802 0.64462847 -0.00000074
0.25172457 0.32649693 0.07819126
-0.18320391 -0.09321765 -0.00000044
-0.14752086 -0.28644925 -0.00000032
-0.41863558 0.00028919 -0.00000041
0.04653059 -0.12842855 -0.00000042
0.15979619 -0.71188742 -0.00000006
-0.60175771 -0.01927624 -0.00000021
-0.73429823 0.09750207 -0.00000008
0.36797962 -0.79724669 -0.00000000
0.37250981 -0.50967765 -0.00000018
0.41730469 -0.68906158 -0.00000007
0.46811825 0.21125564 0.04252789
-0.31970006 -0.01275213 -0.00000049
-0.25566417 -0.14746314 -0.00000041
0.28950700 -0.29690427 -0.00000031
0.09525635 0.32140654 0.13515164
0.51336038 -0.01925146 -0.00000067
0.23574544 0.04864647 -0.00000053
0.32700339 0.10881350 0.12839895
-0.42357942 0.06271630 -0.00000041
-0.17543975 -0.31774232 -0.00000030
-0.13511620 0.00678007 -0.00000050
0.17971341 -0.13702901 -0.00000041
0.73225081 -0.40588048 -0.00000049
-0.14120622 -0.04058217 -0.00000047
-0.25984007 -0.22414871 -0.00000036
0.02566375 0.76669180 0.00269386
0.03275660 0.23914716 0.18618909
0.52717704 0.22281352 0.01763052
0.22455515 0.47733852 0.03458808
-0.63572294 -0.29272693 -0.00000012
-0.78345776 -0.20825316 0.00000000
0.09089070 0.49295354 0.07620866
0.21015231 -0.41747573 -0.00000024
0.64308339 -0.35147619 -0.00000046
0.28152683 -0.72996545 -0.00000004
0.33939373 -0.29069188 -0.00000032
0.04503340 -0.40446359 -0.00000025
-0.67370617 -0.33566225 -0.00000007
0.20731108 0.25983337 0.11735363
-0.18386473 0.30249497 -0.00000069
-0.54976636 -0.48297238 -0.00000018
-0.75626916 0.44922227 -0.00000005
-0.31813261 -0.08970475 -0.00000044
-0.37145358 -0.10439834 -0.00000043
-0.11832798 0.22983167 -0.00000064
-0.69768578 -0.46011308 -0.00000002
0.07854506 -0.49002334 -0.00000019
-0.16122700 -0.60500050 -0.00000012
0.46692440 -0.19224226 -0.00000044
0.16830428 0.57719600 0.01921365
0.10718524 -0.68869132 -0.00000007
-0.42604607 0.32102695 -0.00000046
-0.59730792 0.75689602 -0.00000025
0.73453450 -0.61627543 -0.00000023
-0.73737353 -0.37561363 0.00000000
0.21801388 0.19218402 0.13743123
0.19347958 0.37385473 0.08202976
0.49967360 -0.63160646 -0.00000011
-0.11680593 -0.26792738 -0.00000033
0.08859201 -0.55865490 -0.00000015
-0.47622740 0.34998164 -0.00000040
-0.14038107 0.76046205 -0.00000082
0.29531512 -0.02496883 -0.00000048
0.70405918 -0.52059251 -0.00000034
0.66078025 -0.57686341 -0.00000024
0.50646359 -0.49403137 -0.00000019
0.09854276 -0.15456735 -0.00000040
-0.78949916 0.78423619 -0.00000001
-0.31225553 -0.63554394 -0.00000010
-0.01381865 0.01248404 -0.00000051
-0.66699278 0.39559931 -0.00000017
0.23169728 -0.23652485 -0.00000035
0.00823107 -0.08596769 -0.00000045
0.38911974 -0.58220536 -0.00000014
0.38066861 -0.10469065 -0.00000044
-0.67981517 -0.73767674 0.00000000
0.59130466 0.17162177 0.01306971
-0.65440983 0.05945216 -0.00000017
-0.31473222 -0.08001814 -0.00000045
0.71033239 -0.38795340 -0.00000049
0.13423085 0.36088711 0.10749089
-0.07245056 -0.51469064 -0.00000018
0.56863844 0.15862486 0.02564348
0.09337979 0.13016231 0.20324004
0.22311635 -0.24495828 -0.00000035
0.09781030 0.07719018 -0.00000055
0.39381486 -0.17088176 -0.00000039
-0.37964496 0.28954646 -0.00000050
0.32205242 -0.21753123 -0.00000036
0.46501800 -0.33338422 -0.00000029
-0.47481921 0.27329469 -0.00000040
-0.70643085 0.76306897 -0.00000012
0.36079237 -0.60633212 -0.00000012
-0.51858163 0.36260092 -0.00000035
-0.51870376 -0.11015395 -0.00000028
0.34582707 0.22907758 0.07936069
0.41645691 0.07318491 0.10942186
-0.26406047 0.75237060 -0.00000067
-0.63706630 0.46837866 -0.00000020
-0.15301788 -0.07164525 -0.00000046
-0.55387974 0.31790075 -0.00000031
-0.42172322 -0.06223212 -0.00000039
0.27636868 0.43419737 0.03153045
0.39696294 -0.10529364 -0.00000046
-0.47084734 -0.56767410 -0.00000015
0.17249618 0.10884717 -0.00000057
-0.54450476 -0.11723289 -0.00000025
-0.25152084 -0.34136638 -0.00000029
-0.40285411 0.77976346 -0.00000050
0.36124632 -0.63455760 -0.00000010
0.48024666 -0.29694808 -0.00000034
-0.54629630 -0.00035452 -0.00000027
0.24687594 -0.61448687 -0.00000012
0.65510404 -0.34485340 -0.00000048
-0.73126060 -0.31027335 -0.00000002
-0.22111164 0.48430601 -0.00000071
-0.68483943 0.08747935 -0.00000014
-0.18601544 0.74762064 -0.00000077
-0.24626803 -0.60640657 -0.00000012
0.00116432 0.14330369 -0.00000059
-0.07115950 0.23215634 -0.00000065
-0.16213720 0.67768699 -0.00000080
0.39561620 -0.11241692 -0.00000045
-0.45465487 -0.63769984 -0.00000010
-0.71744674 0.10944886 -0.00000010
-0.67954296 0.39831358 -0.00000015
-0.32922554 0.33935878 -0.00000056
-0.67032278 -0.32743001 -0.00000008
0.17843677 -0.17964408 -0.00000039
0.15259568 0.57324940 0.02614351
0.21078622 0.30454138 0.10036575
0.44387311 -0.30229247 -0.00000031
0.59359080 -0.23042607 -0.00000053
-0.27761745 0.51252335 -0.00000065
-0.58801711 0.79927063 -0.00000026
-0.51196784 0.21015479 -0.00000035
-0.60341769 0.78286934 -0.00000025
0.04458714 -0.30548057 -0.00000031
-0.49862534 -0.39928457 -0.00000025
-0.31135336 -0.16104087 -0.00000040
-0.57498378 -0.25992185 -0.00000019
-0.26431316 0.18193924 -0.00000060
-0.35118175 -0.49727204 -0.00000019
-0.16358151 -0.58086473 -0.00000014
0.03899599 0.27185652 0.17245698
-0.51043183 -0.64199275 -0.00000010
0.43376663 0.05108461 0.11111089
-0.42538837 -0.02103539 -0.00000040
-0.54399985 0.02548222 -0.00000028
-0.19087517 0.79305285 -0.00000076
-0.61321861 -0.58841252 -0.00000009
-0.13218702 -0.26506433 -0.00000033
0.42165759 0.29407406 0.02970921
-0.66639113 0.57712460 -0.00000017
-0.08051887 -0.10797929 -0.00000043
0.04804285 -0.14755547 -0.00000041
-0.53299117 -0.33304742 -0.00000022
-0.76678687 0.70322967 -0.00000004
0.33924744 -0.20902202 -0.00000037
0.62981260 -0.67167073 -0.00000010
0.16063876 0.17026092 0.16538921
-0.13776220 0.79773974 -0.00000083
-0.01414503 -0.27046767 -0.00000033
-0.29979125 -0.19863857 -0.00000038
0.35809574 0.40178242 0.01414443
-0.25441509 0.34556493 -0.00000065
-0.32424745 0.33878237 -0.00000057
-0.33799943 -0.38352624 -0.00000026
-0.13849954 0.57861710 -0.00000081
-0.57229495 0.69017327 -0.00000028
0.64389390 0.14677671 0.00328793
0.10994461 0.15231133 0.18959077
-0.25225088 0.01044388 -0.00000051
-0.78637582 0.79522848 -0.00000002
-0.02937188 0.39436832 -0.00000075
0.27024212 0.52460039 0.00181704
-0.43141022 0.56295413 -0.00000046
0.52479398 -0.66845244 -0.00000008
0.36119857 -0.37330997 -0.00000027
-0.27578247 0.02636003 -0.00000052
-0.09117469 0.55612814 -0.00000085
-0.14577353 -0.65434718 -0.00000009
-0.74980605 0.76379216 -0.00000006
-0.39696559 -0.48143584 -0.00000020
-0.25702748 -0.34463930 -0.00000028
-0.45787886 -0.04818935 -0.00000036
0.29374611 0.48588115 0.00718148
-0.28611082 0.45069268 -0.00000063
-0.19704765 0.32164964 -0.00000070
-0.63040268 0.42391667 -0.00000021
0.55610269 -0.48163772 -0.00000023
-0.29439101 0.20561638 -0.00000058
-0.10592798 0.70846391 -0.00000087
-0.16469298 0.30428109 -0.00000069
0.63627332 -0.76377392 -0.00000002
-0.44940516 -0.63141268 -0.00000011
0.14654754 -0.60638595 -0.00000012
-0.28879684 0.77823806 -0.00000064
0.23354137 0.47848946 0.03101400
0.07724638 0.46381760 0.09129162
0.14575768 0.32898009 0.11467634
-0.67346233 0.72164565 -0.00000016
-0.25866798 0.58376783 -0.00000068
0.32992634 0.39585084 0.02616745
0.23455065 -0.60784268 -0.00000012
0.26641402 0.42408976 0.03860381
-0.45149094 -0.50498873 -0.00000018
0.35241106 0.26820561 0.06324397
-0.07506266 0.53292763 -0.00000083
-0.59707969 -0.57768244 -0.00000011
-0.02642146 0.41530609 -0.00000076
-0.00604968 0.21304615 -0.00000063
0.19178769 0.14845406 0.16209555
-0.19322684 -0.49623680 -0.00000019
-0.04320749 -0.35529551 -0.00000028
0.26062045 -0.57540452 -0.00000014
-0.30390218 0.04311607 -0.00000053
-0.46807572 0.50580305 -0.00000041
-0.76733726 0.06055726 -0.00000004
-0.40697846 -0.75369567 -0.00000003
-0.60429430 0.69906843 -0.00000024
0.05048919 0.09120598 -0.00000056
-0.37047163 -0.75550115 -0.00000003
-0.37458536 -0.79581714 -0.00000000
0.54661930 -0.45113322 -0.00000025
-0.00673347 -0.01264540 -0.00000049
-0.76835698 -0.66279572 0.00000000
-0.15821829 0.27111647 -0.00000067
-0.75730413 0.37456006 -0.00000005
0.03722900 -0.30675820 -0.00000031
-0.79663181 0.77203518 -0.00000000
0.53121823 -0.40192339 -0.00000028
0.58994853 -0.08416008 -0.00000069
-0.55609369 -0.17766699 -0.00000023
0.66382968 -0.49470538 -0.00000033
-0.60394216 -0.67987067 -0.00000008
-0.14725719 -0.46386826 -0.00000021
-0.09238390 0.68825257 -0.00000088
-0.38331059 0.07020865 -0.00000046
-0.08680520 -0.14829177 -0.00000041
-0.32344943 -0.72249734 -0.00000005
-0.17891085 -0.51350605 -0.00000018
-0.46661600 -0.42795101 -0.00000023
0.41881424 -0.68865907 -0.00000007
-0.58937287 -0.24236661 -0.00000018
-0.41505179 -0.19868344 -0.00000037
-0.33931318 0.34046653 -0.00000055
-0.37522677 0.18959235 -0.00000049
0.22587118 0.13739221 0.15397891
-0.79862940 -0.43954417 0.00000000
-0.79670066 0.50854182 -0.00000000
-0.17899086 -0.50963980 -0.00000018
-0.29487935 -0.62700641 -0.00000011
-0.50481492 -0.72204089 -0.00000005
-0.66258544 0.35536402 -0.00000017
-0.75780052 0.07274135 -0.00000005
-0.38201687 0.01719772 -0.00000045
0.27167702 -0.65698624 -0.00000009
0.45010993 -0.42749348 -0.00000023
0.08908053 -0.43180487 -0.00000023
0.76465511 -0.74805284 -0.00000006
0.01105471 0.02393906 -0.00000051
0.46116704 -0.14152849 -0.00000049
-0.07410037 -0.12217126 -0.00000042
0.25534293 0.48728928 0.02022486
-0.47996870 -0.26760802 -0.00000029
-0.26398167 0.61486852 -0.00000067
0.09767197 0.55619484 0.05152088
0.46038148 -0.42400360 -0.00000023
-0.11199031 -0.09986484 -0.00000044
0.47136554 0.27039751 0.02053130
-0.16694152 -0.32443050 -0.00000030
-0.67769974 0.35748902 -0.00000015
0.27973363 0.15929894 0.12726516
-0.79356843 -0.54974830 0.00000000
-0.69304168 0.23597804 -0.00000013
-0.37891591 0.52393609 -0.00000053
-0.27325511 -0.51276940 -0.00000018
0.65131664 -0.36252588 -0.00000045
0.60958707 -0.53836828 -0.00000022
-0.41176182 0.57324779 -0.00000049
-0.00937752 0.66394830 -0.00000091
0.10318617 -0.16974571 -0.00000039
-0.00208961 -0.20115179 -0.00000037
-0.13108039 -0.62294817 -0.00000011
0.28872317 0.38238126 0.04544346
0.08023814 0.12032292 0.21134241
0.06159399 0.06917250 -0.00000054
0.49433953 -0.27380037 -0.00000038
-0.47808716 0.21392517 -0.00000038
0.50685155 -0.79003906 -0.00000001
0.47918424 0.26403764 0.02001695
0.03188233 -0.14924216 -0.00000041
-0.07105915 -0.78763568 -0.00000001
0.54279155 -0.67044991 -0.00000008
-0.76455665 0.11464008 -0.00000004
-0.11271635 0.06105905 -0.00000054
0.47513407 -0.71222788 -0.00000005
0.36111668 0.13724349 0.10634803
0.27521852 0.14580365 0.13361505
-0.30914196 -0.64620113 -0.00000010
-0.21668620 -0.02754694 -0.00000048
-0.39645019 0.56000596 -0.00000050
-0.78146416 0.30444649 -0.00000002
-0.20879281 -0.11374227 -0.00000043
0.67622167 -0.50611526 -0.00000033
0.52077025 -0.60401160 -0.00000012
0.66739535 -0.11316681 -0.00000074
0.56046426 0.03974894 -0.00000079
-0.74446803 0.09156078 -0.00000007
-0.45185375 -0.03802628 -0.00000036
-0.21109892 -0.79489636 -0.00000000
0.39751527 -0.49002188 -0.00000019
0.41844973 -0.79667950 -0.00000000
-0.15512434 0.30113533 -0.00000069
-0.51644665 -0.07960888 -0.00000029
-0.76964194 -0.76436967 0.00000000
-0.03597766 0.32258075 -0.00000070
0.74373162 -0.67127252 -0.00000016
0.35859901 -0.64307809 -0.00000010
-0.33046433 -0.48125440 -0.00000020
-0.56739581 -0.50601172 -0.00000016
-0.77505481 -0.74708378 0.00000000
0.23723634 0.31691650 0.08667717
0.29466227 -0.78593773 -0.00000001
-0.11250692 -0.31304380 -0.00000030
0.44474620 0.33525032 0.00705130
0.53502804 -0.77441418 -0.00000002
0.00896311 -0.19336221 -0.00000038
-0.18095396 -0.07292243 -0.00000045
-0.11927054 -0.48611054 -0.00000020
-0.50731909 -0.36040071 -0.00000025
0.33466908 -0.13985012 -0.00000041
-0.27367160 0.21008012 -0.00000060
-0.04499689 -0.22743540 -0.00000036
-0.40070191 0.72988892 -0.00000050
-0.03872073 0.17028853 -0.00000061
0.42867929 -0.04012592 -0.00000056
-0.45488587 0.09724902 -0.00000039
0.64412260 -0.67543012 -0.00000011
-0.78627872 0.35144782 -0.00000002
-0.58243936 -0.38907376 -0.00000016
-0.65708202 0.70612985 -0.00000018
0.05868851 0.32224774 0.14774767
-0.49227691 -0.18081498 -0.00000030
0.74838287 -0.50029480 -0.00000037
0.40041694 0.19018751 0.07382539
0.55128825 -0.13801864 -0.00000059
0.31830221 0.38284951 0.03484967
-0.20586808 0.34153533 -0.00000070
0.16026688 -0.70813268 -0.00000006
0.40140870 -0.33176368 -0.00000029
-0.03070034 -0.29911321 -0.00000031
0.49233544 -0.16822828 -0.00000049
0.29844588 -0.03958992 -0.00000048
-0.02986879 -0.57010221 -0.00000014
-0.47442949 0.66861200 -0.00000041
0.00911534 0.61395216 -0.00000088
0.59189034 -0.61413181 -0.00000012
0.01150814 -0.12525658 -0.00000042
0.40024239 0.05579468 0.12126992
0.26498044 0.12791909 -0.00000058
-0.39659309 0.49635577 -0.00000050
-0.51204658 -0.49592733 -0.00000019
-0.30885255 0.31210032 -0.00000058
-0.73095095 -0.40329221 0.00000000
-0.08032535 -0.49103129 -0.00000019
-0.22475100 -0.39976916 -0.00000025
-0.55457419 -0.55105662 -0.00000016
0.20412078 0.37214148 0.07888204
-0.33802050 0.43942010 -0.00000057
-0.47800064 -0.29006258 -0.00000029
-0.02386667 -0.65598708 -0.00000009
0.15759924 0.11282496 0.18671098
-0.22084580 0.43893522 -0.00000070
0.01463114 -0.07209250 -0.00000045
-0.77978486 -0.78820974 0.00000000
0.59962946 -0.61712772 -0.00000013
-0.24233599 -0.08838720 -0.00000044
0.31232259 0.15199786 0.11834944
-0.70309114 0.37780237 -0.00000012
-0.56650060 -0.43162039 -0.00000017
-0.57960278 0.26331338 -0.00000028
0.03407329 -0.04122792 -0.00000047
0.68042707 0.07056778 0.01727644
0.57479471 -0.20717172 -0.00000054
-0.27648035 0.26060423 -0.00000061
0.55093443 -0.63826686 -0.00000010
-0.37897396 -0.31053370 -0.00000031
-0.13603878 0.09475074 -0.00000056
-0.18506163 0.78992772 -0.00000077
-0.39620107 -0.53447461 -0.00000017
0.74915743 -0.59582490 -0.00000026
-0.34691414 0.78313297 -0.00000057
0.42555696 -0.48624915 -0.00000020
-0.43702886 0.14607427 -0.00000041
0.15376964 -0.60349149 -0.00000012
-0.35163334 -0.61312753 -0.00000012
0.19481854 0.44114846 0.05783189
0.56372219 0.13020587 0.03739651
-0.29072213 0.73518902 -0.00000064
0.46176061 -0.10673255 -0.00000053
0.17251845 -0.53381795 -0.00000017
0.31098679 -0.37132031 -0.00000027
-0.20290841 -0.77892047 -0.00000001
-0.72941118 0.38381621 -0.00000009
0.12349630 -0.69673187 -0.00000006
0.07410355 -0.11135448 -0.00000043
0.06893180 0.49408123 0.08355306
0.12675019 -0.00364643 -0.00000050
-0.05187658 0.54978800 -0.00000084
-0.35992670 0.54585475 -0.00000055
-0.23642838 0.43813953 -0.00000068
-0.77705097 0.50119817 -0.00000003
0.22204962 -0.00214026 -0.00000050
-0.55822057 0.52353221 -0.00000030
-0.27935764 -0.60919452 -0.00000012
-0.11906112 0.31559071 -0.00000070
-0.47933546 0.63354808 -0.00000040
-0.14843421 0.39828014 -0.00000075
-0.72974968 0.79375416 -0.00000009
-0.05670493 0.76669985 -0.00000093
0.05275423 0.58270204 0.05801178
-0.10011239 -0.74404234 -0.00000003
0.22867937 0.34841737 0.07858783
-0.63678926 0.36840618 -0.00000020
0.05233305 0.39774483 0.12337046
0.11727671 0.67859012 0.00145589
-0.23005921 0.36834574 -0.00000068
0.53503907 -0.53602523 -0.00000016
0.76514101 -0.14455108 -0.00000081
-0.48689669 -0.61185926 -0.00000012
0.05279174 0.39169109 0.12534310
-0.78716242 0.54997724 -0.00000002
-0.73877859 -0.09403455 -0.00000005
-0.56738126 -0.44660994 -0.00000017
-0.58488208 0.62847006 -0.00000027
-0.54250008 -0.23307651 -0.00000023
-0.29337886 0.23800880 -0.00000058
-0.40658256 0.64823425 -0.00000049
0.57254893 0.20142817 0.00917358
-0.30252403 -0.03635264 -0.00000048
-0.68373501 -0.19677827 -0.00000009
0.04629049 0.30294961 0.15892272
-0.54261792 0.20357034 -0.00000031
-0.07606448 0.68964791 -0.00000090
-0.55257255 0.15956807 -0.00000029
-0.53542691 -0.34667695 -0.00000022
-0.54603511 -0.65692908 -0.00000009
-0.78892940 0.53152984 -0.00000001
0.52218825 0.01590256 0.09234017
0.24237233 -0.18989989 -0.00000038
-0.23607597 -0.39762703 -0.00000025
0.64177567 -0.38848397 -0.00000042
-0.08622666 -0.31665993 -0.00000030
0.79125363 -0.19769140 -0.00000075
-0.03974784 0.17590642 -0.00000061
-0.39638016 0.23157062 -0.00000047
0.59975874 0.06991931 0.04594637
0.37875313 0.21421120 0.07299337
