ply
format ascii 1.0
element vertex 1408
property float x
property float y
property float z
end_header
-0.62533605 0.79330957 0.00000000
-0.11262493 0.70513624 0.00000000
0.64792538 0.09725571 0.00000000
0.03808978 -0.73474133 0.00000000
0.55527270 0.16121215 0.00000000
0.75598776 -0.42784318 0.00000000
-0.56893951 -0.48181742 0.00000000
0.41332167 -0.45090231 0.00000000
-0.77259618 -0.24519892 0.00000000
0.54545039 -0.53149247 0.00000000
0.29892007 0.02046738 0.00000000
-0.41461921 -0.18563180 0.00000000
-0.63712984 -0.13550411 0.00000000
0.70055217 0.24384470 0.02263592
0.58796561 0.77788210 0.08870266
0.36529672 -0.56223834 0.00000000
0.68583971 -0.03490081 0.00000000
-0.25954807 -0.23073950 0.00000000
-0.48739782 -0.34079823 0.00000000
-0.66388786 -0.26794311 0.00000000
-0.55737084 -0.37223804 0.00000000
0.11826847 -0.20161377 0.00000000
-0.57022172 -0.25794628 0.00000000
-0.77548730 0.74385768 0.00000000
0.50001967 0.08247986 0.00000000
0.57328343 -0.33334267 0.00000000
0.47170353 0.28470734 0.00000000
0.69648015 0.11420619 0.00167521
-0.56169850 0.51918966 0.00000000
0.04871803 0.53609306 0.00000000
0.07835754 -0.12333475 0.00000000
-0.52771276 0.76568532 0.00000000
-0.33365235 0.12987357 0.00000000
0.38213700 -0.61622292 0.00000000
-0.62586033 0.36907077 0.00000000
-0.23101752 -0.42061654 0.00000000
-0.00582848 -0.02411414 0.00000000
0.00983771 0.04959678 0.00000000
0.10568534 -0.35737312 0.00000000
-0.24880345 0.20509899 0.00000000
-0.34530398 -0.42212585 0.00000000
-0.05011577 0.53130054 0.00000000
0.55969489 0.07731999 0.00000000
-0.73866963 -0.67274815 0.00000000
0.79290354 0.21133374 0.03201661
0.11559659 -0.69509286 0.00000000
0.35700163 -0.48051995 0.00000000
0.75644284 0.51426250 0.07378855
-0.43975872 0.37505424 0.00000000
0.39422894 -0.75602692 0.00000000
-0.66904807 0.74363291 0.00000000
-0.13559546 -0.06344163 0.00000000
-0.11599494 0.21474418 0.00000000
-0.55789959 0.79334682 0.00000000
0.77595639 0.50302976 0.07508666
-0.04303244 -0.69556320 0.00000000
0.26715896 0.23919915 0.00000000
-0.35505179 0.48208401 0.00000000
0.12623878 -0.13129120 0.00000000
-0.01295250 0.45666093 0.00000000
-0.42567658 -0.38772196 0.00000000
0.04533145 0.58756596 0.00000000
-0.68237036 -0.31191903 0.00000000
0.57562685 -0.56367826 0.00000000
0.57102948 0.67293108 0.06959574
-0.25361121 0.56800330 0.00000000
-0.13646884 0.13439524 0.00000000
0.54211158 -0.52720124 0.00000000
-0.71662873 -0.77771282 0.00000000
-0.01061892 0.32727873 0.00000000
0.78045869 0.58881772 0.08924048
-0.14125630 -0.77270794 0.00000000
-0.21981019 0.55632567 0.00000000
-0.71391594 0.06297295 0.00000000
-0.21725942 0.53862262 0.00000000
-0.40244326 0.49595430 0.00000000
0.60140580 -0.02907761 0.00000000
-0.77787340 -0.11746155 0.00000000
-0.20819838 0.75587618 0.00000000
0.54078603 -0.03627846 0.00000000
-0.79186732 0.16173202 0.00000000
-0.33727944 -0.72942662 0.00000000
0.35512355 -0.29755566 0.00000000
0.28816274 0.15706949 0.00000000
0.09343509 -0.08961842 0.00000000
-0.38913241 -0.15131848 0.00000000
0.57866234 -0.19038995 0.00000000
0.09277366 0.71360707 0.00100025
-0.43988529 0.51112229 0.00000000
-0.04195157 -0.79622334 0.00000000
-0.70287043 0.62774849 0.00000000
-0.07613525 0.40523630 0.00000000
0.14415887 0.29724225 0.00000000
-0.09807799 0.02636619 0.00000000
-0.42910257 0.78620428 0.00000000
-0.22186080 0.78392524 0.00000000
-0.46821836 0.72446281 0.00000000
-0.64254683 -0.05317143 0.00000000
-0.65015215 -0.79690152 0.00000000
-0.69198775 -0.76956409 0.00000000
-0.23003054 0.07191924 0.00000000
0.52511507 0.64723110 0.05836947
0.65285689 -0.71080285 0.00000000
0.14215231 0.38403854 0.00000000
0.55811733 0.00632224 0.00000000
-0.47397432 0.47226703 0.00000000
0.30206487 -0.23364486 0.00000000
0.01690409 -0.59014702 0.00000000
-0.23948285 -0.02189759 0.00000000
-0.30125055 0.26984459 0.00000000
0.61967248 -0.18232425 0.00000000
0.74113321 -0.77195936 0.00000000
-0.10118411 -0.15065847 0.00000000
0.42495331 0.71672964 0.05356257
-0.41609314 -0.05000087 0.00000000
0.04525510 -0.40334773 0.00000000
0.58055598 -0.72578353 0.00000000
0.37106487 0.17473733 0.00000000
0.64713442 0.03622933 0.00000000
0.78491461 0.36023363 0.05410608
-0.01586320 -0.21936840 0.00000000
-0.01628080 -0.76783818 0.00000000
-0.13718851 -0.72657400 0.00000000
0.61506212 0.39993426 0.03370323
0.77801150 0.38244790 0.05650628
0.26400077 0.09805814 0.00000000
0.28716618 0.66657686 0.02410105
0.47567788 0.68515331 0.05656430
-0.21931100 0.53307503 0.00000000
0.19734149 -0.72302961 0.00000000
-0.27094048 -0.11354755 0.00000000
-0.65558314 -0.28492132 0.00000000
-0.63961631 0.58135766 0.00000000
-0.17762865 0.08851741 0.00000000
0.37490243 -0.68874580 0.00000000
0.39329919 0.62884587 0.03482387
0.73341662 -0.73630881 0.00000000
0.35617122 0.48837402 0.00698300
-0.28919163 0.45519802 0.00000000
-0.75626552 -0.01954724 0.00000000
0.65849644 0.23962076 0.01538103
0.13828672 -0.60926741 0.00000000
0.67604220 -0.65386063 0.00000000
0.06719358 0.56485343 0.00000000
-0.35171297 -0.70937252 0.00000000
0.67301434 0.31150699 0.02892591
0.57079959 0.22717573 0.00000000
-0.02224169 -0.40084320 0.00000000
-0.75876743 0.37663129 0.00000000
-0.12762187 -0.28299695 0.00000000
-0.37024894 -0.06284809 0.00000000
0.27812332 -0.40266424 0.00000000
0.43580699 -0.72840458 0.00000000
0.63992012 0.13906597 0.00000000
-0.06808761 -0.44237104 0.00000000
-0.42125699 0.11726628 0.00000000
0.40259239 -0.73390633 0.00000000
-0.45948344 0.14939773 0.00000000
0.71650332 0.41801542 0.05243978
0.74073261 0.77391046 0.11202792
0.28660288 0.63443422 0.01897400
-0.03569742 -0.43779206 0.00000000
-0.63739502 0.78202021 0.00000000
-0.63236940 -0.40195933 0.00000000
0.25651032 0.55120498 0.00120946
0.78903180 0.24560706 0.03678243
0.70962399 0.07618895 0.00000000
-0.00644583 0.28824031 0.00000000
-0.74579263 0.27295575 0.00000000
0.19573255 0.15141127 0.00000000
-0.12558930 0.64340729 0.00000000
0.50650370 -0.03178060 0.00000000
-0.36130306 -0.09225263 0.00000000
-0.16799332 0.59351981 0.00000000
-0.00778554 0.35353473 0.00000000
0.42567381 0.57847041 0.03200202
-0.05756384 0.74982083 0.00000000
-0.33827609 0.02470596 0.00000000
0.09699260 0.57045972 0.00000000
0.44920862 -0.01443403 0.00000000
0.25193492 -0.58403462 0.00000000
0.26006290 -0.75320709 0.00000000
0.68537796 -0.01349364 0.00000000
0.31024748 -0.64553970 0.00000000
0.60979271 -0.33305520 0.00000000
0.50560552 0.06708638 0.00000000
0.16045895 -0.12049913 0.00000000
-0.69399256 -0.14046510 0.00000000
0.04887835 -0.28100014 0.00000000
-0.16698249 0.76195228 0.00000000
-0.40959129 -0.24389221 0.00000000
-0.57138640 -0.21460526 0.00000000
-0.41045418 0.61234617 0.00000000
0.54116106 0.14848420 0.00000000
-0.58384681 0.24010575 0.00000000
-0.79646868 0.16131298 0.00000000
-0.30337787 0.12058907 0.00000000
-0.08731121 -0.05964204 0.00000000
0.18870807 -0.00876320 0.00000000
0.31646734 -0.31118730 0.00000000
0.24791242 -0.55574912 0.00000000
-0.61767405 0.35052571 0.00000000
0.18377922 0.56457001 0.00000000
-0.28097248 -0.25674409 0.00000000
-0.33422118 -0.38314778 0.00000000
-0.19077805 0.31413838 0.00000000
-0.06059463 0.43577412 0.00000000
-0.70126569 -0.53499693 0.00000000
-0.13538192 0.19919325 0.00000000
0.00274120 0.04773167 0.00000000
-0.27476424 -0.03409825 0.00000000
-0.02234800 0.17936794 0.00000000
0.70941418 -0.20638463 0.00000000
-0.66410446 0.23116936 0.00000000
0.76069999 -0.13188937 0.00000000
-0.38545987 0.20269640 0.00000000
0.43693238 -0.31749514 0.00000000
0.41750833 -0.58840013 0.00000000
0.23048054 0.46710041 0.00000000
0.34500381 0.24215738 0.00000000
0.35459179 -0.45452377 0.00000000
0.62538850 -0.56783855 0.00000000
-0.59028578 -0.01906946 0.00000000
0.38995960 -0.08440366 0.00000000
-0.77917039 -0.11288297 0.00000000
-0.59439754 -0.68672627 0.00000000
0.55957705 -0.77481526 0.00000000
-0.36105514 0.37565306 0.00000000
-0.46843952 0.17426921 0.00000000
-0.17955637 0.62266082 0.00000000
-0.70670867 -0.21070261 0.00000000
-0.22814785 -0.47132209 0.00000000
-0.60881585 -0.56860203 0.00000000
0.15264405 0.60729825 0.00000000
0.09695223 0.41192275 0.00000000
-0.04527522 0.37267020 0.00000000
0.53177756 0.29282644 0.00385697
-0.39651808 -0.34732673 0.00000000
-0.24511428 0.62501591 0.00000000
-0.50846696 -0.73257399 0.00000000
0.30223772 -0.13135670 0.00000000
-0.70971453 -0.27218524 0.00000000
-0.51271021 0.79545110 0.00000000
-0.43833566 0.06812800 0.00000000
-0.59993494 -0.60953391 0.00000000
-0.43795925 -0.31236541 0.00000000
-0.12598297 -0.01316072 0.00000000
-0.21843845 -0.29442891 0.00000000
-0.75331128 -0.03691822 0.00000000
-0.59278852 -0.22789700 0.00000000
0.51592052 -0.74352908 0.00000000
-0.56293243 -0.60941392 0.00000000
0.61860025 0.20395316 0.00353552
0.69199955 0.66039026 0.08659320
-0.69060773 0.20634140 0.00000000
0.19094133 0.04100294 0.00000000
-0.76143026 -0.55288219 0.00000000
-0.32183677 -0.34567073 0.00000000
-0.06375879 0.14907336 0.00000000
-0.76900518 -0.48585895 0.00000000
0.71708298 -0.58325619 0.00000000
-0.39686960 -0.12737402 0.00000000
-0.09642688 0.51636142 0.00000000
0.72360235 0.63878471 0.08816041
0.14438049 0.35714930 0.00000000
-0.25086400 -0.73652768 0.00000000
-0.39566913 -0.47097561 0.00000000
0.69996715 0.33570540 0.03694447
0.24478924 0.12066786 0.00000000
0.61899257 0.19010603 0.00142632
0.56676984 -0.49435028 0.00000000
0.74810624 0.77028567 0.11261560
0.47741967 0.59160966 0.04217354
0.01115271 0.54691887 0.00000000
0.16825645 -0.62684911 0.00000000
0.63177407 -0.04303242 0.00000000
-0.51102680 -0.20686740 0.00000000
-0.17270842 0.15157919 0.00000000
-0.12017638 0.52105707 0.00000000
0.00978156 -0.07134099 0.00000000
-0.08343398 -0.06063114 0.00000000
-0.58575457 -0.08603188 0.00000000
-0.73769003 -0.19160680 0.00000000
0.08681710 0.66754800 0.00000000
0.39737862 -0.45166492 0.00000000
-0.29525882 0.40296844 0.00000000
0.03813124 0.48226160 0.00000000
-0.49815184 -0.05829873 0.00000000
0.13883811 -0.68856448 0.00000000
0.26582047 0.67923862 0.02273973
-0.56964308 0.27382207 0.00000000
-0.54896283 -0.03551729 0.00000000
-0.33719513 0.22674845 0.00000000
0.79557741 -0.57058442 0.00000000
0.78141725 -0.45376989 0.00000000
0.05723614 0.39085147 0.00000000
0.77138287 -0.79135197 0.00000000
-0.07244058 0.31694403 0.00000000
-0.49646941 0.13206708 0.00000000
0.39052692 -0.13055630 0.00000000
-0.27160516 -0.16980915 0.00000000
0.60229105 0.44597253 0.03891826
0.14800245 0.32477841 0.00000000
0.59558272 -0.63629347 0.00000000
-0.71220702 -0.00232132 0.00000000
-0.68552804 -0.06826205 0.00000000
-0.09911784 -0.02392902 0.00000000
0.74576974 -0.30975682 0.00000000
0.03343825 -0.50421542 0.00000000
0.66996700 -0.40378290 0.00000000
0.22370809 0.72414160 0.02317713
-0.66118640 0.03702463 0.00000000
0.55206561 0.73673654 0.07662502
-0.06988705 -0.65355939 0.00000000
-0.18449496 0.75683689 0.00000000
0.21686812 -0.62796134 0.00000000
0.66195142 0.13678604 0.00000000
0.62830067 0.34471256 0.02712187
0.56937969 0.37255186 0.02224945
-0.73227531 -0.18434727 0.00000000
-0.44927025 -0.01762571 0.00000000
-0.49325243 0.36163196 0.00000000
0.29868662 -0.79483867 0.00000000
-0.33872950 -0.45049441 0.00000000
0.22806108 0.09063156 0.00000000
-0.06482182 -0.03403837 0.00000000
-0.33910725 0.02256251 0.00000000
-0.28688198 0.53984600 0.00000000
0.12337920 -0.67438734 0.00000000
-0.18430202 -0.74834824 0.00000000
-0.20209554 0.48069140 0.00000000
-0.23679404 -0.01832985 0.00000000
-0.28836799 0.17490003 0.00000000
-0.20300440 -0.71978801 0.00000000
0.21106872 0.10601474 0.00000000
0.04002982 -0.48898694 0.00000000
-0.30370212 -0.61251163 0.00000000
0.19162887 -0.26610231 0.00000000
-0.13686322 0.26688853 0.00000000
-0.74973357 -0.17393582 0.00000000
-0.77709633 0.30840012 0.00000000
-0.08852243 -0.10873031 0.00000000
0.14068083 0.20782314 0.00000000
0.33131862 0.39899400 0.00000000
-0.14081544 0.05394796 0.00000000
-0.50838077 0.57968915 0.00000000
-0.27095497 0.00742939 0.00000000
-0.74075866 -0.78009415 0.00000000
0.40483522 -0.66203636 0.00000000
0.47854576 -0.10755727 0.00000000
-0.75335163 -0.27624479 0.00000000
0.26907411 0.18073851 0.00000000
0.55331498 -0.79156590 0.00000000
-0.33910573 -0.70349306 0.00000000
-0.09821382 -0.04284584 0.00000000
0.22584623 0.29047659 0.00000000
0.24854927 -0.49219367 0.00000000
-0.37182799 -0.57323885 0.00000000
0.12996106 0.66781306 0.00000000
0.62495840 -0.54231048 0.00000000
0.47751978 -0.71840805 0.00000000
0.27276176 -0.74471045 0.00000000
-0.76922357 0.61180371 0.00000000
-0.51202714 0.67089951 0.00000000
-0.25936970 -0.25210416 0.00000000
-0.27115831 -0.72066057 0.00000000
0.24592088 0.66085798 0.01673885
0.32715407 -0.40987083 0.00000000
0.02708471 0.35569641 0.00000000
0.48677367 -0.53660643 0.00000000
0.77850562 0.28633571 0.04151701
0.56762338 0.45896336 0.03552016
-0.67327368 0.39322460 0.00000000
-0.02470719 -0.03032247 0.00000000
-0.61929649 -0.22118635 0.00000000
0.61814541 0.57403147 0.06147826
-0.66214436 0.67746228 0.00000000
-0.12110700 -0.54889590 0.00000000
0.30348057 -0.02234169 0.00000000
0.14073963 -0.72993785 0.00000000
0.53510386 0.22633107 0.00000000
0.47170386 0.20204328 0.00000000
-0.66612291 0.12636474 0.00000000
0.72247708 0.73253870 0.10268078
-0.12303412 0.38800502 0.00000000
-0.73619127 -0.07843907 0.00000000
0.64144337 -0.71420658 0.00000000
-0.30503476 0.36139902 0.00000000
-0.16147694 -0.36104509 0.00000000
0.65043056 -0.49641219 0.00000000
-0.26892790 0.41108525 0.00000000
0.26318863 0.52282929 0.00000000
0.59701753 -0.44391701 0.00000000
-0.09445908 0.12712298 0.00000000
0.69726777 0.52890712 0.06680789
-0.56579071 0.37278244 0.00000000
0.44702774 0.39822453 0.00709383
-0.03306801 -0.47590867 0.00000000
0.78166419 0.22658096 0.03264490
-0.41371742 0.40586665 0.00000000
-0.32039621 0.26975659 0.00000000
0.66854417 0.00836782 0.00000000
0.61770976 0.32962009 0.02309570
-0.60398662 -0.61599523 0.00000000
-0.04804863 0.23214613 0.00000000
0.06855483 -0.09994052 0.00000000
-0.66784286 -0.53980750 0.00000000
0.45546713 -0.74441463 0.00000000
0.74003297 -0.05514503 0.00000000
-0.22728752 -0.57496536 0.00000000
0.38680589 -0.07125819 0.00000000
-0.66493672 -0.08340423 0.00000000
0.36490163 -0.05657662 0.00000000
-0.57699209 0.24009489 0.00000000
-0.55480963 0.04194295 0.00000000
0.61051267 -0.44847006 0.00000000
-0.33852869 -0.66911268 0.00000000
0.07919634 0.40185767 0.00000000
0.47768700 0.72928864 0.06379787
0.10702241 0.49704948 0.00000000
0.40570027 0.03018898 0.00000000
-0.66347784 0.58601111 0.00000000
0.46262395 -0.77457768 0.00000000
-0.01215493 -0.15882783 0.00000000
-0.21377093 0.58838081 0.00000000
-0.21620691 0.77973515 0.00000000
0.73006570 -0.48479101 0.00000000
-0.47117409 -0.04174959 0.00000000
0.24162984 -0.75558060 0.00000000
-0.59269476 0.34004432 0.00000000
-0.15800528 0.62617600 0.00000000
0.68587351 -0.47819859 0.00000000
0.06549297 -0.61030376 0.00000000
-0.21541101 0.43297026 0.00000000
0.33910599 -0.14338475 0.00000000
-0.53412342 0.08922250 0.00000000
0.61505955 -0.19100049 0.00000000
-0.60364836 0.76824141 0.00000000
0.18811893 -0.25006270 0.00000000
0.49630442 -0.34706962 0.00000000
-0.10072870 0.19740307 0.00000000
-0.70235693 -0.74304318 0.00000000
0.46578664 -0.68765414 0.00000000
-0.59713322 -0.24170753 0.00000000
-0.04579213 0.76825833 0.00000000
-0.68084162 0.07277616 0.00000000
0.63278025 -0.69197941 0.00000000
-0.10064890 -0.11536768 0.00000000
-0.30651009 -0.73430490 0.00000000
0.37680513 -0.29826608 0.00000000
-0.49977478 -0.50127029 0.00000000
0.03100876 0.69518512 0.00000000
0.50713384 0.18563546 0.00000000
-0.71738797 0.47297946 0.00000000
-0.72006285 -0.12603571 0.00000000
-0.41743299 -0.10243092 0.00000000
-0.56179869 -0.26883578 0.00000000
-0.29902402 0.26265064 0.00000000
-0.17242683 -0.29052317 0.00000000
-0.30621195 0.33416778 0.00000000
0.65180480 -0.06801215 0.00000000
0.14430705 0.09818046 0.00000000
-0.06353823 -0.41362780 0.00000000
0.02516220 0.78109372 0.00098069
0.52775121 0.39534479 0.01929676
-0.42510390 -0.40658793 0.00000000
0.50863767 0.55430359 0.04121916
-0.55424011 -0.31558305 0.00000000
0.19930837 -0.05652015 0.00000000
-0.58254653 -0.49185166 0.00000000
0.49330530 -0.59950161 0.00000000
0.14226040 -0.44079953 0.00000000
0.37991232 0.64440882 0.03516499
0.53433275 0.14619832 0.00000000
0.66043949 0.67451060 0.08385932
-0.49643093 -0.27551082 0.00000000
0.21655795 -0.18022919 0.00000000
-0.22722241 0.72644782 0.00000000
-0.73100048 0.56561238 0.00000000
-0.57705802 -0.27877906 0.00000000
0.52761644 -0.65822577 0.00000000
-0.21488968 0.56024742 0.00000000
0.72416419 0.18155769 0.01657315
0.39255002 -0.01108983 0.00000000
0.02454674 0.69964337 0.00000000
-0.44777471 0.60529542 0.00000000
-0.34526625 -0.13486809 0.00000000
-0.67675430 0.77207476 0.00000000
0.31648207 -0.57963389 0.00000000
-0.17524141 0.71001440 0.00000000
-0.52327102 0.07674641 0.00000000
-0.33017898 0.37806728 0.00000000
-0.44981250 0.18360132 0.00000000
0.27222326 0.51251394 0.00000000
-0.00070407 0.50814211 0.00000000
0.13631274 0.38543013 0.00000000
0.25525913 0.68975818 0.02273318
-0.41810557 0.38762504 0.00000000
0.68988305 -0.48653588 0.00000000
0.21362890 0.38672659 0.00000000
-0.59233266 -0.12667881 0.00000000
-0.14804918 -0.00556094 0.00000000
0.03133664 -0.17764322 0.00000000
0.71634328 0.59880853 0.08075584
0.26003337 0.61891264 0.01237572
0.36437592 0.19059613 0.00000000
-0.70395058 -0.30539581 0.00000000
-0.54382157 0.53938580 0.00000000
0.03447416 0.45898244 0.00000000
-0.58279943 -0.01565246 0.00000000
0.71265376 0.38624951 0.04685663
0.76987797 -0.24619693 0.00000000
0.12292923 -0.15898854 0.00000000
-0.63394260 0.76477951 0.00000000
-0.14534613 0.47940263 0.00000000
-0.40933344 0.76545715 0.00000000
0.61329007 0.11015479 0.00000000
0.28891888 0.75943881 0.03893277
-0.29420123 -0.52378440 0.00000000
0.27194083 -0.05636303 0.00000000
-0.08434198 0.41758418 0.00000000
0.11578776 -0.29042593 0.00000000
-0.12203964 0.59762359 0.00000000
-0.16744693 -0.14710359 0.00000000
0.79856580 -0.66144025 0.00000000
-0.28054619 0.50255311 0.00000000
0.51379615 0.60681444 0.05025944
-0.17881684 -0.46546149 0.00000000
0.55821908 0.02214786 0.00000000
0.44732749 -0.49052387 0.00000000
-0.43052182 -0.61466759 0.00000000
-0.47807667 0.48375270 0.00000000
-0.48592317 0.62207371 0.00000000
-0.11360188 -0.74957377 0.00000000
-0.05627411 -0.76076812 0.00000000
0.46943164 0.08767255 0.00000000
0.76489127 0.09955554 0.01010280
0.03748924 -0.68343890 0.00000000
-0.76767641 0.61266166 0.00000000
0.40080866 0.20922515 0.00000000
0.73954087 -0.69133568 0.00000000
0.73039520 0.69648671 0.09827057
-0.56567788 -0.11565264 0.00000000
0.48021257 -0.54360223 0.00000000
0.54469794 0.14463487 0.00000000
-0.52036452 0.75421286 0.00000000
0.45264861 -0.79755801 0.00000000
-0.07908936 0.09180537 0.00000000
-0.29352328 -0.56232518 0.00000000
-0.46042848 -0.22214712 0.00000000
-0.36151782 0.54183388 0.00000000
0.42486313 0.68232560 0.04815529
-0.65942937 -0.56299305 0.00000000
-0.50964248 0.78406435 0.00000000
-0.11996327 0.29034364 0.00000000
0.09848868 0.50921959 0.00000000
-0.27920008 -0.33357778 0.00000000
0.49563870 0.25754994 0.00000000
0.41665077 -0.43720999 0.00000000
0.41969457 0.48982286 0.01716815
-0.14944756 -0.48853740 0.00000000
0.55551684 -0.25294074 0.00000000
-0.61255765 0.02569834 0.00000000
-0.20266575 0.34070608 0.00000000
-0.40018541 -0.50884426 0.00000000
-0.09283332 -0.24501339 0.00000000
0.41438699 0.72473925 0.05316176
-0.29920340 -0.42892531 0.00000000
0.77483588 0.66199642 0.09983045
-0.23886189 0.14369962 0.00000000
-0.03908742 0.59405947 0.00000000
-0.11885006 -0.71563119 0.00000000
0.76567775 0.30152100 0.04188657
0.69960880 -0.26477146 0.00000000
-0.58868712 -0.66414505 0.00000000
0.02878660 -0.53410310 0.00000000
0.24800366 -0.04591155 0.00000000
0.48230416 0.69432205 0.05904033
-0.55391550 -0.66140383 0.00000000
-0.67182857 0.16298023 0.00000000
-0.28947270 -0.37294099 0.00000000
0.13174054 0.29419667 0.00000000
0.61510164 0.52574652 0.05343198
-0.13630585 -0.74441880 0.00000000
-0.18640615 0.40575117 0.00000000
0.12320215 -0.20945986 0.00000000
-0.50454539 0.21195479 0.00000000
-0.46572131 0.23932229 0.00000000
0.15015934 -0.32641554 0.00000000
-0.77713275 -0.36336440 0.00000000
0.31632674 0.01296187 0.00000000
-0.06779336 0.58670968 0.00000000
-0.35466686 0.34123403 0.00000000
-0.24639809 -0.42256945 0.00000000
-0.50506550 -0.26813728 0.00000000
-0.00883421 0.46550658 0.00000000
-0.13716649 0.28807113 0.00000000
0.52262455 -0.54135638 0.00000000
-0.11018895 0.46024665 0.00000000
0.57712048 -0.12040966 0.00000000
-0.55839449 0.76117772 0.00000000
-0.42613685 -0.18782543 0.00000000
-0.50743377 -0.79383707 0.00000000
0.74553597 -0.47334877 0.00000000
-0.13616186 -0.66657603 0.00000000
-0.42946470 0.73873442 0.00000000
-0.13603516 -0.29061249 0.00000000
-0.09230143 -0.21366496 0.00000000
0.52603573 -0.34566998 0.00000000
0.36858633 0.23226234 0.00000000
0.13346636 0.42863345 0.00000000
0.54700357 -0.37653050 0.00000000
-0.28020704 -0.42564541 0.00000000
0.38225836 -0.45283994 0.00000000
-0.36868668 0.16078207 0.00000000
0.62658459 -0.34458649 0.00000000
0.68157411 -0.17825250 0.00000000
0.25795969 -0.52852851 0.00000000
0.62462431 -0.05503317 0.00000000
-0.61364561 -0.18643197 0.00000000
0.52220011 0.27692389 0.00000000
-0.15117291 0.47938338 0.00000000
-0.44330496 0.34169245 0.00000000
-0.18288638 0.33312798 0.00000000
-0.07838262 -0.57576704 0.00000000
0.08841629 -0.72138226 0.00000000
0.36191589 0.10172489 0.00000000
0.48455024 0.41895825 0.01622618
-0.45434806 0.00022694 0.00000000
-0.41187873 -0.56311476 0.00000000
-0.04596582 0.66471535 0.00000000
-0.49317917 -0.38116685 0.00000000
0.58107406 0.25775436 0.00608682
0.79162747 0.54130036 0.08354252
0.00242174 0.69313812 0.00000000
0.72487527 -0.52632141 0.00000000
0.77785432 0.31431717 0.04580135
-0.48624277 0.32671383 0.00000000
0.60179603 0.04063972 0.00000000
-0.30220154 0.00457191 0.00000000
0.45836055 -0.03073031 0.00000000
0.28342804 -0.07319119 0.00000000
-0.42575821 0.35789993 0.00000000
-0.75105339 -0.10983555 0.00000000
0.14990985 0.33470440 0.00000000
0.51885962 -0.72086906 0.00000000
0.05050830 -0.57764572 0.00000000
-0.40577680 0.74931067 0.00000000
0.44083291 -0.02494115 0.00000000
-0.37640598 0.45768097 0.00000000
0.47556275 -0.51610231 0.00000000
-0.16893636 0.48059824 0.00000000
0.62309301 -0.32281661 0.00000000
-0.62714219 0.77100468 0.00000000
0.63065648 -0.47648001 0.00000000
0.74658507 -0.38848278 0.00000000
0.35220525 0.20282184 0.00000000
0.35297799 0.05797426 0.00000000
0.31210852 0.09495703 0.00000000
0.01638622 -0.77982360 0.00000000
0.32449424 0.55271709 0.01210379
0.49289659 0.17866258 0.00000000
-0.38246393 -0.78141487 0.00000000
-0.23676576 -0.68073654 0.00000000
0.28409749 -0.34190032 0.00000000
-0.18038595 -0.16981149 0.00000000
-0.56641930 0.46171030 0.00000000
-0.48337540 -0.76562673 0.00000000
-0.64357436 -0.36557201 0.00000000
-0.22955316 0.71723485 0.00000000
-0.34082922 -0.46092919 0.00000000
0.77181685 -0.10226452 0.00000000
0.31902516 0.58492541 0.01629548
-0.28702083 -0.10265185 0.00000000
-0.17805919 0.25098816 0.00000000
-0.49045244 -0.43285277 0.00000000
0.12766129 0.64236063 0.00000000
0.28149199 0.10372408 0.00000000
-0.11325663 0.03255346 0.00000000
-0.20128766 0.40957841 0.00000000
-0.46873960 -0.12256510 0.00000000
-0.55581319 -0.51681942 0.00000000
-0.79102796 0.12567614 0.00000000
0.61974478 0.41005480 0.03602381
-0.71884763 0.16596934 0.00000000
-0.42674273 -0.21602681 0.00000000
0.49281079 -0.50138605 0.00000000
-0.66812885 0.53773332 0.00000000
0.53730160 0.73980188 0.07479113
0.30798697 0.57010186 0.01224135
-0.79157436 0.53984517 0.00000000
-0.37557983 0.31798124 0.00000000
0.62817848 -0.78358257 0.00000000
0.71175432 0.34569374 0.04035804
-0.38257998 0.00012126 0.00000000
0.64498281 0.43317553 0.04360462
-0.09877288 -0.68650544 0.00000000
-0.56566042 0.73880243 0.00000000
0.65351403 0.07976939 0.00000000
0.34002385 -0.17189381 0.00000000
0.56955397 0.37726688 0.02301591
0.25409919 -0.00324675 0.00000000
0.33158883 -0.45223859 0.00000000
-0.13259584 -0.27841258 0.00000000
0.18657905 0.43174633 0.00000000
0.29209006 -0.50472671 0.00000000
-0.74996024 -0.06649108 0.00000000
-0.00940344 0.27072051 0.00000000
0.74978721 0.64275128 0.09288696
-0.67188978 -0.38320893 0.00000000
0.59835160 0.18548074 0.00000000
0.32300770 -0.33998233 0.00000000
0.77996290 -0.47780794 0.00000000
0.46224162 0.28860638 0.00000000
0.21448678 -0.43946785 0.00000000
-0.63186038 -0.12222500 0.00000000
-0.29378724 0.21860252 0.00000000
-0.33514774 0.38428119 0.00000000
0.66788387 -0.03541841 0.00000000
-0.20735919 -0.44368753 0.00000000
0.47516066 -0.27793241 0.00000000
-0.27900603 -0.69847894 0.00000000
-0.49279377 0.17010643 0.00000000
0.11001383 0.06266376 0.00000000
0.71080106 0.56651258 0.07482437
-0.72858274 -0.32614917 0.00000000
0.34764555 -0.49409488 0.00000000
0.54586685 -0.19283843 0.00000000
0.37111607 -0.43344003 0.00000000
0.47980085 0.31065750 0.00000000
-0.22272798 0.62814599 0.00000000
0.72974443 0.08332750 0.00204918
0.72683024 -0.64915824 0.00000000
-0.59923381 -0.39045855 0.00000000
0.24035054 -0.28037721 0.00000000
0.65337813 0.55290043 0.06368888
0.41695631 0.70289975 0.05014100
0.10981938 -0.16058522 0.00000000
0.34631810 0.27223834 0.00000000
0.47526118 -0.24410184 0.00000000
-0.17080848 0.59768713 0.00000000
0.18953606 0.10404729 0.00000000
0.46044382 0.11734608 0.00000000
0.02382207 -0.56883764 0.00000000
0.45937973 0.02848258 0.00000000
-0.57681048 0.13777173 0.00000000
0.04113028 0.11083054 0.00000000
-0.42577925 -0.44952750 0.00000000
-0.14424375 -0.73054272 0.00000000
-0.28131714 0.34624648 0.00000000
0.76678920 -0.79402518 0.00000000
0.50604731 -0.37510034 0.00000000
0.51322645 0.69320214 0.06371217
-0.43227214 0.66395861 0.00000000
0.01492091 -0.64977574 0.00000000
0.62699026 0.47606716 0.04750785
-0.05604941 -0.04045650 0.00000000
0.17374147 0.16999479 0.00000000
-0.40963084 0.05331265 0.00000000
0.04221257 -0.63282377 0.00000000
-0.04064289 0.30884317 0.00000000
-0.47787982 -0.14739679 0.00000000
0.14136817 -0.21910767 0.00000000
0.16194716 0.62163556 0.00000000
0.62583774 -0.50834882 0.00000000
-0.62161845 0.46221885 0.00000000
0.67168999 -0.13699397 0.00000000
0.46958247 0.52708852 0.03083051
-0.26035479 0.11562782 0.00000000
-0.59378821 -0.28293234 0.00000000
-0.06633599 -0.14310293 0.00000000
0.28963530 0.62688637 0.01826615
-0.64759761 0.17533021 0.00000000
0.26996195 0.73537534 0.03218891
-0.70537186 -0.48841092 0.00000000
-0.23845525 0.37213364 0.00000000
-0.29918727 -0.56738728 0.00000000
0.50611216 0.15209217 0.00000000
-0.17201068 0.66481584 0.00000000
0.33574069 0.40686378 0.00000000
-0.43933126 -0.38513619 0.00000000
-0.55604178 -0.59643960 0.00000000
0.36634699 -0.19085556 0.00000000
-0.42731375 -0.10725484 0.00000000
0.20514408 0.68812376 0.01462083
-0.43749779 -0.30704221 0.00000000
0.11231144 -0.62714523 0.00000000
-0.00139914 -0.10511375 0.00000000
-0.78721774 -0.20960055 0.00000000
-0.15539792 0.30582488 0.00000000
-0.38269189 -0.08066953 0.00000000
-0.44588068 -0.78598249 0.00000000
0.41582927 -0.08534496 0.00000000
0.28112823 0.61919922 0.01572752
-0.14084776 -0.03426824 0.00000000
-0.03720676 0.65735662 0.00000000
-0.64149976 -0.11634820 0.00000000
0.70021814 -0.41404614 0.00000000
0.22495937 -0.44902202 0.00000000
0.41091996 0.02983077 0.00000000
0.53705806 -0.70173651 0.00000000
-0.29835001 -0.08500190 0.00000000
0.08766772 -0.05521791 0.00000000
-0.43957508 -0.51802981 0.00000000
0.19074868 0.35570213 0.00000000
0.51852858 0.11825369 0.00000000
-0.53437018 0.23391108 0.00000000
0.66123527 0.43220401 0.04600008
0.14434837 0.67877829 0.00362537
-0.43969458 0.01078200 0.00000000
-0.55521476 -0.31434032 0.00000000
-0.28370696 0.79019099 0.00000000
0.20247208 0.02204609 0.00000000
0.42430755 -0.26880002 0.00000000
0.55671924 -0.54453856 0.00000000
-0.11772536 0.68496197 0.00000000
-0.09866358 -0.14543460 0.00000000
-0.63838583 0.28753707 0.00000000
0.62792683 -0.38950881 0.00000000
0.58356929 -0.48263416 0.00000000
0.61252159 0.74264067 0.08702767
-0.05919785 -0.71244884 0.00000000
-0.71758735 0.76657659 0.00000000
-0.22105375 -0.39713588 0.00000000
-0.74136877 0.43646199 0.00000000
-0.32610402 0.39955610 0.00000000
0.48558918 0.62520546 0.04872065
0.33900043 0.67034024 0.03281659
-0.25665441 0.21964182 0.00000000
-0.58903700 -0.15802775 0.00000000
-0.17216307 -0.12947169 0.00000000
-0.72878253 0.27787510 0.00000000
-0.21000558 0.36063468 0.00000000
0.24267371 0.39846879 0.00000000
0.65745145 -0.40734166 0.00000000
-0.23216729 0.51397061 0.00000000
-0.28690732 0.73073357 0.00000000
-0.29261824 -0.44387269 0.00000000
0.27567136 -0.62090188 0.00000000
-0.35631472 0.08136594 0.00000000
0.48467478 0.72755885 0.06462211
-0.29269311 -0.62581521 0.00000000
0.51373065 -0.22841494 0.00000000
-0.61794817 -0.41313183 0.00000000
0.16421156 -0.13105384 0.00000000
-0.15765207 0.16142605 0.00000000
-0.53317308 -0.79761755 0.00000000
0.21225701 0.76192325 0.02730467
0.08170668 -0.40283719 0.00000000
0.36271012 0.18898459 0.00000000
0.64541119 -0.30614194 0.00000000
-0.64082599 0.02338477 0.00000000
-0.55901021 0.26586336 0.00000000
0.45304137 -0.09894184 0.00000000
0.26559749 0.47797841 0.00000000
0.77986014 0.02493466 0.00075163
0.48719755 -0.73495495 0.00000000
-0.16961709 0.69472051 0.00000000
0.20201081 -0.64843494 0.00000000
-0.49889201 -0.78725249 0.00000000
0.07405423 -0.17033410 0.00000000
0.46277297 -0.34915820 0.00000000
-0.23227412 0.22531953 0.00000000
0.73207140 -0.56552649 0.00000000
0.69102126 0.55398852 0.06976043
-0.55304962 -0.51690346 0.00000000
-0.43216616 0.35153538 0.00000000
0.09227953 -0.63043427 0.00000000
-0.18652757 0.78718448 0.00000000
0.48154232 -0.22109267 0.00000000
0.57244754 0.37629253 0.02331676
-0.01893029 -0.25762913 0.00000000
-0.22670619 -0.24494280 0.00000000
0.35731089 -0.23592889 0.00000000
-0.48160824 0.39594764 0.00000000
0.00990414 0.25088635 0.00000000
-0.65251672 -0.69307232 0.00000000
-0.47447693 -0.59097898 0.00000000
-0.28231412 0.77934939 0.00000000
-0.04880724 0.78599238 0.00000000
0.15652587 -0.07797196 0.00000000
0.52914077 0.22339378 0.00000000
0.20296961 -0.60512102 0.00000000
-0.42728731 -0.15628043 0.00000000
0.49196199 -0.36808401 0.00000000
0.45164666 -0.66675645 0.00000000
-0.26733315 0.39481845 0.00000000
-0.21679738 0.47034523 0.00000000
0.51987988 0.19746666 0.00000000
-0.54370505 0.32419962 0.00000000
0.32961538 -0.67146915 0.00000000
0.18264768 -0.42114034 0.00000000
0.58740747 0.30976838 0.01523347
-0.73200327 -0.22095174 0.00000000
-0.75450224 0.32036141 0.00000000
0.59854746 -0.13966446 0.00000000
0.67609876 -0.40142334 0.00000000
-0.50679189 0.63027465 0.00000000
0.38697329 -0.56282336 0.00000000
0.20077793 -0.17924531 0.00000000
-0.04003409 -0.32143030 0.00000000
0.61316448 0.07677680 0.00000000
0.71507049 -0.12738925 0.00000000
-0.49752164 0.54155850 0.00000000
-0.28837937 0.16170610 0.00000000
-0.28833681 -0.61788571 0.00000000
0.30035070 -0.21317258 0.00000000
-0.06711577 -0.31041095 0.00000000
-0.47271070 -0.57276040 0.00000000
0.56587744 0.41534710 0.02840910
0.79155368 0.07057891 0.00974002
-0.75339472 -0.73223799 0.00000000
-0.27094731 0.49866086 0.00000000
-0.32443985 -0.75244659 0.00000000
0.14684968 0.12791353 0.00000000
0.51961166 -0.62122816 0.00000000
0.24975827 0.58425736 0.00533235
-0.79925728 -0.04106556 0.00000000
-0.62978417 -0.55466706 0.00000000
-0.18715724 0.30684564 0.00000000
-0.24307840 0.32769635 0.00000000
-0.27124894 0.38048044 0.00000000
0.02628070 -0.51508385 0.00000000
-0.72933632 -0.60223418 0.00000000
0.46663529 0.01705947 0.00000000
0.21860303 -0.16158701 0.00000000
0.71802884 -0.62372601 0.00000000
-0.21724439 0.61449534 0.00000000
-0.72131807 0.53892547 0.00000000
-0.40501073 -0.14616704 0.00000000
-0.76742125 0.22857499 0.00000000
-0.51512182 -0.22107054 0.00000000
0.65587598 0.71796876 0.08995639
-0.37164900 -0.20434657 0.00000000
0.57579315 -0.51656747 0.00000000
-0.77712470 0.20940877 0.00000000
0.46670291 0.55087698 0.03410823
0.45031473 0.53652555 0.02928942
-0.37090597 0.09468277 0.00000000
-0.75889099 -0.63878405 0.00000000
0.47900155 0.41767123 0.01515460
0.29221860 0.19400425 0.00000000
-0.65549648 -0.27996111 0.00000000
-0.77684170 -0.58630002 0.00000000
0.04215314 0.62224430 0.00000000
0.66531217 -0.71060723 0.00000000
0.32469925 0.65619135 0.02835674
0.41360760 0.72094405 0.05244465
0.21593401 0.40478805 0.00000000
0.15481992 -0.20959644 0.00000000
-0.36128765 -0.54799807 0.00000000
-0.62796724 0.64368552 0.00000000
-0.46534270 -0.07936443 0.00000000
-0.10685066 0.49662071 0.00000000
0.49793604 -0.38765779 0.00000000
0.76817608 -0.12091369 0.00000000
0.06982668 0.64218795 0.00000000
0.06210759 0.45642895 0.00000000
0.26165000 -0.75204617 0.00000000
0.54152638 0.07019691 0.00000000
-0.37292016 -0.35304379 0.00000000
-0.15667565 0.64520270 0.00000000
-0.77309436 -0.76809233 0.00000000
0.51754880 -0.16036314 0.00000000
0.39791593 0.40588322 0.00059556
0.47175327 -0.74010992 0.00000000
0.72710657 0.31330454 0.03768730
0.58341211 -0.17876577 0.00000000
-0.21492863 0.52683282 0.00000000
-0.18639459 -0.58590347 0.00000000
-0.31959999 0.38331485 0.00000000
-0.60371500 0.72646451 0.00000000
-0.26119739 0.49490881 0.00000000
0.02122617 -0.76104403 0.00000000
0.34245375 0.55661690 0.01553050
-0.01032054 -0.06179688 0.00000000
-0.19496286 0.53478253 0.00000000
-0.53501028 -0.40493757 0.00000000
0.51696205 0.23412362 0.00000000
-0.68334216 0.34132507 0.00000000
-0.56992984 -0.51641148 0.00000000
-0.12111215 -0.72626233 0.00000000
-0.28086677 0.32344130 0.00000000
-0.73274875 -0.32092935 0.00000000
0.29280916 0.34711736 0.00000000
-0.28201324 0.64956158 0.00000000
-0.77957022 -0.04794950 0.00000000
0.46037954 0.23335151 0.00000000
-0.56398147 -0.70963699 0.00000000
0.03546349 -0.11827983 0.00000000
-0.79609036 0.47424778 0.00000000
0.01419250 0.32582244 0.00000000
-0.31855133 -0.28474650 0.00000000
-0.48111463 0.16354157 0.00000000
0.71401954 0.51360571 0.06703527
0.62586612 0.37000662 0.03070537
0.17199928 0.09307886 0.00000000
0.78824848 0.27622774 0.04145979
-0.16841079 0.53943503 0.00000000
-0.70549512 -0.60987896 0.00000000
-0.33985937 0.11347338 0.00000000
-0.38192829 -0.07458757 0.00000000
-0.33928901 0.52808100 0.00000000
0.41841212 0.40683573 0.00395789
0.26924333 -0.63506562 0.00000000
-0.34944114 0.04155057 0.00000000
0.47839820 -0.75646842 0.00000000
-0.65857822 0.26527143 0.00000000
-0.62608880 -0.19711432 0.00000000
0.12570018 -0.73076385 0.00000000
0.17530210 0.12169397 0.00000000
-0.12373441 -0.34707171 0.00000000
-0.16815794 -0.31212056 0.00000000
-0.44011918 -0.16542698 0.00000000
-0.00473240 0.23682803 0.00000000
-0.07417626 0.41605216 0.00000000
0.38643745 0.42112893 0.00118612
0.06781146 -0.01714714 0.00000000
-0.25622630 0.19250150 0.00000000
0.01147890 -0.53242522 0.00000000
-0.70814747 -0.72554618 0.00000000
0.43919683 0.50852048 0.02315644
-0.63786227 0.58084500 0.00000000
-0.66845709 -0.68792003 0.00000000
-0.01153693 0.67457396 0.00000000
-0.29855114 -0.69245982 0.00000000
0.32808191 0.42360041 0.00000000
0.56436306 0.16273010 0.00000000
0.77025855 -0.47820559 0.00000000
-0.62448615 -0.14003161 0.00000000
0.02894979 0.45449087 0.00000000
-0.73067057 -0.62670135 0.00000000
-0.46131396 -0.34352344 0.00000000
0.10944680 -0.20348316 0.00000000
0.56041455 0.27945206 0.00624956
0.06059578 -0.45009816 0.00000000
0.39839458 0.39461380 0.00000000
0.29398316 0.06229442 0.00000000
-0.54137963 -0.44779962 0.00000000
-0.09042475 -0.00679715 0.00000000
0.66220593 -0.61857349 0.00000000
-0.68932819 -0.58256084 0.00000000
-0.09089704 0.76271123 0.00000000
0.22747581 0.02449411 0.00000000
-0.43406862 -0.74507582 0.00000000
0.19439863 -0.32427111 0.00000000
0.06091227 0.25634265 0.00000000
-0.62641621 0.20582093 0.00000000
0.52152514 -0.48227119 0.00000000
-0.03030965 -0.23965451 0.00000000
-0.49115318 -0.48168546 0.00000000
0.26124519 0.70998049 0.02684159
-0.20456930 0.35248750 0.00000000
-0.20772032 0.75497395 0.00000000
0.19390713 0.56948847 0.00000000
-0.39041182 -0.65640783 0.00000000
-0.66648191 0.00475658 0.00000000
-0.40545511 0.74866366 0.00000000
-0.31031802 -0.02443662 0.00000000
-0.38089034 -0.31649086 0.00000000
-0.31563941 0.79016757 0.00000000
0.44677344 -0.27872944 0.00000000
-0.72767180 -0.27064338 0.00000000
-0.46397176 0.38826904 0.00000000
0.32886153 0.65564376 0.02892340
-0.08999821 0.28852227 0.00000000
-0.05320784 -0.22692259 0.00000000
-0.73612899 0.14946362 0.00000000
-0.79084367 0.68623561 0.00000000
-0.09266051 0.02666267 0.00000000
-0.34690005 -0.26548940 0.00000000
-0.63154244 -0.72008353 0.00000000
-0.12133875 -0.21826302 0.00000000
0.50933427 0.48512569 0.03048391
0.76666212 -0.68097913 0.00000000
0.77894086 -0.41743052 0.00000000
-0.32795835 -0.54942429 0.00000000
0.37987742 -0.29765150 0.00000000
0.04881155 0.56361312 0.00000000
-0.30887541 0.71833169 0.00000000
0.74449205 0.60250378 0.08574773
-0.25360957 0.75794786 0.00000000
-0.42890942 -0.35031304 0.00000000
-0.57755435 0.11361492 0.00000000
-0.39228651 -0.27650157 0.00000000
0.64137787 0.26402995 0.01652392
0.65193957 -0.58634776 0.00000000
0.23977378 -0.30701542 0.00000000
0.62255120 -0.44065207 0.00000000
0.56257558 0.15167859 0.00000000
-0.16516140 0.43853736 0.00000000
0.24191909 0.44324929 0.00000000
-0.69139040 -0.51084018 0.00000000
-0.49912068 0.41577086 0.00000000
-0.04739231 -0.61623460 0.00000000
0.77197057 -0.47833058 0.00000000
-0.29623339 0.63088077 0.00000000
0.18701218 -0.42141464 0.00000000
0.76172614 0.62696517 0.09228390
0.64352149 0.69474298 0.08437885
-0.71115118 -0.09629770 0.00000000
0.63488626 -0.69599152 0.00000000
0.79390806 -0.02625807 0.00000000
-0.72072816 -0.00695894 0.00000000
0.26194698 -0.40312114 0.00000000
-0.16857767 -0.19172937 0.00000000
-0.14121442 -0.16361831 0.00000000
0.08597313 0.49770209 0.00000000
0.44849983 -0.15950552 0.00000000
-0.25438157 0.38601169 0.00000000
-0.26994267 -0.21321169 0.00000000
-0.67111093 0.70166856 0.00000000
-0.61327910 0.18574060 0.00000000
0.07719365 -0.47113121 0.00000000
0.24855080 -0.24138504 0.00000000
0.01000756 -0.08908239 0.00000000
0.32363746 -0.40636799 0.00000000
-0.04099054 -0.55017668 0.00000000
-0.76760960 0.23898643 0.00000000
0.14391036 0.55429912 0.00000000
-0.07484236 0.14321202 0.00000000
-0.20767441 0.63434309 0.00000000
0.11960550 0.73405838 0.00841245
-0.63737381 -0.29363281 0.00000000
0.11871597 0.02189981 0.00000000
-0.03468569 -0.68025380 0.00000000
-0.25218198 0.02152560 0.00000000
0.30172804 0.22172315 0.00000000
0.26577300 -0.09584427 0.00000000
-0.41765842 -0.08876916 0.00000000
0.63499212 0.12871300 0.00000000
0.67341697 0.65139705 0.08227042
-0.60353297 0.56476283 0.00000000
0.33645520 0.69650745 0.03651954
-0.02174384 0.64065999 0.00000000
0.25098553 -0.63359582 0.00000000
0.69180954 0.29695415 0.02959095
0.53499776 -0.72806638 0.00000000
0.37647790 -0.56897092 0.00000000
-0.57143724 0.54842287 0.00000000
-0.66911781 0.75130725 0.00000000
0.56350464 -0.70897931 0.00000000
-0.17031106 -0.57757860 0.00000000
-0.77822208 -0.73508513 0.00000000
0.28125650 -0.19710951 0.00000000
0.25632608 -0.33904660 0.00000000
-0.63923341 0.67024285 0.00000000
0.06455574 0.49099615 0.00000000
-0.57659417 -0.20269865 0.00000000
-0.06198393 0.39826012 0.00000000
0.28490591 0.46560684 0.00000000
-0.11001515 -0.72282177 0.00000000
0.08190175 -0.55064183 0.00000000
-0.55366099 0.62941730 0.00000000
-0.78696090 0.67411590 0.00000000
-0.58636439 0.22903875 0.00000000
0.14791884 -0.00888108 0.00000000
-0.09861275 0.72425568 0.00000000
0.35790950 0.25144988 0.00000000
0.76532751 -0.06002055 0.00000000
0.01616439 0.20548482 0.00000000
0.22307444 -0.78780562 0.00000000
0.39476737 0.36047134 0.00000000
-0.35867953 -0.47360522 0.00000000
-0.03292151 -0.11974392 0.00000000
-0.76191211 -0.67429441 0.00000000
0.78230917 -0.25552574 0.00000000
0.04546934 -0.38591123 0.00000000
0.15090249 0.31242988 0.00000000
0.47007924 0.00919145 0.00000000
0.27521309 -0.79315090 0.00000000
-0.01081456 0.28427637 0.00000000
0.64909685 0.46288738 0.04890723
0.51115179 0.30380905 0.00234529
0.17773087 -0.39960775 0.00000000
0.17638303 -0.26092488 0.00000000
0.05928165 -0.16701175 0.00000000
-0.70277119 -0.57067478 0.00000000
-0.05965455 0.10283353 0.00000000
0.12018220 0.32008559 0.00000000
-0.30816716 -0.09945005 0.00000000
-0.37768584 -0.35351774 0.00000000
0.28089738 0.72931319 0.03295286
0.01764547 -0.41067854 0.00000000
-0.16344614 -0.59759420 0.00000000
0.39182296 0.21968105 0.00000000
-0.06347315 0.30365565 0.00000000
0.08514401 -0.21294720 0.00000000
0.10602914 -0.45586804 0.00000000
-0.53678203 -0.17877138 0.00000000
0.49873585 0.13944536 0.00000000
0.14789526 0.28628361 0.00000000
0.09723787 0.56184155 0.00000000
0.23738565 0.16410211 0.00000000
-0.15491533 0.35149556 0.00000000
-0.76210529 -0.63887221 0.00000000
0.59046870 0.28267872 0.01146672
0.66163820 -0.74798399 0.00000000
-0.39922839 -0.67776614 0.00000000
-0.18159693 -0.65641290 0.00000000
0.12184735 0.57517987 0.00000000
-0.42129865 0.60589838 0.00000000
-0.06866091 0.72375548 0.00000000
-0.23601913 -0.19989578 0.00000000
-0.56470609 0.71047765 0.00000000
-0.13140363 0.19646361 0.00000000
-0.72430140 -0.74518001 0.00000000
-0.67747533 0.37989646 0.00000000
-0.65586358 0.33855560 0.00000000
-0.39306632 -0.29498285 0.00000000
0.74678910 -0.07724430 0.00000000
-0.79276830 -0.25001585 0.00000000
0.20661777 -0.19380020 0.00000000
0.57957977 0.00324429 0.00000000
0.48271832 -0.33028373 0.00000000
-0.29314932 -0.66064721 0.00000000
-0.51100433 -0.62888187 0.00000000
0.29206806 -0.04697325 0.00000000
-0.45088705 0.27534249 0.00000000
-0.61290419 0.39105126 0.00000000
-0.77249056 -0.54729861 0.00000000
-0.62519670 -0.11266240 0.00000000
0.46981481 0.54561096 0.03377054
-0.09781618 0.63885218 0.00000000
0.77238530 -0.50538188 0.00000000
0.79296499 0.16682228 0.02504855
-0.14941910 0.66431236 0.00000000
0.04569100 0.34136778 0.00000000
0.42134032 -0.53943652 0.00000000
0.61584735 0.31938896 0.02119990
-0.25631088 0.57866734 0.00000000
-0.23264556 -0.08007542 0.00000000
-0.52440226 0.24897681 0.00000000
0.40897903 -0.48290500 0.00000000
-0.31158173 0.41757074 0.00000000
0.09142850 0.09013811 0.00000000
-0.78101385 -0.08225820 0.00000000
-0.24755025 0.35066888 0.00000000
-0.68203390 -0.56741571 0.00000000
0.51472324 -0.11032401 0.00000000
0.18017654 -0.68969214 0.00000000
0.21354215 0.79182166 0.03219297
-0.46465692 0.35590002 0.00000000
0.57652998 0.67437929 0.07068501
0.05871920 -0.17946254 0.00000000
-0.30069742 -0.21594958 0.00000000
-0.68837470 -0.06687784 0.00000000
0.74624181 -0.77109772 0.00000000
0.32719946 0.21045242 0.00000000
0.50513285 -0.34250119 0.00000000
-0.69465035 0.66080779 0.00000000
-0.57311076 0.23591010 0.00000000
-0.31975141 -0.04555021 0.00000000
0.47536248 0.66302609 0.05304623
0.03591418 -0.61251897 0.00000000
0.62291175 0.51572174 0.05308481
-0.62807554 0.54906511 0.00000000
0.73419088 0.58863086 0.08195820
-0.79161227 -0.23254651 0.00000000
0.38251638 -0.51923734 0.00000000
0.24370879 -0.64807135 0.00000000
-0.07585296 0.62335759 0.00000000
0.05336063 0.07081353 0.00000000
-0.31643862 -0.17887770 0.00000000
-0.77914059 0.49236852 0.00000000
0.22038803 -0.11210176 0.00000000
0.51233369 -0.68369460 0.00000000
0.29070538 0.64567083 0.02137859
0.15332159 0.63110149 0.00000000
0.61188626 0.35966295 0.02689237
-0.14791091 -0.05362676 0.00000000
0.60591155 0.32779089 0.02095944
0.46954533 -0.15216328 0.00000000
-0.30096257 -0.05545879 0.00000000
-0.26646268 -0.10345052 0.00000000
-0.14139163 -0.66979104 0.00000000
-0.25255147 0.24643733 0.00000000
-0.19723292 -0.64569402 0.00000000
-0.77650040 -0.62047005 0.00000000
-0.68855536 -0.55171138 0.00000000
-0.10192366 0.37108865 0.00000000
0.39135090 -0.76988620 0.00000000
-0.16073909 -0.59422374 0.00000000
-0.70969480 0.03483040 0.00000000
-0.02876061 0.44699904 0.00000000
-0.12255189 0.51495409 0.00000000
0.23989916 -0.09745551 0.00000000
0.53399217 0.24540466 0.00000000
-0.57444787 -0.78927010 0.00000000
0.59762263 0.04187278 0.00000000
-0.43307233 0.11856099 0.00000000
-0.38382590 0.09383835 0.00000000
-0.69267839 0.73414636 0.00000000
0.67062372 -0.20616116 0.00000000
0.68567729 -0.71723682 0.00000000
-0.11779817 -0.67461824 0.00000000
-0.10096751 0.38297549 0.00000000
-0.68749660 -0.50202256 0.00000000
0.16013981 -0.41206324 0.00000000
-0.35942742 0.21969071 0.00000000
0.43651673 0.64240330 0.04372394
-0.62352383 0.76571107 0.00000000
0.09370234 -0.27241212 0.00000000
-0.73717338 -0.57540292 0.00000000
0.38367844 0.56366777 0.02309826
0.56190789 0.57923073 0.05347747
0.37453008 0.38623810 0.00000000
-0.06955046 0.40761387 0.00000000
0.57749861 0.28911600 0.01044262
0.65185261 0.35937250 0.03311204
-0.25516734 0.01968611 0.00000000
0.01113246 0.75768828 0.00000000
0.72102934 -0.13671409 0.00000000
0.60512018 -0.70086294 0.00000000
0.68249714 -0.64987862 0.00000000
-0.17994232 0.51213288 0.00000000
-0.44073790 -0.14608617 0.00000000
0.62325883 0.30366206 0.01989635
-0.23799837 0.29626557 0.00000000
0.15821198 0.69777155 0.00877608
0.74387670 0.13344114 0.01212049
0.07085447 0.39071643 0.00000000
0.60815781 -0.18289867 0.00000000
0.31969535 0.52503902 0.00701265
0.72732455 -0.26603264 0.00000000
-0.19671750 0.49486372 0.00000000
0.50900012 -0.33177951 0.00000000
0.73974359 0.42155838 0.05663837
0.12840346 0.36165735 0.00000000
0.15375568 -0.30338663 0.00000000
-0.13070150 0.59371561 0.00000000
0.04638230 0.12929402 0.00000000
-0.21152121 0.39786270 0.00000000
-0.37780449 -0.61612719 0.00000000
0.75383288 0.45744428 0.06447257
0.66598839 0.01646672 0.00000000
-0.64245170 0.00547182 0.00000000
-0.53666669 0.42395052 0.00000000
-0.65652198 -0.25914091 0.00000000
-0.43788207 0.34664476 0.00000000
0.69234359 0.42847270 0.05029175
0.35362589 0.61386442 0.02625609
-0.61181659 0.67571217 0.00000000
0.11900144 0.74224448 0.00960102
-0.33489940 0.65479463 0.00000000
0.76811153 -0.00942163 0.00000000
-0.48688692 -0.48460159 0.00000000
0.67448479 -0.44781131 0.00000000
-0.26217511 0.15403841 0.00000000
-0.32181436 0.01432730 0.00000000
0.58844668 -0.31984335 0.00000000
0.38606670 -0.46104437 0.00000000
0.39862958 0.53219700 0.02050862
0.45434135 -0.65408927 0.00000000
0.60442013 -0.02714335 0.00000000
-0.66838825 -0.25091004 0.00000000
0.54162514 -0.21370414 0.00000000
0.04816420 -0.06032278 0.00000000
0.54547524 0.18572676 0.00000000
0.63214308 -0.25381169 0.00000000
-0.02350388 -0.02562435 0.00000000
-0.69464004 0.57370764 0.00000000
0.56137121 0.75507545 0.08095856
-0.14090867 0.26374623 0.00000000
-0.32779676 -0.45288953 0.00000000
-0.14557892 0.70759666 0.00000000
-0.14845145 -0.43772656 0.00000000
0.77108896 -0.26633492 0.00000000
0.28141949 0.24224193 0.00000000
-0.12922829 0.77737206 0.00000000
0.52890384 0.07827709 0.00000000
-0.42761594 -0.78099716 0.00000000
0.04435850 -0.19738273 0.00000000
0.41416681 0.10873497 0.00000000
0.26250619 0.03583842 0.00000000
0.66896176 0.55831122 0.06697999
0.33178103 -0.08567377 0.00000000
-0.39281470 0.46955404 0.00000000
-0.57816511 0.31918851 0.00000000
-0.46453565 -0.25693744 0.00000000
-0.71528614 -0.34644550 0.00000000
-0.20579588 -0.04546832 0.00000000
0.20390534 0.45734525 0.00000000
-0.04726763 -0.42787233 0.00000000
-0.09542087 -0.38198739 0.00000000
-0.10701875 0.38836113 0.00000000
0.33571392 -0.57995099 0.00000000
0.54581308 0.37008667 0.01816866
0.17742801 -0.05284536 0.00000000
0.20939365 -0.07279442 0.00000000
-0.75559807 0.16449705 0.00000000
0.45366707 -0.22382116 0.00000000
0.34803957 -0.75986511 0.00000000
0.53441846 0.76801831 0.07876235
0.34986728 0.61461902 0.02578518
-0.32125413 0.64025611 0.00000000
-0.08619702 0.13949481 0.00000000
0.29915807 0.03427198 0.00000000
-0.46457672 -0.06638884 0.00000000
0.02197715 -0.56809670 0.00000000
0.64045018 -0.28528136 0.00000000
0.76338613 0.62343931 0.09199141
0.30265784 0.35467401 0.00000000
0.48464760 -0.34039879 0.00000000
0.48490295 0.32348928 0.00131558
0.05861900 -0.34512335 0.00000000
0.34226516 0.71732116 0.04069305
-0.66085994 0.14219308 0.00000000
