ply
format ascii 1.0
element vertex 1139
property float x
property float y
property float z
end_header
-0.44286424 -0.75718802 0.00000008
-0.77323079 -0.52621752 -0.00000068
-0.37731755 -0.42600971 0.00000070
-0.41572046 -0.10073853 0.00000099
-0.57186902 -0.50511837 0.00000032
-0.21848652 0.10638235 -0.00000341
-0.49641401 -0.04981719 0.00000033
-0.43502530 -0.73629379 0.00000012
-0.65568185 -0.69697255 -0.00000007
-0.66786587 -0.39620739 -0.00000053
-0.71818984 -0.38433182 -0.00000092
-0.42903084 -0.60499895 0.00000037
-0.39744920 -0.73236650 0.00000013
-0.26412275 -0.44955426 0.00000066
-0.64812309 -0.10258927 -0.00000074
-0.02343980 -0.12510617 0.00000127
-0.35499796 0.28722253 0.00000097
-0.19062489 0.52792114 0.00000191
-0.45774031 -0.41580451 0.00000072
-0.02231486 -0.01705540 0.00000147
-0.09704574 0.67209852 0.00000243
-0.09225087 0.05164206 -0.00000825
-0.17175634 0.10610546 -0.00000483
-0.79209822 -0.19624424 -0.00000151
-0.59091258 -0.60571837 0.00000030
-0.27203953 -0.30423915 0.00000093
-0.40819624 -0.68855727 0.00000021
-0.65105766 -0.79597306 0.00000001
-0.40597287 -0.29079133 0.00000095
-0.45030040 0.27001348 0.00000028
-0.16081940 0.04462227 -0.00000631
-0.11634282 -0.22581507 0.00000108
-0.66983169 -0.69245690 -0.00000018
-0.07942222 0.69518685 0.00000253
-0.02498247 0.06343710 -0.00001006
-0.07534938 0.15541856 -0.00000681
-0.44113570 -0.12019190 0.00000083
-0.27110788 -0.43516669 0.00000068
-0.63182449 -0.53375834 -0.00000009
-0.01227441 0.28152701 -0.00000635
-0.62607759 -0.12945181 -0.00000054
-0.11379764 -0.08018444 0.00000135
-0.38543242 -0.01801467 0.00000112
-0.18228942 -0.07034344 0.00000137
-0.12950070 -0.71698713 0.00000016
-0.55478650 0.22132243 -0.00000044
-0.00506144 -0.32634598 0.00000094
-0.24922323 -0.15254033 0.00000121
-0.12543315 -0.76896214 0.00000006
-0.57097715 -0.31486490 0.00000009
-0.23712271 -0.16303182 0.00000119
-0.44175726 0.32297927 0.10760773
-0.65850192 -0.65922457 -0.00000014
-0.05319758 0.11153345 -0.00000830
-0.13635352 0.25418395 -0.00000312
-0.26737663 -0.57755136 0.00000042
-0.14038929 -0.78070146 0.00000004
-0.06830380 0.37366632 -0.00000293
-0.01870202 -0.44342458 0.00000067
-0.67048031 -0.62629586 -0.00000027
-0.19111960 -0.27324840 0.00000099
-0.21924320 0.00824944 -0.00000523
-0.24811405 -0.34036762 0.00000086
-0.35500669 -0.09628228 0.00000132
-0.76525420 -0.12326834 -0.00000159
-0.23969121 0.46314341 0.00000162
-0.69688845 -0.03500523 -0.00000119
-0.43703660 0.09203971 0.00000060
-0.54497117 -0.08910983 0.00000001
-0.40899834 0.24764349 0.00000062
-0.19199574 -0.54611790 0.00000048
-0.40627307 -0.02713522 0.00000097
-0.52990961 0.10187924 -0.00000011
-0.08506356 0.01483831 -0.00000915
-0.56707609 -0.54030806 0.00000040
-0.78410172 -0.07594673 -0.00000179
-0.28230736 0.29587740 0.00000151
-0.64583445 -0.79813665 0.00000000
-0.02981251 -0.38344133 0.00000078
-0.50876516 -0.60735160 0.00000036
-0.13335909 0.49243683 0.00000238
-0.79168409 -0.65518719 -0.00000036
-0.04650184 -0.07449347 0.00000136
-0.60053426 0.15245816 -0.00000070
-0.28411311 0.49503982 0.06954291
-0.04565453 -0.10126055 0.00000131
-0.21049102 0.09505741 -0.00000387
-0.20401163 -0.47025961 0.00000062
-0.12757353 0.45396563 0.00000036
-0.38474447 -0.20476227 0.00000112
-0.28074655 -0.23557271 0.00000106
-0.06906721 -0.73820752 0.00000012
-0.12459233 0.60094649 0.00000231
-0.32910308 -0.28901327 0.00000096
-0.07201808 0.46625754 -0.00000108
-0.29598805 0.00330573 -0.00000301
-0.46247020 0.19989905 0.00000028
-0.38053697 0.07035059 0.00000105
-0.28678286 0.29017124 0.00000148
-0.19571112 -0.00908665 0.00000148
-0.14687558 0.07248581 -0.00000621
-0.52809131 0.07098915 -0.00000006
-0.66466534 -0.33084685 -0.00000059
-0.32141554 -0.11150048 0.00000129
-0.44969872 0.18516377 0.00000039
-0.50052923 -0.39809060 0.00000072
-0.42361113 -0.29950458 0.00000094
-0.02496811 -0.23254386 0.00000106
-0.22868060 -0.11785315 0.00000128
-0.06897126 -0.19507556 0.00000113
-0.34630829 0.37670088 0.00000093
-0.29195449 -0.73301476 0.00000013
-0.30539459 -0.62030596 0.00000034
-0.69376320 -0.01762022 -0.00000119
-0.30853063 0.46811080 0.07538794
-0.77083367 -0.32921723 -0.00000118
-0.21993139 0.25710154 -0.00000054
-0.07678295 0.11851893 -0.00000746
-0.02764397 -0.01867224 0.00000146
-0.20214470 0.50192976 0.00000185
-0.72906452 -0.66144127 -0.00000035
-0.03654072 0.49720034 -0.00000157
-0.54790080 -0.45169732 0.00000043
-0.62408781 -0.38402942 -0.00000022
-0.51883888 -0.70490581 0.00000018
-0.46689743 -0.70514846 0.00000018
-0.08419303 0.16068321 -0.00000645
-0.11692220 0.63510382 0.00000233
-0.79647785 -0.51752579 -0.00000071
-0.72965640 -0.10202435 -0.00000135
-0.75341535 -0.54354572 -0.00000064
-0.27768010 0.25768167 0.00000159
-0.63929629 -0.15879937 -0.00000061
-0.65799516 0.04267535 -0.00000099
-0.04073656 -0.63128495 0.00000032
-0.08660331 -0.32661775 0.00000089
-0.13846625 -0.04387111 0.00000142
-0.59674841 0.05219371 -0.00000055
-0.13662234 0.27466577 -0.00000273
-0.74775857 -0.58826822 -0.00000053
-0.73103565 -0.76651263 -0.00000008
-0.55537039 -0.50404733 0.00000044
-0.32498482 -0.00350346 0.00000149
-0.30058730 0.18657632 0.00000150
-0.49633956 -0.07761010 0.00000036
-0.08374495 0.70834917 0.02017939
-0.13827617 0.10946983 -0.00000577
-0.48338047 0.14630300 0.00000019
-0.10832876 -0.03338374 0.00000144
-0.31920749 -0.54699552 0.00000047
-0.56783372 -0.47784746 0.00000032
-0.55183220 0.20663603 0.13487983
-0.43525895 0.03123731 0.00000069
-0.20053868 0.39300823 0.00000200
-0.05180436 -0.33069611 0.00000088
-0.23108961 0.13667475 -0.00000246
-0.15653379 0.59477401 0.00000208
-0.76458615 -0.52263248 -0.00000069
-0.10763689 -0.70109499 0.00000019
-0.40937138 -0.11970692 0.00000106
-0.78871590 -0.18498334 -0.00000154
-0.69898480 -0.32001188 -0.00000086
-0.69863236 0.07882454 -0.00000134
-0.15355603 -0.02574851 0.00000145
-0.15029570 0.32650721 -0.00000134
-0.04134436 0.59000295 0.00000031
-0.09969945 0.24413684 -0.00000441
-0.11006983 -0.15749300 0.00000120
-0.30100629 0.40447202 0.00000123
-0.51347882 0.04248925 0.00000009
-0.65725565 -0.23249044 -0.00000065
-0.00771331 0.60660070 -0.00000039
-0.02249459 0.02508042 -0.00001085
-0.12322456 -0.56445938 0.00000044
-0.73086399 -0.10830903 -0.00000135
-0.71799910 -0.36838529 -0.00000094
-0.04727806 -0.07329740 0.00000136
-0.59817618 -0.27707738 -0.00000016
-0.69714987 -0.46567082 -0.00000066
-0.02110407 0.69505847 0.00000167
-0.74618667 -0.14555542 -0.00000142
-0.45932353 -0.50524610 0.00000055
-0.31856430 0.37300843 0.00000114
-0.41583806 -0.45464379 0.00000065
-0.23220237 0.21267518 -0.00000100
-0.53249341 -0.49230769 0.00000058
-0.35474551 -0.55285054 0.00000046
-0.26232311 -0.28155133 0.00000097
-0.11085382 -0.02641671 0.00000145
-0.75931567 -0.04643394 -0.00000164
-0.68097687 -0.67879754 -0.00000028
-0.33516774 -0.12819837 0.00000126
-0.75702095 -0.57432228 -0.00000056
-0.58183312 -0.33430448 0.00000004
-0.14067639 -0.58547944 0.00000040
-0.65829915 0.06671683 0.15625796
-0.56882942 -0.67137563 0.00000024
-0.58269423 0.01988845 -0.00000040
-0.44260386 -0.04687898 0.00000073
-0.13700695 0.60713053 0.00000221
-0.20100357 -0.67247546 0.00000024
-0.29670393 -0.27959862 0.00000098
-0.47682196 0.09745328 0.00000029
-0.02152689 -0.50384659 0.00000056
-0.75586772 -0.29249981 -0.00000127
-0.13705903 0.41800740 -0.00000003
-0.08221814 -0.79946983 0.00000000
-0.58390778 0.15789659 0.14011823
-0.49922761 -0.16853596 0.00000045
-0.74010956 -0.24514702 -0.00000125
-0.39359543 -0.10511474 0.00000116
-0.16624033 -0.72894424 0.00000013
-0.03971962 0.57921517 0.00000006
-0.60665339 -0.68310636 0.00000022
-0.14526753 0.43471697 0.00000053
-0.00224269 -0.65723932 0.00000029
-0.39638484 -0.40761927 0.00000074
-0.50403982 -0.14669329 0.00000039
-0.13535166 0.22765160 -0.00000365
-0.75363815 -0.47726619 -0.00000081
-0.04802394 0.65510744 0.00000173
-0.01289282 -0.60181177 0.00000037
-0.30945593 -0.08428082 0.00000134
-0.53971231 -0.15132815 0.00000013
-0.54812467 0.11779374 -0.00000026
-0.23359312 0.20670088 -0.00000108
-0.69493240 -0.38465881 -0.00000075
-0.12078671 0.61704361 0.00000232
-0.51615775 -0.26048517 0.00000044
-0.12522840 -0.54072267 0.00000049
-0.57880396 -0.19993448 -0.00000010
-0.14409308 -0.51735640 0.00000053
-0.34371793 -0.74575686 0.00000010
-0.09491099 -0.12428679 0.00000127
-0.29411560 -0.04178623 0.00000142
-0.06149097 -0.25007018 0.00000103
-0.54661357 0.22689804 -0.00000038
-0.21623428 -0.77938926 0.00000004
-0.33495331 -0.26248792 0.00000101
-0.05606324 -0.54560554 0.00000048
-0.29571629 0.10327027 0.00000164
-0.29419696 -0.72058803 0.00000015
-0.40532988 -0.00507222 0.00000095
-0.48707086 -0.01497463 0.00000036
-0.56908303 -0.09417869 -0.00000016
-0.40533125 -0.63351762 0.00000031
-0.14085385 0.55900747 0.00000224
-0.62031943 -0.66612208 0.00000015
-0.08411080 -0.15523420 0.00000121
-0.04022430 0.55038267 -0.00000047
-0.65431488 0.00651087 -0.00000092
-0.29432309 0.47636190 0.00000120
-0.30091310 -0.78443366 0.00000003
-0.74582011 0.04638310 -0.00000165
-0.18539307 -0.50406432 0.00000055
-0.55743355 -0.78861719 0.00000002
-0.42025620 -0.15624546 0.00000103
-0.00907715 0.00738827 -0.00001159
-0.38285312 0.09954393 0.00000099
-0.77872711 -0.56774992 -0.00000058
-0.16646411 0.18009107 -0.00000360
-0.70477396 -0.47418594 -0.00000071
-0.46371958 0.27075258 0.00000018
-0.34473974 -0.42189154 0.00000071
-0.32475513 0.33576095 0.00000114
-0.70687115 -0.76768601 -0.00000008
-0.78332138 -0.33130637 -0.00000117
-0.12206902 -0.72081470 0.00000015
-0.65399641 -0.64931136 -0.00000012
-0.24963135 -0.00872588 0.00000148
-0.06766533 -0.55745733 0.00000045
-0.33890039 -0.70764965 0.00000017
-0.54423946 -0.33973300 0.00000032
-0.21291372 -0.32503906 0.00000089
-0.02989802 0.17998414 -0.00000772
-0.77876455 -0.06781043 -0.00000176
-0.55342114 -0.53499520 0.00000049
-0.78562009 -0.36844191 -0.00000108
-0.20154513 0.19751263 -0.00000221
-0.11348255 -0.66952103 0.00000024
-0.00755891 -0.36102656 0.00000082
-0.52758425 0.03327764 -0.00000001
-0.68844223 -0.74798709 -0.00000013
-0.00807892 0.76823533 0.00000265
-0.50662524 0.09866819 0.00000007
-0.49249589 0.26655182 0.11966765
-0.19197036 0.34594345 0.00000212
-0.28064534 -0.22276478 0.00000108
-0.35000253 -0.19231100 0.00000114
-0.71588951 0.03097810 0.17511427
-0.79612070 -0.37750107 -0.00000106
-0.03392564 -0.40323243 0.00000074
-0.30884111 0.26099521 0.00000135
-0.27894700 -0.69707251 0.00000019
-0.03820306 -0.73180401 0.00000013
-0.31438214 -0.78393972 0.00000003
-0.69907188 -0.20798841 -0.00000099
-0.25616348 -0.73480070 0.00000012
-0.44862044 -0.30829507 0.00000092
-0.61170691 -0.70729136 0.00000017
-0.02056205 -0.74520928 0.00000010
-0.61699927 -0.57291973 0.00000006
-0.13772647 0.36628973 -0.00000098
-0.07462268 -0.34782454 0.00000085
-0.78560364 0.00655961 -0.00000190
-0.17550397 0.52151561 0.00000203
-0.15950827 -0.26986632 0.00000099
-0.51779228 0.20775864 -0.00000015
-0.07142353 -0.47150090 0.00000062
-0.11832360 -0.60030937 0.00000037
-0.75967962 0.00008386 -0.00000170
-0.24376337 0.30869636 0.00000178
-0.49789882 -0.03845386 0.00000030
-0.51726967 0.00922172 0.00000010
-0.26252806 -0.56580645 0.00000044
-0.61237288 -0.18097782 -0.00000038
-0.47031388 0.05551223 0.00000039
-0.71428078 0.00463436 -0.00000137
-0.51279891 0.15038198 -0.00000004
-0.40230200 -0.49346954 0.00000057
-0.48308912 0.17669521 0.00000015
-0.29681930 -0.26683113 0.00000100
-0.60843664 -0.51880914 0.00000006
-0.68898010 -0.51809996 -0.00000054
-0.05240109 0.33944583 -0.00000405
-0.07084644 -0.08589053 0.00000134
-0.53995478 -0.49677917 0.00000055
-0.56455171 -0.42012504 0.00000027
-0.49312684 -0.55211347 0.00000046
-0.39850235 -0.67014474 0.00000024
-0.53809714 -0.11006085 0.00000009
-0.11632777 -0.70300084 0.00000018
-0.47510454 -0.39527342 0.00000076
-0.34738138 -0.37960652 0.00000079
-0.06854990 -0.44022858 0.00000067
-0.41622674 0.32175958 0.00000047
-0.17202109 0.38354948 0.00000038
-0.38262203 -0.61915672 0.00000034
-0.47151461 0.11687885 0.00000031
-0.07560201 0.19518174 -0.00000606
-0.05703115 0.35740587 -0.00000358
-0.00397051 -0.20996480 0.00000111
-0.50478053 0.04043371 0.00000016
-0.03263008 0.64268732 0.00000104
-0.15856072 -0.02734311 0.00000145
-0.29927450 0.13571027 0.00000157
-0.38393423 -0.53942281 0.00000049
-0.05563020 -0.20511776 0.00000112
-0.24064875 0.46093225 0.00000162
-0.47977838 -0.72881585 0.00000013
-0.40704355 -0.67525244 0.00000023
-0.51745939 -0.49018675 0.00000058
-0.19800100 0.59111565 0.00000178
-0.00096778 -0.69307822 0.00000021
-0.29253480 0.13219000 0.00000163
-0.73056686 -0.55599493 -0.00000061
-0.41451433 0.10107462 0.00000076
-0.24477991 -0.75839865 0.00000008
-0.57014424 -0.56376791 0.00000040
-0.47436100 0.31265447 0.00000005
-0.67312533 -0.58462453 -0.00000034
-0.31931189 -0.11008667 0.00000129
-0.45924973 -0.72495866 0.00000014
-0.79516095 -0.74162012 -0.00000015
-0.25852051 0.25329560 0.00000174
-0.07445181 0.68127418 0.00000259
-0.32064393 -0.23920961 0.00000105
-0.09151707 -0.06129859 0.00000139
-0.48122299 -0.05689358 0.00000045
-0.16627957 -0.22365358 0.00000108
-0.12348836 -0.74999660 0.00000009
-0.05233496 0.41037312 -0.00000273
-0.00306799 -0.24369375 0.00000104
-0.77437824 -0.02500461 -0.00000178
-0.59297723 -0.43626794 0.00000008
-0.50781059 -0.29066521 0.00000054
-0.03666910 0.58586919 0.00000009
-0.62655443 -0.72831339 0.00000013
-0.50912589 -0.62084246 0.00000034
-0.03676862 0.04192003 -0.00001010
-0.47479513 -0.52121705 0.00000052
-0.39871350 -0.73432034 0.00000012
-0.17833896 0.58720201 0.00000193
-0.59652668 -0.78006065 0.00000004
-0.77584869 0.01568015 -0.00000184
-0.11361895 0.10106036 -0.00000668
-0.06998370 0.26738420 -0.00000487
-0.44537231 -0.60914528 0.00000036
-0.64083588 -0.28517488 -0.00000046
-0.53615862 -0.07233890 0.00000006
-0.34983781 -0.35393706 0.00000084
-0.52215654 -0.08715341 0.00000018
-0.09094672 0.33698711 -0.00000294
-0.43129718 -0.36504787 0.00000082
-0.08099096 -0.51324230 0.00000054
-0.23947217 -0.00575498 0.00000149
-0.05707818 0.28864285 -0.00000487
-0.06980399 -0.60626471 0.00000036
-0.72030747 -0.50569409 -0.00000074
-0.12662226 0.12637033 -0.00000581
-0.02720042 -0.22680555 0.00000107
-0.12351628 0.58353436 0.00000234
-0.04664995 -0.48432580 0.00000059
-0.05334281 -0.07220821 0.00000136
-0.58483255 0.07294961 -0.00000048
-0.16932622 -0.67013466 0.00000024
-0.30075788 -0.06976836 0.00000137
-0.65584409 -0.65685487 -0.00000012
-0.57473117 -0.21862993 -0.00000005
-0.35505420 -0.49999574 0.00000056
-0.48511130 0.07981913 0.00000025
-0.26161602 -0.23681112 0.00000106
-0.31849545 0.15543489 0.00000141
-0.69773901 0.08904044 -0.00000134
-0.07091012 0.00879160 -0.00000970
-0.47350693 -0.40031615 0.00000075
-0.31980735 0.37815911 0.00000113
-0.39364791 -0.38128704 0.00000079
-0.75166428 -0.46739045 -0.00000083
-0.04543917 -0.32289526 0.00000089
-0.33678517 -0.39152980 0.00000077
-0.72113496 -0.05638738 -0.00000134
-0.60773808 -0.42796114 -0.00000004
-0.32833165 0.06020233 0.00000145
-0.10808467 0.35452747 -0.00000209
-0.55635107 -0.31289658 0.00000020
-0.59573835 0.08677017 -0.00000058
-0.59789211 0.05384267 -0.00000056
-0.60916734 0.13105105 0.14634958
-0.75987297 -0.04206268 -0.00000165
-0.62140030 -0.36604810 -0.00000022
-0.76863176 -0.54872584 -0.00000063
-0.16234030 0.57759541 0.00000206
-0.20589523 0.10898952 -0.00000374
-0.38993233 0.29635030 0.00000070
-0.51542413 0.00094035 0.00000012
-0.57010067 -0.22550368 -0.00000001
-0.11619646 -0.15476358 0.00000121
-0.05942264 -0.41409579 0.00000072
-0.67062795 -0.30686453 -0.00000066
-0.16850865 -0.61039025 0.00000036
-0.47744796 -0.39405692 0.00000076
-0.66890353 -0.73629296 -0.00000012
-0.06817838 -0.61671185 0.00000034
-0.17164613 0.18347880 -0.00000338
-0.45208308 -0.70863950 0.00000017
-0.07043303 0.02794378 -0.00000935
-0.44369757 -0.14671171 0.00000084
-0.29362261 -0.45826247 0.00000064
-0.00550615 -0.35845539 0.00000083
-0.32435849 -0.76645952 0.00000006
-0.49008757 0.18168169 0.00000009
-0.24898379 -0.73830169 0.00000012
-0.33773959 -0.05106977 0.00000140
-0.04313821 -0.09822068 0.00000132
-0.72958034 -0.36511552 -0.00000103
-0.26312864 -0.56872457 0.00000043
-0.19597690 -0.08405371 0.00000134
-0.59577286 -0.54180408 0.00000019
-0.38882762 -0.64339727 0.00000029
-0.46743289 -0.76857144 0.00000006
-0.49715716 0.29584849 -0.00000010
-0.00420529 -0.45172548 0.00000070
-0.55108476 -0.07096993 -0.00000005
-0.57864219 -0.29451340 0.00000001
-0.44389927 -0.75215834 0.00000009
-0.47155026 0.18061951 0.00000023
-0.55122101 0.01560549 -0.00000016
-0.50955337 -0.31613123 0.00000055
-0.23717664 -0.42497021 0.00000070
-0.10563346 -0.41507483 0.00000072
-0.73767626 -0.26388982 -0.00000121
-0.29025611 0.44952515 0.00000126
-0.21134035 0.16015601 -0.00000262
-0.17663185 0.39245221 0.00000218
-0.08271095 -0.58949113 0.00000039
-0.11961776 -0.42217448 0.00000071
-0.79811180 -0.12335724 -0.00000169
-0.53543401 -0.32028133 0.00000037
-0.55609024 -0.05927471 -0.00000011
-0.59289569 0.11451560 -0.00000059
-0.73060590 -0.57917571 -0.00000055
-0.14802805 0.43959519 0.00000071
-0.26158905 -0.23098426 0.00000107
-0.49482027 -0.67841429 0.00000023
-0.68694884 0.07677421 -0.00000125
-0.27261338 -0.54049116 0.00000049
-0.71266258 -0.37886244 -0.00000089
-0.56126958 0.15767886 -0.00000041
-0.58108568 -0.07803834 -0.00000027
-0.18844356 -0.08660729 0.00000134
-0.34977373 -0.32299918 0.00000089
-0.34498525 -0.49978834 0.00000056
-0.38327026 -0.35501769 0.00000083
-0.01843150 0.70946711 0.00000186
-0.30629730 0.30901241 0.00000131
-0.27099296 -0.66489369 0.00000025
-0.36408889 -0.68570727 0.00000021
-0.35711470 0.21968482 0.00000104
-0.31014299 -0.40197277 0.00000075
-0.55220741 -0.54534799 0.00000048
-0.08208219 -0.03439891 0.00000144
-0.36664182 -0.12830105 0.00000126
-0.63171142 0.16357735 -0.00000089
-0.14074437 0.42443076 0.00000021
-0.61700910 -0.24624334 -0.00000033
-0.12483131 0.62076676 0.00000229
-0.70499688 0.03743867 -0.00000134
-0.08252816 -0.04197776 0.00000142
-0.54641700 0.17798983 -0.00000032
-0.45201388 0.29147962 0.00000024
-0.21438636 -0.07208455 0.00000136
-0.31306961 -0.49792141 0.00000057
-0.21020596 -0.13744678 0.00000124
-0.11591647 -0.29790652 0.00000094
-0.23195209 -0.36466175 0.00000082
-0.21172941 0.35560635 0.00000196
-0.33648518 0.34733367 0.00000104
-0.25069374 -0.48957148 0.00000058
-0.27939394 -0.02364283 0.00000146
-0.55010504 -0.45654258 0.00000042
-0.16962539 -0.27795282 0.00000098
-0.61146379 0.16272728 -0.00000079
-0.19691011 0.30967510 -0.00000025
-0.55920476 0.15579844 -0.00000039
-0.12344596 0.06563983 -0.00000704
-0.17897291 -0.59855241 0.00000038
-0.25528288 -0.00620718 0.00000149
-0.79343700 -0.55168098 -0.00000062
-0.19557840 0.53419530 0.00000186
-0.34640908 0.03370714 0.00000135
-0.52075547 -0.19249262 0.00000032
-0.58685297 -0.15486944 -0.00000022
-0.48714691 -0.01546496 0.00000036
-0.70203990 -0.77630782 -0.00000006
-0.38796395 -0.53578758 0.00000050
-0.42424321 -0.00249894 0.00000081
-0.38116938 -0.74245256 0.00000011
-0.00198403 -0.15426420 0.00000123
-0.52416098 -0.17730938 0.00000028
-0.17017303 0.52316111 0.00000207
-0.37878028 0.13479066 0.00000098
-0.60759670 -0.40352008 -0.00000007
-0.69992036 -0.12815720 -0.00000110
-0.04574912 0.53643775 -0.00000056
-0.16088901 0.03954938 -0.00000640
-0.78522074 -0.38143381 -0.00000105
-0.03350832 0.37636110 -0.00000393
-0.73584956 -0.77632624 -0.00000006
-0.00484808 -0.27814046 0.00000098
-0.05653040 0.52276850 -0.00000049
-0.44436657 0.23291856 0.00000037
-0.22062647 -0.45653883 0.00000064
-0.64214742 -0.25529578 -0.00000051
-0.08999891 -0.75537491 0.00000008
-0.23848261 -0.26428488 0.00000100
-0.01846415 -0.37184629 0.00000080
-0.50939649 -0.14377707 0.00000035
-0.00347071 0.56838030 -0.00000124
-0.57576692 0.13146304 -0.00000049
-0.12139331 -0.16206315 0.00000120
-0.45495412 -0.28664446 0.00000093
-0.52777892 -0.15869059 0.00000023
-0.47625780 0.31114352 0.00000004
-0.55757648 0.24174243 -0.00000048
-0.55656350 -0.61370802 0.00000035
-0.36567640 -0.20188978 0.00000112
-0.25213376 0.34942344 0.00000167
-0.15987380 0.34318349 -0.00000074
-0.30881286 -0.70049244 0.00000019
-0.06400304 -0.22261855 0.00000108
-0.63029599 -0.52329093 -0.00000009
-0.02354170 0.37147027 -0.00000432
-0.37112024 0.17406882 0.00000099
-0.38445589 -0.00815832 0.00000111
-0.59605855 -0.54560828 0.00000019
-0.15895455 0.39180887 0.00000014
-0.63785595 -0.71493185 0.00000008
-0.17683852 -0.71496838 0.00000016
-0.63705617 -0.15898694 -0.00000059
-0.75663030 -0.30028704 -0.00000125
-0.70240664 -0.40274766 -0.00000078
-0.55716729 -0.14871821 -0.00000001
-0.47216746 -0.42701626 0.00000070
-0.03079659 -0.79534155 0.00000001
-0.02538485 -0.05557834 0.00000140
-0.70744449 -0.02588973 -0.00000128
-0.52098691 -0.58877248 0.00000040
-0.03538284 -0.52936894 0.00000051
-0.07646551 -0.09248643 0.00000133
-0.03975918 -0.40790394 0.00000074
-0.55243289 0.03821583 -0.00000020
-0.33835942 0.43527475 0.08253942
-0.78447104 -0.58119255 -0.00000055
-0.09594354 0.67612833 0.00000243
-0.11678798 0.59420687 0.00000238
-0.20225957 -0.60328889 0.00000037
-0.23425554 0.07124906 -0.00000359
-0.16228680 0.53828931 0.00000211
-0.04165480 -0.40351361 0.00000074
-0.75965697 -0.04935891 -0.00000164
-0.71380824 -0.74293345 -0.00000014
-0.78111911 -0.25536793 -0.00000136
-0.00482512 0.42244327 -0.00000393
-0.20428629 -0.07119106 0.00000137
-0.72454214 -0.51935661 -0.00000070
-0.66115206 -0.46320137 -0.00000040
-0.49742642 -0.51024055 0.00000054
-0.03678167 0.54110646 -0.00000074
-0.61121738 -0.01050612 -0.00000058
-0.11022811 0.21872497 -0.00000457
-0.55799973 -0.16695461 0.00000001
-0.02176651 0.52687937 -0.00000146
-0.36764538 -0.52005804 0.00000052
-0.62137371 -0.40204096 -0.00000018
-0.34784323 -0.75277281 0.00000009
-0.70118725 -0.35993516 -0.00000082
-0.58562315 -0.20868590 -0.00000014
-0.21802792 0.56318247 0.05285829
-0.23522440 -0.69786257 0.00000019
-0.35593393 0.11289305 0.00000118
-0.67967385 -0.62549317 -0.00000034
-0.21686129 0.00116782 -0.00000543
-0.24726191 -0.24338429 0.00000104
-0.15553503 0.39112279 0.00000003
-0.26030353 -0.47813040 0.00000060
-0.75831157 0.01569937 -0.00000171
-0.66865861 -0.02732397 -0.00000099
-0.76177716 -0.03393986 -0.00000167
-0.68564975 -0.68043387 -0.00000030
-0.34610114 -0.40446270 0.00000074
-0.60857397 -0.10037622 -0.00000045
-0.37510261 0.33193994 0.00000077
-0.26960406 -0.77428603 0.00000005
-0.46523178 -0.79799128 0.00000000
-0.34966189 -0.72981292 0.00000013
-0.00081323 -0.40783224 0.00000074
-0.63952410 -0.46534115 -0.00000023
-0.20185924 -0.52478892 0.00000052
-0.33381495 0.04173599 0.00000143
-0.48526573 0.07688040 0.00000026
-0.30056518 0.12486167 0.00000158
-0.56672984 -0.18439272 -0.00000003
-0.08878834 -0.40155807 0.00000075
-0.33194956 0.32601565 0.00000110
-0.06036502 -0.34759927 0.00000085
-0.55552667 -0.66751456 0.00000025
-0.24414992 -0.19812548 0.00000113
-0.01146798 -0.17581694 0.00000117
-0.21013246 -0.74137759 0.00000011
-0.42523134 0.34364408 0.10409707
-0.21806684 0.35692704 0.00000191
-0.21476050 0.34222731 0.00000195
-0.50267035 -0.01081381 0.00000023
-0.79225481 -0.66184211 -0.00000035
-0.00166686 -0.64032149 0.00000030
-0.61836100 -0.68442088 0.00000019
-0.50202727 -0.32146835 0.00000062
-0.44937006 -0.05184481 0.00000068
-0.16005351 0.04918049 -0.00000625
-0.53992778 -0.55140835 0.00000047
-0.23421237 0.11189336 -0.00000283
-0.14022295 0.59740716 0.00000220
-0.32036939 -0.23276630 0.00000106
-0.78381383 -0.21822295 -0.00000145
-0.15400302 -0.30109417 0.00000094
-0.57118410 -0.49130183 0.00000031
-0.20075157 -0.16807379 0.00000118
-0.06026104 0.20394865 -0.00000636
-0.05924867 -0.33033693 0.00000088
-0.44043183 -0.37562680 0.00000080
-0.15728985 -0.05638984 0.00000139
-0.01609882 0.14251862 -0.00000884
-0.25135347 -0.50039041 0.00000056
-0.54941469 -0.42813122 0.00000039
-0.72695160 -0.41907135 -0.00000094
-0.01786130 0.40983844 -0.00000378
-0.04858898 -0.32570916 0.00000089
-0.30534980 0.18671399 0.00000147
-0.68938828 0.01349701 -0.00000119
-0.27962354 -0.69050902 0.00000021
-0.67472386 -0.47149959 -0.00000049
-0.63790452 -0.37263674 -0.00000034
-0.62845647 -0.61911404 0.00000004
-0.41150874 0.11075254 0.00000077
-0.76186091 -0.02409688 -0.00000169
-0.36207464 0.35132599 0.00000084
-0.49249461 -0.46622020 0.00000063
-0.55625176 -0.33256233 0.00000023
-0.05202747 0.45517126 -0.00000190
-0.65166563 -0.42086893 -0.00000038
-0.02658383 0.08813693 -0.00000955
-0.32755631 -0.16451609 0.00000119
-0.01019742 -0.78377771 0.00000003
-0.17132328 -0.44844979 0.00000066
-0.67417669 0.05897300 -0.00000113
-0.75127727 -0.78766477 -0.00000003
-0.40947726 0.18071035 0.00000070
-0.35689706 -0.37006775 0.00000081
-0.66123188 -0.79163659 0.00000000
-0.31193602 -0.21729155 0.00000109
-0.45438051 -0.63944662 0.00000030
-0.16446701 -0.12044680 0.00000127
-0.46000096 -0.32329020 0.00000089
-0.41165647 0.12478404 0.00000075
-0.35514477 0.37773004 0.00000086
-0.11363987 -0.63208717 0.00000031
-0.05380663 -0.26040673 0.00000101
-0.05666231 0.73795509 0.00000265
-0.65739769 -0.40018749 -0.00000045
-0.53266621 0.23964176 -0.00000030
-0.52369797 -0.23298705 0.00000035
-0.17825516 -0.23794021 0.00000105
-0.73268628 -0.38579640 -0.00000103
-0.21108031 -0.26818606 0.00000100
-0.77049655 -0.09855658 -0.00000166
-0.69975281 -0.34832191 -0.00000083
-0.41058916 0.01977077 0.00000088
-0.60287321 -0.61374843 0.00000022
-0.17297463 -0.07382460 0.00000136
-0.18074608 -0.13734215 0.00000124
-0.59100670 -0.11742316 -0.00000030
-0.56794202 -0.39395764 0.00000021
-0.01214033 -0.45010519 0.00000066
-0.48875338 -0.76806438 0.00000006
-0.41420275 0.27513942 0.00000055
-0.19373834 -0.74891460 0.00000010
-0.71958172 -0.48153222 -0.00000080
-0.71473920 0.02898413 0.17424341
-0.33499199 0.13794874 0.00000130
-0.69870371 -0.71722108 -0.00000021
-0.00036691 0.78686041 0.00000276
-0.09369200 -0.74547994 0.00000010
-0.20205125 -0.08261574 0.00000135
-0.12704451 -0.57900530 0.00000041
-0.16433327 0.19448920 -0.00000339
-0.11950082 0.33637458 -0.00000209
-0.05035361 0.65151626 0.00000174
-0.73582602 -0.15674041 -0.00000133
-0.64447588 -0.42170098 -0.00000032
-0.02594903 0.73449814 0.00000255
-0.14973237 -0.02817226 0.00000145
-0.76461273 -0.06152287 -0.00000166
-0.04334975 0.75558686 0.00000274
-0.58332402 -0.65714437 0.00000027
-0.73810184 -0.71094722 -0.00000022
-0.59738368 0.06469559 -0.00000057
-0.31302956 0.42579305 0.00000112
-0.17187707 -0.53269380 0.00000050
-0.05120349 -0.53406245 0.00000050
-0.53183013 -0.45314318 0.00000056
-0.76805180 0.02353785 -0.00000179
-0.19977216 -0.02638952 0.00000145
-0.10314720 0.16439430 -0.00000580
-0.61232567 -0.44826755 -0.00000005
-0.65683901 0.12213044 -0.00000108
-0.38144743 -0.35861564 0.00000083
-0.42521173 -0.71355057 0.00000016
-0.35118595 0.07776634 0.00000126
-0.14178441 0.63895947 0.00000214
-0.31750149 -0.03380333 0.00000144
-0.17303404 -0.01082949 0.00000148
-0.29883847 0.28783014 0.00000139
-0.33593705 0.44113371 0.00000093
-0.22466122 -0.25632375 0.00000102
-0.12653589 0.37858769 -0.00000108
-0.05789019 -0.18567322 0.00000115
-0.21041296 0.14292218 -0.00000297
-0.02735991 0.49332255 -0.00000192
-0.76519561 -0.12190554 -0.00000159
-0.67135459 -0.04437597 -0.00000099
-0.15080377 -0.65574658 0.00000027
-0.19233148 0.51600790 0.00000191
-0.14572991 0.13592540 -0.00000505
-0.42074716 -0.12382214 0.00000098
-0.01400020 -0.05633145 0.00000139
-0.44951436 -0.03252133 0.00000066
-0.33169982 -0.46677792 0.00000062
-0.38484693 0.41429397 0.00000061
-0.06191310 -0.52767348 0.00000051
-0.11702263 -0.55771267 0.00000045
-0.38121960 -0.66541666 0.00000025
-0.76378185 -0.52586848 -0.00000069
-0.12835515 -0.45159590 0.00000065
-0.78962696 -0.14921544 -0.00000163
-0.75481921 -0.78856319 -0.00000003
-0.23125780 -0.15141778 0.00000122
-0.64025801 -0.43834075 -0.00000027
-0.78886062 -0.72167331 -0.00000020
-0.01001314 0.17538863 -0.00000841
-0.36349556 0.34265897 0.00000084
-0.46748796 0.24311443 0.00000019
-0.14500333 -0.64877689 0.00000028
-0.27069032 -0.62311649 0.00000033
-0.00482242 -0.04498684 0.00000142
-0.18150596 0.01413581 -0.00000626
-0.46175018 -0.50119120 0.00000056
-0.27578798 -0.25673410 0.00000102
-0.40836635 -0.16872171 0.00000113
-0.18936604 0.39745978 0.00000208
-0.18917994 -0.39242196 0.00000076
-0.03109773 0.11814323 -0.00000885
-0.31756011 -0.24301058 0.00000104
-0.45149544 -0.39536777 0.00000076
-0.52360982 -0.18488273 0.00000029
-0.23612466 0.54421484 0.00000155
-0.08088839 -0.52609509 0.00000051
-0.23667479 -0.67543143 0.00000023
-0.37649098 -0.35829133 0.00000083
-0.59183377 -0.46055672 0.00000012
-0.70644981 0.01560690 0.16814804
-0.04084851 -0.62800908 0.00000032
-0.02463722 -0.07596695 0.00000136
-0.18805993 -0.00903350 0.00000148
-0.65860593 -0.56145024 -0.00000026
-0.04741446 0.00195896 -0.00001053
-0.28992692 0.50028265 0.00000120
-0.30542526 -0.16321163 0.00000119
-0.55146849 -0.56235594 0.00000045
-0.11003718 -0.40612003 0.00000074
-0.11862305 -0.10940656 0.00000129
-0.51894206 0.26450399 -0.00000022
-0.12012724 -0.48936060 0.00000058
-0.76966906 -0.05365638 -0.00000171
-0.64408469 -0.71577621 0.00000004
-0.43040320 -0.22284114 0.00000103
-0.35496554 -0.77048415 0.00000006
-0.02141185 -0.64240658 0.00000030
-0.25076053 -0.34379855 0.00000086
-0.26433575 -0.45432949 0.00000065
-0.67864567 0.03824692 -0.00000114
-0.17850642 0.36394227 0.00000021
-0.26618734 -0.71259421 0.00000016
-0.55699676 0.18168356 -0.00000041
-0.04494016 0.54175329 -0.00000049
-0.19400056 -0.07248411 0.00000136
-0.49693775 -0.36838385 0.00000071
-0.20227915 -0.70074856 0.00000019
-0.03502256 -0.73442453 0.00000012
-0.01448580 -0.38995656 0.00000077
-0.17001528 -0.25690532 0.00000102
-0.13252476 -0.50366008 0.00000056
-0.67483139 -0.70060652 -0.00000021
-0.25949022 -0.44495314 0.00000067
-0.09148065 -0.76084125 0.00000007
-0.47752416 -0.34863773 0.00000083
-0.76069570 -0.77570468 -0.00000006
-0.67688394 -0.69209427 -0.00000024
-0.35525969 0.13114853 0.00000116
-0.06169456 0.03564386 -0.00000947
-0.28647631 0.08735341 -0.00000172
-0.32434779 0.05057443 0.00000149
-0.25255874 -0.75676268 0.00000008
-0.21830371 -0.75822598 0.00000008
-0.72140676 -0.33015838 -0.00000101
-0.24262027 0.36085927 0.00000172
-0.10082191 0.07699591 -0.00000751
-0.66849053 -0.19425580 -0.00000078
-0.65888327 -0.57209420 -0.00000025
-0.55442625 -0.28307420 0.00000018
-0.58206916 -0.33148506 0.00000003
-0.59622836 0.04994699 -0.00000054
-0.69114810 -0.05500123 -0.00000112
-0.20546266 -0.31382638 0.00000091
-0.72428328 -0.61329418 -0.00000047
-0.09346671 0.54115194 0.00000097
-0.56234413 -0.14860658 -0.00000004
-0.22235413 -0.71244222 0.00000016
-0.16974004 0.22771144 -0.00000261
-0.56734955 0.04063921 -0.00000031
-0.47904658 -0.10274364 0.00000052
-0.64598489 -0.49836341 -0.00000024
-0.33968490 0.39696914 0.00000095
-0.52389270 -0.40715557 0.00000056
-0.50263351 0.01217598 0.00000021
-0.51235163 -0.11047014 0.00000028
-0.25640497 0.23963675 0.00000177
-0.37643322 -0.43260157 0.00000069
-0.20685168 -0.62170267 0.00000033
-0.10034945 0.18027464 -0.00000559
-0.00735877 0.77121907 0.00000268
-0.19579303 -0.61869854 0.00000034
-0.27300626 -0.25014463 0.00000103
-0.28816348 -0.58255732 0.00000041
-0.34386557 -0.16115040 0.00000120
-0.15533563 0.59130228 0.00000209
-0.53595412 -0.44482487 0.00000051
-0.06075589 -0.41110277 0.00000073
-0.20767367 -0.43126714 0.00000069
-0.28454563 -0.37055707 0.00000081
-0.14003664 0.47470742 0.00000235
-0.09034403 0.39559716 -0.00000186
-0.14169806 -0.27113152 0.00000099
-0.00689057 -0.40491509 0.00000074
-0.24143653 -0.68500751 0.00000022
-0.20053050 -0.09285029 0.00000133
-0.62990892 -0.28753307 -0.00000038
-0.20231032 0.59539098 0.00000174
-0.07243440 -0.13875327 0.00000124
-0.21423154 0.06377283 -0.00000434
-0.20930284 0.00074007 -0.00000567
-0.50674933 -0.38874626 0.00000066
-0.24420351 0.46132168 0.00000159
-0.48840204 -0.45572475 0.00000065
-0.11050989 0.30122301 -0.00000302
-0.65460402 -0.68519831 -0.00000008
-0.34992158 0.32537144 0.00000096
-0.13091575 -0.18693279 0.00000115
-0.16725563 -0.69623446 0.00000019
-0.67785501 -0.51590675 -0.00000046
-0.01294624 -0.05624761 0.00000139
-0.02138500 -0.11035264 0.00000129
-0.36407000 0.23266117 0.00000097
-0.13329452 0.66492337 0.00000217
-0.30517849 -0.62047505 0.00000034
-0.10750541 -0.34316802 0.00000086
-0.39556494 -0.07618202 0.00000111
-0.14128068 -0.44924751 0.00000066
-0.42228469 0.13750020 0.00000065
-0.06409728 0.35858479 -0.00000334
-0.24525920 -0.34005594 0.00000086
-0.43484762 -0.57369751 0.00000042
-0.36577651 0.00172899 0.00000124
-0.52196640 -0.11295288 0.00000021
-0.08398246 0.17625001 -0.00000616
-0.00520052 0.62202293 -0.00000018
-0.41992137 -0.64842492 0.00000028
-0.40503353 -0.02793124 0.00000098
-0.57406586 -0.37036595 0.00000014
-0.36976567 -0.61684477 0.00000034
-0.45589310 0.00566704 0.00000056
-0.31163827 -0.48793861 0.00000059
-0.58733559 -0.69686830 0.00000019
-0.26426387 0.02408722 -0.00000357
-0.67992866 -0.18565905 -0.00000088
-0.32157102 -0.16559654 0.00000119
-0.08095646 0.22148222 -0.00000540
-0.13340190 0.60539800 0.00000224
-0.31398857 -0.09787779 0.00000132
-0.36368421 -0.20733602 0.00000111
-0.34398744 -0.57001126 0.00000043
-0.29497471 -0.36312008 0.00000082
-0.02974200 0.50289959 -0.00000167
-0.31335011 -0.12386009 0.00000127
-0.68374950 -0.62096959 -0.00000038
-0.22389884 0.11190431 -0.00000315
-0.64663363 -0.71716374 0.00000002
-0.32943484 -0.73872423 0.00000011
-0.01670261 -0.69999534 0.00000019
-0.18620273 -0.67139918 0.00000024
-0.61692226 -0.02171623 -0.00000061
-0.58016956 0.13342653 -0.00000052
-0.23359726 -0.70021379 0.00000019
-0.03534263 -0.70081794 0.00000019
-0.14882937 -0.73527730 0.00000012
-0.74763352 -0.00490600 0.18255337
-0.60829014 -0.13846922 -0.00000040
-0.16438119 0.62936503 0.00000198
-0.13860217 0.05261299 -0.00000683
-0.59858316 -0.11928304 -0.00000035
-0.14878041 0.11160641 -0.00000542
-0.12537590 0.38079849 -0.00000108
-0.20144409 0.49379021 0.00000187
-0.37272972 -0.26428622 0.00000100
-0.18090154 -0.21469317 0.00000110
-0.36465764 0.02166582 0.00000122
-0.06808787 -0.30621827 0.00000093
-0.28669608 0.31831202 0.00000145
-0.21309233 -0.18390091 0.00000116
-0.46422166 0.17031109 0.00000030
-0.08876389 -0.52348882 0.00000052
-0.28871897 -0.12007697 0.00000127
-0.04106901 0.17911850 -0.00000740
-0.05905635 -0.59952152 0.00000038
-0.56742120 -0.12959915 -0.00000011
-0.53882372 0.06644624 -0.00000013
-0.78361112 -0.00498198 -0.00000187
-0.24669318 -0.04776797 0.00000141
-0.23570769 -0.68038702 0.00000022
-0.79686326 -0.22891082 -0.00000143
-0.62667376 -0.39250517 -0.00000023
-0.58828366 0.03589711 -0.00000046
-0.19419533 0.05302602 -0.00000515
-0.33564022 0.21920021 0.00000120
-0.57464349 -0.53455973 0.00000033
-0.13814496 0.25255615 -0.00000310
-0.18170881 -0.60697126 0.00000036
-0.46217343 0.33710599 0.00000012
-0.28703514 -0.78696918 0.00000002
-0.18868579 0.25084174 -0.00000160
-0.02918041 -0.44675234 0.00000066
-0.57449067 -0.77188772 0.00000005
-0.13543540 0.17941299 -0.00000455
-0.29655007 -0.78240854 0.00000003
-0.21405613 0.01516796 -0.00000526
-0.15683801 -0.72518200 0.00000014
-0.57675642 -0.17373376 -0.00000012
-0.12508298 -0.00267107 0.00000149
-0.47289231 -0.67630970 0.00000023
-0.02460015 0.00735224 -0.00001112
-0.21585152 0.32644436 0.00000196
-0.46997637 0.32610223 0.00000007
-0.36795181 0.09397974 0.00000111
-0.58695549 -0.58739507 0.00000031
-0.63935447 -0.45403570 -0.00000025
-0.14126092 0.55834150 0.00000224
-0.27346206 -0.07177518 0.00000137
-0.54245645 0.23541372 -0.00000036
-0.29103816 -0.29291308 0.00000095
-0.55298316 -0.14461292 0.00000002
-0.64096516 -0.28076172 -0.00000047
-0.08819413 -0.22695835 0.00000107
-0.25245872 -0.40485555 0.00000074
-0.26038516 0.03443008 -0.00000350
-0.79372925 -0.11981247 -0.00000170
-0.04066361 0.12089901 -0.00000851
-0.21200986 0.41252035 0.00000189
-0.51925170 0.24113084 -0.00000020
-0.36944506 -0.40197098 0.00000075
-0.71013761 -0.62938917 -0.00000043
-0.64446282 0.05418398 -0.00000090
-0.73567730 -0.03982532 -0.00000147
-0.14808531 0.49011567 0.00000227
-0.51305598 0.21115080 -0.00000011
-0.63044655 -0.39288807 -0.00000025
-0.32862082 0.46553034 0.00000102
-0.27765039 0.04561694 -0.00000277
-0.08384215 -0.16925155 0.00000118
-0.00594189 -0.58122474 0.00000041
-0.14937805 -0.76814616 0.00000006
-0.74578351 -0.27687189 -0.00000126
-0.54325968 -0.49338424 0.00000052
-0.74903971 -0.21747354 -0.00000135
-0.49855563 -0.25715834 0.00000056
-0.24283770 0.26442751 0.00000184
-0.15600081 -0.29656729 0.00000094
-0.64310670 -0.54441810 -0.00000016
-0.01201435 -0.55803835 0.00000045
-0.47616723 -0.55056596 0.00000047
-0.15103842 0.62222713 0.00000209
-0.59205210 -0.31035990 -0.00000007
-0.68374503 -0.40959167 -0.00000063
-0.26012009 -0.03185096 0.00000144
-0.37531292 -0.44904491 0.00000066
-0.53678226 -0.74711156 0.00000010
-0.22425286 0.32988542 0.00000190
-0.29650852 0.48806435 0.00000117
-0.02054261 0.74560767 0.00000260
-0.33840328 0.38776287 0.00000097
-0.49197796 -0.41000760 0.00000073
-0.62925750 0.06904369 -0.00000081
-0.32439214 -0.17208692 0.00000118
-0.59618694 -0.01147836 -0.00000046
-0.42492831 -0.59584630 0.00000038
-0.73093069 -0.35596877 -0.00000105
-0.42071688 -0.55919778 0.00000045
-0.25385457 -0.73169023 0.00000013
-0.06575819 0.09135901 -0.00000830
-0.02335823 0.18077299 -0.00000791
-0.26000750 0.24397743 0.00000174
-0.54773206 -0.29727677 0.00000025
-0.46610528 -0.58388829 0.00000041
-0.05954599 -0.16479874 0.00000119
-0.44987175 -0.21184520 0.00000087
-0.17229150 0.29191995 -0.00000133
-0.02142869 -0.41399822 0.00000072
-0.18472680 0.52301592 0.00000196
-0.15597010 0.46534240 0.00000224
-0.52456075 -0.19114636 0.00000029
-0.01910219 0.48169228 -0.00000239
-0.46450496 -0.59218460 0.00000039
-0.33310488 -0.37334204 0.00000080
-0.29388064 -0.45361865 0.00000065
-0.50947458 -0.19285062 0.00000040
-0.38060701 -0.68857241 0.00000021
-0.47997648 0.06816240 0.00000031
-0.51057863 -0.15804920 0.00000035
-0.09852923 -0.70540959 0.00000018
-0.71297830 -0.04018252 -0.00000130
-0.52157611 -0.12624386 0.00000023
-0.11847010 -0.74077201 0.00000011
-0.15230320 -0.13123059 0.00000125
-0.04460075 0.58697230 0.00000035
-0.04934061 -0.65415335 0.00000027
-0.57114291 -0.45090935 0.00000026
-0.46731573 0.25793552 0.00000017
-0.35315031 -0.00873540 0.00000135
-0.44510725 -0.12451775 0.00000080
-0.13760777 -0.39411712 0.00000076
-0.57659507 -0.38784525 0.00000014
-0.61681932 -0.75171566 0.00000009
-0.22720715 0.04353615 -0.00000433
-0.37308520 -0.27626553 0.00000098
-0.24824633 0.22464316 0.00000185
-0.06246643 -0.77302694 0.00000005
-0.69594270 -0.45669097 -0.00000067
-0.04298065 0.00010842 -0.00001070
-0.66083199 0.07137432 0.15822443
-0.65900433 -0.52446336 -0.00000031
-0.05035249 -0.34777614 0.00000085
-0.07387498 -0.25613636 0.00000102
-0.57280064 -0.57377702 0.00000040
-0.41298923 -0.01240101 0.00000091
-0.26277572 0.37385878 0.00000156
-0.32501194 -0.36697483 0.00000081
-0.19300799 -0.17487226 0.00000117
-0.04928166 -0.63386160 0.00000031
-0.03759373 -0.18403022 0.00000115
-0.12938471 -0.23923837 0.00000105
-0.00612810 0.72326142 0.00000175
-0.31804028 0.47486281 0.00000110
-0.52180207 -0.27243951 0.00000041
-0.19097754 0.23626041 -0.00000181
-0.01173634 -0.20439076 0.00000112
-0.79571301 -0.44409770 -0.00000089
-0.42206639 0.34150636 0.00000041
-0.06280195 0.19281331 -0.00000649
-0.78393906 -0.27741376 -0.00000131
-0.45544887 0.30953407 0.11118732
-0.18926455 -0.69450825 0.00000020
-0.58351314 -0.53468406 0.00000027
-0.70439154 -0.46312195 -0.00000072
-0.29667160 -0.29404002 0.00000095
-0.35459512 -0.58400738 0.00000040
-0.44656229 -0.17645425 0.00000085
-0.02111232 0.65320224 0.00000088
-0.14440364 -0.44716537 0.00000066
-0.24201065 -0.43851891 0.00000068
-0.00673287 -0.46176571 0.00000071
-0.00209226 -0.29602051 0.00000094
-0.63418150 0.13735642 -0.00000093
-0.32440370 -0.15970527 0.00000120
-0.43640715 -0.44691208 0.00000066
-0.25538084 0.09259021 -0.00000256
-0.43206263 -0.05277877 0.00000081
-0.50348318 -0.14878312 0.00000040
-0.60938901 -0.03312051 -0.00000054
-0.64693761 -0.45128191 -0.00000031
-0.28854945 0.00060308 -0.00000328
