ply
format ascii 1.0
element vertex 1099
property float x
property float y
property float z
end_header
-0.20727329 -0.53197587 0.47671050
-0.15687402 -0.21674351 0.36079657
-0.17991413 -0.00073579 0.41378787
-0.18883882 0.23796418 0.43431494
-0.19386634 0.10858500 0.44587743
-0.03623948 0.34248883 0.08334764
-0.04551637 0.66417807 0.10468420
-0.00910044 0.46813133 0.02093022
-0.27297622 -0.39692691 0.62782317
-0.15619731 0.37545371 0.35924208
-0.00741691 0.50795144 0.01705826
-0.02035852 -0.53064311 0.04682283
-0.27410209 -0.13047095 0.63041359
-0.00884337 -0.61194527 0.02033898
-0.12013992 -0.14756937 0.27631134
-0.26010424 -0.47835687 0.59821820
-0.21362533 -0.48884642 0.49131969
-0.13691270 -0.27882954 0.31488729
-0.09009728 -0.45245305 0.20721589
-0.02229292 0.56571901 0.05127176
-0.19453532 -0.43110424 0.44741428
-0.03996474 -0.70411086 0.09191542
-0.12083828 -0.56051946 0.27791753
-0.22946495 -0.68239832 0.52774942
-0.05466332 0.59863448 0.12572134
-0.22898369 -0.38775313 0.52664322
-0.19185053 0.27659646 0.44124180
-0.00272677 -0.63758504 0.00627134
-0.08174760 -0.31115782 0.18801236
-0.08806239 -0.57668084 0.20253582
-0.19059706 0.31161702 0.43835899
-0.13095482 0.38095096 0.30118600
-0.26332504 -0.23455532 0.60562670
-0.08026669 -0.22306880 0.18460640
-0.04214344 -0.33024621 0.09692625
-0.03454752 0.22227012 0.07945630
-0.05572251 0.53440446 0.12815718
-0.17762920 -0.04626749 0.40853250
-0.11903263 0.32022133 0.27376553
-0.18746340 -0.30162376 0.43114960
-0.25835985 -0.77612621 0.59420514
-0.00628466 0.48570016 0.01445417
-0.18986546 -0.46644711 0.43667400
-0.30723029 -0.00992256 0.70660663
-0.08823170 0.11338617 0.20292524
-0.07758642 0.07454997 0.17844202
-0.24212077 -0.27214578 0.55685812
-0.31226853 -0.39467520 0.71819311
-0.29356077 -0.26186451 0.67516673
-0.02917401 0.31639493 0.06709767
-0.16724408 -0.33809626 0.38464680
-0.08816617 -0.30711105 0.20277451
-0.04210291 -0.73218608 0.09683303
-0.00223816 0.38908264 0.00514757
-0.22749136 -0.67838490 0.52321035
-0.12985078 0.10701875 0.29864579
-0.10578533 -0.52579141 0.24329706
-0.16538967 -0.72182262 0.38038185
-0.04097574 -0.11324346 0.09424063
-0.30179629 -0.32871243 0.69410771
-0.15740535 -0.79350960 0.36201859
-0.15307279 -0.61253124 0.35205409
-0.15280271 -0.79194367 0.35143292
-0.16670586 -0.20921229 0.38340896
-0.14764950 -0.73815036 0.33958095
-0.08933940 -0.65780920 0.20547284
-0.14788149 0.39936516 0.34011632
-0.03562599 -0.31188878 0.08193666
-0.04819207 0.61708009 0.11083795
-0.14598411 0.27548760 0.33575201
-0.20681092 0.07032666 0.47564897
-0.06137780 0.47240463 0.14116375
-0.21824084 -0.45207641 0.50193518
-0.22189344 -0.31764483 0.51033640
-0.27361903 -0.59243894 0.62930089
-0.00968237 -0.59513140 0.02226862
-0.23563097 -0.79689664 0.54193074
-0.31826526 -0.42559069 0.73198521
-0.01935512 -0.12307835 0.04451509
-0.01482161 -0.49990970 0.03408841
-0.27176940 -0.18104316 0.62504834
-0.26742521 -0.77221304 0.61505485
-0.09786175 -0.07689717 0.22507352
-0.00778406 -0.02447307 0.01790266
-0.21433416 -0.50875908 0.49294990
-0.03390894 -0.01415381 0.07798761
-0.04919302 -0.77639222 0.11313966
-0.26430687 -0.57167429 0.60788357
-0.22796790 -0.70842695 0.52430636
-0.20968229 -0.43900999 0.48225111
-0.26558512 -0.58278626 0.61082345
-0.27262878 -0.66259408 0.62702316
-0.06375567 -0.70100671 0.14663249
-0.16866881 -0.15438551 0.38792381
-0.17967719 0.26747411 0.41324389
-0.02152723 -0.02837710 0.04951075
-0.00996922 -0.74774545 0.02292833
-0.26053378 0.08160759 0.59920806
-0.19472121 -0.74442226 0.44784182
-0.03572463 0.49634787 0.08216355
-0.05402226 -0.01709899 0.12424649
-0.02073276 -0.53954840 0.04768355
-0.02764978 0.06602562 0.06359208
-0.18903416 -0.15006521 0.43476281
-0.10285469 0.32377735 0.23655736
-0.10413610 -0.53386331 0.23950396
-0.19758998 -0.73049319 0.45443976
-0.02935556 -0.41476706 0.06751522
-0.25359559 -0.12455323 0.58324993
-0.25360706 -0.54115152 0.58327484
-0.00659144 -0.54564649 0.01515974
-0.07480459 -0.47339913 0.17204404
-0.16671982 0.10877081 0.38344219
-0.23054944 -0.73937559 0.53024364
-0.05613354 0.45014802 0.12910224
-0.21483257 -0.40838060 0.49409652
-0.21531191 -0.23159364 0.49519962
-0.30969176 -0.68075800 0.71226591
-0.12391643 -0.77153242 0.28499699
-0.00668044 -0.69500327 0.01536443
-0.00151374 -0.34238794 0.00348147
-0.00847077 -0.13142797 0.01948204
-0.29968050 -0.73375601 0.68924040
-0.08010692 -0.48852551 0.18423893
-0.10957124 0.50574976 0.25200561
-0.04361862 -0.59633183 0.10031902
-0.30137533 -0.77070773 0.69313830
-0.05903671 -0.41798994 0.13577928
-0.31629708 -0.68435806 0.72745776
-0.01161266 -0.13516825 0.02670810
-0.19037496 -0.58523285 0.43784580
-0.19041616 -0.56531489 0.43794057
-0.29994914 -0.47169703 0.68985903
-0.18730691 -0.45005319 0.43078956
-0.04662316 0.55476421 0.10722934
-0.04976368 -0.41397053 0.11445214
-0.24543054 -0.69881922 0.56446886
-0.12026390 -0.38015667 0.27659649
-0.03313980 -0.14616598 0.07621866
-0.15840574 0.29083985 0.36432099
-0.08163437 -0.28434527 0.18775193
-0.06955020 -0.37620255 0.15995941
-0.17484231 -0.46372750 0.40212211
-0.11776711 0.25826409 0.27085471
-0.10416099 -0.10935842 0.23956122
-0.20989726 0.03705917 0.48274723
-0.04390113 0.07995116 0.10096878
-0.01779274 0.57243729 0.04092176
-0.13066970 -0.43709186 0.30052894
-0.01294598 -0.43235412 0.02977462
-0.07763797 0.29747590 0.17856055
-0.00017659 -0.49072203 0.00040613
-0.19503845 -0.11125842 0.44857240
-0.20586672 -0.19453938 0.47347644
-0.02853239 -0.09650562 0.06562202
-0.08501087 0.11181502 0.19551760
-0.22601138 -0.09617527 0.51980817
-0.01895557 -0.41001859 0.04359616
-0.07617388 -0.25918552 0.17519328
-0.08376663 -0.74281919 0.19265597
-0.07949981 -0.06664367 0.18284263
-0.15496995 -0.01800876 0.35641780
-0.14129294 0.03346679 0.32496178
-0.08964716 -0.78443414 0.20618066
-0.29664665 -0.74037576 0.68226266
-0.29987091 -0.62704331 0.68967867
-0.04741748 -0.11547484 0.10905608
-0.22590490 -0.08147729 0.51956332
-0.10184836 0.01846770 0.23424236
-0.10723068 -0.04814529 0.24662124
-0.28705105 -0.62340844 0.66019362
-0.20955227 0.13294886 0.48195413
-0.07523841 -0.54206735 0.17304181
-0.26739845 -0.63428432 0.61499375
-0.02522304 0.39645046 0.05801080
-0.04310664 0.64200443 0.09914189
-0.22582744 -0.73919296 0.51938343
-0.30642429 -0.10047587 0.70475262
-0.08905515 -0.65204030 0.20481908
-0.24633726 -0.06547030 0.56655651
-0.27613762 -0.06877309 0.63509530
-0.00064923 0.75253350 0.00149318
-0.16035496 0.20471890 0.36880380
-0.11408684 -0.19675368 0.26238978
-0.04143063 0.41474068 0.09528684
-0.23335484 -0.05050095 0.53669780
-0.15712340 0.03914407 0.36137083
-0.07632690 0.56786734 0.17554604
-0.13764608 -0.44342032 0.31657401
-0.05335905 0.25730377 0.12272116
-0.06856583 0.24903326 0.15769543
-0.07910990 0.20335516 0.18194588
-0.11657670 0.20247675 0.26811662
-0.05177268 -0.65296340 0.11907266
-0.06886654 -0.60184050 0.15838704
-0.24277845 -0.50276452 0.55836987
-0.03046547 0.32751644 0.07006793
-0.08089083 -0.32917768 0.18604188
-0.01342580 -0.50748295 0.03087817
-0.07729955 -0.57144904 0.17778222
-0.20513918 -0.44327033 0.47180223
-0.13637261 -0.36877772 0.31364515
-0.19156145 -0.21263270 0.44057515
-0.24663661 -0.32933959 0.56724405
-0.14287221 -0.44034997 0.32859367
-0.24507932 -0.09101234 0.56366318
-0.30053815 -0.06216870 0.69121498
-0.11560392 -0.20183989 0.26587895
-0.26889443 -0.63338304 0.61843443
-0.05035844 0.63969100 0.11582055
-0.00348115 -0.68542463 0.00800634
-0.10957902 -0.11441598 0.25202221
-0.07142044 0.50190222 0.16426127
-0.17104110 0.16251589 0.39338106
-0.31550440 -0.58942640 0.72563487
-0.17963824 0.06979607 0.41315356
-0.07880756 0.43045917 0.18125091
-0.18701795 -0.18491244 0.43012553
-0.24726105 -0.39072689 0.56867999
-0.08888997 -0.34976575 0.20443918
-0.16602848 -0.72489792 0.38185105
-0.08993882 0.40084526 0.20685197
-0.02094299 -0.49770692 0.04816706
-0.06934484 0.46976930 0.15948741
-0.17160390 0.23371917 0.39467570
-0.15870599 0.28760698 0.36501157
-0.05134853 0.00892189 0.11809714
-0.20645963 -0.07129176 0.47484052
-0.05553144 -0.08828535 0.12771747
-0.17559627 0.01660039 0.40385714
-0.24655113 0.06460144 0.56704879
-0.03790532 0.42463353 0.08717895
-0.02807652 0.16213594 0.06457355
-0.25609261 -0.27603969 0.58899236
-0.15191762 -0.57905096 0.34939730
-0.16616644 -0.37293938 0.38216832
-0.04090087 -0.58240372 0.09406844
-0.00682264 0.69461548 0.01569148
-0.17020880 0.30276781 0.39146730
-0.29298121 -0.46782434 0.67383313
-0.04654062 -0.21964215 0.10703938
-0.07127510 0.48735753 0.16392694
-0.31155857 -0.22797532 0.71656072
-0.12378367 -0.14837585 0.28469166
-0.11519681 0.50747788 0.26494408
-0.16569068 0.33929116 0.38107604
-0.02430814 0.50842208 0.05590660
-0.18691845 -0.32687342 0.42989615
-0.08000113 -0.41750842 0.18399562
-0.15601872 -0.31014699 0.35882947
-0.21707942 -0.73340887 0.49926373
-0.22232023 -0.65384501 0.51131719
-0.28597954 -0.17498928 0.65773076
-0.01203675 0.67830390 0.02768347
-0.21002209 0.12402748 0.48303464
-0.22999477 0.21147402 0.52897084
-0.02275400 -0.18780158 0.05233222
-0.02520866 -0.14101717 0.05797772
-0.00467837 -0.04740728 0.01075985
-0.16034673 0.07881831 0.36878440
-0.30214414 -0.47726271 0.69490737
-0.14462931 0.13502319 0.33263555
-0.07979387 -0.42943951 0.18351896
-0.09205161 -0.02918090 0.21171068
-0.05616763 -0.10089686 0.12918067
-0.07865430 -0.37147895 0.18089803
-0.29242250 -0.32900056 0.67254859
-0.03627872 -0.65800899 0.08343790
-0.12625453 -0.40553945 0.29037443
-0.28945452 -0.02338472 0.66572350
-0.19806813 -0.66804177 0.45553944
-0.02594305 0.60383087 0.05966675
-0.05538648 0.20131376 0.12738407
-0.19350035 -0.43997994 0.44503394
-0.02307563 -0.17041659 0.05307193
-0.17314406 -0.67813081 0.39821625
-0.13998385 0.10282945 0.32195121
-0.05013348 0.44676706 0.11530263
-0.14448331 0.42259625 0.33230081
-0.20913874 0.24357291 0.48100343
-0.27063337 -0.56411242 0.62243414
-0.06636546 -0.30561480 0.15263477
-0.19908851 -0.61145991 0.45788625
-0.09418303 -0.68241853 0.21661279
-0.29114661 -0.42288247 0.66961378
-0.14566782 -0.49749926 0.33502331
-0.18451309 -0.26049706 0.42436424
-0.21286850 -0.73966098 0.48957902
-0.26020116 0.12653604 0.59844327
-0.06430807 0.27467027 0.14790297
-0.12277349 0.22570647 0.28236893
-0.16017027 0.14426774 0.36837879
-0.00989843 -0.52093184 0.02276552
-0.31358668 -0.41290587 0.72122478
-0.09041064 -0.54194546 0.20793660
-0.05741977 -0.16458292 0.13206047
-0.23656178 -0.03404904 0.54407358
-0.09648383 0.40223929 0.22190505
-0.17095985 -0.20515418 0.39319289
-0.27637634 -0.14439929 0.63564414
-0.11663294 -0.66372150 0.26824561
-0.08743490 -0.05386027 0.20109268
-0.24676554 -0.72215170 0.56753927
-0.01146074 0.67602551 0.02635870
-0.15617682 -0.47082081 0.35919309
-0.12219497 -0.49993560 0.28103778
-0.03358116 0.25850984 0.07723374
-0.12074860 0.20460807 0.27771175
-0.05352926 -0.59582585 0.12311264
-0.21685477 -0.21453536 0.49874815
-0.30777100 0.00991079 0.70785034
-0.06850046 0.60841542 0.15754589
-0.17654479 0.09553514 0.40603894
-0.21173982 -0.77988499 0.48698315
-0.07202404 -0.37490246 0.16564903
-0.04242778 -0.23992690 0.09758019
-0.05595588 -0.10354300 0.12869366
-0.18142663 -0.01861800 0.41726643
-0.16336882 -0.39658275 0.37573406
-0.25639352 0.09784725 0.58968580
-0.05970818 -0.17532842 0.13732362
-0.28304464 0.01011051 0.65098137
-0.12142304 -0.61554378 0.27926242
-0.04468447 -0.26897377 0.10277039
-0.29457456 0.04097512 0.67749947
-0.05542527 -0.29206914 0.12747329
-0.08551842 -0.24294092 0.19668491
-0.06349939 0.30539078 0.14604306
-0.05601653 -0.64334220 0.12883314
-0.09735402 -0.17704251 0.22390577
-0.14084639 -0.70965356 0.32393441
-0.26774615 0.09620658 0.61579609
-0.24380878 -0.21197455 0.56074065
-0.17643546 -0.00872581 0.40578711
-0.13163710 -0.14122476 0.30275384
-0.12512344 -0.66679877 0.28777301
-0.02113509 0.40770194 0.04860887
-0.05143618 0.13885987 0.11829873
-0.18689325 -0.49586183 0.42983821
-0.28713286 0.02316936 0.66038400
-0.14751238 0.31230536 0.33926705
-0.10661601 0.47794744 0.24520868
-0.21068718 -0.42707199 0.48456231
-0.08582658 0.22136790 0.19739366
-0.06954011 -0.77986586 0.15993620
-0.07601025 0.01609073 0.17481697
-0.27649581 -0.28234524 0.63591838
-0.08334138 0.59044307 0.19167896
-0.01098097 -0.43657798 0.02525527
-0.08471430 -0.30302846 0.19483551
-0.12246946 -0.39694378 0.28166911
-0.19290511 -0.13295907 0.44366580
-0.25760296 -0.26357031 0.59246618
-0.02966635 -0.55533642 0.06823002
-0.14175899 -0.21106564 0.32603335
-0.14444335 -0.60629731 0.33220711
-0.07915604 0.26569256 0.18205199
-0.06691605 0.54417759 0.15390162
-0.29905269 -0.69047558 0.68779659
-0.04230735 0.21890691 0.09730322
-0.27271530 0.07440963 0.62722474
-0.04062832 -0.67377210 0.09344160
-0.15956540 -0.32401878 0.36698657
-0.10808895 -0.28146598 0.24859518
-0.07576810 0.03870309 0.17426004
-0.00002537 -0.60016310 0.00005836
-0.16116209 -0.32118848 0.37065879
-0.03703961 -0.64792746 0.08518787
-0.10309113 -0.53604609 0.23710063
-0.28788957 -0.30406648 0.66212320
-0.09336772 -0.38557723 0.21473762
-0.14851539 -0.42063162 0.34157246
-0.03128413 -0.69740051 0.07195078
-0.06534812 0.08573544 0.15029500
-0.18998729 -0.72808516 0.43695420
-0.26601359 -0.77575326 0.61180818
-0.01516516 0.18631986 0.03487856
-0.08671219 0.01830895 0.19943048
-0.29250911 -0.32006642 0.67274779
-0.11145313 -0.47809085 0.25633249
-0.08496412 -0.25518623 0.19541007
-0.03791423 -0.03704738 0.08719942
-0.06443865 -0.34209040 0.14820327
-0.13213874 -0.49569800 0.30390760
-0.29956332 -0.67619646 0.68897104
-0.28899837 -0.50091070 0.66467273
-0.13913073 -0.64186454 0.31998855
-0.17061368 -0.12636434 0.39239696
-0.11966625 0.05577767 0.27522194
-0.21870616 0.07212693 0.50300723
-0.07775926 -0.08804548 0.17883953
-0.03147759 0.69981843 0.07239604
-0.29298353 -0.28567770 0.67383903
-0.31812695 -0.19823737 0.73166776
-0.08743962 -0.31712142 0.20110351
-0.20434122 0.05397334 0.46996877
-0.02655442 -0.74124211 0.06107284
-0.04110881 -0.52836591 0.09454669
-0.27438822 -0.71448952 0.63106954
-0.16420273 0.10274036 0.37765306
-0.02504993 0.09551488 0.05761266
-0.23604126 -0.40489653 0.54287511
-0.30945715 -0.66203654 0.71172631
-0.00053295 -0.32775497 0.00122573
-0.14157785 -0.45617676 0.32561675
-0.19440119 -0.00818971 0.44710714
-0.22973435 0.07792684 0.52837139
-0.06593983 0.00084490 0.15165585
-0.00062160 -0.67010045 0.00142962
-0.20350556 -0.73780745 0.46804506
-0.28753722 -0.65513295 0.66131175
-0.08460707 -0.52539563 0.19458888
-0.16187595 -0.16997151 0.37230062
-0.04243583 -0.45399451 0.09759870
-0.24434060 -0.66482443 0.56196213
-0.03940807 -0.62183350 0.09063513
-0.02760815 -0.59828538 0.06349635
-0.07006949 0.51035178 0.16115421
-0.07571494 -0.60757983 0.17413777
-0.10570783 0.51560682 0.24312006
-0.31781811 -0.07048180 0.73095775
-0.05392259 -0.24868882 0.12401726
-0.01565659 -0.24569416 0.03600880
-0.31209680 -0.79297990 0.71779704
-0.09817997 -0.73955244 0.22580539
-0.12249440 -0.10521449 0.28172645
-0.14624085 -0.50837511 0.33634120
-0.05445234 -0.27911237 0.12523563
-0.14299630 0.29842374 0.32888034
-0.02552410 0.46683449 0.05870321
-0.09154063 -0.76914710 0.21053548
-0.08202756 0.12431992 0.18865624
-0.12846547 0.40791291 0.29546079
-0.08917256 -0.36850852 0.20508911
-0.05956350 0.58024871 0.13699137
-0.19613205 -0.65226209 0.45108664
-0.24974129 -0.11526291 0.57438534
-0.02643998 -0.47903094 0.06080965
-0.20141622 -0.59341615 0.46323976
-0.07027196 -0.59680325 0.16161938
-0.20691359 -0.32031813 0.47588372
-0.06825305 -0.63226271 0.15697607
-0.20974682 0.18210392 0.48240176
-0.10202528 0.06159202 0.23464926
-0.01757890 -0.29730687 0.04042993
-0.13810597 -0.49302244 0.31763172
-0.02474026 0.71391314 0.05690068
-0.13078719 0.19529489 0.30079982
-0.07224261 -0.76852471 0.16615172
-0.00792630 0.60464233 0.01822980
-0.15509547 -0.35134143 0.35670608
-0.06947404 0.16727522 0.15978426
-0.27967948 -0.61787003 0.64323944
-0.16381522 0.07311288 0.37676167
-0.18875746 -0.42061099 0.43412575
-0.15579788 0.22443995 0.35832289
-0.10635861 -0.41652566 0.24461555
-0.23600550 0.03221435 0.54279447
-0.24910907 -0.68154037 0.57292926
-0.27007726 0.07993949 0.62115747
-0.22395261 -0.35257608 0.51507223
-0.00164363 0.13057333 0.00378020
-0.09374432 -0.78943145 0.21560377
-0.16789006 -0.20528901 0.38613257
-0.17808445 0.21404396 0.40958047
-0.06266773 -0.17894411 0.14413033
-0.21357410 0.14906813 0.49120414
-0.10183090 0.15359166 0.23420221
-0.18522210 -0.15456980 0.42599532
-0.11921655 0.04760651 0.27418768
-0.22878227 -0.44574115 0.52617973
-0.12545542 -0.49437472 0.28853655
-0.25658336 -0.68010330 0.59011966
-0.20318875 -0.00004418 0.46731797
-0.11074012 0.02884593 0.25469264
-0.26917586 -0.72082043 0.61908138
-0.04249745 0.05991207 0.09774042
-0.14030875 -0.42770860 0.32269794
-0.12832341 -0.58457792 0.29513267
-0.22729996 0.05674524 0.52277237
-0.08421842 0.36718792 0.19369532
-0.24213453 -0.11588343 0.55689031
-0.00298332 0.70512038 0.00686137
-0.15316512 -0.53779942 0.35226646
-0.21538745 -0.23743179 0.49537331
-0.25336325 -0.50768101 0.58271420
-0.02049653 0.74354428 0.04714047
-0.11842827 0.18287314 0.27237505
-0.23268263 -0.21298215 0.53515118
-0.25625637 0.15161279 0.58937055
-0.12169639 0.46926147 0.27989253
-0.06337240 -0.53740424 0.14575100
-0.03109551 0.28486291 0.07151696
-0.01239143 0.15872231 0.02849920
-0.08897289 -0.10266227 0.20462991
-0.21491122 -0.43958026 0.49427730
-0.09789930 0.43531746 0.22516067
-0.08199903 -0.22633758 0.18859063
-0.15637901 0.38705283 0.35966003
-0.27977487 -0.04123537 0.64346087
-0.07928379 -0.28770006 0.18234581
-0.17086177 -0.12649599 0.39296758
-0.02996767 0.29980490 0.06892304
-0.27025890 -0.53428835 0.62157303
-0.27993113 -0.20247845 0.64381969
-0.23453900 -0.46860114 0.53941983
-0.01626216 0.22549735 0.03740154
-0.23919755 0.09904477 0.55013621
-0.08763411 0.27119958 0.20155083
-0.21661526 -0.02411702 0.49819800
-0.09544405 -0.10566506 0.21951300
-0.12298984 0.31392682 0.28286684
-0.11721779 0.31460008 0.26959151
-0.14093755 0.20267357 0.32414502
-0.08552564 0.34153330 0.19670174
-0.03314110 0.56605917 0.07622165
-0.21141669 -0.19921780 0.48624098
-0.01526132 0.55716956 0.03509970
-0.06016621 0.32978255 0.13837704
-0.29925048 -0.22815531 0.68825287
-0.17080681 0.34753633 0.39284286
-0.05690570 -0.46220309 0.13087817
-0.01535331 -0.64878029 0.03531128
-0.28632373 -0.31405866 0.65852183
-0.26240811 -0.45978796 0.60351694
-0.04558957 0.26152223 0.10485204
-0.19911435 -0.21709485 0.45794633
-0.24423617 -0.01067882 0.56172431
-0.23062746 -0.26509741 0.53042424
-0.00364790 -0.42509684 0.00838986
-0.19153225 -0.57367724 0.44050750
-0.23047473 -0.31659761 0.53007281
-0.14070562 0.27300996 0.32361183
-0.16184109 -0.76294041 0.37222043
-0.00780264 -0.33017299 0.01794539
-0.03743348 -0.23598924 0.08609375
-0.07208611 0.22296229 0.16579176
-0.00312626 -0.67888814 0.00719013
-0.12178770 -0.19401854 0.28010109
-0.14785822 -0.50388724 0.34006104
-0.17172225 0.19092007 0.39494777
-0.20362546 0.04427582 0.46832252
-0.02611353 -0.76592290 0.06005885
-0.04578755 0.39491281 0.10530737
-0.00961393 -0.78999811 0.02211119
-0.18293265 0.05214930 0.42073044
-0.30933660 -0.66766250 0.71144909
-0.04999832 0.13400880 0.11499178
-0.07597044 -0.01500910 0.17472540
-0.05148309 -0.32234582 0.11840663
-0.04184109 0.41927791 0.09623086
-0.22756876 -0.02547371 0.52339029
-0.17036442 -0.45600006 0.39182332
-0.10893282 -0.40529439 0.25053602
-0.27231884 -0.18012545 0.62631202
-0.15686597 -0.05406425 0.36077842
-0.30897707 -0.77372676 0.71062189
-0.27791607 -0.26089174 0.63918501
-0.23927477 -0.69429886 0.55031115
-0.09996997 0.07725439 0.22992224
-0.10735776 0.39453787 0.24691437
-0.03717459 -0.79435611 0.08549832
-0.14339557 -0.21980271 0.32979733
-0.15196802 -0.30465877 0.34951317
-0.12550376 -0.47885886 0.28864774
-0.07513636 -0.62367439 0.17280708
-0.11634855 -0.70519978 0.26759154
-0.28493136 -0.27328077 0.65531963
-0.07174824 -0.43839180 0.16501470
-0.16930607 0.26095515 0.38939095
-0.18486165 0.20502682 0.42516756
-0.17294326 0.18760011 0.39775601
-0.12626556 0.17352881 0.29040030
-0.01127192 -0.63035357 0.02592445
-0.15606970 0.36984611 0.35894856
-0.19182193 0.21895002 0.44117582
-0.30267543 -0.39148128 0.69612950
-0.05360584 0.28545335 0.12328876
-0.21024606 -0.73842090 0.48354760
-0.03862057 -0.70530444 0.08882394
-0.02749503 0.67641699 0.06323632
-0.29098341 -0.00031357 0.66923994
-0.00820887 -0.17478241 0.01887968
-0.17489269 -0.37190482 0.40223798
-0.10587587 0.24100801 0.24350557
-0.27797881 -0.49165580 0.63932848
-0.25936702 -0.60578126 0.59652215
-0.00119927 -0.60537863 0.00275821
-0.20641316 -0.58248681 0.47473228
-0.12011014 -0.56950945 0.27624285
-0.12179594 -0.73763847 0.28012007
-0.26171333 -0.72223693 0.60191810
-0.22177345 0.13145755 0.51006204
-0.19736035 -0.73267913 0.45391160
-0.12525724 0.35877848 0.28808188
-0.20907699 -0.14420623 0.48086002
-0.00951162 0.17984048 0.02187591
-0.07940075 0.38868845 0.18261507
-0.30589309 -0.25254786 0.70353037
-0.28613439 -0.56459427 0.65808558
-0.01588132 -0.22306998 0.03652566
-0.02510787 0.28730592 0.05774591
-0.02260372 0.68341273 0.05198665
-0.11666127 -0.78057420 0.26831076
-0.00979944 -0.78884405 0.02253786
-0.13818306 -0.08552408 0.31780902
-0.13954619 -0.52184284 0.32094407
-0.05855341 0.63160390 0.13466841
-0.28919366 -0.02293520 0.66512352
-0.00627464 0.72075301 0.01443112
-0.20330501 -0.41476899 0.46758384
-0.24067554 -0.04246035 0.55353498
-0.10133497 0.32522491 0.23306210
-0.07044219 -0.59307909 0.16201089
-0.01193317 0.17294776 0.02744525
-0.11130690 0.34256870 0.25599694
-0.15221366 -0.69415092 0.35007817
-0.12181236 -0.23921429 0.28015783
-0.06373186 -0.37981573 0.14657772
-0.20032510 0.20330489 0.46073249
-0.13120736 -0.70399582 0.30176550
-0.13171381 0.21492817 0.30293104
-0.00146504 0.08409365 0.00336946
-0.13427676 0.07085748 0.30882517
-0.08133558 0.09077004 0.18706475
-0.01888024 0.05367594 0.04342291
-0.04641358 -0.58200204 0.10674719
-0.16872674 -0.68021291 0.38805681
-0.08179294 -0.59822464 0.18811665
-0.18806897 0.30606145 0.43254456
-0.19982846 -0.68125606 0.45958808
-0.13261838 -0.04623833 0.30501074
-0.05628458 0.24741274 0.12944962
-0.03332208 -0.35161096 0.07663788
-0.06767000 0.08411665 0.15563510
-0.17896929 -0.02159379 0.41161472
-0.12842375 0.21673481 0.29536414
-0.06878473 0.40888357 0.15819898
-0.03576871 0.14392839 0.08226491
-0.04218309 0.54707307 0.09701745
-0.12609656 -0.54511535 0.29001111
-0.23333618 -0.64512342 0.53665286
-0.01225925 0.11077586 0.02819521
-0.02565174 0.55020612 0.05899677
-0.31760287 -0.69763964 0.73046100
-0.21142420 -0.00388859 0.48625895
-0.04897089 -0.36564842 0.11262877
-0.15887013 0.14919892 0.36538857
-0.18052283 -0.17791021 0.41518721
-0.02221166 0.06320378 0.05108487
-0.04601485 0.56569439 0.10583030
-0.04040041 -0.73925233 0.09291743
-0.18336304 -0.09406297 0.42171979
-0.04067337 0.41311619 0.09354521
-0.02360625 -0.75107270 0.05429231
-0.21990310 -0.45455372 0.50575823
-0.29151991 -0.64611006 0.67047173
-0.26887909 -0.15213244 0.61840087
-0.06758158 -0.06390421 0.15543175
-0.26032871 -0.73115563 0.59873348
-0.01727619 0.08007109 0.03973372
-0.18893227 -0.07942717 0.43452871
-0.12849897 -0.42043534 0.29553646
-0.11271865 -0.69543439 0.25924307
-0.01096171 -0.64037120 0.02521097
-0.00170576 -0.79270530 0.00392311
-0.00818910 0.36096299 0.01883421
-0.24958831 0.13131133 0.57403439
-0.21405390 0.25702369 0.49230802
-0.30800468 -0.26179022 0.70838690
-0.03785049 0.43228051 0.08705284
-0.00101469 0.40995339 0.00233371
-0.02659640 0.26633596 0.06116940
-0.22014704 -0.49594769 0.50631917
-0.04494539 -0.73473573 0.10337049
-0.09432526 0.19045764 0.21693990
-0.15283595 0.34621444 0.35151106
-0.19745877 -0.22026007 0.45413861
-0.17177679 0.28375044 0.39507350
-0.16725187 -0.52399445 0.38466474
-0.28331026 -0.08529767 0.65159190
-0.15164334 -0.30251461 0.34876645
-0.12126098 0.11548193 0.27888986
-0.00696978 0.01761082 0.01602989
-0.18995389 0.20387749 0.43687937
-0.07252056 0.29711351 0.16679096
-0.02499347 0.08392657 0.05748280
-0.07993082 0.11724158 0.18383393
-0.25579086 -0.16091758 0.58829886
-0.14447699 0.29436427 0.33228585
-0.12336906 -0.57111025 0.28373811
-0.23747258 -0.27650598 0.54616755
-0.09266890 -0.02784332 0.21313040
-0.08772396 -0.78845817 0.20175748
-0.23106582 -0.23874030 0.53143257
-0.20434932 -0.61733037 0.46998563
-0.06015044 0.12814541 0.13834077
-0.13328876 -0.24407965 0.30655250
-0.02972473 0.23314203 0.06836430
-0.04798146 -0.57220519 0.11035319
-0.00572877 0.71451497 0.01317568
-0.00114771 0.49423745 0.00263962
-0.00458308 0.05429038 0.01054068
-0.19001213 -0.23892187 0.43701172
-0.11082017 -0.78140128 0.25487673
-0.10564130 -0.09659647 0.24296580
-0.19084223 -0.57796443 0.43892053
-0.20947790 -0.27839771 0.48178160
-0.24053340 -0.37713006 0.55320686
-0.30337003 -0.52256191 0.69772667
-0.01812270 -0.61431658 0.04168064
-0.23596559 -0.76207501 0.54270035
-0.30666879 -0.08636145 0.70531499
-0.03691372 0.28226668 0.08489835
-0.15099767 -0.43861341 0.34728149
-0.27692309 -0.75881684 0.63689953
-0.03791185 0.24988604 0.08719395
-0.30528569 -0.28335905 0.70213330
-0.25868350 0.01608801 0.59495234
-0.21562570 -0.57373905 0.49592033
-0.07764591 0.22979146 0.17857882
-0.15620008 -0.04221407 0.35924694
-0.08780703 0.44993150 0.20194916
-0.29287526 -0.75892270 0.67358863
-0.16459107 -0.44712612 0.37854514
-0.24884249 -0.61656469 0.57231635
-0.10987344 -0.20165490 0.25269935
-0.09559255 -0.29823518 0.21985455
-0.09574526 0.31647867 0.22020611
-0.12442613 -0.72617155 0.28616926
-0.04483914 0.06008521 0.10312611
-0.12478113 -0.63071054 0.28698573
-0.29668182 -0.10237086 0.68234557
-0.02774150 -0.49517950 0.06380303
-0.31475186 -0.02191613 0.72390574
-0.13462731 -0.19394805 0.30963108
-0.14749807 -0.26302779 0.33923271
-0.10606735 -0.54324108 0.24394567
-0.07478682 -0.10932575 0.17200316
-0.14706236 0.36283705 0.33823222
-0.21676993 -0.33787325 0.49855259
-0.09977444 0.44656411 0.22947343
-0.01515024 0.30004805 0.03484423
-0.10957506 0.06973414 0.25201312
-0.28932014 0.01938886 0.66541457
-0.16471905 0.05271649 0.37884036
-0.10569129 -0.40550658 0.24308077
-0.28956434 0.06014508 0.66597635
-0.29124960 -0.36766443 0.66985089
-0.11115888 0.01908309 0.25565574
-0.23577139 -0.03231746 0.54225582
-0.12545486 -0.69573087 0.28853524
-0.22331235 0.17322892 0.51360154
-0.25371942 -0.46627593 0.58353353
-0.08962038 0.04706200 0.20611906
-0.01599044 0.59569401 0.03677661
-0.26616067 0.11973501 0.61214972
-0.24216294 -0.38582683 0.55695468
-0.08388760 -0.69629353 0.19293417
-0.28303745 0.08445204 0.65096503
-0.29097387 -0.03075020 0.66921788
-0.07895681 0.30433491 0.18159378
-0.10686279 0.29779693 0.24577563
-0.17834085 -0.64284712 0.41016841
-0.27488557 -0.47345796 0.63221425
-0.09327608 -0.75833696 0.21452688
-0.10718933 -0.67161697 0.24652612
-0.19678114 -0.67188305 0.45257947
-0.26588249 -0.18028171 0.61150885
-0.24601752 0.01971713 0.56582141
-0.00965545 -0.22766110 0.02220669
-0.22225673 0.05498334 0.51117331
-0.14587615 0.09120899 0.33550307
-0.12273693 -0.73688322 0.28228423
-0.13188104 0.10576385 0.30331528
-0.27442649 -0.08824695 0.63115978
-0.12675978 0.28946981 0.29153737
-0.20181745 -0.13101803 0.46416360
-0.00266365 -0.00007055 0.00612617
-0.29754454 -0.22685464 0.68432927
-0.04945170 0.01956418 0.11373460
-0.09954950 0.44735512 0.22895606
-0.00454835 0.32013535 0.01046081
-0.11550421 -0.10767921 0.26564962
-0.13712543 0.15932667 0.31537721
-0.28720728 -0.56953627 0.66055310
-0.19554384 -0.16423564 0.44973460
-0.29003513 -0.29322317 0.66705793
-0.31169474 -0.32868895 0.71687365
-0.22532842 -0.68185300 0.51823568
-0.24571459 0.18240951 0.56512523
-0.06048343 -0.54636568 0.13910662
-0.05271256 0.23683143 0.12123431
-0.00217380 -0.41856787 0.00499955
-0.03800726 -0.31342891 0.08741338
-0.05493760 -0.48513937 0.12635168
-0.06407716 0.32705528 0.14737189
-0.26875025 -0.03033804 0.61810499
-0.14015260 -0.74377453 0.32233879
-0.29441145 -0.22859675 0.67712337
-0.19804128 0.17498089 0.45547974
-0.06936615 0.46426326 0.15953641
-0.31200871 -0.00886244 0.71759677
-0.05551453 -0.71547031 0.12767859
-0.24855311 -0.63811821 0.57165074
-0.17050701 0.10045052 0.39215249
-0.13336147 -0.22645444 0.30671981
-0.02431919 0.49032819 0.05593201
-0.26220989 -0.24627480 0.60306185
-0.13782156 -0.58796483 0.31697759
-0.14275052 0.44120830 0.32831556
-0.03108267 -0.61942178 0.07148743
-0.13700151 -0.65169406 0.31509155
-0.20306170 0.14458311 0.46702629
-0.09672333 -0.47726455 0.22245523
-0.09875055 0.42424965 0.22711845
-0.14995223 -0.25627884 0.34487706
-0.15963556 -0.13492642 0.36714798
-0.07616946 -0.75511932 0.17518313
-0.08762057 -0.56131637 0.20151968
-0.11484107 0.17330427 0.26412472
-0.00835664 0.51178205 0.01921955
-0.05012219 -0.17974815 0.11527667
-0.18148810 -0.40420377 0.41740683
-0.06567439 0.04480201 0.15104537
-0.19183028 -0.31301284 0.44119310
-0.18761027 0.02609059 0.43148860
-0.11451651 -0.26592475 0.26337799
-0.26375744 -0.52656442 0.60662007
-0.12600374 0.12522088 0.28979793
-0.03114781 0.28547639 0.07163725
-0.20655261 -0.51142663 0.47505301
-0.03192185 0.61410660 0.07341749
-0.17820784 0.12833211 0.40986398
-0.05497748 0.24492322 0.12644342
-0.08581319 -0.36290717 0.19736287
-0.29278550 -0.57451141 0.67338276
-0.24869832 -0.46471319 0.57198536
-0.11312202 -0.70491916 0.26017079
-0.07258983 -0.65760773 0.16695029
-0.09726084 -0.63579553 0.22369145
-0.12289345 -0.37702489 0.28264424
-0.08505417 -0.00729489 0.19561718
-0.01381678 0.38250461 0.03177740
-0.26067540 -0.33293861 0.59953231
-0.22351883 -0.30346426 0.51407474
-0.30107850 -0.37146237 0.69245672
-0.19812962 -0.33095974 0.45568115
-0.00329150 -0.32091001 0.00757016
-0.10048380 -0.45882860 0.23110400
-0.04161874 0.48144186 0.09571948
-0.12463815 0.31847560 0.28665787
-0.00394499 0.68761563 0.00907313
-0.10321734 -0.08021377 0.23739089
-0.02499528 0.07847251 0.05748697
-0.22819628 0.12647668 0.52483410
-0.07304479 0.52817184 0.16799726
-0.02682250 0.53599930 0.06168941
-0.25298139 -0.48484889 0.58183604
-0.14517750 -0.77381420 0.33389562
-0.31580901 -0.14676541 0.72633678
-0.09107881 -0.67067450 0.20947333
-0.02768509 -0.61831480 0.06367329
-0.02096809 0.58528233 0.04822478
-0.08769112 0.17385888 0.20168193
-0.01233997 -0.02308695 0.02838085
-0.09298357 -0.77022028 0.21385412
-0.02366453 0.69669348 0.05442650
-0.21989024 -0.69696283 0.50572836
-0.17906412 -0.19418281 0.41183221
-0.10680545 -0.63568312 0.24564324
-0.22602472 -0.02056211 0.51983911
-0.31836110 -0.22139560 0.73220623
-0.17213809 0.36650348 0.39590484
-0.17700554 -0.40856040 0.40709734
-0.26866207 -0.08669384 0.61790198
-0.13905242 -0.51728278 0.31980845
-0.30798912 -0.07854348 0.70835173
-0.16119732 -0.47097731 0.37073979
-0.06588340 0.59172499 0.15152676
-0.22633649 -0.16666783 0.52055568
-0.28405336 -0.24128790 0.65330040
-0.13580336 -0.63246769 0.31233591
-0.20245107 -0.63788700 0.46561983
-0.11397944 0.07358280 0.26214278
-0.25052056 -0.25794184 0.57617712
-0.02315766 -0.47903180 0.05326059
-0.03376614 0.02600599 0.07765918
-0.03306206 0.54475451 0.07603986
-0.06951870 -0.60510486 0.15988696
-0.00236094 0.09126628 0.00542995
-0.11406892 0.24767484 0.26234907
-0.25797248 -0.49921149 0.59331518
-0.12456201 -0.51641738 0.28648177
-0.31019419 -0.05854525 0.71342325
-0.16201112 -0.06566264 0.37261185
-0.31125715 -0.14446416 0.71586776
-0.04723047 0.56813294 0.10862616
-0.30881131 -0.00982518 0.71024287
-0.19578770 -0.34363738 0.45029482
-0.15699783 0.09310493 0.36108223
-0.02885964 -0.27030051 0.06637466
-0.00886093 0.46926734 0.02037936
-0.17030083 -0.43648005 0.39167705
-0.18313202 -0.23645268 0.42118794
-0.06065868 0.31102446 0.13950968
-0.15978049 -0.29697263 0.36748120
-0.13205963 -0.63709474 0.30372569
-0.01193410 -0.26323390 0.02744738
-0.02309862 -0.23961045 0.05312481
-0.27776456 -0.53469372 0.63883555
-0.26367843 0.01056994 0.60644031
-0.11478749 -0.43968013 0.26400125
-0.21571162 0.21519861 0.49612051
-0.10580047 -0.09691647 0.24333186
-0.18771747 -0.41046983 0.43173385
-0.05074208 0.55698097 0.11670258
-0.01601881 -0.46460986 0.03684188
-0.24912497 -0.60555542 0.57296610
-0.16096132 0.03140732 0.37019774
-0.13337076 -0.37018812 0.30674112
-0.11106449 0.30876058 0.25543931
-0.16821349 -0.30558795 0.38687637
-0.15990338 -0.41070709 0.36776382
-0.05338193 -0.34403372 0.12277378
-0.02064567 -0.70679164 0.04748325
-0.13260676 0.07507320 0.30498427
-0.20431457 -0.66089034 0.46990573
-0.13130935 -0.55356061 0.30200005
-0.01433570 0.38436002 0.03297085
-0.22589312 -0.19199608 0.51953584
-0.10893592 -0.09556926 0.25054312
-0.23070499 0.07738962 0.53060377
-0.30242574 -0.32934633 0.69555545
-0.14050652 -0.52049649 0.32315278
-0.05332477 -0.04324460 0.12264233
-0.21799704 -0.29807693 0.50137502
-0.28899369 -0.02163315 0.66466361
-0.03611946 0.65391570 0.08307187
-0.05296970 -0.27578977 0.12182569
-0.13437733 -0.19099735 0.30905616
-0.17487542 -0.02124599 0.40219909
-0.28934681 0.00043678 0.66547590
-0.08770155 -0.49536228 0.20170593
-0.22675899 -0.29148704 0.52152693
-0.00187632 0.45977926 0.00431537
-0.16144472 0.03239500 0.37130955
-0.00600609 -0.54257822 0.01381348
-0.19432397 -0.68030971 0.44692820
-0.04765971 -0.55598766 0.10961319
-0.15173362 -0.74676859 0.34897411
-0.06533289 -0.79339147 0.15025996
-0.00200408 0.79430240 0.00460923
-0.17072792 -0.33736348 0.39265937
-0.17197795 -0.00947167 0.39553514
-0.30453420 0.03474463 0.70040596
-0.07993301 -0.44044068 0.18383895
-0.24391884 0.14640094 0.56099498
-0.15806180 0.06570122 0.36352918
-0.16746430 -0.54256338 0.38515332
-0.04388505 0.21535264 0.10093179
-0.15313730 -0.46636286 0.35220242
-0.13390487 -0.03859809 0.30796957
-0.10740435 -0.65628850 0.24702065
-0.17956732 -0.12098452 0.41298980
-0.11177460 -0.04913956 0.25707185
-0.18034399 -0.74219859 0.41477543
-0.10802879 0.44337612 0.24845788
-0.15254481 -0.75985092 0.35083979
-0.08284303 -0.26574984 0.19053176
-0.16906157 -0.52310812 0.38882688
-0.24879223 -0.56289583 0.57220095
-0.08090378 -0.25774145 0.18607166
-0.24206167 -0.18054497 0.55672252
-0.18036558 0.11478002 0.41482657
-0.08747029 -0.63248158 0.20117405
-0.19766442 -0.52847385 0.45461097
-0.07931473 -0.21939000 0.18241698
-0.18015817 0.34620091 0.41435030
-0.16360699 -0.14729866 0.37628195
-0.19496231 -0.68507600 0.44839633
-0.22227044 -0.16491868 0.51120400
-0.10036813 0.05776972 0.23083796
-0.04075517 -0.35022712 0.09373333
-0.05815357 0.60292614 0.13374871
-0.18949506 -0.39677143 0.43582213
-0.29619551 -0.39331183 0.68122607
-0.00642250 -0.43943158 0.01477119
-0.01585708 0.75480181 0.03647010
-0.09820804 -0.58596909 0.22586995
-0.00743794 0.42911795 0.01710662
-0.24000916 -0.64742380 0.55200016
-0.29632714 -0.31716636 0.68152905
-0.01422356 -0.56299877 0.03271295
-0.18178520 0.23731832 0.41809204
-0.28442246 -0.45864189 0.65414858
-0.25921732 -0.62325788 0.59617776
-0.22303595 -0.28169990 0.51296419
-0.09684891 -0.12615339 0.22274405
-0.29226604 0.05315563 0.67219013
-0.19411197 0.13535346 0.44644246
-0.13176741 -0.62383282 0.30305353
-0.26690626 -0.49159384 0.61386234
-0.01016605 -0.52124602 0.02338104
-0.24122266 0.10722591 0.55479383
-0.06368523 0.00142153 0.14647049
-0.02736956 -0.37726712 0.06294761
-0.03407789 -0.25880361 0.07837619
-0.06853668 0.33204621 0.15762842
-0.19153453 -0.03303587 0.44051391
-0.15837954 -0.46208265 0.36425915
-0.24362260 -0.34692419 0.56031191
-0.17749514 -0.15348357 0.40822375
-0.27348825 -0.03933138 0.62900209
-0.04686025 -0.41404822 0.10777450
-0.06580168 -0.70364690 0.15133812
-0.22610655 -0.72928023 0.52002537
-0.15938996 -0.36541867 0.36658305
-0.03257351 -0.23222648 0.07491623
-0.06145970 0.06535222 0.14135195
-0.01962308 0.36554441 0.04513139
-0.07316426 0.24776068 0.16827144
-0.31763604 -0.00458328 0.73053920
-0.10333196 0.12341485 0.23765451
-0.04022561 -0.76067787 0.09251540
-0.22905380 -0.50072515 0.52680409
-0.01161556 -0.26560843 0.02671477
-0.14287549 -0.22444122 0.32860118
-0.06019681 0.25900584 0.13844742
-0.15136942 0.32734939 0.34813806
-0.16610122 -0.48103172 0.38201830
-0.04561233 -0.20107476 0.10490438
-0.03994417 0.33001241 0.09186810
-0.00203777 0.00725760 0.00468669
-0.30177349 -0.49175209 0.69405484
-0.18400401 -0.38018939 0.42319319
-0.07953366 -0.22714989 0.18292049
-0.02166145 0.56245649 0.04981944
-0.15727648 0.37779054 0.36172408
-0.13530675 0.03289362 0.31119388
-0.24318151 -0.72494692 0.55929631
-0.13964096 0.24769612 0.32116309
-0.16654186 0.31942585 0.38303366
-0.04583590 -0.79431397 0.10541858
-0.11092104 0.44247797 0.25510985
-0.05298210 0.04627046 0.12185422
-0.16088541 -0.30624798 0.37002242
-0.26117134 0.05030397 0.60067433
-0.14528430 -0.03862860 0.33414140
-0.12172472 0.34130228 0.27995726
-0.19130172 -0.31474224 0.43997747
-0.14965753 -0.27804953 0.34419927
-0.10022831 -0.41115621 0.23051637
-0.13011748 -0.08207312 0.29925886
-0.29761669 0.01332725 0.68449605
-0.13672005 0.40087083 0.31444573
-0.20242228 -0.39413247 0.46555373
-0.02359164 0.60018843 0.05425871
-0.10818250 -0.18458572 0.24881034
-0.19923320 -0.06349345 0.45822024
-0.10431785 0.35829395 0.23992266
-0.23707782 -0.42008761 0.54525912
-0.27550101 -0.60700512 0.63362920
-0.02270768 -0.32698140 0.05222569
-0.05668076 0.45504233 0.13036081
-0.14849624 -0.66697919 0.34152842
-0.16879255 -0.13192011 0.38820848
-0.16890813 0.23899372 0.38847566
-0.04553229 0.36505842 0.10472030
-0.12600265 -0.76686674 0.28979516
-0.11699633 0.16588826 0.26908165
-0.11081086 -0.40998346 0.25485533
-0.07347675 -0.38188535 0.16899012
-0.07815761 0.58341783 0.17975663
-0.11094643 -0.27756000 0.25516713
-0.19035015 -0.16399568 0.43778941
-0.04446715 0.67953950 0.10227111
-0.14211936 -0.37627295 0.32686216
-0.09926834 -0.04211503 0.22830853
-0.10351103 -0.50314015 0.23806635
-0.02407133 -0.62659067 0.05536195
-0.01376289 0.40503678 0.03165346
-0.18647547 0.11840671 0.42887893
-0.27746579 0.02920258 0.63815039
-0.17642421 -0.00139429 0.40576127
-0.14337876 0.38178787 0.32976028
-0.01645189 -0.04072673 0.03783791
-0.24332424 -0.16746739 0.55962640
-0.03395468 -0.46648771 0.07809280
-0.04442849 0.52128732 0.10218165
-0.20173752 -0.40742761 0.46397880
-0.00676164 0.37597874 0.01555118
-0.16156381 -0.00060290 0.37158337
-0.03063518 -0.31939328 0.07045825
-0.20170932 -0.61663330 0.46391386
-0.24379575 -0.29244274 0.56071037
-0.09146110 0.10848338 0.21035255
-0.08230724 0.22726686 0.18929948
-0.15935786 0.08749355 0.36651009
