ply
format ascii 1.0
element vertex 1143
property float x
property float y
property float z
end_header
0.02772690 -0.65991551 0.18551394
0.07382681 -0.46963811 0.49395725
0.08097357 -0.39175972 0.54177308
0.01281244 -0.14390464 0.08572494
0.03795171 -0.77030551 0.25392568
0.10968592 -0.67593980 0.73388046
0.03210296 0.50531405 0.21479066
0.01638720 0.13946232 0.10964280
0.06938457 0.02397217 0.46423146
0.05203163 0.17536800 0.34812859
0.05786877 -0.13526033 0.38718578
0.03600639 -0.47150245 0.24090996
0.04088394 0.22971249 0.27354342
0.06462915 0.18520434 0.43241319
0.04150605 -0.74520957 0.27770689
0.08291365 -0.20679983 0.55475134
0.01420662 0.10773602 0.09505305
0.03958157 -0.39005980 0.26483068
0.05975695 0.15884043 0.39981562
0.00317438 0.20306236 0.02123898
0.11659560 -0.03444588 0.78010130
0.02954657 -0.56381279 0.19768888
0.08017387 -0.15844484 0.53642011
0.04546435 -0.73352391 0.30419090
0.09573605 -0.15018310 0.64054006
0.08748254 -0.41792870 0.58532214
0.00502973 -0.41678375 0.03365273
0.07710990 -0.20978633 0.51592094
0.09171702 -0.62650460 0.61365551
0.11102790 -0.15824638 0.74285144
0.06368442 0.31272137 0.42609102
0.08986710 -0.52196777 0.60127729
0.11449259 -0.53438807 0.76603866
0.01955028 0.32831272 0.13080618
0.02045688 -0.28613830 0.13687202
0.02869968 0.24976173 0.19202258
0.02235239 -0.28859326 0.14955439
0.07158481 -0.23548754 0.47895515
0.03036631 -0.22524346 0.20317362
0.01474259 0.06158154 0.09863906
0.09348371 -0.78533494 0.62547678
0.10073771 -0.31964058 0.67400587
0.05398128 0.32776919 0.36117119
0.05705883 -0.78237504 0.38176677
0.03093053 0.41044530 0.20694740
0.03386038 -0.46225187 0.22655156
0.07114877 -0.07471689 0.47603604
0.02373854 0.39226267 0.15882879
0.01825425 0.44613561 0.12213475
0.02418214 -0.11396186 0.16179684
0.09595033 -0.10398405 0.64197320
0.02775331 -0.07131559 0.18569063
0.01712028 0.48282418 0.11454762
0.03620942 -0.72895563 0.24226838
0.06584555 0.01271807 0.44055346
0.02639427 0.54628706 0.17659573
0.00335612 -0.74504733 0.02245498
0.00208356 0.60148329 0.01394059
0.02369510 -0.34255174 0.15853812
0.09145211 -0.60170901 0.61188281
0.01668578 -0.05860802 0.11164052
0.00248643 -0.66249621 0.01663609
0.00745427 0.64838088 0.04987474
0.00409305 0.10387684 0.02738562
0.01076450 0.61830795 0.07202266
0.02341962 -0.07733678 0.15669496
0.09674113 0.12611276 0.64726162
0.00070124 0.62302917 0.00469185
0.11138146 -0.24217761 0.74521792
0.07314006 0.11367363 0.48935685
0.05029938 0.00141903 0.33654064
0.00829597 0.66105872 0.05550630
0.08936445 -0.56637037 0.59791481
0.04172306 -0.58653229 0.27915883
0.00534193 0.30007580 0.03574155
0.04810164 0.37092400 0.32183254
0.03507132 -0.48283511 0.23465367
0.09172996 -0.68556732 0.61374271
0.08847606 -0.70907354 0.59197181
0.05905033 -0.14117213 0.39509115
0.04116551 -0.47562015 0.27542841
0.10802073 -0.07133719 0.72273088
0.11795356 -0.41285911 0.78919333
0.08807585 -0.70759082 0.58929408
0.07148085 -0.65239042 0.47826096
0.00397911 -0.64216518 0.02662327
0.00055145 -0.19993895 0.00368961
0.02648626 -0.31257018 0.17721310
0.04310973 0.42032611 0.28843322
0.05992231 -0.25501400 0.40092558
0.06452406 -0.51691312 0.43171480
0.04719528 -0.55797130 0.31577212
0.05100106 -0.21244033 0.34123567
0.02060101 -0.38065165 0.13783637
0.02748903 0.57545644 0.18391998
0.03855421 0.02954189 0.25795686
0.02381007 0.53716379 0.15930605
0.01120142 -0.25537649 0.07494598
0.00733043 -0.17120306 0.04904612
0.04920943 0.18890829 0.32924625
0.08216784 0.06903894 0.54975849
0.09436688 -0.52966201 0.63138354
0.01036240 0.13179862 0.06933227
0.07420067 -0.10035558 0.49645531
0.00852136 0.17342383 0.05701434
0.04950801 -0.28775424 0.33124608
0.04378312 -0.61381096 0.29294217
0.01130461 0.14456059 0.07563638
0.00532401 0.31135893 0.03562164
0.03823616 -0.21883939 0.25582886
0.04787628 -0.73538250 0.32032856
0.11101169 -0.56114507 0.74274904
0.01187416 -0.67842400 0.07944713
0.03639038 -0.66178191 0.24347919
0.04635910 0.31227958 0.31017458
0.01753763 0.01984763 0.11734002
0.05894747 0.02061250 0.39440122
0.05648317 0.03077819 0.37791350
0.05991542 0.21172953 0.40087530
0.11071503 -0.48025742 0.74076277
0.06489030 0.35971394 0.43415868
0.01999677 0.25163183 0.13379355
0.04493734 -0.20979317 0.30066481
0.11092631 -0.52988160 0.74217725
0.09964811 -0.09739279 0.66671342
0.08202971 -0.59081966 0.54884082
0.03654830 -0.46968108 0.24453580
0.10465158 -0.76118624 0.70019799
0.01265431 -0.43192217 0.08466693
0.05173780 -0.52066040 0.34616503
0.03043031 0.08444424 0.20360182
0.02384076 0.32619539 0.15951276
0.01240253 -0.09336071 0.08298231
0.05811081 -0.43927577 0.38880533
0.08197267 -0.58401519 0.54845917
0.02295330 0.38806665 0.15357491
0.01987686 0.02558224 0.13299125
0.01832946 0.04385003 0.12263795
0.11649803 -0.72382087 0.77945983
0.02173733 -0.68595964 0.14543916
0.00830007 0.14144439 0.05553373
0.01909419 -0.58538163 0.12775458
0.02498711 -0.56558257 0.16718267
0.09642471 -0.60511899 0.64515245
0.04761251 -0.29550076 0.31856376
0.10681935 -0.00727020 0.71469223
0.08772828 -0.73397285 0.58696860
0.09599180 0.01924423 0.64224935
0.00976164 0.19714426 0.06531274
0.07996144 -0.03124673 0.53499746
0.03595197 -0.51364166 0.24054585
0.11378347 -0.35724372 0.76129109
0.03307645 -0.39640680 0.22130647
0.07224992 0.22919603 0.48340011
0.00478120 -0.79258680 0.03198982
0.01572533 -0.49156591 0.10521435
0.03770837 -0.56390923 0.25229752
0.02342136 -0.61225295 0.15670659
0.06123524 -0.22986649 0.40971014
0.11264130 -0.30240405 0.75364810
0.01562081 0.22276002 0.10451507
0.03595111 -0.67991543 0.24054015
0.10098895 -0.11688598 0.67568457
0.05207565 -0.76957828 0.34842554
0.03124803 -0.40179348 0.20907298
0.07754590 -0.46788090 0.51884079
0.02419531 0.14230898 0.16188492
0.04317028 -0.54503214 0.28884181
0.04022824 -0.63249773 0.26915738
0.04388019 0.32286406 0.29358909
0.10786063 -0.26606843 0.72166175
0.03804363 -0.12267665 0.25454068
0.04068279 -0.13770054 0.27219868
0.00398209 -0.44135672 0.02664318
0.09704312 -0.68372786 0.64929086
0.05083800 -0.40976015 0.34014469
0.10168790 -0.65392864 0.68036675
0.11034096 -0.11442242 0.73825502
0.03059693 -0.08250636 0.20471659
0.02628027 -0.58585352 0.17583488
0.09081124 -0.55054438 0.60759449
0.00465526 -0.32654348 0.03114722
0.02867553 0.09169243 0.19186099
0.03573130 -0.05938681 0.23906946
0.10532656 -0.06832281 0.70470524
0.02657653 -0.24240172 0.17781712
0.04358216 -0.76542246 0.29159763
0.06601179 -0.45044923 0.44166881
0.03893532 -0.75822920 0.26050678
0.05299752 -0.36630651 0.35459349
0.03884142 -0.56297874 0.25987849
0.01277967 -0.23511742 0.08550566
0.08797583 -0.07672546 0.58861887
0.04828282 -0.50212318 0.32304862
0.01362819 -0.01614073 0.09118292
0.01874570 -0.12875018 0.12542294
0.06471564 -0.49383521 0.43299660
0.03962992 -0.54394823 0.26515412
0.04663107 -0.37849373 0.31199715
0.04980736 -0.65502542 0.33324891
0.10180228 -0.64430082 0.68113196
0.07264531 -0.64760941 0.48605210
0.08009292 0.07627542 0.53587598
0.05851129 0.09893917 0.39148206
0.03054004 -0.07770687 0.20433602
0.02968057 0.36328164 0.19858496
0.08840161 -0.34949878 0.59147054
0.06517497 0.07076793 0.43606627
0.00236969 0.24457259 0.01585499
0.02186668 0.62863350 0.14630266
0.10752800 -0.57797050 0.71944058
0.10304287 -0.54495096 0.68943113
0.00665027 -0.55664694 0.04449532
0.10158121 -0.58653128 0.67965227
0.04130655 -0.31781065 0.27637210
0.04409083 0.18427920 0.29499990
0.04995332 0.41727450 0.33422086
0.11097342 -0.60818976 0.74249375
0.04033965 0.04528367 0.26990280
0.02819517 -0.64477694 0.18864703
0.07028075 -0.37944609 0.47023144
0.10924447 -0.36058411 0.73092151
0.00317108 0.64095867 0.02121690
0.05749530 0.29979667 0.38468236
0.02736658 0.09474004 0.18310311
0.03990790 0.08958864 0.26701406
0.01144563 -0.02230406 0.07657991
0.07049932 0.12007012 0.47168872
0.11493998 -0.60069132 0.76903313
0.10543527 -0.56768119 0.70543826
0.01556246 -0.38265967 0.10412466
0.03105986 -0.00777411 0.20781393
0.07651522 -0.46417835 0.51194471
0.08186111 -0.49989849 0.54771239
0.00224662 0.50073755 0.01503159
0.03627118 -0.62282848 0.24268165
0.02777266 -0.59083635 0.18582013
0.01717507 -0.79964900 0.11491423
0.05022369 0.13825676 0.33603281
0.02488708 -0.27943984 0.16651343
0.09777477 -0.43325880 0.65418333
0.07507325 -0.31199449 0.50229561
0.00968324 -0.75675023 0.06478819
0.10681911 -0.66968209 0.71469903
0.01170550 0.50211620 0.07831865
0.04256577 0.20328248 0.28479612
0.01313685 0.43654427 0.08789545
0.01720410 -0.11349047 0.11510842
0.00375590 -0.00791525 0.02512980
0.09490036 -0.44100559 0.63495195
0.06513797 0.09724397 0.43581843
0.10135025 -0.23744433 0.67810321
0.11513451 -0.58298105 0.77033442
0.03899504 -0.10494617 0.26090634
0.03843794 0.17210156 0.25717887
0.01134415 -0.48433208 0.07590093
0.10558102 0.05789365 0.70640641
0.10243452 -0.13604534 0.68535656
0.11590700 -0.19862980 0.77549654
0.04713452 -0.41712424 0.31536561
0.00574123 0.26012638 0.03841317
0.02456059 0.12083598 0.16432892
0.01417989 -0.54925781 0.09487418
0.10919666 -0.02238897 0.73059797
0.04064952 0.34377089 0.27197379
0.11447150 -0.24561173 0.76589268
0.02586177 0.32660913 0.17303480
0.11446126 -0.07829420 0.76582181
0.07512615 -0.32752979 0.50264972
0.04025578 0.14218546 0.26934165
0.01661867 0.16020648 0.11119148
0.01944548 0.31846777 0.13010499
0.06953210 0.29774961 0.46521553
0.03431293 -0.62832153 0.22957948
0.03888480 -0.32848802 0.26016876
0.06526859 0.27778184 0.43669039
0.11156100 0.02804503 0.74641621
0.04788203 0.44530836 0.32036242
0.04523937 -0.35344580 0.30268565
0.03867915 -0.29143590 0.25879276
0.00719269 -0.39656919 0.04812456
0.01865980 -0.02704945 0.12484820
0.05418339 0.00913812 0.36252686
0.07667822 0.01991777 0.51303029
0.03478828 -0.33053246 0.23275989
0.09644839 -0.63852489 0.64531124
0.01237628 -0.29507276 0.08280671
0.00064036 -0.43510002 0.00428452
0.00341343 -0.13713688 0.02283844
0.00794262 0.61607379 0.05314216
0.05785194 -0.68878704 0.38707325
0.03368688 0.54110807 0.22538762
0.09115023 0.02750185 0.60985631
0.01944994 0.61071742 0.13013341
0.07249828 -0.22549793 0.48506665
0.02544443 0.02506758 0.17024252
0.05940460 -0.79334503 0.39746177
0.09467745 -0.08525572 0.63345671
0.07411484 0.12381299 0.49587861
0.03419955 -0.06854476 0.22882086
0.00117552 -0.46288422 0.00786512
0.00493328 0.45947909 0.03300736
0.04424349 -0.14453742 0.29602242
0.07576549 -0.11635088 0.50692505
0.01159719 -0.66678238 0.07759396
0.08844168 0.09702747 0.59173375
0.02373411 0.25774938 0.15879917
0.07890860 -0.55991042 0.52795821
0.09567057 0.02868278 0.64010000
0.08137140 -0.72741026 0.54443628
0.05432240 -0.19595058 0.36345798
0.09147751 -0.70167345 0.61205375
0.01579473 0.37252036 0.10567870
0.01868331 -0.06117744 0.12500548
0.08972282 -0.01476410 0.60030657
0.01970334 -0.17763720 0.13183026
0.03143012 -0.37586841 0.21029133
0.10830526 -0.20117424 0.72463590
0.03338296 -0.32181793 0.22335725
0.09869042 -0.27206877 0.66030777
0.01262734 0.52806085 0.08448643
0.00960829 0.33277819 0.06428672
0.04164414 0.07974613 0.27863082
0.11457661 -0.22646154 0.76659566
0.03663778 -0.79634476 0.24513447
0.07760557 -0.28118545 0.51923800
0.09213447 -0.11839788 0.61644304
0.02973916 0.46199685 0.19897591
0.09979640 -0.13250653 0.66770589
0.11017330 0.02341045 0.73713171
0.03120935 0.32937339 0.20881376
0.02910700 -0.61713737 0.19474787
0.03615522 -0.76067322 0.24190575
0.02437531 0.61377418 0.16308700
0.07918603 -0.42971054 0.52981377
0.11686220 -0.11028182 0.78188616
0.07609931 -0.63253820 0.50916195
0.10040919 -0.45763770 0.67180938
0.05811447 -0.62131631 0.38882980
0.11412595 -0.42433169 0.76358372
0.03444969 0.14124653 0.23049448
0.01651031 -0.65802217 0.11046650
0.06483456 0.00390448 0.43378946
0.06052240 -0.00542573 0.40493870
0.03022402 -0.66449887 0.20222157
0.08378626 0.15362287 0.56058568
0.06513426 -0.57938266 0.43579751
0.06259250 0.23631503 0.41878626
0.03035508 0.23630086 0.20309845
0.01594561 0.32299176 0.10668821
0.01659355 0.45139304 0.11102341
0.05058871 -0.63369673 0.33847672
0.08396953 -0.22639281 0.56181598
0.11027996 -0.65165454 0.73785466
0.09329686 0.13900249 0.62421733
0.06405722 -0.00389265 0.42858866
0.08743632 0.00919613 0.58500826
0.00480542 0.35351059 0.03215189
0.00338013 -0.16137536 0.02261566
0.01722458 -0.16906679 0.11524549
0.01339192 -0.06495230 0.08960211
0.09264552 0.05706908 0.61986035
0.08327962 -0.50778574 0.55720311
0.08874887 -0.25073028 0.59379280
0.02160781 -0.42565536 0.14457259
0.08849999 -0.50152993 0.59213036
0.01334276 -0.44649294 0.08927318
0.05716457 0.03330106 0.38247246
0.01081157 -0.55032259 0.07233759
0.04557649 0.07996072 0.30494091
0.02275161 -0.35212654 0.15222546
0.06839196 -0.13207427 0.45759201
0.00700967 -0.75742066 0.04689997
0.11385333 -0.23090549 0.76175636
0.11613269 -0.08608187 0.77700478
0.04404343 0.06776371 0.29468387
0.02120139 -0.77213180 0.14185335
0.00038649 -0.38541159 0.00258591
0.01634627 0.02791822 0.10936894
0.02602932 0.58491719 0.17415357
0.03924645 0.38685834 0.26258600
0.10536412 -0.20039263 0.70495796
0.09025659 -0.16900869 0.60387945
0.03079087 0.53698891 0.20601162
0.06555069 -0.52771795 0.43858373
0.01265062 -0.46940401 0.08464221
0.04119132 0.19780368 0.27560037
0.08630021 -0.27445552 0.57741010
0.09566121 0.06934705 0.64003700
0.10379610 0.01784284 0.69446468
0.00793997 0.36052471 0.05312441
0.09222845 -0.40216213 0.61707485
0.11653971 -0.23868981 0.77973056
0.10104507 -0.00665624 0.67605895
0.00007450 -0.19307674 0.00049846
0.06317479 0.27719817 0.42268166
0.02919090 0.30073223 0.19530924
0.06881292 -0.20881800 0.46040925
0.09283581 0.10018358 0.62113309
0.03111830 0.11716964 0.20820501
0.02559709 -0.07937396 0.17126390
0.09414975 -0.23119871 0.62992764
0.06591427 -0.40417597 0.44101632
0.02574812 -0.37700933 0.17227440
0.08048537 -0.78166842 0.53850800
0.08310586 -0.67245096 0.55604112
0.00102870 0.10168925 0.00688276
0.03197960 0.56149924 0.21396469
0.03810900 0.16719264 0.25497803
0.08050559 -0.01193487 0.53863794
0.09017734 -0.12020648 0.60334867
0.05292352 -0.79511309 0.35409838
0.08059681 0.06391174 0.53924739
0.01448725 -0.02112579 0.09693067
0.03702988 0.47404748 0.24775495
0.03867661 -0.05976149 0.25877580
0.02567394 -0.56571460 0.17177805
0.02187802 0.62840664 0.14637850
0.11364267 -0.30720815 0.76034814
0.08344816 -0.07145453 0.55832601
0.00176357 0.26167661 0.01179961
0.11304395 -0.13602316 0.75633979
0.03536993 -0.56202000 0.23665158
0.08142188 -0.16934647 0.54477012
0.02179494 -0.76223516 0.14582466
0.04690562 0.38177428 0.31383035
0.05986208 -0.19495007 0.40052265
0.04694857 0.45295903 0.31411698
0.06841515 -0.03498876 0.45774609
0.00200668 -0.53707939 0.01342620
0.05257287 -0.27733105 0.35175225
0.03473622 0.10829928 0.23241158
0.11763473 -0.31158683 0.78705841
0.03239137 0.35826185 0.21672183
0.01430660 0.25563940 0.09572201
0.11674576 -0.43278131 0.78111249
0.04778399 -0.40989599 0.31971106
0.01902329 -0.41340986 0.12728024
0.01692685 0.44854066 0.11325347
0.06363477 -0.13143894 0.42576361
0.00675446 -0.67145109 0.04519243
0.11517811 -0.56169450 0.77062577
0.10718774 -0.16853479 0.71715873
0.01326588 -0.25341597 0.08875875
0.02705209 0.32016987 0.18099894
0.02801255 -0.78187984 0.18742514
0.00031236 0.62250763 0.00208993
0.08699039 -0.53193426 0.58203059
0.07944465 -0.14266165 0.53154105
0.02201421 -0.32425120 0.14729173
0.02690574 0.61350197 0.18001704
0.01498176 0.29036146 0.10023932
0.08555114 -0.27893454 0.57239842
0.09824826 -0.23898797 0.65734917
0.11468845 -0.04652880 0.76734149
0.05701921 -0.26288697 0.38150167
0.03405703 -0.40539026 0.22786731
0.09944519 0.03703820 0.66535437
0.08156717 0.20965876 0.54573810
0.10935746 -0.32182842 0.73167700
0.10630777 -0.17517875 0.71127129
0.00525065 -0.40683728 0.03513084
0.05876097 -0.09473287 0.39315468
0.05082781 0.07620812 0.34007540
0.00164275 0.41819313 0.01099122
0.11713265 -0.62879604 0.78370440
0.06325883 -0.22987276 0.42324942
0.00306016 0.31741470 0.02047481
0.07840220 -0.55482554 0.52457005
0.01758000 -0.37087452 0.11762352
0.03668848 0.32549113 0.24547233
0.04379375 -0.48131040 0.29301330
0.10543448 -0.45974836 0.70543146
0.08569641 -0.42413631 0.57337195
0.10694670 -0.65740126 0.71555251
0.02590461 -0.16522285 0.17332146
0.03382298 -0.62696844 0.22630133
0.06313674 0.06629058 0.42242938
0.00477639 0.08576326 0.03195764
0.11574851 -0.72707665 0.77444506
0.07840224 -0.12124262 0.52456647
0.06550059 -0.18517447 0.43824762
0.06774154 -0.44066235 0.45324218
0.05646749 -0.54813349 0.37781021
0.04529707 0.39112279 0.30306810
0.08937442 -0.59236908 0.59798181
0.03930901 -0.29239303 0.26300699
0.07356833 0.16071659 0.49222177
0.06226863 -0.63024658 0.41662422
0.10710293 -0.39345217 0.71659368
0.01075786 -0.31853881 0.07197825
0.02681047 -0.59819251 0.17938235
0.08364306 -0.08006942 0.55963016
0.04913199 0.14863291 0.32872856
0.09335037 0.00826753 0.62457675
0.11227384 -0.24237138 0.75118846
0.06759818 -0.58609694 0.45228297
0.08988164 -0.35259485 0.60137278
0.03263513 0.39821035 0.21835233
0.06911622 -0.18780629 0.46243832
0.05641744 0.38810211 0.37746987
0.05469724 -0.74542093 0.36596593
0.02023198 -0.21620357 0.13536726
0.08824826 -0.70217115 0.59044766
0.00028615 -0.46016833 0.00191458
0.00892737 -0.02286924 0.05973085
0.00023176 0.31284180 0.00155068
0.10774972 -0.62562650 0.72092479
0.07277623 -0.34329236 0.48692754
0.10944467 -0.70453203 0.73226672
0.02565786 -0.42795399 0.17167050
0.06602553 -0.51520437 0.44176075
0.09121661 -0.61471611 0.61030734
0.08663859 0.07134123 0.57967031
0.01500541 -0.71530539 0.10039757
0.04904411 -0.18529826 0.32814220
0.06187017 -0.43340999 0.41395825
0.01052553 0.59757912 0.07042377
0.07163083 -0.18275698 0.47926247
0.00923249 0.17591862 0.06177232
0.06334924 0.34027186 0.42384821
0.03130180 -0.60242486 0.20943271
0.06210628 -0.47847173 0.41553804
0.00400662 -0.65105420 0.02680729
0.05776234 -0.76500744 0.38647375
0.04551338 -0.18865885 0.30451897
0.08108115 0.14315893 0.54248703
0.03452859 0.06272857 0.23102237
0.05257735 -0.65349990 0.35178223
0.05614643 -0.75401545 0.37566212
0.11003030 -0.17897482 0.73617721
0.04174608 -0.05652083 0.27931288
0.05415217 -0.57817513 0.36231899
0.01362903 -0.13142763 0.09118855
0.07089468 -0.39754722 0.47433910
0.04166663 0.40916955 0.27877820
0.07301451 -0.19580372 0.48852023
0.01942250 0.59246230 0.12995002
0.08282369 -0.79539824 0.55415314
0.05854275 -0.34280583 0.39169532
0.02805780 0.50915188 0.18772613
0.02489532 -0.07746878 0.16656852
0.03140080 0.55369186 0.21009228
0.03751241 -0.42617583 0.25098643
0.03345974 0.49969339 0.22386836
0.05936881 -0.74566233 0.39722228
0.01803748 -0.76187527 0.12068437
0.01080911 -0.00507471 0.07232115
0.11778298 -0.67142302 0.78805637
0.02525603 -0.66393018 0.16898198
0.04241498 -0.34333673 0.28378832
0.11824682 -0.47739917 0.79115653
0.05375684 0.30874613 0.35966980
0.05251367 0.41211677 0.35135114
0.04634282 -0.73773617 0.31006852
0.02599013 -0.25351340 0.17389366
0.02440054 0.54752684 0.16325650
0.01151704 -0.39608780 0.07705769
0.00632932 -0.37421417 0.04234792
0.05338868 -0.77001059 0.35721070
0.07617426 -0.14352468 0.50966024
0.10042712 -0.36673126 0.67192835
0.00652731 -0.62670231 0.04367267
0.11165768 -0.20608623 0.74706560
0.09310789 -0.11279031 0.62295568
0.08548113 0.02195972 0.57192683
0.01418026 0.63853806 0.09487592
0.01109370 0.41521969 0.07422524
0.08540068 -0.16054913 0.57139051
0.01821569 -0.16489537 0.12187677
0.08904031 -0.11380911 0.59574121
0.00121645 -0.78026408 0.00813897
0.09268171 -0.29085517 0.62010622
0.07389473 -0.79589087 0.49441162
0.05227458 0.38341156 0.34975180
0.01053978 0.00794477 0.07051909
0.05746003 0.40498355 0.38444528
0.06020358 -0.50151426 0.40280750
0.03440744 -0.05050212 0.23021182
0.10814889 -0.06701692 0.72358829
0.08875099 -0.78561109 0.59381133
0.01408358 0.58140874 0.09422970
0.05121834 -0.27246982 0.34268945
0.08461301 -0.41782537 0.56612331
0.08766279 -0.40592086 0.58652800
0.06264171 0.36930943 0.41911405
0.04355136 -0.39090514 0.29139152
0.05839696 0.06326981 0.39071751
0.07394605 -0.11296102 0.49475184
0.02981709 -0.21047138 0.19949892
0.05077427 -0.56884623 0.33971825
0.01767466 0.34856349 0.11825685
0.04423835 -0.26453304 0.29598802
0.05184546 -0.46168920 0.34688535
0.04474428 0.05853859 0.29937309
0.10271877 -0.63240290 0.68726379
0.00415054 -0.51534504 0.02777027
0.02855118 -0.39246580 0.19102900
0.03455515 0.50267982 0.23119722
0.09880288 -0.35177097 0.66106105
0.09542976 -0.79923004 0.63849735
0.05765028 -0.77595288 0.38572398
0.10420221 -0.46445432 0.69718695
0.09048201 -0.24538250 0.60538846
0.07417089 -0.53644061 0.49625939
0.10717547 -0.13351554 0.71707624
0.05066483 0.40623924 0.33898136
0.06558581 -0.44581354 0.43881872
0.07200552 -0.43771589 0.48177141
0.02369019 -0.34207615 0.15850528
0.08740796 -0.38488439 0.58482277
0.02763595 0.19873077 0.18490544
0.09418068 -0.62171763 0.63013875
0.09092675 -0.28330576 0.60836446
0.11156173 -0.11603326 0.74642271
0.00543441 -0.24832802 0.03636032
0.03971092 -0.76391029 0.26569608
0.01317657 0.44611445 0.08816125
0.03516418 -0.79443705 0.23527497
0.02121626 -0.22339165 0.14195287
0.01169270 0.46057737 0.07823298
0.06836781 -0.46694136 0.45743239
0.06373782 -0.47888595 0.42645422
0.01758475 -0.55255169 0.11765528
0.02187545 -0.40660182 0.14636329
0.01035195 -0.28186315 0.06926240
0.08244842 -0.22999787 0.55163890
0.05654485 -0.44822800 0.37832782
0.02694290 -0.23613372 0.18026836
0.05907218 -0.74333405 0.39523762
0.02084743 -0.48059261 0.13948508
0.01446493 0.52197719 0.09678134
0.01122696 -0.04768253 0.07511684
0.09617948 0.13298395 0.64350379
0.02935267 0.18215697 0.19639157
0.03012513 -0.06581001 0.20155992
0.05143227 -0.23078173 0.34412083
0.08117228 -0.54733086 0.54310399
0.10767045 -0.71374702 0.72039592
0.05258474 -0.30511850 0.35183170
0.02632003 -0.27982295 0.17610094
0.03864296 -0.10101553 0.25855064
0.03841706 -0.37069404 0.25703919
0.10471173 0.03084263 0.70059061
0.01864459 -0.58580124 0.12474643
0.02714837 0.21480615 0.18164314
0.09165260 -0.39788613 0.61322206
0.05780869 -0.08299573 0.38678324
0.00533286 -0.41446069 0.03568088
0.00146307 -0.68524057 0.00978905
0.01135397 0.15418673 0.07596664
0.02767145 -0.17721210 0.18514293
0.07204301 -0.60883015 0.48202223
0.02290166 0.19867039 0.15322942
0.06100611 -0.52879256 0.40817702
0.07003016 -0.75755608 0.46855474
0.11014380 -0.76673162 0.73694557
0.00356336 0.68166083 0.02384154
0.05539665 -0.79261285 0.37064552
0.10765158 0.02357220 0.72026002
0.03655777 0.15367392 0.24459913
0.01087593 0.42487633 0.07276821
0.10402625 -0.28310043 0.69600773
0.05110526 -0.58775735 0.34193289
0.00481081 0.68467569 0.03218797
0.10079102 -0.23355781 0.67436159
0.00515356 -0.60316300 0.03448120
0.02046649 0.61399508 0.13693473
0.09318842 -0.28319129 0.62349635
0.09636873 -0.13242815 0.64477289
0.06547028 0.29662818 0.43803963
0.08938222 -0.59576041 0.59803396
0.06176088 0.13793045 0.41322327
0.02056968 -0.40393552 0.13762674
0.03200742 -0.04129532 0.21415383
0.02324844 -0.52911818 0.15554969
0.08792395 0.01438680 0.58827078
0.00866884 -0.21537496 0.05800108
0.01813295 -0.31264588 0.12132314
0.02814306 -0.48221499 0.18829836
0.01267735 -0.36801872 0.08482106
0.03737254 0.22931734 0.25005013
0.05811078 0.00556479 0.38880342
0.01804049 0.05678060 0.12070455
0.06473815 -0.19156343 0.43314651
0.01297070 -0.63418567 0.08678382
0.02509512 -0.36407888 0.16790532
0.03769802 0.15663476 0.25222826
0.03653971 -0.34839490 0.24447829
0.03247870 0.05897529 0.21730711
0.04642952 -0.54331046 0.31064865
0.05897725 0.36897832 0.39459670
0.07757497 -0.79752082 0.51903528
0.03377812 0.15737687 0.22600120
0.04582356 0.07516837 0.30659401
0.02141754 -0.58702087 0.14329953
0.00436331 -0.57305318 0.02919382
0.01690787 0.11996260 0.11312643
0.03187971 0.42869678 0.21329775
0.01296435 -0.08546635 0.08674135
0.06002427 -0.65264571 0.40160778
0.00971370 0.12858012 0.06499203
0.00907226 0.59356892 0.06070029
0.00344233 0.28605223 0.02303176
0.06291204 -0.02456021 0.42092699
0.00221374 0.52280575 0.01481156
0.00587169 -0.68538958 0.03928605
0.04315722 0.41818538 0.28875101
0.07652371 -0.15525006 0.51199841
0.03529423 0.26134792 0.23614468
0.09020203 -0.52342451 0.60351825
0.08355297 -0.59946185 0.55903256
0.06608376 -0.01143640 0.44214746
0.03023112 0.10543871 0.20226908
0.00053628 0.22966020 0.00358815
0.05057695 -0.44387895 0.33839807
0.04224350 -0.72629213 0.28264102
0.00635174 0.42940336 0.04249795
0.05416479 -0.46810251 0.36240342
0.06047228 -0.74400824 0.40460527
0.04809712 0.38919070 0.32180211
0.03703647 0.19585200 0.24780203
0.06054277 -0.03937172 0.40507534
0.08774383 -0.32604387 0.58706933
0.05594123 -0.34589723 0.37428918
0.10297676 -0.75486618 0.68899202
0.07294604 -0.65916318 0.48806423
0.08551928 -0.59178543 0.57218868
0.09032031 0.08931259 0.60430300
0.08114064 -0.60757750 0.54289228
0.11188266 -0.03072378 0.74856895
0.05821139 0.28443819 0.38947356
0.07989959 -0.41369489 0.53458774
0.06616009 -0.40250733 0.44266108
0.04172329 -0.05777234 0.27916041
0.11004560 -0.03295284 0.73627794
0.07423512 -0.46469542 0.49668911
0.05990675 -0.50211763 0.40082148
0.07517474 -0.24635936 0.50297397
0.07191010 -0.03854638 0.48112938
0.11103928 -0.16513936 0.74292767
0.11127975 -0.52322853 0.74454188
0.08066633 -0.66319424 0.53971875
0.03514775 -0.61213708 0.23516507
0.07993670 -0.02292228 0.53483182
0.05839580 -0.42668492 0.39071214
0.02288613 0.61229974 0.15312356
0.07250776 -0.07331521 0.48512846
0.03579962 -0.66895199 0.23952658
0.01348276 -0.30817536 0.09020987
0.01822781 -0.20610662 0.12195783
0.10349979 -0.36855197 0.69248629
0.05055455 0.05856376 0.33824730
0.00590949 -0.64545488 0.03953899
0.04815698 -0.64174604 0.32220665
0.10776368 -0.23012432 0.72101271
0.08731224 -0.01160271 0.58417839
0.00529997 -0.23011427 0.03546081
0.02246025 -0.75606930 0.15027609
0.05897685 0.34364051 0.39459431
0.00175933 -0.54862142 0.01177125
0.11436823 -0.01252875 0.76519871
0.03229828 0.05943657 0.21609996
0.05503717 -0.60997134 0.36824030
0.01330174 0.19656484 0.08899874
0.08365988 -0.09273994 0.55974281
0.04425091 -0.50440633 0.29607207
0.04977054 -0.49584132 0.33300260
0.00950318 0.33764267 0.06358345
0.10345889 -0.00059100 0.69220871
0.03271341 -0.68834275 0.21887748
0.03949626 0.50970858 0.26425603
0.07958465 -0.14024627 0.53247768
0.03934558 -0.79759836 0.26325169
0.01842985 0.19663344 0.12330967
0.00123022 0.51065087 0.00823109
0.06369161 0.13420123 0.42614102
0.10519980 -0.30312467 0.70385963
0.02537968 0.35661301 0.16980930
0.11723205 -0.64910531 0.78436983
0.01510345 0.43336943 0.10105348
0.11195479 -0.57712489 0.74905944
0.09990100 -0.26603091 0.66840720
0.00708571 -0.65682417 0.04740875
0.04323905 0.40565217 0.28929862
0.11714616 -0.04576389 0.78378499
0.01970368 -0.02045232 0.13183253
0.01584976 0.14617357 0.10604690
0.02752849 -0.17433992 0.18418641
0.02515339 -0.28152430 0.16829523
0.04932143 -0.24408101 0.32999769
0.11533637 -0.00366038 0.77167594
0.01138479 0.47510076 0.07617287
0.01276310 0.13175465 0.08539483
0.03985608 -0.57135308 0.26666734
0.03502523 -0.66843849 0.23434532
0.04510387 0.32033288 0.30177626
0.11768140 -0.48833504 0.78737360
0.01074072 -0.69469255 0.07186355
0.01353412 -0.52308667 0.09055348
0.09078856 -0.38411313 0.60744095
0.03124719 0.14262260 0.20906733
0.04757686 -0.71738666 0.31832519
0.02147208 0.00731188 0.14366443
0.01492354 -0.59934872 0.09984977
0.00357526 0.37082729 0.02392120
0.09088767 -0.05381508 0.60810053
0.03741065 -0.43155268 0.25030556
0.02238552 -0.25254071 0.14977609
0.02977823 -0.59675449 0.19923890
0.04122488 -0.41543978 0.27582565
0.06335439 -0.50802779 0.42388883
0.05499423 -0.53248644 0.36795303
0.04075790 -0.04510026 0.27270117
0.03229677 -0.69312072 0.21608983
0.01964525 0.28732070 0.13144156
0.01660947 -0.75559670 0.11112993
0.01498138 0.42472559 0.10023680
0.07423121 -0.71079791 0.49666297
0.09744772 -0.74471843 0.65199852
0.03558170 -0.13828412 0.23806851
0.03971781 0.43249556 0.26573917
0.05174292 -0.74808359 0.34619930
0.09624954 0.11033712 0.64397281
0.04641837 -0.00579223 0.31057400
0.03513171 -0.17302203 0.23505771
0.11311039 -0.14828131 0.75678444
0.11643469 -0.06213754 0.77902502
0.09557455 -0.07036517 0.63945866
0.07780133 -0.49290025 0.52054977
0.02096348 -0.24387220 0.14026158
0.09992416 -0.42917216 0.66856390
0.07571828 -0.10267004 0.50660896
0.00974354 -0.51541406 0.06519164
0.11393602 -0.42607644 0.76231289
0.01208891 -0.38426685 0.08088393
0.10984127 -0.77698523 0.73492157
0.07940764 0.15200049 0.53129023
0.00203694 0.60871726 0.01362866
0.03449274 -0.64810419 0.23078252
0.01095718 -0.53465164 0.07331180
0.07692273 -0.53436005 0.51467127
0.06227915 -0.71681529 0.41669467
0.08910007 -0.15700145 0.59614152
0.03486037 0.30003348 0.23324154
0.05678355 -0.41322815 0.37992492
0.06310530 -0.29033843 0.42222223
0.03076008 -0.01232838 0.20580824
0.08477967 -0.37139481 0.56723785
0.11798162 -0.04619617 0.78937495
0.09591309 -0.48317781 0.64172816
0.09901291 -0.75375938 0.66247064
0.06693889 -0.11774304 0.44786996
0.01935712 0.40607688 0.12951376
0.01887836 -0.77612495 0.12631051
0.02408963 0.53408307 0.16117646
0.01829873 -0.20131820 0.12243234
0.08772965 0.12755257 0.58696955
0.08658504 -0.18357725 0.57931483
0.01045922 -0.55098212 0.06998006
0.07833287 -0.19455326 0.52410311
0.04196779 -0.02454184 0.28079626
0.01355618 -0.60223550 0.09070109
0.04047259 -0.37829235 0.27079222
0.11163360 -0.16078711 0.74690402
0.05055720 0.04766932 0.33826515
0.08980140 -0.22326437 0.60083455
0.10592838 -0.69224381 0.70873970
0.06989162 0.17533207 0.46762228
0.02701317 -0.39376938 0.18073854
0.00056799 -0.56695044 0.00380030
0.03015430 0.57208151 0.20175222
0.09718596 -0.46107277 0.65024412
0.03303640 -0.05184764 0.22103851
0.04106773 -0.07283505 0.27477419
0.09153220 -0.25756046 0.61241496
0.01642988 -0.27645123 0.10992834
0.03189119 0.00012721 0.21337616
0.09644841 0.02351615 0.64530432
0.02624452 -0.01316516 0.17559569
0.02834233 0.41986853 0.18963072
0.06925277 0.18162233 0.46334791
0.00410876 0.68387580 0.02749074
0.00445309 -0.49981388 0.02979456
0.06262587 -0.78083718 0.41901442
0.02705086 -0.70044434 0.18099073
0.07028120 0.06218262 0.47022998
0.04411164 -0.01937817 0.29514027
0.05223627 -0.17463925 0.34950015
0.08576491 -0.18036321 0.57382762
0.05889521 -0.00952788 0.39405185
0.06252404 -0.53837413 0.41833317
0.10716067 -0.53368729 0.71698207
0.07174231 -0.47402567 0.48001030
0.09840892 0.06398865 0.65842074
0.02615465 0.60064876 0.17499198
0.02789425 0.08028871 0.18663368
0.01749222 0.31137615 0.11703620
0.04534791 -0.48853713 0.30341184
0.10815866 -0.28336272 0.72365600
0.04239103 -0.30490413 0.28362808
0.03330831 0.02630976 0.22285779
0.06098370 0.16726948 0.40802324
0.05479364 -0.40321705 0.36661091
0.03696858 0.11045440 0.24734776
0.03598283 0.24101543 0.24075209
0.00764133 0.04116432 0.05112631
0.09395356 -0.62661159 0.62861925
0.07037214 -0.67878002 0.47084290
0.00977795 0.57696038 0.06542189
0.08706626 -0.17163932 0.58253431
0.02656857 -0.63707423 0.17776380
0.10203987 0.06004062 0.68271399
0.03256898 -0.04093034 0.21791115
0.03139278 0.35918367 0.21004067
0.08836494 -0.26069644 0.59122419
0.05674354 -0.55795360 0.37965724
0.02035323 -0.39212969 0.13617854
0.10507876 -0.40576142 0.70305097
0.05206473 -0.77104926 0.34835243
0.08158639 0.03943933 0.54586858
0.00535352 0.14159340 0.03581909
0.05334077 0.24605867 0.35688671
0.05625594 -0.55669498 0.37639484
0.11517744 -0.57097447 0.77062148
0.00778135 -0.21118890 0.05206315
0.05819650 -0.11226712 0.38937825
0.03627104 -0.18973155 0.24268073
0.06196647 -0.44905266 0.41460255
0.00519109 0.08021932 0.03473230
0.01575864 -0.48203778 0.10543721
0.09552368 -0.79860455 0.63912576
0.09969404 -0.04159464 0.66702014
0.03064921 -0.53564072 0.20506638
0.05574828 0.41640314 0.37299255
0.08698011 -0.45376304 0.58196098
0.03730975 0.38673210 0.24962832
0.10371045 -0.01567526 0.69389194
0.04765629 0.24884635 0.31885418
0.10238483 -0.43623647 0.68502730
0.03198013 -0.47299793 0.21397124
0.08934125 -0.69226128 0.59776062
0.06069819 -0.48688173 0.40611684
0.00302954 0.49051002 0.02026995
0.08631653 0.20763111 0.57751411
0.10434204 -0.10513597 0.69811863
0.02737269 -0.68671429 0.18314399
0.02806720 -0.05149147 0.18779083
0.02377686 -0.23501365 0.15908521
0.05355569 0.26747036 0.35832441
0.03480481 -0.78504789 0.23287050
0.07616647 0.07562752 0.50960577
0.01435126 0.41518962 0.09602076
0.07282153 0.22956669 0.48722446
0.02166641 -0.56528223 0.14496468
0.01437838 0.00233205 0.09620225
0.09963109 -0.68011761 0.66660583
0.02392832 0.17720118 0.16009855
0.02624273 0.15441792 0.17558371
0.03845034 -0.09814014 0.25726184
0.08277378 -0.15543729 0.55381501
0.02717604 0.60710156 0.18182555
0.07181002 -0.67625576 0.48046339
0.10165849 -0.20475966 0.68016517
0.08148278 0.02591224 0.54517549
0.06658024 0.06606038 0.44546840
0.01620463 0.04756223 0.10842123
0.01771023 -0.43261462 0.11849482
0.02006560 -0.67558843 0.13425405
0.01156294 -0.57779366 0.07736485
0.11508858 -0.41978884 0.77002436
0.03713650 -0.73913628 0.24847130
0.05101977 -0.00182098 0.34136051
0.02888627 0.09942836 0.19327101
0.05287098 -0.70899904 0.35374689
0.07037310 0.05652398 0.47084492
0.02317726 -0.14708240 0.15507340
0.01253711 0.11120598 0.08388278
0.01246796 0.54611713 0.08342006
0.04940554 -0.72421479 0.33056042
0.06577797 -0.45223188 0.44010437
0.09061484 -0.25142032 0.60627729
0.01247783 -0.43555501 0.08348616
0.04930876 -0.09594437 0.32991293
0.05325570 -0.38286448 0.35632089
0.07680107 0.28021827 0.51384938
0.07780611 -0.44249189 0.52058148
0.06725630 -0.57262498 0.44999552
0.06052792 -0.06723031 0.40497631
0.04528072 -0.40564355 0.30296227
0.09896193 0.10229362 0.66212028
0.10628711 -0.32891914 0.71113467
0.03833827 0.18228176 0.25651199
0.00783340 0.69109297 0.05241116
0.03734665 -0.53060055 0.24987733
0.07234647 0.16462246 0.48404676
0.02733048 -0.44362551 0.18286157
0.08030791 -0.69029498 0.53732067
0.03947532 -0.06823670 0.26411974
0.04413561 -0.02977001 0.29530060
0.03609083 0.30575746 0.24147391
0.02305736 0.05416964 0.15427117
0.08200107 0.14889477 0.54864180
0.02641075 0.28410259 0.17670791
0.02770402 -0.44596684 0.18536083
0.10099118 -0.60502237 0.67570478
0.02522186 -0.57778096 0.16875334
0.07214784 -0.34737337 0.48272333
0.00557455 0.17249309 0.03729795
0.02419898 0.55836254 0.16190787
0.03360905 0.03326635 0.22486995
0.07224095 -0.68322098 0.48334661
0.01206288 -0.30281797 0.08070979
0.00838660 0.11048531 0.05611271
0.00175154 -0.43328121 0.01171915
0.03950198 -0.17106313 0.26429814
0.05138483 0.21931802 0.34380063
0.03513226 -0.43015310 0.23506141
0.01223383 -0.16427310 0.08185359
0.02540861 0.58451277 0.17000067
0.09187772 0.03544408 0.61472356
0.08021214 -0.57693607 0.53667992
0.01555192 -0.66080308 0.10405412
0.08821528 -0.64727855 0.59022701
0.11045170 0.03546633 0.73899424
0.03536299 0.54047269 0.23660177
0.06709251 0.34187138 0.44889280
0.11618367 -0.53582346 0.77735335
0.09188251 -0.77552336 0.61476350
0.05161799 -0.63116962 0.34536338
0.01892517 0.23462199 0.12662369
0.11072369 -0.59981006 0.74082267
0.07900949 -0.28625172 0.52863109
0.11281727 -0.19891098 0.75482386
0.07168101 0.16347808 0.47959447
0.05639339 -0.28271464 0.37731445
0.04226505 0.20417343 0.28278413
0.02957896 -0.79189658 0.19790563
0.07816524 -0.36955419 0.52298349
0.02488620 0.60256267 0.16650525
0.05150056 -0.57982439 0.34457770
0.02909461 -0.71802449 0.19466498
0.04737350 -0.77613294 0.31696454
0.01321990 -0.03361527 0.08845115
0.08504514 -0.45189387 0.56901485
0.03801300 0.27429423 0.25433472
0.07095607 -0.22603661 0.47474837
0.00186902 0.31168643 0.01250515
0.04499527 0.32781562 0.30104959
0.06690075 -0.38349044 0.44761667
0.10735477 -0.59444427 0.71828175
0.10997947 -0.17404552 0.73583704
0.02445537 0.34991941 0.16362496
0.07636031 -0.37286529 0.51090747
0.03129770 0.36288816 0.20940447
0.01187467 -0.65240324 0.07945056
0.01275714 0.20970464 0.08535493
0.08763396 -0.27129418 0.58633363
0.01537872 -0.07453914 0.10289525
0.11818268 -0.19828470 0.79072273
0.02404004 0.58048606 0.16084418
0.08229152 0.08854856 0.55058575
0.10373315 -0.10756131 0.69404483
0.00493183 0.75339139 0.03299728
0.05600075 -0.30301589 0.37468737
0.03114607 -0.76625741 0.20839079
0.01203587 0.26330316 0.08052907
0.00283419 -0.22124588 0.01896290
0.08115064 -0.19799893 0.54295570
0.00014072 0.40679100 0.00094152
0.01722217 0.47252497 0.11522938
0.01247603 -0.50502223 0.08347409
0.04211802 0.40210474 0.28179827
0.00263213 -0.57876605 0.01761097
0.07318637 -0.70265192 0.48967221
0.00589047 0.66232985 0.03941173
0.01232526 -0.50340939 0.08246533
0.08606659 -0.27572170 0.57584709
0.10877186 -0.20541959 0.72775775
0.07674455 -0.31766200 0.51347762
0.01421390 -0.10925377 0.09510175
0.03483819 -0.14586248 0.23309386
0.11117395 -0.07839530 0.74382776
0.03393246 -0.34791851 0.22703385
0.01490644 0.35606062 0.09973538
0.00349802 -0.79207355 0.02340439
0.09783281 -0.65932441 0.65457404
0.10934220 -0.44120017 0.73157674
0.00514311 0.65082401 0.03441130
0.00754460 -0.01138678 0.05047906
0.03500449 0.13168192 0.23420651
0.04869424 -0.18836965 0.32580131
0.01271104 -0.06454572 0.08504648
0.06457474 0.23032393 0.43204865
0.09431372 0.09041727 0.63102120
0.05160008 -0.05778113 0.34524360
0.06299348 0.10563961 0.42147049
0.00985422 -0.30041182 0.06593219
0.00411827 -0.57031113 0.02755435
0.04909519 -0.38402647 0.32848400
0.08014212 -0.50858831 0.53621143
0.05384211 -0.64645672 0.36024448
0.01375542 -0.24630195 0.09203419
0.01478161 0.25147271 0.09890017
0.01141332 0.54765707 0.07636374
0.07602574 -0.38813239 0.50866920
0.04646894 0.13453192 0.31091136
0.03669250 -0.53868520 0.24550056
0.00300654 -0.54706877 0.02011603
0.04952210 -0.75616825 0.33134031
0.06488686 0.10987507 0.43413821
0.00786364 -0.42964673 0.05261370
0.04273115 -0.06433861 0.28590375
0.10169187 -0.29824144 0.68038952
0.00138684 -0.75917327 0.00927901
0.01394398 -0.44295466 0.09329576
0.01411682 -0.72032040 0.09445220
0.00151298 0.29237181 0.01012297
0.05128801 0.13481385 0.34315374
0.00984219 -0.53881449 0.06585170
0.08594344 0.04997884 0.57501960
0.01093086 -0.28231007 0.07313571
0.11247279 -0.55014855 0.75252479
0.02627231 -0.31499207 0.17578162
0.06957328 -0.73746496 0.46549788
0.01829466 0.29634160 0.12240510
0.10638044 -0.50784397 0.71176124
0.01350975 -0.45798469 0.09039045
0.03222127 0.03187826 0.21558465
0.00707284 -0.04294825 0.04732267
0.03511664 0.09560759 0.23495688
0.06606546 0.18176721 0.44202295
0.08121927 -0.74712795 0.54341835
0.05208921 -0.53861344 0.34851620
0.09151659 -0.14793450 0.61230934
0.05363194 -0.14139837 0.35883829
0.05832874 -0.20737343 0.39026341
0.01709337 -0.76205498 0.11436759
0.08050359 0.10928349 0.53862321
0.01568090 0.36703470 0.10491709
0.08920070 -0.69113094 0.59682024
0.01342610 -0.34047794 0.08983074
0.02078396 0.07104799 0.13906042
