ply
format ascii 1.0
element vertex 348
property float x
property float y
property float z
end_header
0.09098936 0.59807020 0.03997155
0.14028475 0.22122787 0.15798922
0.07109824 0.40535462 0.11657521
0.49612722 0.16609903 0.04963987
0.04808081 0.49691546 0.09187846
0.46557283 0.16471758 0.06114667
0.09807382 0.50463378 0.07108481
0.31162983 0.13341878 0.12789109
0.06471318 0.16289128 0.20623705
0.15028712 0.52633679 0.04445225
0.50403738 0.03907973 0.09255605
0.47005773 0.27150100 0.02105561
0.35924891 0.22322547 0.07837525
0.07791508 0.10708116 0.22158913
0.27862468 0.22875559 0.10543239
0.31815356 0.33282951 0.05369090
0.30164284 0.17510815 0.11646842
0.70179433 0.08541857 0.00460597
0.36092734 0.16004226 0.10053603
0.54542202 0.15496337 0.03589077
0.11912210 0.39130107 0.10433562
0.64515042 0.08083029 0.02666852
0.60270739 0.07581288 0.04376898
0.60093796 0.13360216 0.02358448
0.73071688 0.05877113 0.00378621
0.12095660 0.22960556 0.16193467
0.33038989 0.33623132 0.04805633
0.25688061 0.31206888 0.08324840
0.38437173 0.20918906 0.07438071
0.21279179 0.30001995 0.10347529
0.03853950 0.19328436 0.20471670
0.35369256 0.39826992 0.01730704
0.17164826 0.07885575 0.19798651
0.02032863 0.48405036 0.10651308
0.68931931 0.01643331 0.03395690
0.45089874 0.26691332 0.02961177
0.55319762 0.24066934 0.00220845
0.63446999 0.10977416 0.02008802
0.39957941 0.14081967 0.09353539
0.18180457 0.25174153 0.13203517
0.08739887 0.50129843 0.07613278
0.12163178 0.43813297 0.08655750
0.25109634 0.36389208 0.06666012
0.18545677 0.22096518 0.14180820
0.24817346 0.10175052 0.16216502
0.31676561 0.13138963 0.12677175
0.44748262 0.20888630 0.05175032
0.55793482 0.15328465 0.03198714
0.23513286 0.43093041 0.04825736
0.38154796 0.35082093 0.02436679
0.33537555 0.43138716 0.01197436
0.17752790 0.13663372 0.17505023
0.18683101 0.12805282 0.17479005
0.45106959 0.26360178 0.03074338
0.28747401 0.46342617 0.01768979
0.10716815 0.64642763 0.01671855
0.18251015 0.24119131 0.13558225
0.10331278 0.56070292 0.04899508
0.16480218 0.08436692 0.19846746
0.19885336 0.28825322 0.11273699
0.18714055 0.20265995 0.14779703
0.14254294 0.18599956 0.16986859
0.68923968 0.05969574 0.01839770
0.36237973 0.41585433 0.00784112
0.04898213 0.39811328 0.12715285
0.27903631 0.39052987 0.04699522
0.06104905 0.39846301 0.12267907
0.48611003 0.14671899 0.06023198
0.76388144 0.00404104 0.01155650
0.52087915 0.18785605 0.03288224
0.48622119 0.21193200 0.03669505
0.41656765 0.04927114 0.12040020
0.42262170 0.23125850 0.05264703
0.51701045 0.18536055 0.03517533
0.10426195 0.63858902 0.02058999
0.20679539 0.19284669 0.14425111
0.25406495 0.12481080 0.15173350
0.22804992 0.50274318 0.02493456
0.15831140 0.44435805 0.07109874
0.32154644 0.05986298 0.15082082
0.07936862 0.64425808 0.02751669
0.28763202 0.15574433 0.12849359
0.08105735 0.44649324 0.09816436
0.06272014 0.55155087 0.06691831
0.36234820 0.29396740 0.05176954
0.12014379 0.10298421 0.20785011
0.51058400 0.05950455 0.08283799
0.32679629 0.46364516 0.00344269
0.32456619 0.30980515 0.05967627
0.53510207 0.21052185 0.01959088
0.54117042 0.14531308 0.04089974
0.70082307 0.05325670 0.01654416
0.23748308 0.24406356 0.11474039
0.07060035 0.66656208 0.02263963
0.20876925 0.21044666 0.13719852
0.21873514 0.05978360 0.18789274
0.44370258 0.03948692 0.11414857
0.13290423 0.54290128 0.04474713
0.41194239 0.21785705 0.06132357
0.40901211 0.31961319 0.02571565
0.01978797 0.48783043 0.10534589
0.26950124 0.39555475 0.04862029
0.31022304 0.30897141 0.06514465
0.04649454 0.33992222 0.14901578
0.37554529 0.17863041 0.08857155
0.46566889 0.31624502 0.00651525
0.47081935 0.23240815 0.03486672
0.14411701 0.41064149 0.08836136
0.13231198 0.32974049 0.12176396
0.07773482 0.68043959 0.01506882
0.16500999 0.61269820 0.00803059
0.38275790 0.20513870 0.07642157
0.30161718 0.20588316 0.10538913
0.51708889 0.05099900 0.08355884
0.25022632 0.20936505 0.12265108
0.04693637 0.15614197 0.21507394
0.39784038 0.31523854 0.03131716
0.32796609 0.07290080 0.14381017
0.05469832 0.59983844 0.05241025
0.23542391 0.25784206 0.11051783
0.23996745 0.43332481 0.04565268
0.61098784 0.18316945 0.00210383
0.52954745 0.25185430 0.00669977
0.40189525 0.16476071 0.08407479
0.04803397 0.04987840 0.25296599
0.45332262 0.28990424 0.02045456
0.23262319 0.45131743 0.04181598
0.68080974 0.07988196 0.01416180
0.25077611 0.37545040 0.06261093
0.07541215 0.34086433 0.13825721
0.15813614 0.36703104 0.09902337
0.52303058 0.05325022 0.08060685
0.06849247 0.62561983 0.03815095
0.44123393 0.26549077 0.03360665
0.40421352 0.27037320 0.04518628
0.52439463 0.12490409 0.05429778
0.11984072 0.25904429 0.15172976
0.61188984 0.14792325 0.01447840
0.24190070 0.07946916 0.17245325
0.08902344 0.14414676 0.20423175
0.14618626 0.18545052 0.16875371
0.30947384 0.32813466 0.05850989
0.08189042 0.38077462 0.12154310
0.26967284 0.47424373 0.02020606
0.20100613 0.49361759 0.03796675
0.35242039 0.38883346 0.02116546
0.22796074 0.11212436 0.16570999
0.53506500 0.25209501 0.00462501
0.16490011 0.48318991 0.05473329
0.12819672 0.05677430 0.22159839
0.53043520 0.21875966 0.01830422
0.47455910 0.03158814 0.10587667
0.03413928 0.43228170 0.12018966
0.05417886 0.22766379 0.18669462
0.24970771 0.12100864 0.15467338
0.04287226 0.55009758 0.07459322
0.30205733 0.49086493 0.00254883
0.54856044 0.24550624 0.00213648
0.05698235 0.48682290 0.09230762
0.47129232 0.11222494 0.07799950
0.27870250 0.08269357 0.15803163
0.05176683 0.20188069 0.19685350
0.36161220 0.26246443 0.06338555
0.60464805 0.15669423 0.01392740
0.51670456 0.02368012 0.09354059
0.38964033 0.13399141 0.09957683
0.39927292 0.33825329 0.02250856
0.03987006 0.13049439 0.22686096
0.02220601 0.71444184 0.02282495
0.49946675 0.18836214 0.04041499
0.24402586 0.48829493 0.02438413
0.19433825 0.51712340 0.03189987
0.16280077 0.11395137 0.18852909
0.24392296 0.41642433 0.05031688
0.12897690 0.38893640 0.10163690
0.07945856 0.34600109 0.13494846
0.31084737 0.48136505 0.00280459
0.10649124 0.15280733 0.19481757
0.17087726 0.03888283 0.21266682
0.47025368 0.07092251 0.09325540
0.03728319 0.64200079 0.04349361
0.16691384 0.56306058 0.02522954
0.33232293 0.43889022 0.01037083
0.49907020 0.09158179 0.07542878
0.14318039 0.47507563 0.06548274
0.19792569 0.48562366 0.04195696
0.55643809 0.14839432 0.03428846
0.31568328 0.07757544 0.14655142
0.06754928 0.33495596 0.14321905
0.50370449 0.08563822 0.07590052
0.38846073 0.26958305 0.05114686
0.02480852 0.44993493 0.11719099
0.08707691 0.33853683 0.13489296
0.34075713 0.31163895 0.05318178
0.73910958 0.03116675 0.01070837
0.20134397 0.37851658 0.07931704
0.44049156 0.19245785 0.06018860
0.19096334 0.57592267 0.01192993
0.27407461 0.45727339 0.02473463
0.20111889 0.48988470 0.03927111
0.16995984 0.04683589 0.21013182
0.15560815 0.40865722 0.08493600
0.45227039 0.05605738 0.10509100
0.14010622 0.23188752 0.15421280
0.44434220 0.15802917 0.07120617
0.05643336 0.10299930 0.23079981
0.12831555 0.62784243 0.01579534
0.22714774 0.44488332 0.04610711
0.27441940 0.46518806 0.02175866
0.55009168 0.21597746 0.01222426
0.56569844 0.20605329 0.01017678
0.24906410 0.38628459 0.05932412
0.20672804 0.36114651 0.08363572
0.16885279 0.05815968 0.20645067
0.09325664 0.08633954 0.22353487
0.27111644 0.37955210 0.05380424
0.27497727 0.09363093 0.15543304
0.05434636 0.24425095 0.18065777
0.31900582 0.26653394 0.07727077
0.33247459 0.16134425 0.11031871
0.77701914 0.02227367 0.00025344
0.20775492 0.37205061 0.07933686
0.17477076 0.54429317 0.02916070
0.41704467 0.20005058 0.06590101
0.27132142 0.38569731 0.05151619
0.14463899 0.42218557 0.08401387
0.50294715 0.18285064 0.04114681
0.16076939 0.15251926 0.17536472
0.21941704 0.37517840 0.07400791
0.29194829 0.03162293 0.17166024
0.35533270 0.41215137 0.01171445
0.10109941 0.60881430 0.03245762
0.45314124 0.20449382 0.05129412
0.06744545 0.39734998 0.12077545
0.14389805 0.42596453 0.08291924
0.18547072 0.49218804 0.04407939
0.09504680 0.04878401 0.23642139
0.52304661 0.05330062 0.08058292
0.51873434 0.24707974 0.01231616
0.05585995 0.04332314 0.25250816
0.20175768 0.22170123 0.13566971
0.44100410 0.10875950 0.09016127
0.40514100 0.22496217 0.06121412
0.16468565 0.26378912 0.13386235
0.12998271 0.59381402 0.02745543
0.40445670 0.03971824 0.12820590
0.30331248 0.14816770 0.12557375
0.14694475 0.43324992 0.07919654
0.40714788 0.33185780 0.02197549
0.38018203 0.39540944 0.00879327
0.19316655 0.24513084 0.13032328
0.50825030 0.11946201 0.06207559
0.06443499 0.41115069 0.11688764
0.33179450 0.07928481 0.14013056
0.42874312 0.21763866 0.05534879
0.23221359 0.25985834 0.11094804
0.57309473 0.11621689 0.03988076
0.32924637 0.10305752 0.13248315
0.01115174 0.70175779 0.03137801
0.30571896 0.04912752 0.16039158
0.04836214 0.47084132 0.10117179
0.49331254 0.24679923 0.02157696
0.28998178 0.49013856 0.00716148
0.20512196 0.44619122 0.05357196
0.60035896 0.02413215 0.06323621
0.01279626 0.68175858 0.03799132
0.13111974 0.29601744 0.13434418
0.21709625 0.35797399 0.08104304
0.77467877 0.01290706 0.00447160
0.08604692 0.21780515 0.17876457
0.26201317 0.23459326 0.10931432
0.60364735 0.05981943 0.04919289
0.09065747 0.15245603 0.20064913
0.28167689 0.04522347 0.17046069
0.34543866 0.03977856 0.14944892
0.29698265 0.31113651 0.06913519
0.35090068 0.24595703 0.07319279
0.03314790 0.33796498 0.15452985
0.06841113 0.67089474 0.02186734
0.05901519 0.17765158 0.20297182
0.22147632 0.15594146 0.15225872
0.48270991 0.27859333 0.01394146
0.37616110 0.18968330 0.08436719
0.12060924 0.67871767 0.00024117
0.71409100 0.01643139 0.02503210
0.40102863 0.09118195 0.11089818
0.49988607 0.06394255 0.08509350
0.48203814 0.25453123 0.02285332
0.29239354 0.04562065 0.16645634
0.03949901 0.12449130 0.22915761
0.08747338 0.53177279 0.06512580
0.61237186 0.02933235 0.05703417
0.08580597 0.36407769 0.12614833
0.04299057 0.42854181 0.11834801
0.13601208 0.13921519 0.18907844
0.44739467 0.10269447 0.09004397
0.13110594 0.52219355 0.05285626
0.09232682 0.14665979 0.20213607
0.20257504 0.34749335 0.09005141
0.40388405 0.12209943 0.09872947
0.30810982 0.04648833 0.16048107
0.61007047 0.10191058 0.03171274
0.35672405 0.39328480 0.01801095
0.19397369 0.44122523 0.05937809
0.26201802 0.35334688 0.06652448
0.34253460 0.07608490 0.13741376
0.41625103 0.26993093 0.04100841
0.16170603 0.41611055 0.08005341
0.07051893 0.21901757 0.18392251
0.27463651 0.39895982 0.04554312
0.56697673 0.03729212 0.07052250
0.07586963 0.08322926 0.23092014
0.35745430 0.06717400 0.13524874
0.17402101 0.09936216 0.18974300
0.08711597 0.52915305 0.06619849
0.47544837 0.13097773 0.06974521
0.36423558 0.04349126 0.14133850
0.11829394 0.08422132 0.21527705
0.54547310 0.20842119 0.01661099
0.22103582 0.07738332 0.18072250
0.21689150 0.19047534 0.14146785
0.06362056 0.31775427 0.15083249
0.22630209 0.22817302 0.12449443
0.54746443 0.04453885 0.07494189
0.49760523 0.25501478 0.01707013
0.14898278 0.26010373 0.14084803
0.10392381 0.61078078 0.03073142
0.36153612 0.05972609 0.13646159
0.25027555 0.10893560 0.15881880
0.16606723 0.52435672 0.03947997
0.31609529 0.04035434 0.15981399
0.11227679 0.17220984 0.18574215
0.04290856 0.16390704 0.21372736
0.14392358 0.41375208 0.08731028
0.06259486 0.48888165 0.08954363
0.12655684 0.45619386 0.07827551
0.39519316 0.24316186 0.05824091
0.16045675 0.56138450 0.02816002
0.40410236 0.23065679 0.05953654
0.22669774 0.21474074 0.12919162
0.15360674 0.23144001 0.14950974
0.19699320 0.19587505 0.14669174
0.03382290 0.25894469 0.18275823
0.21901797 0.29460549 0.10318283
0.33566776 0.07117998 0.14165525
0.23047599 0.04853906 0.18771397
0.23319009 0.14434323 0.15221713
0.40241903 0.37553242 0.00794295
