ply
format ascii 1.0
element vertex 1395
property float x
property float y
property float z
end_header
-0.66928947 -0.75933737 -0.00000010
0.43619567 -0.05036718 0.00380603
-0.68837565 0.02970283 -0.00000035
-0.14254348 0.17503855 0.00000722
0.60683584 -0.25570074 0.00529476
-0.02929598 -0.29735434 0.00000000
-0.21349201 -0.04837125 0.00000000
0.51061451 0.24649814 0.00445539
-0.12860526 -0.66931343 0.00000000
0.17277727 0.05107857 0.00151658
-0.60571223 -0.30662924 -0.00000063
-0.79938447 -0.24320456 -0.00000139
0.05321517 -0.15053557 0.00046437
-0.31859097 -0.07556589 0.00000000
-0.71709603 -0.54729831 -0.00000063
-0.55442148 -0.03321235 -0.00000089
-0.21291590 0.39027518 0.00000276
-0.43577111 0.31025693 -0.00000019
0.27030259 -0.59818482 0.00235872
-0.11039287 -0.35350674 0.00000000
-0.06815398 0.46817648 0.00000395
0.59676355 -0.15712610 0.00520676
0.03034105 -0.65789098 0.00026476
-0.43148342 -0.07749762 -0.00000029
0.07733921 0.20183367 0.00068280
0.27672631 -0.39421177 0.00241477
-0.33516830 0.17859471 0.00000394
-0.71709114 -0.10810566 -0.00000146
0.11635018 -0.70612073 0.00101530
0.52333218 -0.77038205 0.00456671
0.59790105 -0.10317887 0.00521660
-0.17337292 0.18631287 0.00000659
0.59337795 -0.49350527 0.00517773
-0.15237790 -0.45847696 0.00000000
-0.41955119 -0.43128985 0.00000000
-0.62210470 -0.59995836 -0.00000018
-0.05799153 -0.76235926 0.00000000
0.58174580 -0.56046903 0.00507637
-0.11245678 0.18719868 0.00000750
0.21852688 -0.39266381 0.00190691
-0.45707759 -0.09869904 -0.00000036
0.53690875 -0.77177066 0.00468518
-0.45474541 -0.58586591 0.00000000
-0.03091156 0.64314818 0.00000189
-0.62089872 -0.63348836 -0.00000012
0.17930257 -0.42264149 0.00156463
-0.51254326 -0.45777747 0.00000000
0.69488120 -0.04156348 0.00606242
0.33472675 0.13014318 0.00292605
-0.28873041 -0.37134394 0.00000000
-0.62951988 -0.64636517 -0.00000013
-0.01546849 0.65065128 0.00000201
-0.46582136 -0.58416033 0.00000000
-0.24509490 -0.49998426 0.00000000
0.54925036 -0.27013397 0.00479249
-0.47445443 0.10958118 0.00000242
0.24822547 0.18072429 0.00217199
0.11688639 0.10984281 0.00102874
-0.25667524 -0.71369666 0.00000000
0.14438312 -0.76078993 0.00125992
0.04026600 -0.08837280 0.00035137
0.61925864 -0.47551903 0.00540345
-0.62290388 -0.01522641 -0.00000122
-0.35440466 0.26028645 0.00000221
-0.69414181 -0.62203336 -0.00000044
-0.42172623 0.07622552 0.00000399
-0.19787467 -0.24223220 0.00000000
0.08555858 -0.39372960 0.00074660
0.68569547 -0.05702052 0.00598232
0.16770115 0.38865325 0.00146729
-0.63380957 -0.63909483 -0.00000016
0.61369449 0.09653944 0.00535549
0.43936327 -0.38192493 0.00383398
-0.16493002 -0.37791210 0.00000000
0.27178344 -0.37232983 0.00237164
0.48541218 -0.53163594 0.00423581
-0.23725662 -0.66260463 0.00000000
0.36680457 -0.00137112 0.00320069
-0.21165363 -0.15655036 0.00000000
0.64346814 -0.66117620 0.00561490
-0.12091901 -0.20381594 0.00000000
-0.65460414 -0.52559358 -0.00000045
0.41597837 -0.28205010 0.00362992
-0.28966841 -0.25486976 0.00000000
-0.14177537 -0.38392383 0.00000000
0.39644846 -0.24307980 0.00345949
-0.50841391 0.18870600 0.00000045
-0.12777670 0.62049413 0.00000054
-0.49169317 -0.66129190 0.00000000
-0.65374589 0.10522575 -0.00000095
0.05102850 0.63689202 0.00044704
0.01127988 0.60653222 0.00010118
0.30407852 -0.27790698 0.00265345
-0.51019460 -0.45725501 0.00000000
-0.43588600 -0.75657225 0.00000000
0.39532295 -0.20794374 0.00344967
-0.58370423 0.15044576 -0.00000036
0.25441161 0.45248720 0.00222114
0.63608515 -0.67340726 0.00555052
0.14613828 0.12990206 0.00128330
-0.48055968 -0.56781071 0.00000000
-0.31233612 0.43919581 0.00000003
-0.61169237 0.10829658 -0.00000019
-0.59043473 -0.11611014 -0.00000090
-0.03798732 0.53549230 0.00000339
-0.63850653 -0.11042575 -0.00000112
-0.11981488 -0.31181774 0.00000000
-0.59150499 -0.70872480 0.00000000
0.06037474 0.41844577 0.00053175
0.77560949 -0.58617818 0.00676784
0.65147913 -0.14279290 0.00568399
-0.30933574 0.41804567 0.00000044
0.53968042 -0.01736364 0.00470863
0.45365131 0.07501833 0.00396244
-0.31327164 0.33437017 0.00000176
-0.69288927 -0.41127881 -0.00000082
-0.78071475 -0.43083504 -0.00000092
0.25509956 -0.64987200 0.00222605
-0.23580225 0.23203528 0.00000496
-0.19748585 -0.34559250 0.00000000
0.00065745 -0.49235672 0.00000574
-0.23955961 0.18498851 0.00000561
-0.35004315 0.27320915 0.00000208
0.75318205 -0.41526538 0.00657166
0.49552485 0.15616475 0.00432559
0.62586182 -0.30422917 0.00546079
0.43426263 0.10214632 0.00379316
-0.48465136 -0.66713864 0.00000000
0.58617496 -0.64608788 0.00511509
-0.11453706 -0.04189694 0.00000000
0.69693375 -0.23336489 0.00608061
-0.49710140 -0.44568720 0.00000000
-0.41323650 0.21714450 0.00000180
-0.28141183 0.48962522 -0.00000022
-0.53216588 -0.44158182 -0.00000008
0.78727341 -0.68589962 0.00686989
-0.60586536 -0.51095814 -0.00000027
0.63374001 0.01481578 0.00553145
0.16289514 0.62176245 0.00142138
-0.10272987 -0.45541587 0.00000000
0.71216530 0.04810465 0.00621368
0.19282702 -0.70845407 0.00168265
0.57753587 0.08946863 0.00504080
0.33872086 -0.43589538 0.00295575
-0.02002979 0.03389455 0.00001119
0.21514903 0.08538335 0.00188523
-0.62091422 -0.24745394 -0.00000080
0.54568696 -0.76950490 0.00476178
-0.08499143 -0.28584802 0.00000000
0.47719625 -0.08335600 0.00416371
-0.11043780 -0.43682057 0.00000000
-0.46188989 -0.39980519 0.00000000
-0.58955592 -0.78286594 0.00000000
-0.59854209 0.16037306 -0.00000081
0.48307458 -0.12073313 0.00421504
0.37144199 -0.61536103 0.00324128
0.49240473 -0.04206800 0.00429630
-0.08422539 -0.46390074 0.00000000
0.70356274 -0.33851978 0.00613859
0.16928433 -0.19399169 0.00147721
-0.06300223 -0.20245837 0.00000000
0.10461180 -0.64382440 0.00091286
0.51528519 0.06081473 0.00449931
-0.07480550 -0.07020193 0.00000000
0.21780939 -0.51416677 0.00190065
-0.62379056 -0.64516902 -0.00000011
-0.73960847 -0.29072964 -0.00000123
-0.46951905 -0.11667110 -0.00000038
-0.26298600 0.23452839 0.00000440
0.23743875 0.05574288 0.00207988
-0.34250683 -0.68615311 0.00000000
0.40112317 0.24866831 0.00350206
0.43151376 -0.75847650 0.00376548
-0.16858922 -0.24069510 0.00000000
-0.24401475 -0.36209098 0.00000000
-0.26105639 0.35908878 0.00000235
0.38485780 0.19758083 0.00336134
-0.42746180 -0.04836054 -0.00000032
0.04590634 0.15421385 0.00040965
-0.35922095 -0.24283461 0.00000000
0.54475892 -0.46943134 0.00475361
0.45480460 0.12757199 0.00397156
0.03446987 -0.27807799 0.00030079
-0.38392633 0.01132737 0.00000580
0.37748238 -0.38404498 0.00329399
0.41099206 -0.20102619 0.00358640
-0.59574491 -0.23361522 -0.00000072
-0.72760010 -0.30497441 -0.00000115
-0.26455516 -0.15285005 0.00000000
0.15212497 -0.24463861 0.00132747
-0.63862920 0.01981138 0.00000077
-0.53294659 -0.14242522 -0.00000061
0.42334992 -0.22917967 0.00369424
0.01613911 0.66403472 0.00014265
0.00161865 0.57730365 0.00001744
-0.46140394 -0.02527150 -0.00000051
-0.06005804 -0.46508810 0.00000000
-0.02540495 -0.40595889 0.00000000
-0.02590251 -0.31353873 0.00000000
-0.18727729 -0.61746937 0.00000000
0.34941137 0.04984372 0.00305531
0.09883240 -0.78680545 0.00086243
-0.57562268 -0.56342548 -0.00000005
-0.46009135 0.18300521 0.00000147
-0.44958916 -0.66219890 0.00000000
-0.09072236 0.04543451 0.00000995
-0.54689509 0.20209123 -0.00000052
0.28062487 -0.60151446 0.00244879
0.41685355 0.06490421 0.00364224
0.54812390 0.24155451 0.00478206
-0.72057849 -0.23416053 -0.00000125
0.20013124 0.53798294 0.00174704
0.42520994 -0.32493538 0.00371047
-0.27245942 -0.18794911 0.00000000
-0.37331527 -0.07818729 -0.00000004
0.32157135 -0.06551017 0.00280610
-0.10507821 -0.64519650 0.00000000
-0.11482968 0.26056579 0.00000636
-0.64571905 -0.79711050 0.00000000
-0.79426944 -0.01899100 -0.00000194
0.73206496 -0.30632716 0.00638716
0.05694837 0.14169644 0.00050604
0.07715031 0.57853353 0.00067550
0.28252745 0.20671491 0.00247023
-0.59456170 -0.24368148 -0.00000069
-0.17247593 0.35671708 0.00000405
-0.04485306 0.46666199 0.00000432
-0.05817320 -0.41475737 0.00000000
0.69368035 0.06340581 0.00605247
0.00446020 0.62625635 0.00004147
0.15040153 0.25136966 0.00131862
0.11157776 0.55943686 0.00097567
0.18491895 -0.06556359 0.00161364
-0.09355049 -0.40590778 0.00000000
-0.53153718 0.08835779 0.00000168
0.04409692 -0.01523829 0.00038480
-0.26571149 0.27225736 0.00000371
0.60243702 -0.64013940 0.00525697
-0.63732117 -0.75894070 0.00000000
0.41418225 -0.14707361 0.00361416
-0.22998151 -0.77845496 0.00000000
-0.62282515 0.00616176 0.00000130
0.39344567 -0.23479232 0.00343329
0.07795009 0.65386873 0.00068124
-0.06617503 -0.20256834 0.00000000
-0.07220645 0.60738802 0.00000180
-0.39121234 -0.22513953 0.00000000
-0.66978669 -0.79089081 -0.00000002
-0.23580834 0.06691730 0.00000744
0.73994303 -0.16099669 0.00645565
0.36880481 -0.45543307 0.00321827
0.33524942 -0.79294771 0.00292546
0.71932679 -0.59786654 0.00627661
-0.55274498 -0.72163665 0.00000000
-0.70951355 -0.02868081 -0.00000156
0.18384548 -0.12685940 0.00160427
-0.07496247 -0.13732332 0.00000000
-0.46964407 -0.34582350 0.00000000
-0.08998307 -0.03110550 0.00000000
0.18889116 -0.47832999 0.00164830
-0.56175667 0.06925153 0.00000142
0.48769543 0.21235062 0.00425644
-0.07995743 0.55146176 0.00000252
-0.42492104 0.24828574 0.00000106
0.05274682 0.15046377 0.00046931
-0.13111003 -0.01079032 0.00000000
-0.10543886 -0.22155660 0.00000000
0.21948914 -0.62019110 0.00191531
-0.15638205 0.10433926 0.00000808
0.38270500 0.00552703 0.00334596
0.04163331 0.68438095 0.00036447
0.18113011 -0.39555570 0.00158058
-0.79906577 -0.05460954 -0.00000186
-0.30882743 -0.16562966 0.00000000
-0.44578242 -0.01422712 -0.00000046
-0.23961993 -0.13710064 0.00000000
-0.03534681 0.23112287 0.00000800
-0.25338787 -0.35289127 0.00000000
0.05049866 0.16789868 0.00044946
-0.21374811 -0.31606719 0.00000000
0.23728840 0.10843013 0.00207778
-0.17857797 0.23600595 0.00000577
-0.01309087 0.77506399 0.00000017
0.56509459 -0.66434234 0.00493114
0.08040381 -0.02158538 0.00070162
-0.44418266 -0.37541473 0.00000000
-0.22104245 -0.10066170 0.00000000
0.16003351 -0.45470414 0.00139649
-0.27629641 -0.20107929 0.00000000
0.38531446 -0.30526319 0.00336234
-0.41330639 -0.02118081 -0.00000031
-0.35883820 0.32880789 0.00000098
0.16340411 0.01999908 0.00143538
-0.40502003 0.10926741 0.00000376
0.70894539 -0.56945491 0.00618593
-0.49028349 -0.15103345 -0.00000041
-0.41314766 -0.16153060 -0.00000006
-0.33976075 -0.19574144 0.00000000
-0.77977026 -0.48359305 -0.00000079
0.05669333 -0.39053467 0.00049472
0.75012076 -0.59950006 0.00654540
-0.30553451 -0.64761716 0.00000000
-0.57659930 -0.51064616 -0.00000014
-0.37679446 -0.19896400 0.00000000
0.34446007 -0.30341458 0.00300583
0.14797597 0.38120160 0.00129554
-0.49884090 0.03388599 0.00000322
0.13666582 -0.02364896 0.00119257
0.48495281 -0.59291416 0.00423180
0.17852771 -0.01779024 0.00155787
0.28894374 -0.12619235 0.00252138
0.14414094 0.63392532 0.00125788
0.78315282 -0.69351780 0.00683395
-0.36913919 0.02940901 0.00000578
0.41746983 0.00917469 0.00364858
0.19560458 0.02678685 0.00171583
0.57147247 0.06237522 0.00498848
0.24610677 0.01250880 0.00215605
0.23086807 -0.44095311 0.00201460
-0.33852875 -0.61366957 0.00000000
0.07396228 -0.03450345 0.00064541
0.58651400 -0.27998960 0.00511754
0.08816941 -0.25325164 0.00076938
-0.45708868 0.20943750 0.00000109
-0.04132277 -0.32294288 0.00000000
0.27289668 -0.61969197 0.00238135
-0.60381174 -0.50469667 -0.00000027
-0.01442194 0.72028977 0.00000098
-0.44720680 -0.05808052 -0.00000039
0.19803910 -0.19129369 0.00172813
-0.61069655 -0.57565218 -0.00000017
-0.22443435 -0.52825516 0.00000000
0.02905836 0.69075197 0.00025481
-0.05043689 0.69856030 0.00000073
-0.78471988 -0.55935901 -0.00000060
0.00038174 0.60980064 0.00000618
0.58349174 0.11455840 0.00509221
0.50385749 -0.62922055 0.00439677
-0.56880790 -0.19000009 -0.00000068
0.49484757 0.11450618 0.00432043
0.56244332 -0.06089819 0.00490725
0.30120194 0.10800919 0.00263455
0.30862993 0.13512018 0.00269875
0.45392233 -0.08803318 0.00396071
-0.20316295 -0.72620970 0.00000000
0.31653145 -0.49809495 0.00276212
0.70263642 -0.64812744 0.00613106
-0.21326746 -0.37972224 0.00000000
0.47337836 0.10027013 0.00413375
0.65378696 -0.74805707 0.00570504
-0.23944835 0.51437426 0.00000017
-0.09050571 0.34604466 0.00000544
0.32716930 -0.02929423 0.00285495
-0.45906782 -0.38205129 0.00000000
-0.67441434 -0.69475037 -0.00000024
0.05010898 -0.55746257 0.00043726
0.16231431 0.53001362 0.00141793
-0.07747958 -0.32335526 0.00000000
0.04747955 0.28414336 0.00042141
-0.14926338 -0.59779215 0.00000000
-0.08394360 0.15462868 0.00000841
-0.09477982 -0.18822190 0.00000000
-0.11107769 0.28351909 0.00000607
-0.13237076 0.17703858 0.00000735
-0.76513213 -0.54000771 -0.00000065
-0.66107947 -0.72938591 -0.00000012
-0.06845413 0.14439370 0.00000880
-0.53800809 -0.17522202 -0.00000057
0.57634515 -0.08769994 0.00502855
0.02371269 0.75945193 0.00020717
0.16259205 -0.23393452 0.00141881
-0.00730481 0.16323715 0.00000944
0.12618811 0.18976752 0.00110858
-0.67181081 -0.29775843 -0.00000093
0.31457061 -0.52927232 0.00274501
-0.48423135 -0.76729023 0.00000000
-0.51510012 0.20515488 0.00000004
-0.49122638 0.29156357 -0.00000094
-0.78595734 -0.63098496 -0.00000042
-0.28447756 -0.48454094 0.00000000
-0.16150659 -0.27439129 0.00000000
0.44008484 -0.27503464 0.00384027
0.05773282 0.36571795 0.00050952
0.43659294 0.22116387 0.00381136
-0.62114692 -0.04103530 -0.00000116
0.62087858 -0.01787428 0.00541689
0.67749614 -0.66249365 0.00591171
-0.08772615 0.70884788 -0.00000021
-0.25972334 -0.28120092 0.00000000
0.76203120 -0.50633693 0.00664912
-0.49554035 -0.52148610 0.00000000
-0.25018886 0.41333050 0.00000165
0.00951559 0.70030582 0.00008440
0.42173815 -0.52212077 0.00368018
-0.31822759 -0.46516159 0.00000000
0.30603302 -0.43653056 0.00267051
0.20038527 0.34315714 0.00175267
0.14371842 0.09342263 0.00126276
-0.26373598 -0.54473317 0.00000000
-0.57457161 0.13493593 0.00000008
-0.55598676 -0.50717694 -0.00000006
-0.72015852 -0.26851547 -0.00000118
0.45399478 0.25012648 0.00396236
-0.76141429 -0.31513652 -0.00000121
0.09613838 0.06155576 0.00084869
0.70885128 -0.44170833 0.00618488
-0.24192826 -0.43081725 0.00000000
0.36992109 -0.46986538 0.00322801
-0.20555986 -0.46232665 0.00000000
0.79133201 -0.06736921 0.00690377
-0.01955919 0.51300251 0.00000401
-0.28022113 -0.75570500 0.00000000
0.57691199 0.01871053 0.00503660
0.57247651 -0.56714857 0.00499553
0.14206184 -0.44552431 0.00123966
0.02504960 -0.61354822 0.00021859
0.73644525 -0.72198349 0.00642634
-0.02056382 -0.06391467 0.00000000
0.00177837 0.44472077 0.00002082
0.65463978 0.11523053 0.00571166
-0.36629820 -0.52359313 0.00000000
0.57724041 -0.76990306 0.00503712
-0.49463904 -0.76128638 0.00000000
0.11577373 -0.41159803 0.00101027
-0.10599426 -0.27562249 0.00000000
0.53802425 -0.13876176 0.00469437
-0.38533458 -0.77567542 0.00000000
-0.26869771 -0.65165514 0.00000000
0.03399517 -0.52860278 0.00029665
-0.72897220 0.06842046 -0.00000182
-0.11437322 0.32307336 0.00000543
-0.31449586 -0.30623096 0.00000000
-0.66618806 0.02578653 0.00000014
-0.21778801 -0.03807738 0.00000000
-0.01050060 -0.55686337 0.00000000
-0.30743897 0.21490452 0.00000387
-0.65738791 -0.64751244 -0.00000025
-0.30104309 -0.38476816 0.00000000
0.40219989 -0.48654988 0.00350968
0.42995769 -0.77434075 0.00375190
-0.37802699 -0.22339042 0.00000000
-0.29895100 0.35561466 0.00000168
-0.06841741 -0.46670437 0.00000000
0.10549401 0.07463172 0.00093001
0.22150549 -0.63576555 0.00193290
-0.15384296 0.19432610 0.00000676
0.37505710 -0.62006032 0.00327283
0.79837477 -0.00187057 0.00696509
-0.51566905 -0.23482981 -0.00000037
-0.65943635 0.00298130 0.00000065
0.52349967 -0.13325968 0.00456767
0.14862940 0.24542674 0.00130327
-0.05701899 -0.64798999 0.00000000
0.35257530 0.05285411 0.00308280
-0.72236389 -0.04907636 -0.00000158
-0.41758129 0.10168806 0.00000365
0.01671633 0.05242678 0.00015686
0.19210389 -0.44498771 0.00167634
0.35575721 0.34037673 0.00310547
-0.79058063 -0.14397231 -0.00000164
-0.08132310 0.61202508 0.00000158
0.32171857 0.30586854 0.00280972
0.16900899 -0.71866900 0.00147481
0.69785768 -0.48522356 0.00608905
-0.48918104 -0.28575382 -0.00000017
-0.70263928 -0.18601139 -0.00000126
0.18286940 -0.17291664 0.00159576
-0.41175398 -0.74653763 0.00000000
0.15264539 -0.78561634 0.00133202
-0.24275178 -0.38661432 0.00000000
-0.28738189 0.19841644 0.00000453
0.35382199 -0.43151560 0.00308753
-0.73908031 -0.48347473 -0.00000079
0.03632615 0.04384878 0.00032784
0.06522445 0.32031333 0.00057547
0.25529888 -0.01398321 0.00222779
0.36953920 0.09246584 0.00322981
0.03331996 -0.19152668 0.00029076
0.58417070 -0.47006312 0.00509739
0.76509321 -0.22988759 0.00667516
0.44216350 0.33681986 0.00385784
-0.61340231 -0.54385728 -0.00000024
-0.28657663 0.49791336 -0.00000046
0.36434513 0.38893452 0.00317939
-0.58377683 -0.32230100 -0.00000051
-0.29107246 -0.33284670 0.00000000
0.26175320 -0.35772601 0.00228411
-0.64202106 -0.29135510 -0.00000081
0.52568191 -0.38164940 0.00458708
0.34945324 -0.63643163 0.00304940
-0.33781290 -0.34100908 0.00000000
0.35496780 -0.37840369 0.00309752
0.32318699 0.19694509 0.00282441
0.29379740 -0.65930134 0.00256374
0.63736331 -0.15689397 0.00556089
-0.06002521 0.30922288 0.00000646
0.66470337 -0.35331592 0.00579966
0.00750810 0.36631238 0.00007192
0.73168832 -0.58681095 0.00638448
-0.66410321 -0.63453913 -0.00000030
0.06676129 0.37315780 0.00058807
-0.36365485 -0.52196074 0.00000000
0.56657612 -0.59294873 0.00494406
-0.46208188 0.32324550 -0.00000091
-0.36425012 -0.36112258 0.00000000
0.58022630 -0.64637214 0.00506318
-0.45974243 0.02930625 0.00000405
-0.13218553 0.24984597 0.00000626
0.03240495 -0.72572845 0.00028277
0.03950945 0.48952278 0.00034889
-0.14008816 0.24211887 0.00000625
-0.18016797 -0.25879169 0.00000000
0.00189220 -0.79129344 0.00001651
-0.55586618 -0.23578089 -0.00000054
0.09725119 -0.26811236 0.00084863
-0.51263952 -0.63676101 0.00000000
0.25883231 -0.00734443 0.00225863
-0.23226373 -0.67500526 0.00000000
0.69019943 -0.47705993 0.00602224
0.25298864 -0.20821998 0.00220763
-0.13876656 -0.58117729 0.00000000
-0.68318373 -0.50567716 -0.00000061
0.07743776 0.18507677 0.00068391
0.32056409 -0.21848437 0.00279731
0.55826253 -0.08092252 0.00487081
-0.29819426 0.21537311 0.00000404
-0.36646825 -0.56794393 0.00000000
-0.13366888 0.17557620 0.00000735
0.20882845 0.58175582 0.00182200
-0.45844519 0.33037767 -0.00000096
0.69227093 -0.08779200 0.00603972
-0.67247862 0.06709753 -0.00000067
-0.45372891 -0.18729930 -0.00000019
-0.25719863 0.25885132 0.00000410
0.22218706 -0.70732588 0.00193885
-0.74760455 -0.00454992 -0.00000177
0.71409261 -0.55208880 0.00623081
-0.14374533 0.39114916 0.00000396
-0.51595074 -0.04924794 -0.00000070
0.72384620 -0.17011657 0.00631526
-0.01426137 0.04528480 0.00001111
-0.31641358 0.02282805 0.00000688
0.22421239 -0.15610506 0.00195652
0.49992019 -0.12450727 0.00436198
-0.55506200 -0.08949600 -0.00000080
0.02094148 0.32680595 0.00018955
0.69296622 -0.28790313 0.00604609
0.18892834 0.20251217 0.00165503
0.51141495 -0.33725721 0.00446257
-0.23484327 -0.06225078 0.00000000
-0.08960130 -0.24746238 0.00000000
0.32118678 0.01950338 0.00281009
0.22283818 -0.23506948 0.00194453
-0.56738937 -0.55545443 -0.00000003
-0.65284783 -0.56740540 -0.00000037
0.24067369 -0.04793245 0.00210017
-0.06374417 -0.52225375 0.00000000
-0.71483630 -0.35097265 -0.00000102
-0.37874597 -0.42882931 0.00000000
0.00940725 0.16129939 0.00009154
0.58583319 -0.58479822 0.00511206
-0.30295733 0.18084154 0.00000452
0.47238505 -0.37469658 0.00412213
0.20636234 0.00938197 0.00180982
0.65158743 -0.32953396 0.00568522
-0.16354212 -0.57091206 0.00000000
-0.68907899 -0.66162860 -0.00000035
-0.08299356 -0.14440002 0.00000000
0.10038443 -0.63617069 0.00087598
-0.10539617 0.20612538 0.00000732
-0.71960443 -0.04017488 -0.00000159
0.62564403 -0.51792955 0.00545921
-0.28696382 -0.41102090 0.00000000
-0.09091923 -0.72093838 0.00000000
0.64672804 -0.36777520 0.00564289
0.07596846 -0.48304820 0.00066292
0.24595843 -0.50393671 0.00214629
0.16211870 -0.60864192 0.00141468
0.42615950 -0.25588715 0.00371876
0.14303391 -0.69827509 0.00124814
-0.54766643 -0.26100674 -0.00000046
0.41288850 -0.33174953 0.00360295
-0.19005677 -0.12826546 0.00000000
-0.15939043 -0.24406794 0.00000000
-0.67461157 -0.19457689 -0.00000112
0.42530945 -0.13071442 0.00371120
0.34995276 0.12858807 0.00305864
0.33014241 0.21624479 0.00288463
-0.62751704 -0.26041123 -0.00000080
0.54500365 -0.08914062 0.00475517
0.32010797 -0.47158015 0.00279333
0.41038138 -0.06167417 0.00358088
0.00923588 0.03760621 0.00009190
-0.76795375 -0.47690585 -0.00000081
-0.42756748 -0.38835597 0.00000000
-0.47444230 -0.03272979 -0.00000055
0.44341251 -0.03035360 0.00386895
0.27837992 -0.16104409 0.00242920
-0.10672067 -0.69481570 0.00000000
0.31245717 -0.06641481 0.00272657
-0.39062673 0.13320145 0.00000364
-0.26644206 -0.59158105 0.00000000
0.58489937 -0.07199165 0.00510314
-0.13923480 -0.38421860 0.00000000
-0.54583520 -0.74861151 0.00000000
0.16052890 -0.15401076 0.00140081
0.49210525 -0.72727877 0.00429421
0.48221049 -0.07915971 0.00420744
-0.27142462 0.34458178 0.00000240
-0.10204579 -0.06061350 0.00000000
0.61334705 -0.28893670 0.00535160
-0.40441057 -0.18039733 0.00000000
-0.00656941 0.12509999 0.00001002
-0.57596982 -0.15070005 -0.00000078
-0.38435435 -0.39518958 0.00000000
-0.43766227 -0.64126068 0.00000000
0.44221595 0.00936422 0.00386403
-0.62857580 -0.07039436 -0.00000114
0.72103059 -0.05350891 0.00629053
-0.74090236 -0.62656021 -0.00000043
-0.74424654 -0.68407530 -0.00000029
-0.77827591 -0.09730468 -0.00000174
0.35229078 -0.17270678 0.00307416
-0.72849143 -0.07937063 -0.00000155
-0.31369910 0.26955542 0.00000284
-0.06890795 -0.26841977 0.00000000
0.18990266 0.29066366 0.00166219
0.78905958 -0.40499187 0.00688478
-0.74623007 -0.60127717 -0.00000050
0.27927032 -0.21298593 0.00243697
-0.08942020 -0.46708876 0.00000000
0.51654452 0.26616716 0.00450668
-0.07278792 -0.12280395 0.00000000
0.00803820 0.19598709 0.00007909
-0.29211289 0.14572062 0.00000532
0.72043324 -0.27429926 0.00628565
-0.63722235 -0.60625273 -0.00000023
-0.70667309 -0.19296350 -0.00000126
-0.47453892 0.31388724 -0.00000099
0.33872664 0.17438629 0.00296010
-0.29459703 -0.15952148 0.00000000
0.24743801 -0.50810593 0.00215920
-0.37766775 0.08910905 0.00000462
-0.47969061 0.18378925 0.00000108
0.63897645 -0.63040626 0.00557567
0.36826286 0.10419862 0.00321849
-0.55023992 -0.25450253 -0.00000048
-0.29068568 0.40282163 0.00000105
0.58492523 -0.37872821 0.00510383
-0.10791325 0.45687708 0.00000352
-0.16372879 -0.10880695 0.00000000
0.52704084 -0.71881431 0.00459907
-0.36658415 -0.09759576 0.00000000
0.00972792 0.51037937 0.00008910
0.28424048 -0.09112252 0.00248034
0.29259279 0.34787914 0.00255540
0.56357563 0.05532321 0.00491985
-0.31075040 0.04536340 0.00000663
0.14940104 -0.53147054 0.00130371
0.10159586 -0.57823962 0.00088655
0.25729001 0.11249764 0.00225199
0.13361758 -0.49732041 0.00116598
-0.32610950 0.41447484 0.00000018
0.73740768 0.03456796 0.00643369
-0.39206380 -0.17858306 0.00000000
0.25252286 -0.15999109 0.00220357
-0.32477096 0.24257857 0.00000307
-0.77854544 0.00813371 -0.00000172
0.29173803 0.14374053 0.00255153
0.62266129 0.01914612 0.00543492
0.53514796 0.14489298 0.00467077
0.44823694 0.06726790 0.00391544
0.71637267 -0.42940724 0.00625046
0.29291099 -0.17871845 0.00255600
0.52477044 -0.09162091 0.00457869
0.62819391 -0.00981780 0.00548069
-0.56751066 -0.54897910 -0.00000004
-0.66592872 -0.48218331 -0.00000058
-0.71884400 -0.67731512 -0.00000031
0.11879406 0.05946921 0.00104612
-0.01938520 0.62572330 0.00000232
-0.41934857 -0.19822067 -0.00000003
0.68094099 -0.47028145 0.00594147
0.21769023 -0.27511579 0.00189961
0.33399913 0.08798053 0.00292045
0.35221943 -0.49198073 0.00307354
-0.60425723 -0.59048915 -0.00000012
-0.32958603 -0.59679729 0.00000000
0.79083341 -0.36685103 0.00690017
-0.05488137 0.50097364 0.00000366
0.68536633 -0.22441830 0.00597970
-0.17072758 -0.01349059 0.00000000
-0.54264671 0.14538573 0.00000051
-0.03081639 -0.05806494 0.00000000
0.43819577 0.20983234 0.00382552
-0.49581468 -0.57613158 0.00000000
0.40526873 -0.75086939 0.00353646
-0.79328138 -0.77114272 -0.00000007
-0.66231155 -0.54127479 -0.00000046
0.59769160 -0.42321622 0.00521525
-0.70872885 -0.37530679 -0.00000095
0.00255224 0.77127135 0.00002267
0.23405696 0.22255705 0.00204791
-0.62282145 -0.24623810 -0.00000081
0.59217292 -0.49865901 0.00516723
-0.23744027 -0.78073931 0.00000000
0.49758902 -0.56776690 0.00434207
0.09778001 -0.16064519 0.00085325
0.43977350 -0.11897933 0.00383734
-0.04848389 -0.56999159 0.00000000
-0.34078196 0.42030138 -0.00000020
0.40321344 -0.21261843 0.00351853
-0.70120794 -0.49066138 -0.00000071
0.14122924 0.10661569 0.00124088
0.16556098 -0.11224210 0.00144472
-0.00588131 0.32548517 0.00000703
-0.06100408 0.37082437 0.00000552
-0.19193184 0.60310370 -0.00000040
0.67502594 -0.74983376 0.00589032
0.69406831 0.03093298 0.00605642
0.06876180 -0.56428385 0.00060003
-0.38297039 0.35188201 0.00000013
-0.03544754 0.59063739 0.00000261
-0.58354580 -0.45189193 -0.00000028
0.20950013 0.37644321 0.00183144
-0.26285738 -0.13673715 0.00000000
0.18363895 0.52237213 0.00160373
-0.13732786 0.02489823 0.00000955
0.12642533 -0.45414925 0.00110321
0.05479247 0.74386972 0.00047804
-0.28157067 0.29560471 0.00000302
0.06847489 -0.14083184 0.00059753
-0.25721744 -0.04996278 0.00000000
-0.35974348 -0.55055487 0.00000000
0.54479069 0.23778626 0.00475310
0.06785968 0.50149959 0.00059571
-0.16335601 0.49447381 0.00000197
-0.21706697 0.55791670 -0.00000012
-0.44139913 -0.47809657 0.00000000
0.46456733 -0.32957289 0.00405391
0.10810374 0.19957645 0.00095087
-0.14884360 -0.03264771 0.00000000
-0.31708857 -0.68645602 0.00000000
0.16159402 0.51977891 0.00141184
0.66919839 -0.35932925 0.00583888
0.66833746 -0.47624686 0.00583154
0.42383784 -0.33928874 0.00369850
0.28440863 0.11784106 0.00248817
-0.60223091 -0.30008861 -0.00000063
-0.40975690 0.07479201 0.00000425
-0.04474791 -0.43973130 0.00000000
0.27394450 -0.68219984 0.00239050
-0.21718381 0.37084952 0.00000300
0.75256497 -0.54985541 0.00656661
-0.22669461 -0.57880026 0.00000000
0.38687733 -0.23292707 0.00337597
0.03536644 -0.16077472 0.00030862
0.08890829 -0.12886886 0.00077583
-0.17987522 -0.62156802 0.00000000
0.37797904 -0.44503707 0.00329833
0.30941588 0.37189525 0.00270145
-0.58639365 0.01734421 0.00000181
-0.03431716 -0.43592110 0.00000000
-0.09007524 -0.71669394 0.00000000
-0.19688083 0.27934769 0.00000484
0.07984470 -0.41881481 0.00069674
-0.73597592 -0.65540332 -0.00000036
0.65894020 -0.12412961 0.00574905
0.39335790 -0.71389729 0.00343252
-0.35509428 0.38166383 0.00000017
-0.53207988 -0.25734010 -0.00000040
0.38360152 -0.59590638 0.00334739
0.65334094 -0.37984699 0.00570059
0.46432981 -0.01909359 0.00405138
-0.43839613 0.15101811 0.00000242
0.17188390 0.56061602 0.00150071
-0.54837948 0.01217570 0.00000263
0.44818985 -0.49919802 0.00391100
0.19200148 0.15824626 0.00168246
0.61712867 -0.23157328 0.00538450
0.48896924 -0.75440389 0.00426685
0.69963712 -0.39658007 0.00610444
-0.38529396 -0.60693967 0.00000000
-0.79659992 -0.32599911 -0.00000119
0.23480727 0.32258010 0.00205273
-0.27344492 0.09588230 0.00000644
-0.48143223 0.27617690 -0.00000050
0.47675633 -0.21772563 0.00416008
0.34778443 -0.70807320 0.00303484
0.27433667 -0.45792189 0.00239392
-0.56790525 0.13218698 0.00000025
-0.08355909 -0.42273971 0.00000000
-0.52025354 -0.43660566 -0.00000003
-0.21716170 0.25857872 0.00000484
0.07146824 0.11750902 0.00063291
-0.00079782 0.09864279 0.00001051
0.47068226 0.08257304 0.00411059
-0.24320357 -0.63713253 0.00000000
0.14099567 0.58328253 0.00123138
-0.70775920 -0.45916316 -0.00000079
0.06207270 0.14238843 0.00055068
-0.03530430 -0.73883468 0.00000000
0.58436257 -0.51711488 0.00509913
-0.07043054 0.65098357 0.00000114
-0.21110927 -0.36301148 0.00000000
0.19722146 -0.00154267 0.00172100
0.42760217 -0.49649838 0.00373135
0.61008906 0.07905482 0.00532441
0.57092446 -0.50048840 0.00498189
0.37029067 0.41068360 0.00323078
0.48680708 0.28125638 0.00424750
-0.05614896 -0.22662672 0.00000000
-0.46588734 0.19901283 0.00000109
-0.30733192 -0.75840151 0.00000000
0.58024442 -0.54239541 0.00506325
0.03642936 -0.56865156 0.00031789
0.17666756 -0.48760563 0.00154164
0.00350669 0.17277680 0.00003996
-0.46900031 -0.26209810 -0.00000012
0.47947904 0.26619554 0.00418396
0.69433308 -0.02224852 0.00605761
-0.14951055 -0.02259797 0.00000000
-0.01255697 -0.61491030 0.00000000
0.05714045 -0.13116564 0.00049862
0.04498067 -0.58981907 0.00039251
-0.57577068 -0.14223064 -0.00000079
-0.04950696 0.12462025 0.00000938
0.00224303 -0.74675471 0.00001957
0.02574227 0.01754965 0.00023602
-0.00246152 -0.02065868 0.00000000
0.04400383 -0.42260125 0.00038399
0.19610687 -0.53614157 0.00171127
-0.34240553 -0.48776901 0.00000000
0.45337784 -0.56251723 0.00395627
0.34625322 -0.73748046 0.00302148
-0.63121039 -0.57015377 -0.00000027
0.22862594 0.44747815 0.00199672
0.27007946 -0.67327577 0.00235677
-0.64546257 -0.66709560 -0.00000016
-0.21899728 0.08233178 0.00000746
-0.36072817 0.41149315 -0.00000044
-0.07272608 -0.44995439 0.00000000
0.44323564 -0.12370455 0.00386755
-0.32188129 -0.05632045 0.00000000
0.46574986 -0.32540408 0.00406423
-0.12934333 -0.13971208 0.00000000
0.02091149 0.30586869 0.00018961
0.22416642 0.08927358 0.00196374
-0.34532824 -0.21943130 0.00000000
0.12953840 -0.09901134 0.00113038
0.09481781 0.32195726 0.00083328
0.07228990 0.20248516 0.00063880
-0.16503911 0.40896639 0.00000336
0.75021160 -0.76715380 0.00654661
-0.06183313 0.52311945 0.00000322
-0.20898710 -0.09064128 0.00000000
-0.17663020 0.13215235 0.00000735
-0.36473045 -0.64208448 0.00000000
0.39630723 0.17210552 0.00346147
-0.23010162 -0.14469299 0.00000000
-0.61044961 0.05542446 0.00000071
0.20215333 0.10034541 0.00177178
-0.32693654 -0.37177452 0.00000000
0.36472991 -0.28054613 0.00318271
0.54041582 0.16575828 0.00471627
0.78114361 -0.51238608 0.00681596
0.09989110 -0.20465478 0.00087167
0.69223839 -0.22236273 0.00603964
0.28744155 0.11294785 0.00251466
-0.32048476 -0.72602743 0.00000000
0.47106406 -0.10990211 0.00411026
-0.55493420 -0.78467411 0.00000000
0.67535675 -0.53381586 0.00589286
0.56209350 -0.60061979 0.00490495
-0.29139572 -0.53507680 0.00000000
0.02399834 0.72356796 0.00021024
-0.46684769 0.16080217 0.00000171
-0.01989475 0.32366195 0.00000684
0.12945601 -0.07946941 0.00112966
-0.42865634 -0.18770342 -0.00000008
-0.31383502 -0.51094407 0.00000000
-0.65658021 -0.76966745 -0.00000003
0.28989512 0.15015168 0.00253537
-0.47719285 0.24171828 0.00000016
-0.29779002 -0.56683141 0.00000000
-0.11953460 -0.13703768 0.00000000
0.66050696 0.10003259 0.00576300
-0.71826065 -0.52452910 -0.00000069
0.61612964 0.17079447 0.00537539
0.14838472 0.59300816 0.00129555
0.73063082 0.06100913 0.00637423
0.44844759 -0.43764949 0.00391325
-0.58070809 -0.38713238 -0.00000038
-0.43091911 0.14680818 0.00000264
0.45273820 0.10670786 0.00395394
0.43985185 0.10661474 0.00384174
-0.35190737 0.04386338 0.00000587
-0.66785902 -0.70399940 -0.00000019
-0.36726820 -0.07233531 -0.00000003
-0.41930813 -0.68054003 0.00000000
-0.25328687 -0.48457494 0.00000000
0.01358364 0.33887455 0.00012527
0.64465743 -0.05984635 0.00562437
0.58948213 -0.57716554 0.00514388
-0.13339588 0.66655326 -0.00000033
0.29417774 0.47594482 0.00256695
-0.61124671 0.07175754 0.00000043
-0.16812821 -0.22441681 0.00000000
-0.17223252 -0.33783004 0.00000000
-0.38598806 0.17116731 0.00000309
-0.15129571 0.39494947 0.00000379
-0.56559783 0.19014420 -0.00000067
0.56866473 -0.27735490 0.00496184
0.40415147 -0.30561858 0.00352671
-0.10747860 0.35721982 0.00000502
0.65375257 -0.75985485 0.00570476
-0.26570576 -0.76372737 0.00000000
-0.11534326 -0.06146675 0.00000000
0.12291145 0.09913886 0.00108140
-0.56365252 -0.48560295 -0.00000013
0.34553048 -0.02742304 0.00301516
0.26275337 -0.70773125 0.00229284
-0.52275836 0.04753998 0.00000253
0.02450886 -0.41814828 0.00021387
-0.43594891 -0.56953073 0.00000000
-0.19637533 0.18220744 0.00000630
0.07083399 -0.06773800 0.00061811
-0.56294006 -0.10568002 -0.00000080
0.23749170 -0.40857816 0.00207240
0.02669109 -0.07433925 0.00023291
0.17342001 0.37667692 0.00151729
0.44086987 0.17203820 0.00384946
0.00163153 0.31092972 0.00002155
-0.24873950 -0.14717881 0.00000000
0.01430548 -0.73312992 0.00012483
0.19731963 -0.79182410 0.00172185
-0.36840206 0.20681134 0.00000283
0.63585216 -0.04427391 0.00554754
0.32413021 0.31957349 0.00283047
-0.02598894 0.42691472 0.00000520
-0.42277312 0.31785458 -0.00000007
-0.43365836 -0.27154079 0.00000000
-0.20831016 0.40374210 0.00000262
-0.22404221 0.12859701 0.00000669
0.58342910 -0.10853229 0.00509037
-0.21845317 -0.58135241 0.00000000
0.71191984 0.00394898 0.00621232
0.07683980 -0.13199234 0.00067052
-0.04326520 0.53167450 0.00000337
-0.75926381 -0.60253543 -0.00000049
-0.64891279 -0.68482822 -0.00000014
-0.59459710 0.00598184 0.00000184
-0.01122804 0.33102599 0.00000687
0.60847008 -0.64863455 0.00530961
0.67240185 -0.37512344 0.00586684
-0.52802360 -0.57760417 0.00000000
0.59679037 0.16593605 0.00520710
0.01923743 -0.72675014 0.00016787
-0.43735582 -0.29960611 0.00000000
-0.77463597 -0.39168224 -0.00000102
0.17890066 0.31379858 0.00156599
-0.43350443 -0.57379252 0.00000000
-0.23600031 -0.50831723 0.00000000
-0.38241309 0.12856911 0.00000387
-0.41897509 0.15172936 0.00000278
0.68484205 -0.78933674 0.00597610
-0.01104003 -0.34558827 0.00000000
0.27358282 0.13367300 0.00239362
0.78890443 -0.42284110 0.00688347
-0.19621408 -0.03737100 0.00000000
-0.34224534 -0.45329338 0.00000000
-0.13170733 0.07821967 0.00000884
0.75047117 -0.10894560 0.00654741
-0.50787824 0.10502761 0.00000186
-0.41615820 0.22938928 0.00000154
0.24978189 -0.47087878 0.00217965
-0.71222937 0.04027322 -0.00000099
0.17624071 0.01095888 0.00154736
0.07669677 -0.48115140 0.00066927
0.60758281 -0.06599924 0.00530099
-0.62862277 -0.31083977 -0.00000072
-0.10838771 -0.64057571 0.00000000
-0.13625965 -0.37923431 0.00000000
-0.39998612 0.33257836 0.00000013
-0.60523236 0.13874519 -0.00000058
0.16021283 -0.71500915 0.00139805
0.45536584 -0.07050070 0.00397327
0.61859363 0.15950797 0.00539704
-0.79523557 -0.62733757 -0.00000043
0.27816629 -0.28479296 0.00242734
-0.30476189 0.42628402 0.00000039
-0.10893495 -0.54889935 0.00000000
0.56618744 0.13394637 0.00494121
0.19536880 -0.73656940 0.00170483
-0.24595515 -0.09982781 0.00000000
-0.17022344 0.30988783 0.00000478
-0.60026616 -0.32266098 -0.00000058
0.00816379 0.42868355 0.00007670
-0.29276991 -0.68824303 0.00000000
-0.12455871 -0.23926453 0.00000000
-0.79835683 -0.29165155 -0.00000127
-0.09264406 -0.13732031 0.00000000
0.02763562 0.33753842 0.00024772
-0.68261617 -0.01759231 -0.00000147
0.00723192 0.38008776 0.00006931
0.13311175 -0.60047853 0.00116156
0.24557620 0.12505393 0.00214974
-0.27756709 0.07352249 0.00000671
-0.23555984 0.20916003 0.00000531
-0.54368800 -0.30309862 -0.00000037
0.40379411 -0.11016152 0.00352350
-0.63354236 -0.17556292 -0.00000098
-0.78441948 -0.25322613 -0.00000137
-0.44773060 -0.21688801 -0.00000011
-0.10907263 -0.68070596 0.00000000
-0.34554511 -0.76387095 0.00000000
-0.31247461 -0.09907153 0.00000000
-0.25386888 -0.40061849 0.00000000
-0.09092890 0.39587808 0.00000469
-0.50752139 -0.02947611 -0.00000070
0.38166398 -0.29672807 0.00333048
0.56584162 -0.04068280 0.00493686
-0.60638338 -0.48216683 -0.00000032
0.72014678 -0.21215558 0.00628306
0.71818566 -0.49269527 0.00626639
0.59491438 -0.47484225 0.00519110
0.54362410 -0.68778646 0.00474378
0.36690474 -0.28339255 0.00320169
0.19809726 -0.01580634 0.00172864
-0.79488653 -0.66819692 -0.00000033
-0.65996897 -0.27308413 -0.00000092
0.45707998 0.20403259 0.00399003
-0.31497675 0.28326061 0.00000258
0.71217489 0.06470492 0.00621347
0.19977675 -0.50824106 0.00174329
0.31718105 0.01179802 0.00277530
0.02184758 -0.41209000 0.00019065
0.20148021 0.12849826 0.00176550
0.18529177 -0.61897570 0.00161690
-0.45163456 0.08023537 0.00000335
0.03702965 0.56370169 0.00032617
0.24864171 0.46370444 0.00217070
0.43479842 0.32319081 0.00379395
-0.19580859 -0.75520587 0.00000000
-0.02794272 -0.02692937 0.00000000
0.10525216 -0.18275231 0.00091845
-0.17920949 -0.29287076 0.00000000
-0.46458197 -0.32589108 0.00000000
0.23234686 0.03978899 0.00203576
-0.30494082 0.06001487 0.00000650
-0.76624209 -0.52613896 -0.00000068
-0.16428910 0.08515317 0.00000824
0.10564265 -0.45291230 0.00092186
0.74703783 -0.70878613 0.00651876
0.01113147 -0.51045436 0.00009714
0.47757667 -0.65170735 0.00416744
0.12762894 -0.33791029 0.00111372
0.11234316 -0.08864574 0.00098033
0.59207523 -0.34728980 0.00516615
0.23511811 0.19943208 0.00205751
0.52800393 -0.08927162 0.00460689
-0.70259947 -0.59213710 -0.00000052
0.13713036 -0.78145778 0.00119663
-0.42778191 -0.13372374 -0.00000018
-0.65883988 -0.30202264 -0.00000086
-0.71919382 -0.02569156 -0.00000161
-0.17749998 0.33233258 0.00000434
-0.26673773 0.17276028 0.00000536
0.58565861 -0.36068118 0.00511020
0.58290005 -0.00468894 0.00508560
0.14437065 0.06225607 0.00126891
-0.23119631 0.09381519 0.00000710
-0.39590460 -0.31239328 0.00000000
-0.63254708 0.03584918 0.00000062
-0.47576401 0.04960929 0.00000340
0.14555323 0.19527256 0.00127722
0.63539320 -0.52930397 0.00554427
0.57960212 -0.67388284 0.00505773
-0.19954689 -0.14866327 0.00000000
0.19698250 -0.32162297 0.00171891
0.34351578 -0.75303680 0.00299759
-0.42016035 -0.36244497 0.00000000
-0.34823313 -0.50875401 0.00000000
-0.10283863 -0.08056640 0.00000000
-0.70911723 -0.48545146 -0.00000075
0.07585385 0.34239462 0.00066775
0.65293789 -0.32214335 0.00569699
0.22486661 0.27234420 0.00196706
0.72610688 -0.31787935 0.00633520
-0.27333644 0.09155098 0.00000650
-0.71436262 -0.60890269 -0.00000048
0.14247346 -0.29815039 0.00124325
0.08866975 -0.45286384 0.00077375
-0.20025289 -0.43663090 0.00000000
-0.53365618 -0.72065437 0.00000000
0.29753727 -0.79615611 0.00259637
-0.55769932 -0.40267459 -0.00000025
-0.34696925 -0.19936544 0.00000000
-0.06757269 -0.52400357 0.00000000
-0.06573404 -0.66891551 0.00000000
-0.73222995 -0.09644239 -0.00000154
0.60472864 -0.25150788 0.00527637
0.38422894 -0.22101581 0.00335286
-0.31655779 -0.13888657 0.00000000
0.45043245 -0.31959683 0.00393057
0.04231862 -0.44058868 0.00036928
-0.66187143 -0.44870344 -0.00000062
0.54024553 0.20732275 0.00471406
-0.60081267 -0.46341065 -0.00000033
0.04500050 0.23902602 0.00040049
0.16541441 -0.12874857 0.00144344
-0.79835576 -0.39962077 -0.00000100
0.26573992 -0.61550474 0.00231890
0.77536863 -0.07371713 0.00676452
-0.18602280 -0.53206992 0.00000000
-0.25470009 -0.66587389 0.00000000
0.58969039 -0.44437090 0.00514549
-0.25185782 -0.05300111 0.00000000
-0.65848470 -0.30419853 -0.00000086
-0.73087537 -0.43301138 -0.00000092
-0.21938740 0.33893085 0.00000349
-0.72481215 -0.18835397 -0.00000135
0.05202373 -0.77748907 0.00045397
0.08986184 -0.36247838 0.00078415
-0.62166923 -0.56516665 -0.00000024
0.56001973 0.03203534 0.00488930
-0.24837121 0.23714653 0.00000463
0.01100642 -0.55590594 0.00009604
0.43091255 -0.30712888 0.00376023
-0.23744953 0.23536697 0.00000487
-0.09971139 0.46065453 0.00000359
0.24626024 -0.66834354 0.00214892
-0.29935732 -0.60001737 0.00000000
0.33570299 0.04670398 0.00293601
0.02699696 0.26770416 0.00024320
0.15409468 0.05282569 0.00135378
-0.28690988 0.09285842 0.00000628
-0.07464733 -0.23851532 0.00000000
-0.69256526 0.01445753 -0.00000018
0.05586161 0.00971532 0.00049856
-0.49661320 -0.69447994 0.00000000
-0.08544406 -0.46501273 0.00000000
0.65398562 -0.65353823 0.00570663
-0.27092069 -0.05816209 0.00000000
-0.46003473 -0.78108370 0.00000000
-0.22020657 0.06004905 0.00000778
-0.72740620 -0.58415127 -0.00000054
0.49479070 -0.56702173 0.00431765
0.24399149 0.07171099 0.00213673
0.00504088 0.78071123 0.00004421
-0.08964995 0.28942579 0.00000631
0.03620712 0.33032927 0.00032250
0.60745996 -0.18640836 0.00530010
0.61208504 -0.63134724 0.00534111
0.57040423 0.05297832 0.00497934
-0.23795460 -0.24898109 0.00000000
0.63816816 -0.52219129 0.00556846
0.35783321 0.34668809 0.00312344
-0.13874806 0.44367486 0.00000325
-0.51511955 -0.58676881 0.00000000
-0.29184410 0.19702309 0.00000447
-0.78889662 -0.53373992 -0.00000067
0.00806365 -0.26838055 0.00007037
0.50216329 -0.27131969 0.00438177
0.08831675 -0.54848689 0.00077067
-0.53290522 -0.61512917 0.00000000
-0.16242655 -0.50243360 0.00000000
0.29752299 -0.37104115 0.00259625
0.15940908 0.21349178 0.00139767
-0.10523845 0.20649751 0.00000731
-0.24953619 -0.02926392 0.00000000
0.03154216 0.52734101 0.00027891
-0.56923217 0.09373946 0.00000087
0.28793466 0.16917010 0.00251797
-0.04919754 -0.24103761 0.00000000
0.27621090 -0.17277414 0.00241027
0.01213723 -0.62587416 0.00010591
0.17147981 0.16565534 0.00150356
0.57920665 0.01165574 0.00505671
-0.26150876 0.20737927 0.00000488
-0.17717712 -0.27006978 0.00000000
-0.02047265 0.45739263 0.00000483
0.28200793 -0.60247964 0.00246086
0.54180962 -0.64748478 0.00472795
0.57550061 0.01697850 0.00502435
-0.21994482 -0.63522029 0.00000000
0.38875502 -0.00575954 0.00339216
-0.47783411 0.15830822 0.00000154
-0.00159328 0.00653585 0.00001188
0.02998326 0.14302190 0.00027109
-0.59498674 -0.26621750 -0.00000065
-0.23934847 0.42269951 0.00000171
0.68158656 -0.13994001 0.00594660
-0.20518036 -0.08891808 0.00000000
0.04849176 -0.47865355 0.00042315
-0.17354047 -0.65409768 0.00000000
0.10242316 -0.10574997 0.00089377
-0.75188559 -0.01104532 -0.00000178
-0.05670898 -0.22588111 0.00000000
0.44575369 -0.61561745 0.00388974
-0.31204659 0.46141136 -0.00000034
0.74244195 -0.02094432 0.00647724
0.03279685 0.74543822 0.00028650
0.55066907 -0.74361426 0.00480526
-0.41929087 -0.55163640 0.00000000
-0.31371760 -0.69506717 0.00000000
-0.20091797 -0.55762178 0.00000000
0.27722010 -0.02423107 0.00241908
-0.20765704 0.14863680 0.00000664
0.47766447 -0.61146826 0.00416820
0.04639322 0.17394277 0.00041360
0.31928363 -0.15633599 0.00278614
-0.45765674 -0.33861244 0.00000000
-0.15768640 -0.10741106 0.00000000
-0.34478870 -0.25968710 0.00000000
-0.40684953 -0.67481065 0.00000000
0.33395994 -0.50160331 0.00291421
0.74631709 -0.48505548 0.00651191
-0.59236807 0.09703250 0.00000037
0.09812823 -0.71573055 0.00085629
-0.02905998 0.35661525 0.00000621
0.64719069 -0.24476582 0.00564674
0.68668211 -0.58370811 0.00599172
0.64905411 -0.45034057 0.00566331
0.62911075 0.05448487 0.00549045
0.55762511 -0.33548468 0.00486564
-0.45133996 -0.53366768 0.00000000
-0.02610073 0.39685526 0.00000565
-0.51752651 -0.66920167 0.00000000
0.62060970 0.06794371 0.00541620
-0.07843689 0.45849255 0.00000394
-0.57075489 -0.71885806 0.00000000
0.61828166 -0.57777417 0.00539508
0.42665002 0.20740052 0.00372503
0.19434482 -0.50287277 0.00169589
0.35364065 -0.61359125 0.00308594
-0.30970269 -0.09004753 0.00000000
0.71353090 -0.59213221 0.00622601
-0.71261972 -0.56763059 -0.00000058
-0.37357408 0.27455854 0.00000160
-0.50282180 -0.48654208 0.00000000
-0.35783860 0.28476599 0.00000173
0.43086928 0.26305911 0.00376079
0.10143492 0.44592699 0.00088908
0.77691537 -0.23044807 0.00677835
-0.68964046 -0.45178348 -0.00000073
0.28164461 -0.32671863 0.00245769
-0.37424108 -0.38059646 0.00000000
-0.65482563 -0.74569231 -0.00000006
0.54637516 -0.37941632 0.00476757
0.11956896 0.54090261 0.00104557
-0.43596542 0.24229331 0.00000094
-0.14955376 -0.56582248 0.00000000
0.29036933 -0.11831669 0.00253382
-0.74645722 -0.77974087 -0.00000005
-0.24843018 -0.76493514 0.00000000
0.54837942 -0.09705561 0.00478463
-0.59732717 -0.73816085 0.00000000
0.53897041 -0.27338302 0.00470283
-0.07482855 -0.36762846 0.00000000
-0.48987740 -0.22764473 -0.00000027
0.35342664 -0.24266705 0.00308408
-0.48086482 -0.12983450 -0.00000041
0.08259302 -0.65094292 0.00072072
-0.67647082 -0.33169213 -0.00000089
0.09552438 -0.23690243 0.00083357
-0.19759724 0.38317075 0.00000317
0.23124942 -0.50302482 0.00201793
-0.32421556 -0.02679542 0.00000000
-0.11148831 0.29249853 0.00000593
-0.70171493 -0.66350222 -0.00000034
-0.19560221 -0.73635757 0.00000000
-0.53618139 -0.62935406 0.00000000
0.72644669 -0.27762517 0.00633811
-0.30251881 -0.06595245 0.00000000
0.19511434 -0.41258106 0.00170261
0.10014782 0.29163688 0.00088018
-0.18285502 -0.33719894 0.00000000
0.68395066 -0.03892117 0.00596707
-0.79000109 -0.04105677 -0.00000188
-0.46646529 -0.52622706 0.00000000
0.62422836 -0.55991763 0.00544693
-0.68725121 -0.32763278 -0.00000094
-0.04741549 0.58042163 0.00000258
0.39283094 -0.56062180 0.00342793
0.73003137 -0.63129330 0.00637013
0.25629267 -0.27890307 0.00223646
0.00699259 0.36091536 0.00006751
0.77843100 -0.01881783 0.00679115
-0.55544096 -0.00168768 -0.00000095
-0.65973830 -0.01597844 -0.00000137
0.26949409 0.27262217 0.00235560
0.29491547 -0.14212529 0.00257350
-0.74799883 -0.67835349 -0.00000030
-0.40666196 -0.51527900 0.00000000
0.17844002 0.54093891 0.00155814
0.01574758 -0.52428389 0.00013742
0.64379066 -0.54052359 0.00561753
0.54535621 -0.44628939 0.00475879
-0.72072589 -0.45926961 -0.00000085
0.26673195 -0.53128946 0.00232756
-0.67929792 -0.70307964 -0.00000024
0.32903719 0.07908857 0.00287741
-0.49919605 -0.30182302 -0.00000018
-0.03635076 -0.40112612 0.00000000
-0.34129792 0.39788625 0.00000016
0.60770535 -0.26768398 0.00530236
-0.30716807 -0.06952353 0.00000000
-0.22201551 -0.18427207 0.00000000
-0.70551324 -0.58882284 -0.00000053
-0.04647528 -0.28821111 0.00000000
0.70167083 -0.02932111 0.00612162
-0.18313213 -0.02335929 0.00000000
0.35248303 -0.17285877 0.00307584
0.74612349 -0.56934208 0.00651043
-0.49471471 0.30327183 -0.00000123
-0.27020064 0.01358632 0.00000772
-0.33528659 0.04676278 0.00000614
-0.01144663 0.15287936 0.00000953
0.27310425 -0.19232190 0.00238317
0.16584189 -0.69833523 0.00144717
-0.07498747 -0.47542030 0.00000000
-0.34652880 -0.23347245 0.00000000
0.32323322 0.45563862 0.00282028
0.15606423 -0.13466771 0.00136185
-0.42275921 0.18049251 0.00000223
-0.21267726 0.38899812 0.00000278
-0.49813542 -0.52715284 0.00000000
-0.36619017 -0.36800620 0.00000000
-0.33286452 0.29778451 0.00000200
-0.43779618 -0.44113657 0.00000000
-0.09506082 0.44134250 0.00000395
-0.11942185 -0.19212969 0.00000000
0.17338400 -0.05050986 0.00151299
-0.43136942 0.29213631 0.00000020
0.16416077 -0.41502225 0.00143250
0.26941931 0.32770950 0.00235399
0.41802722 0.12505455 0.00365140
0.18843298 0.22905783 0.00165031
0.08052456 0.68807793 0.00070305
0.50196940 -0.69152278 0.00438029
-0.20594977 -0.72606611 0.00000000
0.53985423 -0.19412944 0.00471042
0.06255975 0.70954126 0.00054626
-0.66204619 -0.22845097 -0.00000101
-0.09894721 0.53190315 0.00000253
-0.09611218 -0.56554860 0.00000000
-0.60008973 -0.13633192 -0.00000091
0.64546335 -0.63834631 0.00563227
0.16316146 0.25674686 0.00142971
-0.31438056 -0.08391342 0.00000000
-0.21666320 -0.72381049 0.00000000
0.67584586 -0.06497506 0.00589642
0.76299256 -0.35795099 0.00665714
0.32320017 -0.29099223 0.00282031
0.45710680 -0.57349855 0.00398881
-0.49644908 -0.50979102 0.00000000
-0.71898103 -0.31161293 -0.00000110
0.46791875 -0.73407006 0.00408316
0.24739635 0.48451242 0.00215950
-0.07538629 0.24343506 0.00000721
-0.02832134 -0.06331737 0.00000000
-0.09792273 -0.26068267 0.00000000
-0.58551270 -0.01763711 -0.00000105
0.50631863 -0.25541309 0.00441799
0.58691871 -0.65949053 0.00512158
-0.25128239 -0.10178277 0.00000000
-0.16291995 -0.19207197 0.00000000
-0.03231418 0.40121332 0.00000549
-0.22119325 -0.67153811 0.00000000
-0.68824881 -0.47861415 -0.00000068
0.21065304 0.19468033 0.00184442
-0.09821717 -0.53332162 0.00000000
-0.15546983 0.10562159 0.00000807
-0.32535410 0.27663642 0.00000249
-0.43649712 0.05300090 0.00000410
-0.46588913 -0.53063971 0.00000000
0.49582946 -0.50821489 0.00432671
-0.15802461 -0.25185543 0.00000000
-0.47683305 -0.49021146 0.00000000
0.36844397 -0.41533402 0.00321512
-0.10709247 0.47586751 0.00000325
0.06278845 -0.17468911 0.00054791
-0.20473823 -0.00406879 0.00000000
0.33520862 -0.57048827 0.00292510
-0.19793172 -0.76710540 0.00000000
0.42263132 -0.61245382 0.00368797
0.73255891 -0.39862064 0.00639161
0.27268744 0.10004443 0.00238632
-0.39457896 0.27157605 0.00000125
-0.76887804 -0.26321012 -0.00000134
0.40617639 0.22436437 0.00354648
-0.69807541 -0.43382084 -0.00000080
-0.10159552 0.41827425 0.00000419
-0.00558216 0.01756577 0.00001165
