ply
format ascii 1.0
element vertex 1115
property float x
property float y
property float z
end_header
-0.05188420 0.05947097 0.00001047
-0.44895184 -0.28388244 0.24261560
-0.46881279 -0.33182639 0.12793539
-0.18182392 -0.55412996 0.00000199
-0.21648882 -0.69746143 0.00000189
-0.07417337 0.33030438 0.00000735
-0.37672544 -0.74010855 0.00000299
-0.08784162 -0.60336190 0.00000115
-0.46715370 -0.55798286 0.00000413
-0.41376510 -0.19893609 0.29575285
-0.20647553 -0.30021870 0.00000281
-0.60839862 -0.70960933 0.00000482
-0.39352682 -0.15007240 0.20154172
-0.05046184 -0.08310889 0.00000217
-0.15456226 0.42684391 0.14040811
-0.39627257 -0.15669416 0.03404651
-0.47349727 -0.34313282 0.05945266
-0.06090318 0.14675643 0.00000943
-0.12614276 0.22789234 0.00000744
-0.15240540 -0.28685114 0.00000243
-0.05759850 0.44966808 0.00000646
-0.43814221 -0.25778916 0.32673290
-0.22224881 0.26343274 0.15782632
-0.24784715 -0.36240244 0.00000296
-0.13060763 -0.56049490 0.00000158
-0.01841528 0.28089055 0.00000886
-0.06348072 -0.36553371 0.00000157
-0.01843754 -0.66699916 0.00000047
-0.02168687 0.33855510 0.00000822
-0.39853984 -0.16218227 0.37394896
-0.06375377 0.64607906 0.06359259
-0.32420507 0.01729051 0.08894763
-0.11426755 -0.32971576 0.00000204
-0.07599720 -0.74524671 0.00000071
-0.30755860 0.05748075 0.04341726
-0.46387959 -0.31992191 0.25562510
-0.50976622 -0.59606928 0.00000436
-0.59250128 -0.63043743 0.11583871
-0.10620699 0.54358572 0.10773588
-0.35968766 -0.59558916 0.00000322
-0.31004503 0.05147537 0.10382123
-0.40121362 -0.78793156 0.00000306
-0.21423346 0.28278551 0.11264492
-0.22312380 -0.48591384 0.00000247
-0.00950071 0.57639188 0.00000606
-0.02688829 0.42816448 0.00000723
-0.02832638 -0.61352861 0.00000068
-0.13262694 0.05388642 0.00000906
-0.05300255 0.55520886 0.00000549
-0.06524953 -0.36022353 0.00000159
-0.60532790 -0.66140193 0.07202152
-0.06603571 0.48761630 0.00000593
-0.11627158 0.51929104 0.02571522
-0.34981877 -0.29023525 0.00000391
-0.54739022 -0.52152854 0.09882291
-0.46298358 -0.79943889 0.00000349
-0.01140737 0.35905960 0.00000820
-0.61837441 -0.69289625 0.00559994
-0.52866429 -0.47631973 0.09127418
-0.04745112 -0.60403168 0.00000085
-0.09549014 0.16985519 0.00000857
-0.00378542 0.52085179 0.00000672
-0.29565230 0.08621765 0.22214317
-0.54804081 -0.52310312 0.27264282
-0.50313681 -0.59326768 0.00000431
-0.60029495 -0.64925253 0.18002696
-0.38709557 -0.13453999 0.06213107
-0.31062821 -0.37733752 0.00000340
-0.03009276 -0.34935561 0.00000135
-0.24626867 -0.28379217 0.00000315
-0.20425849 -0.41277337 0.00000251
-0.15065271 -0.62796515 0.00000157
-0.21778755 -0.03914687 0.00000355
-0.54916942 -0.52582771 0.25843057
-0.37797672 -0.11252605 0.08450232
-0.11757372 -0.29661244 0.00000215
-0.04692448 0.10353495 0.00001012
-0.05804946 -0.55563074 0.00000105
-0.06802952 -0.72473234 0.00000070
-0.46790180 -0.58631110 0.00000406
-0.44054303 -0.77886945 0.00000338
-0.42962623 -0.38830271 0.00000427
-0.18717207 0.34811714 0.12724362
-0.47279075 -0.34142885 0.09999022
-0.33857566 -0.53769207 0.00000321
-0.18000527 -0.60978252 0.00000183
-0.48541278 -0.47094333 0.00000448
-0.10305357 0.53992265 0.00000473
-0.01409404 -0.06447734 0.00000195
-0.38375619 -0.12648501 0.22749911
-0.24305572 0.21320684 0.00281887
-0.44631657 -0.61881471 0.00000382
-0.11937841 0.00396471 0.00000980
-0.61687738 -0.68928516 0.10807267
-0.52762449 -0.47381496 0.29422244
-0.27580073 0.13414849 0.11091339
-0.23687121 -0.39113638 0.00000281
-0.08280550 0.60008442 0.05353840
-0.14593545 -0.34490141 0.00000224
-0.12457162 -0.06347084 0.00000278
-0.50790119 -0.42619926 0.23878384
-0.03200049 0.42936641 0.00000713
-0.42314175 -0.25237244 0.00000456
-0.36367139 -0.64244670 0.00000314
-0.05383352 0.67003047 0.02445300
-0.29754424 -0.46923855 0.00000307
-0.01159843 0.42830816 0.00000751
-0.45209739 -0.29147509 0.20902590
-0.40270433 -0.17222910 0.20485245
-0.55465436 -0.53906822 0.15521838
-0.48284596 -0.36571273 0.30724338
-0.31858766 0.03084741 0.20276169
-0.09734916 -0.78969783 0.00000076
-0.45896977 -0.30806926 0.27266335
-0.20288470 0.31018168 0.16636643
-0.60422796 -0.72398359 0.00000475
-0.34482518 -0.03250283 0.36795914
-0.47452703 -0.75288033 0.00000370
-0.56957555 -0.63920957 0.00000470
-0.22636704 -0.21741720 0.00000316
-0.15638196 0.42245322 0.08164866
-0.56990856 -0.62317252 0.00000474
-0.66703784 -0.81038010 0.03533367
-0.15953921 -0.20114955 0.00000270
-0.38764408 -0.13586976 0.19191045
-0.00162677 -0.71225536 0.00000023
-0.22699276 0.19966105 0.00000589
-0.60681540 -0.66499335 0.08038152
-0.44985774 -0.38211697 0.00000444
-0.62426621 -0.70712292 0.10900158
-0.24592787 -0.45416349 0.00000272
-0.30725610 -0.69359940 0.00000258
-0.52939832 -0.76128745 0.00000409
-0.60363758 -0.66136152 0.00000490
-0.17875881 0.36843386 0.00340438
-0.31628698 0.03639622 0.33258545
-0.27295622 -0.03310886 0.00000398
-0.16461802 0.40257102 0.04720791
-0.46988630 -0.33441320 0.01303265
-0.50866562 -0.74775922 0.00000397
-0.01367751 -0.62290353 0.00000055
-0.45996401 -0.31046632 0.19621092
-0.07010694 0.36295763 0.00000710
-0.28828898 0.10399558 0.19241896
-0.54349834 -0.51213682 0.26811394
-0.16769587 -0.00665466 0.00000325
-0.25624430 -0.72905916 0.00000211
-0.24216764 -0.71652681 0.00000204
-0.44603154 -0.27682716 0.12255525
-0.41006815 -0.19001074 0.29295450
-0.31274271 -0.28726450 0.00000364
-0.14849913 0.28898329 0.00000642
-0.35636377 -0.06035321 0.21868275
-0.19199181 0.28708282 0.00000565
-0.18208736 0.31110832 0.00000559
-0.39932036 -0.20582676 0.00000450
-0.06848218 0.07152661 0.00001004
-0.48048770 -0.36001861 0.27795473
-0.41974255 -0.78771877 0.00000320
-0.44450197 -0.27313116 0.04653021
-0.51545173 -0.44442797 0.26140147
-0.28292513 -0.78379828 0.00000217
-0.66338563 -0.80156308 0.06887036
-0.54699755 -0.79876941 0.00000413
-0.07166410 0.53009695 0.00000540
-0.06161538 0.50121450 0.00000587
-0.13409930 -0.68460512 0.00000130
-0.14554907 0.43428582 0.00000502
-0.31107119 0.04899264 0.23042136
-0.10191465 -0.48115012 0.00000157
-0.05885257 0.33721155 0.00000756
-0.52460569 -0.46651983 0.05594944
-0.36242723 -0.07498906 0.15563850
-0.52977550 -0.47900769 0.21466058
-0.39855275 -0.29133976 0.00000428
-0.30290794 0.06870286 0.17590532
-0.00505864 0.78778470 0.00478020
-0.15241848 0.43201891 0.15340202
-0.39538622 -0.49394125 0.00000375
-0.33308470 -0.58954042 0.00000304
-0.36402076 -0.07884080 0.26349053
-0.05937752 -0.69535983 0.00000071
-0.07978328 0.28062481 0.00000775
-0.10814289 0.34187552 0.00000662
-0.32848129 0.00695830 0.28848922
-0.01740762 0.43649149 0.00000732
-0.19586937 0.32712209 0.07527346
-0.42475685 -0.76939833 0.00000328
-0.40407777 -0.49072462 0.00000382
-0.16521938 -0.40724367 0.00000223
-0.38830519 -0.13746808 0.24565911
-0.08724728 -0.03800444 0.00000256
-0.28365514 0.11518285 0.18878208
-0.61986029 -0.69648540 0.05030875
-0.17249343 -0.32948828 0.00000248
-0.24774057 0.20188612 0.24920788
-0.20634595 -0.77042240 0.00000163
-0.44193667 -0.26694238 0.15096670
-0.66942924 -0.81615341 0.11094302
-0.30350432 0.06208132 0.00000588
-0.20385273 -0.77302331 0.00000161
-0.22490728 0.25701210 0.21699056
-0.10587241 -0.65194064 0.00000117
-0.44972566 -0.37544838 0.00000445
-0.31537831 0.03859224 0.27973613
-0.46971008 -0.77575725 0.00000360
-0.01472239 -0.56554151 0.00000070
-0.19972406 -0.27226824 0.00000283
-0.37320229 -0.10099807 0.05095601
-0.41837138 -0.21005321 0.21348318
-0.33479553 -0.24919553 0.00000390
-0.51059717 -0.43269819 0.01011727
-0.31290415 -0.72460598 0.00000255
-0.09046203 -0.45184162 0.00000155
-0.54919446 -0.52588022 0.00109500
-0.46049544 -0.31174418 0.07483026
-0.45824394 -0.30631468 0.21944283
-0.16926976 -0.52515048 0.00000196
-0.16542387 0.01865689 0.00000882
-0.24828222 0.14496951 0.00000605
-0.10957553 -0.29287127 0.00000209
-0.35063145 -0.04651556 0.25253233
-0.34689602 -0.61962253 0.00000307
-0.20297059 0.19092084 0.00000642
-0.12588911 -0.49480277 0.00000171
-0.04988604 0.34458548 0.00000765
-0.47890207 -0.38313553 0.00000466
-0.09994158 0.49529776 0.00000524
-0.00017170 -0.56738269 0.00000058
-0.13112342 -0.30560195 0.00000223
-0.38137773 -0.12073803 0.11253759
-0.07022873 0.52544230 0.00000547
-0.24980678 0.19689760 0.25412652
-0.22326887 0.19324911 0.00000602
-0.10681766 0.54211217 0.08988020
-0.17734134 -0.36469910 0.00000243
-0.12561379 0.00585641 0.00000967
-0.44515473 -0.27470666 0.03589747
-0.34052837 -0.02211573 0.04632226
-0.03264341 0.43919745 0.00000702
-0.27365333 0.13933268 0.11283774
-0.03333982 0.28763348 0.00000852
-0.15764482 0.41940778 0.00173758
-0.38150492 -0.38289768 0.00000392
-0.19358762 -0.68233639 0.00000175
-0.43116206 -0.44895652 0.00000413
-0.14094633 0.34372881 0.00000601
-0.56276941 -0.55865502 0.04375360
-0.38967186 -0.14076027 0.07453671
-0.39908540 -0.16349505 0.27221978
-0.17301203 0.38230219 0.13618971
-0.05813436 0.11889698 0.00000976
-0.23257737 0.23850006 0.09278405
-0.30844453 0.05534329 0.01142606
-0.55522627 -0.54044980 0.22913726
-0.09541067 0.19208397 0.00000835
-0.63611168 -0.73571831 0.01449771
-0.42675370 -0.23028958 0.20475478
-0.25625592 -0.01472929 0.00000390
-0.05376699 0.61550564 0.00000487
-0.10777515 -0.21854740 0.00000227
-0.59892571 -0.64594656 0.09418031
-0.22911389 -0.11094213 0.00000345
-0.27203691 -0.11108820 0.00000377
-0.12565096 0.49664548 0.06355061
-0.19192047 -0.08535225 0.00000323
-0.16629034 -0.77577376 0.00000132
-0.56868058 -0.74627107 0.00000442
-0.14896318 0.23757392 0.00000693
-0.01146927 -0.42157665 0.00000103
-0.32437739 0.01687759 0.01706977
-0.57661122 -0.59207553 0.12138546
-0.16793416 0.11794809 0.00000778
-0.29396507 -0.74839997 0.00000235
-0.32685325 -0.53095925 0.00000314
-0.08099019 -0.02703879 0.00000254
-0.42749637 -0.68300003 0.00000352
-0.51613158 -0.44606316 0.09586926
-0.37320876 -0.10768742 0.00000455
-0.38502598 -0.36171269 0.00000400
-0.25610057 0.11404193 0.00000622
-0.32391864 -0.43622187 0.00000335
-0.42027229 -0.21592678 0.00000463
-0.22035599 -0.23851609 0.00000307
-0.12302895 0.50297731 0.02327499
-0.18929046 -0.54190707 0.00000207
-0.22483075 0.25719827 0.18428095
-0.22488755 -0.78310853 0.00000174
-0.43118322 -0.24099064 0.37373522
-0.50474435 -0.41856876 0.02350617
-0.10115627 -0.48164347 0.00000156
-0.50456679 -0.41814840 0.21906500
-0.53128505 -0.48264614 0.07530325
-0.34513056 -0.74981296 0.00000273
-0.64964974 -0.76840264 0.14723530
-0.19327240 -0.68821657 0.00000174
-0.25997621 0.17235690 0.00408970
-0.14339618 0.45380387 0.07995947
-0.51857060 -0.45195752 0.24712172
-0.17036724 -0.05559481 0.00000315
-0.51341689 -0.43950728 0.04845847
-0.21570367 -0.54950237 0.00000225
-0.43263531 -0.24448694 0.15303975
-0.39324659 -0.42531264 0.00000390
-0.37873718 -0.11436175 0.08028622
-0.28994521 -0.71887869 0.00000239
-0.54236978 -0.77468306 0.00000416
-0.14764898 0.44353530 0.11273508
-0.44763201 -0.46021485 0.00000423
-0.16973683 0.16427244 0.00000728
-0.53648442 -0.49519864 0.07674099
-0.18344860 0.00352134 0.00000864
-0.48163688 -0.47971880 0.00000443
-0.32734355 -0.55931097 0.00000307
-0.28680947 -0.73999363 0.00000231
-0.36450654 -0.08000314 0.01678830
-0.04200658 -0.71109688 0.00000054
-0.54299039 -0.51091057 0.25198486
-0.03505738 -0.21198972 0.00000173
-0.31517804 -0.59228820 0.00000290
-0.24500906 -0.76508105 0.00000194
-0.28708583 -0.57036120 0.00000274
-0.16656634 -0.07812146 0.00000306
-0.41934136 -0.21239607 0.23994710
-0.54358435 -0.55351609 0.00000472
-0.06134763 0.08509255 0.00001004
-0.53130096 -0.48268667 0.12722817
-0.17880113 0.36832780 0.09493359
-0.54472387 -0.51509547 0.22855140
-0.20511457 -0.54622465 0.00000218
-0.23242919 -0.62630779 0.00000219
-0.23100685 -0.56674254 0.00000233
-0.57068002 -0.57775259 0.03298040
-0.57751286 -0.59425032 0.07718839
-0.08947128 0.50472325 0.00000533
-0.21461400 -0.58732110 0.00000215
-0.32662931 0.01142685 0.34915927
-0.19562218 -0.33027306 0.00000265
-0.46064773 -0.58124608 0.00000402
-0.28708288 0.10691151 0.09462060
-0.12326755 -0.01288294 0.00000290
-0.49054390 -0.38429666 0.28196144
-0.64810055 -0.76466268 0.12461442
-0.43146750 -0.24167126 0.23907819
-0.42536008 -0.77716374 0.00000327
-0.56105477 -0.55451608 0.05748810
-0.43131581 -0.24130020 0.12548573
-0.32185671 0.02296268 0.02624737
-0.46735632 -0.32831076 0.14239182
-0.12044929 0.47918764 0.00000503
-0.08423981 0.00323401 0.00001044
-0.36384854 -0.76054364 0.00000284
-0.16571839 -0.66291130 0.00000159
-0.46967089 -0.33390152 0.21060465
-0.41296166 -0.19698732 0.08043869
-0.47866172 -0.35561040 0.28222406
-0.06979310 0.42224315 0.00000651
-0.56523609 -0.56461138 0.07401693
-0.21348308 0.28460100 0.02068207
-0.57028633 -0.57680714 0.23619018
-0.42974260 -0.23750626 0.22246809
-0.25688991 0.17011698 0.00000565
-0.27556431 0.13472109 0.06750422
-0.66927755 -0.81578714 0.05466278
-0.59733468 -0.64210612 0.21177509
-0.31202987 -0.22328009 0.00000380
-0.28536949 -0.33199972 0.00000332
-0.66624457 -0.80846500 0.04343320
-0.41871017 -0.21087576 0.32335666
-0.29818308 0.08010470 0.29478425
-0.21145369 0.28949291 0.19715272
-0.34409562 -0.03073409 0.19230184
-0.22678390 0.00171803 0.00000788
-0.44221690 -0.26762238 0.23314756
-0.51876497 -0.45242229 0.13303845
-0.34125048 -0.02385779 0.01686173
-0.15915684 -0.44504952 0.00000209
-0.44085455 -0.26433221 0.20386948
-0.28970554 0.10058229 0.03792747
-0.43678579 -0.50497705 0.00000403
-0.43135703 -0.24139927 0.11527193
-0.37892985 -0.68223792 0.00000315
-0.10399741 -0.66012627 0.00000113
-0.10558686 0.39732060 0.00000611
-0.53807330 -0.49903506 0.08935139
-0.52707559 -0.57823980 0.00000453
-0.56816781 -0.57169271 0.25017670
-0.07761621 -0.42680177 0.00000152
-0.25489953 0.18460876 0.10734199
-0.39795217 -0.16075253 0.11547782
-0.28109309 0.12136546 0.25358221
-0.04101104 0.04875879 0.00001077
-0.55626208 -0.54294753 0.10692818
-0.39028767 -0.46719193 0.00000378
-0.03283764 0.72071892 0.03285733
-0.26636860 0.15691817 0.14873177
-0.07228797 -0.07897953 0.00000235
-0.03056552 0.71671242 0.00000428
-0.23254727 -0.79274112 0.00000177
-0.40253255 -0.17181408 0.19850817
-0.47979671 -0.60976666 0.00000410
-0.26647037 0.15666822 0.24781726
-0.18730977 -0.77643186 0.00000147
-0.58030725 -0.60099924 0.22466011
-0.43469426 -0.59896731 0.00000378
-0.06652882 0.63938153 0.01626165
-0.36607853 -0.50804812 0.00000349
-0.04020930 -0.61252838 0.00000077
-0.38339648 -0.46362489 0.00000373
-0.22761650 0.25047135 0.21915305
-0.58583039 -0.61433297 0.21959800
-0.24190602 0.21597406 0.20038670
-0.17285958 0.38267466 0.03305791
-0.44411358 -0.47386137 0.00000417
-0.34880233 -0.04209619 0.17093495
-0.11643246 0.42012492 0.00000569
-0.42170736 -0.21810880 0.25555676
-0.41076285 -0.28417894 0.00000439
-0.50655276 -0.42294449 0.26135525
-0.18157949 0.36162341 0.01969637
-0.17254025 0.34830752 0.00000539
-0.22900023 -0.12366574 0.00000342
-0.37828606 -0.11328243 0.31101549
-0.15731379 0.42020476 0.05435197
-0.41718641 -0.63766336 0.00000355
-0.27602425 -0.49746364 0.00000284
-0.10873194 -0.05862800 0.00000267
-0.08427680 -0.11392954 0.00000235
-0.29682142 0.08340256 0.04742392
-0.44696850 -0.27909344 0.22275883
-0.45017317 -0.28682408 0.07884473
-0.50729793 -0.42474356 0.29364046
-0.62694526 -0.71359050 0.13636093
-0.54778039 -0.52247089 0.10573970
-0.51831961 -0.45134446 0.07055177
-0.14264177 -0.45176601 0.00000195
-0.20705648 0.30011508 0.04831381
-0.22336046 -0.36964390 0.00000276
-0.25102299 0.19397107 0.02515820
-0.34819174 -0.04061829 0.08077796
-0.26097119 0.16994558 0.22206278
-0.16688649 -0.02277966 0.00000320
-0.04217731 -0.70814204 0.00000055
-0.13602553 0.45705143 0.00000497
-0.01208717 0.58233041 0.00000596
-0.23977637 0.22112121 0.06621446
-0.14535065 0.44908506 0.08616406
-0.51403987 -0.70968783 0.00000410
-0.52898955 -0.63001776 0.00000442
-0.09586212 0.56856096 0.09690271
-0.34881318 -0.04212066 0.13072811
-0.37763163 -0.28816932 0.00000413
-0.17983806 0.36582595 0.05858233
-0.38728869 -0.13502122 0.41727147
-0.26544076 -0.46471033 0.00000284
-0.11100560 0.53200090 0.10494101
-0.59535551 -0.63732809 0.15431474
-0.04931822 -0.63664299 0.00000078
-0.53835100 -0.49970403 0.05751621
-0.47168773 -0.55314255 0.00000418
-0.12425421 -0.46398190 0.00000178
-0.07730490 -0.24714664 0.00000197
-0.06014752 -0.50740039 0.00000119
-0.29960656 -0.10252943 0.00000400
-0.33542457 -0.00979989 0.18544072
-0.21207701 0.22143324 0.00000595
-0.38253033 -0.19548151 0.00000440
-0.44208324 -0.26729214 0.05394678
-0.40591198 -0.60922384 0.00000354
-0.26480231 0.16069709 0.20492475
-0.20907833 0.19947053 0.00000622
-0.21757942 -0.20027512 0.00000314
-0.15675035 -0.57607794 0.00000174
-0.31010011 -0.76769722 0.00000242
-0.08865688 -0.59411234 0.00000118
-0.43050942 -0.23936401 0.37560293
-0.26512945 0.15991133 0.11006351
-0.18674701 0.34914330 0.12654738
-0.33068758 0.00164382 0.00563206
-0.19680610 0.32485875 0.11853715
-0.17111382 -0.57481796 0.00000185
-0.53941280 -0.50227380 0.24413306
-0.07639999 0.44336480 0.00000618
-0.00611853 -0.61536509 0.00000051
-0.34800723 -0.04018424 0.34988472
-0.59890443 -0.68543100 0.00000480
-0.37743965 -0.11123515 0.22070318
-0.47569036 -0.34843430 0.22002681
-0.12082324 -0.07179746 0.00000273
-0.31382301 0.04235627 0.06238459
-0.15605611 0.08073578 0.00000837
-0.35637754 -0.06038314 0.13986488
-0.05407157 -0.23279484 0.00000183
-0.23208374 -0.44539100 0.00000264
-0.43359205 -0.51194566 0.00000399
-0.64678538 -0.76148754 0.04163442
-0.16785590 0.21808869 0.00000678
-0.00810858 -0.77066082 0.00000013
-0.08768678 0.24689437 0.00000794
-0.52326077 -0.71763963 0.00000415
-0.16465338 0.40248483 0.06660406
-0.20829654 -0.24982037 0.00000295
-0.27794597 0.03144000 0.00000665
-0.08880716 0.27343372 0.00000766
-0.11283434 -0.70163608 0.00000110
-0.53562713 -0.70735836 0.00000427
-0.23502649 -0.60399061 0.00000226
-0.40152836 -0.16938256 0.02855789
-0.29266819 0.09342188 0.22410734
-0.44441399 -0.27291954 0.06458125
-0.14968964 0.43861240 0.02491151
-0.27849090 0.12764680 0.27626103
-0.38149187 -0.12102402 0.36001465
-0.63743836 -0.73892248 0.12537991
-0.53143597 -0.48301163 0.10198885
-0.04280495 0.07115602 0.00001051
-0.09450305 0.33186272 0.00000697
-0.00510896 0.59393942 0.00000597
-0.47737390 -0.35249719 0.18378203
-0.53765774 -0.49803084 0.06778775
-0.07934300 0.60844231 0.08567169
-0.27052316 0.14689189 0.05965531
-0.06510094 -0.72329301 0.00000068
-0.32005313 0.02731146 0.15413435
-0.21007943 -0.45342961 0.00000245
-0.20989010 0.29327404 0.04918208
-0.24220896 0.21524672 0.10559563
-0.44136289 -0.26556218 0.26929981
-0.43394843 -0.43188250 0.00000419
-0.16452982 -0.30643800 0.00000248
-0.25087425 -0.72162151 0.00000209
-0.27512595 0.13576989 0.29418695
-0.23391640 0.23526603 0.12370020
-0.30848491 -0.50380391 0.00000307
-0.34812605 -0.11481098 0.00000434
-0.33853415 -0.19101956 0.00000408
-0.58907741 -0.69884837 0.00000470
-0.30672991 0.05947178 0.27109855
-0.21759662 0.27466729 0.08420431
-0.15540425 0.38992408 0.00000529
-0.38664532 -0.13346013 0.23038103
-0.52612001 -0.47018027 0.16310965
-0.20833847 -0.44829395 0.00000245
-0.52129233 -0.45851997 0.04239473
-0.07875607 0.60986012 0.06534656
-0.32163158 0.02349643 0.25617993
-0.47602847 -0.34925145 0.24190891
-0.05810567 -0.37722099 0.00000150
-0.00819896 0.47754291 0.00000708
-0.56234312 -0.68379527 0.00000453
-0.18480860 0.35382187 0.15477210
-0.16085233 -0.11010753 0.00000294
-0.09530897 0.02706657 0.00001000
-0.17836905 0.17623059 0.00000701
-0.27970973 -0.28610227 0.00000339
-0.50542313 -0.42021248 0.14150858
-0.23841931 0.18359886 0.00000585
-0.05762346 -0.41646016 0.00000139
-0.34574184 -0.62996250 0.00000303
-0.38507128 -0.12966581 0.36511484
-0.00421668 -0.21553531 0.00000149
-0.08846060 -0.44183221 0.00000156
-0.40147418 -0.43794879 0.00000393
-0.28960645 -0.31063861 0.00000341
-0.52127618 -0.45848718 0.18719746
-0.40272754 -0.17228666 0.24124999
-0.63785684 -0.73993284 0.12507491
-0.33885026 -0.01806442 0.04591384
-0.53735024 -0.49729434 0.21095090
-0.30690274 0.05905495 0.25993136
-0.53943098 -0.50231278 0.08894077
-0.15392125 -0.67781377 0.00000147
-0.05909416 -0.77345145 0.00000051
-0.52850080 -0.69451618 0.00000425
-0.47863847 -0.67299557 0.00000393
-0.24823728 -0.62944728 0.00000230
-0.42060763 -0.32422540 0.00000436
-0.31041020 0.05059376 0.10562509
-0.10030934 0.50766391 0.00000511
-0.09731363 0.56505901 0.04212489
-0.50244099 -0.41300809 0.02673927
-0.67578679 -0.83150142 0.12994547
-0.02616749 -0.48105547 0.00000099
-0.12427723 -0.13276862 0.00000261
-0.30588782 0.06151398 0.05313562
-0.23124634 0.24170700 0.24610376
-0.32717353 0.01011732 0.24644022
-0.30326116 -0.36981848 0.00000336
-0.28730142 -0.04509132 0.00000405
-0.05501943 -0.79513472 0.00000043
-0.34284645 -0.76785952 0.00000267
-0.25446537 0.18565948 0.04723188
-0.12820365 -0.03556718 0.00000288
-0.23464471 -0.13456959 0.00000343
-0.28633058 0.00046795 0.00000681
-0.20072636 0.09482152 0.00000742
-0.16045114 -0.45661005 0.00000207
-0.00418839 0.78988594 0.00151910
-0.07251547 0.06151740 0.00001007
-0.33326825 -0.00459388 0.18033826
-0.12305088 -0.42470247 0.00000187
-0.38307309 -0.12482994 0.08722288
-0.07750312 -0.76905322 0.00000066
-0.34723672 -0.03831867 0.22319791
-0.27344728 -0.61722046 0.00000252
-0.35692486 -0.64147216 0.00000309
-0.35998783 -0.06909423 0.02329447
-0.47442970 -0.51991236 0.00000428
-0.26111647 0.16960067 0.08437526
-0.39046484 -0.14268203 0.24763350
-0.20518452 0.20111760 0.00000627
-0.55123651 -0.53081387 0.08524224
-0.08380291 0.42042294 0.00000628
-0.56322694 -0.72983921 0.00000442
-0.44600159 -0.27676481 0.37425321
-0.11555711 0.17650498 0.00000814
-0.43707708 -0.25521046 0.15539186
-0.09175220 0.19368660 0.00000840
-0.24396750 0.21100266 0.07059482
-0.08957267 -0.78105450 0.00000072
-0.40537414 -0.17866839 0.05884396
-0.25452256 -0.04579253 0.00000381
-0.51484865 -0.44296867 0.16202722
-0.21951273 -0.25944090 0.00000301
-0.10328683 -0.45007849 0.00000165
-0.03842926 -0.06636023 0.00000212
-0.07308764 -0.14207959 0.00000220
-0.11147304 -0.16099778 0.00000244
-0.21340215 -0.56891572 0.00000219
-0.64713252 -0.76232570 0.14655598
-0.02345748 0.41073069 0.00000747
-0.52532870 -0.47544181 0.00000477
-0.33417192 -0.58558023 0.00000306
-0.06833445 -0.38951966 0.00000154
-0.28055090 -0.76031190 0.00000222
-0.58867097 -0.62119055 0.16836171
-0.12491618 0.34440616 0.00000629
-0.40464026 -0.17689642 0.05263039
-0.16518079 -0.50657678 0.00000198
-0.15418039 -0.56879556 0.00000174
-0.20306239 0.25785327 0.00000574
-0.05823448 -0.08113797 0.00000224
-0.19785348 -0.15170725 0.00000311
-0.66175526 -0.79762721 0.11786708
-0.02252819 -0.02019118 0.00000212
-0.28169158 0.11992201 0.22101749
-0.00083146 -0.14878775 0.00000162
-0.42024738 -0.41224471 0.00000414
-0.53774124 -0.70467043 0.00000430
-0.39401686 -0.15125151 0.10813288
-0.20215350 -0.55499732 0.00000214
-0.60240495 -0.65434641 0.13746364
-0.29409400 0.08998431 0.11346749
-0.63807893 -0.74046898 0.15137209
-0.29890803 -0.03780668 0.00000416
-0.16507314 0.40147057 0.08665370
-0.65569735 -0.78300244 0.08656448
-0.57207984 -0.58113122 0.01476905
-0.47918755 -0.35687777 0.23184788
-0.25559983 0.18291681 0.13729255
-0.41009548 -0.36244696 0.00000419
-0.51211661 -0.43636817 0.04882381
-0.07061264 -0.62683207 0.00000097
-0.01801800 -0.38192099 0.00000118
-0.40228710 -0.17122221 0.21524704
-0.00777896 0.78121734 0.00552505
-0.62232107 -0.70242691 0.09870446
-0.02871303 -0.04937065 0.00000209
-0.44551888 -0.27559409 0.23150750
-0.35010114 -0.46375844 0.00000348
-0.22422373 -0.33548304 0.00000285
-0.21435092 0.02355692 0.00000788
-0.26042545 -0.03746504 0.00000387
-0.31562361 -0.78718573 0.00000241
-0.37640986 -0.10874484 0.12094947
-0.58234990 -0.60592985 0.11950458
-0.65704739 -0.78626120 0.00019501
-0.29094490 0.09757901 0.30026615
-0.29822409 0.08001389 0.10084969
-0.45941168 -0.30912665 0.04832703
-0.52383244 -0.46465796 0.17090742
-0.27419990 0.13801184 0.14382486
-0.28905722 -0.12210649 0.00000388
-0.51938200 -0.60522985 0.00000441
-0.31292120 -0.11513888 0.00000407
-0.37307465 -0.10070026 0.29540387
-0.37650740 -0.48413408 0.00000363
-0.54299182 -0.51091260 0.16294700
-0.49420652 -0.39313877 0.27582878
-0.27005208 -0.33162755 0.00000321
-0.47609660 -0.34941757 0.27982584
-0.38057870 -0.11880595 0.04079348
-0.00282862 -0.33371735 0.00000115
-0.04004996 0.31929445 0.00000808
-0.65858585 -0.78997576 0.05581564
-0.23263618 -0.35457811 0.00000287
-0.09529531 -0.78444338 0.00000076
-0.00463917 -0.29591471 0.00000130
-0.08743657 0.54465020 0.00000497
-0.59827393 -0.71146780 0.00000473
-0.01645712 -0.16023356 0.00000172
-0.44100603 -0.26470232 0.30840975
-0.54553455 -0.51705253 0.24650697
-0.28617901 0.10909567 0.04719260
-0.42216444 -0.21921223 0.25390443
-0.21853721 -0.77275795 0.00000172
-0.57166547 -0.58013064 0.01122101
-0.17297918 0.38238356 0.08937056
-0.37087995 -0.09539999 0.25262472
-0.46986264 -0.67435479 0.00000386
-0.03404574 -0.49019757 0.00000103
-0.42400336 -0.47528610 0.00000401
-0.05940744 0.08907029 0.00001003
-0.09655668 -0.31474462 0.00000194
-0.43419361 -0.24824435 0.04250288
-0.40966514 -0.18903100 0.13418753
-0.19300374 -0.63917327 0.00000186
-0.11650556 -0.56520635 0.00000147
-0.37635666 -0.16287386 0.00000443
-0.20596401 0.30274618 0.19806550
-0.27041689 -0.40902632 0.00000302
-0.57295507 -0.58324993 0.15163563
-0.09548798 -0.73774558 0.00000088
-0.05545003 -0.63666195 0.00000083
-0.19679333 0.21079291 0.00000633
-0.10947280 -0.79971641 0.00000083
-0.35000068 -0.04499028 0.19399086
-0.41887778 -0.21128005 0.31491137
-0.50673306 -0.42337167 0.06328861
-0.02430448 0.74132097 0.00434161
-0.10017941 -0.67904794 0.00000106
-0.38829774 -0.75172037 0.00000305
-0.43200794 -0.24297921 0.31547686
-0.44801387 -0.28160885 0.02673087
-0.15220879 0.16956989 0.00000755
-0.14856870 -0.35585201 0.00000223
-0.27994815 0.12413374 0.15635808
-0.25204268 0.19150977 0.01533164
-0.56360716 -0.56068242 0.15790306
-0.04796666 -0.27794656 0.00000167
-0.48459494 -0.36993346 0.25700566
-0.35353419 -0.05351646 0.08768466
-0.54173505 -0.50787997 0.24502148
-0.21497874 0.28098223 0.20722008
-0.01073808 0.15336639 0.00001027
-0.29584903 0.08574650 0.13292570
-0.59021527 -0.62491870 0.20540121
-0.05652659 0.20956755 0.00000888
-0.19540866 -0.34111843 0.00000262
-0.39723426 -0.62622619 0.00000343
-0.47007167 -0.60412395 0.00000404
-0.59950912 -0.64735234 0.03229923
-0.03287458 0.62314618 0.00000517
-0.16482159 -0.41627073 0.00000220
-0.53589743 -0.49377850 0.00681358
-0.37357104 -0.45273420 0.00000369
-0.41834247 -0.20998050 0.14610621
-0.15212141 0.43273985 0.06506281
-0.07841513 0.45519143 0.00000603
-0.40630117 -0.76252133 0.00000316
-0.34556642 -0.03427806 0.03171606
-0.30591992 0.06143267 0.14243343
-0.14800517 -0.16288380 0.00000271
-0.06003970 -0.17252377 0.00000202
-0.44461551 -0.27341789 0.34414741
-0.40777886 -0.18448806 0.39201304
-0.30191153 0.07111296 0.06933309
-0.04809397 -0.41556135 0.00000132
-0.59711361 -0.71778947 0.00000471
-0.27803192 -0.16445334 0.00000369
-0.35798213 -0.06426193 0.25729617
-0.47737145 -0.75358701 0.00000372
-0.04564194 -0.65905976 0.00000070
-0.31635571 0.03624117 0.07672652
-0.02914201 0.46492058 0.00000682
-0.34041741 -0.02185884 0.30523038
-0.47133604 -0.33792013 0.17599173
-0.27377596 0.08342921 0.00000621
-0.41737777 -0.20766118 0.37338200
-0.03055438 0.24957602 0.00000895
-0.35630417 -0.06020026 0.00539047
-0.51242328 -0.78076565 0.00000391
-0.57616168 -0.59098619 0.02707297
-0.52937537 -0.47803286 0.00709175
-0.19479474 -0.08563999 0.00000326
-0.51321042 -0.43901619 0.22323541
-0.38037691 -0.67605942 0.00000318
-0.03548001 -0.53454304 0.00000093
-0.45429820 -0.56665641 0.00000401
-0.45139465 -0.28977367 0.09417484
-0.26216844 0.16705509 0.22281031
-0.06877192 -0.18762763 0.00000205
-0.15882911 -0.04763873 0.00000308
-0.38317564 -0.26888129 0.00000422
-0.62303311 -0.76675969 0.00000478
-0.30163842 0.07176380 0.26964018
-0.41379496 -0.19900440 0.20621061
-0.00128801 0.31012776 0.00000888
-0.02937940 0.42356691 0.00000723
-0.50848311 -0.42759517 0.02824895
-0.03539070 0.06007687 0.00001076
-0.20014389 -0.15284628 0.00000313
-0.23626868 -0.15038703 0.00000341
-0.29354018 -0.07096386 0.00000404
-0.65814251 -0.78890532 0.01110929
-0.17714471 0.37232548 0.12496502
-0.35390544 -0.39973277 0.00000367
-0.23606674 0.23007175 0.19120213
-0.40263712 -0.19768977 0.00000454
-0.58001512 -0.60029399 0.20675027
-0.12520534 0.49772006 0.09290593
-0.50264430 -0.75180066 0.00000391
-0.09028873 -0.04512671 0.00000257
-0.32672995 0.01118576 0.30549914
-0.43295547 -0.24526455 0.26345271
-0.26805753 -0.47469205 0.00000284
-0.00877412 -0.76348108 0.00000016
-0.49832755 -0.40308514 0.21206874
-0.44586647 -0.73390239 0.00000353
-0.11430370 -0.45007339 0.00000174
-0.31117743 0.04873192 0.33383334
-0.54562283 -0.51726013 0.06216217
-0.05002853 0.48956820 0.00000620
-0.17273407 0.36905926 0.00000518
-0.40833971 -0.79847664 0.00000308
-0.01884882 -0.27388763 0.00000146
-0.18709849 0.34829658 0.08439559
-0.53565705 -0.78875095 0.00000407
-0.42923108 -0.23627675 0.35044175
-0.34126717 -0.02391049 0.30887306
-0.31418306 0.04148351 0.14488633
-0.36968535 -0.09251053 0.12459887
-0.07354549 -0.14719079 0.00000219
-0.15600628 -0.14849228 0.00000281
-0.45006365 -0.32433769 0.00000458
-0.01639966 0.51238561 0.00000658
-0.57140070 -0.57949740 0.19146223
-0.46835980 -0.78565425 0.00000357
-0.57589972 -0.59035438 0.04134946
-0.32687369 -0.41792530 0.00000342
-0.02787505 -0.01041887 0.00000218
-0.53529394 -0.66813022 0.00000437
-0.31737861 0.03376680 0.19041602
-0.32755032 0.00920544 0.29878280
-0.52694201 -0.47216743 0.28789538
-0.53737587 -0.49735481 0.17381620
-0.23943804 -0.25011843 0.00000318
-0.20233200 0.15774868 0.00000676
-0.56977808 -0.65835410 0.00000465
-0.05739907 -0.73009193 0.00000061
-0.46398243 -0.40668765 0.00000448
-0.28709403 -0.69779754 0.00000242
-0.22241338 0.26304173 0.01016333
-0.02189882 -0.70529807 0.00000040
-0.65814924 -0.78892171 0.09931229
-0.61631846 -0.68793547 0.06874415
-0.33011964 -0.69524944 0.00000275
-0.18933088 0.12638097 0.00000731
-0.05605849 0.66465968 0.00536196
-0.39269033 -0.68902349 0.00000324
-0.57114768 -0.57888550 0.12474586
-0.14400572 0.31729519 0.00000622
-0.27454960 -0.29557744 0.00000333
-0.27070737 0.14644916 0.01271560
-0.42927212 -0.23636624 0.12416140
-0.09919413 0.56051677 0.09650365
-0.24640214 0.00453272 0.00000749
-0.15537058 0.00237048 0.00000916
-0.07462983 0.61982286 0.04045132
-0.07477755 -0.24117213 0.00000196
-0.14082843 -0.74214041 0.00000121
-0.42811087 -0.23357069 0.31338045
-0.19514875 -0.27335715 0.00000279
-0.27160606 0.14427482 0.12304610
-0.25100225 -0.58091390 0.00000244
-0.25610626 0.18168899 0.25934082
-0.52690923 -0.47208819 0.27058047
-0.41299698 -0.29397428 0.00000438
-0.02952121 0.72872663 0.00497322
-0.30470994 -0.57666689 0.00000286
-0.40283731 -0.62338156 0.00000348
-0.25570354 -0.08906879 0.00000371
-0.60815001 -0.66821581 0.20419875
-0.23094395 0.15241016 0.00000629
-0.35859966 -0.06575074 0.20915218
-0.02772718 0.55324990 0.00000597
-0.23561625 0.23115696 0.24802801
-0.03601764 -0.03438392 0.00000219
-0.45880249 -0.30766264 0.20644905
-0.42292243 -0.55284846 0.00000381
-0.44929370 -0.28470618 0.20382316
-0.14002141 0.26599756 0.00000680
-0.59028298 -0.68144721 0.00000475
-0.52478439 -0.66036922 0.00000431
-0.25911912 -0.22585505 0.00000339
-0.18443081 0.23959161 0.00000626
-0.04607171 0.26932099 0.00000847
-0.49585986 -0.39712274 0.09752944
-0.03969893 -0.73903382 0.00000045
-0.26346812 -0.70346469 0.00000223
-0.45877999 -0.31478655 0.00000467
-0.15051690 -0.28169423 0.00000243
-0.07565615 0.28253055 0.00000780
-0.17934901 0.36700851 0.01509549
-0.02065512 -0.33818743 0.00000131
-0.05410311 -0.60779506 0.00000089
-0.05210977 -0.12268860 0.00000209
-0.35703918 -0.06199007 0.36567873
-0.16479436 -0.58342737 0.00000178
-0.29720086 -0.08944089 0.00000402
-0.38445491 -0.19961175 0.00000440
-0.35940629 -0.45827082 0.00000357
-0.36938813 -0.09179724 0.22591431
-0.03155710 0.55995166 0.00000583
-0.19402666 -0.25678837 0.00000282
-0.50781101 -0.42598143 0.23810248
-0.11110649 0.25653830 0.00000742
-0.29220879 0.09452975 0.25347787
-0.39231575 -0.14714150 0.03356415
-0.31475106 0.01717133 0.00000613
-0.02894258 0.38366771 0.00000764
-0.65225536 -0.77469301 0.13616917
-0.27657735 0.13226694 0.26605591
-0.02551306 -0.34558508 0.00000133
-0.33466017 -0.40753660 0.00000351
-0.00586639 0.20320155 0.00000986
-0.08567880 0.59314734 0.06052058
-0.38894191 -0.13900824 0.31645861
-0.56775427 -0.57366085 0.00000485
-0.48746896 -0.37686121 0.00235116
-0.27186149 0.14365578 0.17991818
-0.42359895 -0.22267894 0.33657756
-0.04253699 -0.14273746 0.00000196
-0.29698682 0.08299695 0.19606438
-0.27343032 0.13987523 0.01466629
-0.00783871 0.69612038 0.00000490
-0.01198822 -0.49603888 0.00000085
-0.48610935 -0.40816334 0.00000465
-0.31800705 0.03225137 0.15039124
-0.52237785 -0.46114218 0.07862137
-0.35620502 -0.44452453 0.00000358
-0.02594104 0.73736894 0.02789615
-0.33491448 -0.00857319 0.29769820
-0.41081327 -0.19180948 0.28975335
-0.33915237 -0.01879602 0.09973286
-0.04782254 0.56149459 0.00000552
-0.17940094 -0.12533721 0.00000304
-0.09142385 -0.46331686 0.00000153
-0.05686549 0.49910578 0.00000598
-0.40868604 -0.18666466 0.07323037
-0.20784673 0.29820237 0.16326886
-0.66632289 -0.80865413 0.08586512
-0.42417648 -0.22406127 0.05494120
-0.46091461 -0.31276017 0.16993427
-0.23288248 -0.01799747 0.00000371
-0.20395127 -0.13274360 0.00000321
-0.01112535 -0.33407778 0.00000125
-0.06385047 -0.14460284 0.00000212
-0.42329267 -0.22194196 0.40122935
-0.53542244 -0.49264035 0.23779194
-0.43087998 -0.24024729 0.10871615
-0.54362011 -0.73820853 0.00000426
-0.57822508 -0.59597164 0.11949370
-0.38165444 -0.12140432 0.07232698
-0.29492149 0.08798571 0.13374116
-0.37569875 -0.53798568 0.00000349
-0.42040855 -0.21497120 0.20903940
-0.32387847 0.01808215 0.01471443
-0.39348784 -0.74290019 0.00000311
-0.19455197 0.19941151 0.00000648
-0.58573687 -0.75546294 0.00000453
-0.33884501 -0.01805142 0.03979894
-0.17345838 -0.71143448 0.00000153
-0.57059616 -0.68067110 0.00000460
-0.06097136 0.08346651 0.00001006
-0.03229043 0.40093926 0.00000741
-0.14747076 0.44396457 0.13582879
-0.19120125 -0.45620340 0.00000230
-0.01118419 -0.21356197 0.00000155
-0.04434242 -0.76410288 0.00000042
-0.45472300 -0.29781839 0.31545100
-0.65860486 -0.79002166 0.10493688
-0.22748314 -0.45344362 0.00000258
-0.10515104 -0.27199334 0.00000211
-0.45489401 -0.29822066 0.06481762
-0.45329845 -0.29437098 0.11984785
-0.34811169 -0.04042338 0.04173523
-0.40441471 -0.17635852 0.20976716
-0.59609818 -0.63911867 0.05666558
-0.60883206 -0.66986245 0.13647749
-0.22475709 0.25737920 0.11031257
-0.02011954 0.63251019 0.00000531
-0.41294777 -0.20516273 0.00000460
-0.13216844 0.21856613 0.00000742
-0.46000245 -0.31056190 0.26043731
-0.53494686 -0.49149105 0.18184189
-0.45843580 -0.41180193 0.00000443
-0.52923828 -0.47770637 0.11291793
-0.32882398 -0.06372371 0.00000432
-0.04965503 0.68011791 0.03270028
-0.36905834 -0.09100776 0.38477042
-0.22239727 0.26307634 0.11059900
-0.66815448 -0.81307584 0.10099089
-0.52564740 -0.46904203 0.24763964
-0.49363101 -0.39174870 0.26058555
-0.39916402 -0.16367911 0.13734697
-0.41697747 -0.20669086 0.28203800
-0.04059088 0.07676771 0.00001050
-0.38319367 -0.12512061 0.07867048
-0.30977470 0.05211912 0.31397083
-0.49013880 -0.57207006 0.00000427
-0.57456017 -0.58712000 0.03211819
-0.25223696 0.19103317 0.19310994
-0.55903113 -0.59763265 0.00000472
-0.50452989 -0.41805238 0.05597526
-0.29613271 -0.38927475 0.00000326
-0.25302747 -0.04641079 0.00000379
-0.45598176 -0.30084434 0.00802142
-0.07825156 0.61107731 0.08463116
-0.10961848 -0.62013048 0.00000128
-0.42735776 -0.23175575 0.39994705
-0.38003314 -0.12542941 0.00000455
-0.24998023 -0.71449351 0.00000210
-0.19039296 0.34033880 0.18282790
-0.28245947 -0.64563072 0.00000252
-0.19145156 -0.42756206 0.00000238
-0.58389741 -0.67538571 0.00000472
-0.14435168 0.45149979 0.01582439
-0.23411207 0.23479854 0.00834959
-0.27359003 0.13947906 0.26579884
-0.20535240 0.30422419 0.16377909
-0.18529724 -0.68978983 0.00000167
-0.52892619 -0.47695160 0.08142777
-0.42317617 -0.24310511 0.00000458
-0.06230549 0.53147429 0.00000556
-0.53456032 -0.57783312 0.00000459
-0.30882782 -0.09347228 0.00000410
-0.52485609 -0.65530264 0.00000432
-0.38139835 -0.12078965 0.15682875
-0.14842802 -0.55274069 0.00000174
-0.33897957 -0.01837641 0.04250639
-0.14915830 0.36010981 0.00000570
-0.55562603 -0.54140913 0.03872850
-0.28994292 0.03211889 0.00000643
-0.35050544 -0.04620309 0.05796185
-0.07352912 -0.17536505 0.00000212
-0.53413254 -0.52851641 0.00000471
-0.60048604 -0.72768909 0.00000471
-0.27852467 0.12756838 0.20207439
-0.14238404 0.45624787 0.06896990
-0.25280285 -0.76402789 0.00000200
-0.38712072 -0.13461569 0.41726321
-0.30112639 -0.64788955 0.00000265
-0.08064460 -0.47048354 0.00000143
-0.16312674 0.03893535 0.00000866
-0.13624395 0.47106931 0.11878109
-0.21082871 0.29100153 0.20310922
-0.42999524 -0.23811121 0.10519429
-0.54935312 -0.52626961 0.14801785
-0.42912123 -0.23600037 0.08812886
-0.47133249 -0.33791238 0.19539659
-0.22214638 0.18648203 0.00000611
-0.30363077 -0.74303317 0.00000243
-0.12694766 0.49351594 0.04033280
-0.21565995 -0.19185817 0.00000315
-0.05672414 -0.48747569 0.00000121
-0.18355037 -0.38702464 0.00000242
-0.41368020 -0.19871864 0.00087826
-0.11857395 -0.69917828 0.00000115
-0.43653202 -0.25390375 0.37558275
-0.41398394 -0.19946875 0.39732337
-0.46051660 -0.31179711 0.11860535
-0.48727578 -0.46290454 0.00000452
-0.36445314 -0.07988815 0.34507877
-0.35851166 -0.06554254 0.30964476
-0.04611716 -0.51472759 0.00000106
-0.31593785 -0.26637584 0.00000372
-0.38241205 -0.73752785 0.00000304
-0.11763171 0.51600367 0.11212777
-0.09687884 0.54568297 0.00000479
-0.24902515 -0.78763628 0.00000191
-0.40762773 -0.18411756 0.25907329
-0.51581544 -0.44530424 0.19946559
-0.53184694 -0.48400819 0.20700970
-0.18617988 0.35051233 0.13052563
-0.20882982 0.29582939 0.15301774
-0.51740122 -0.44912788 0.08465733
-0.41638905 -0.20526516 0.16021644
-0.33914348 -0.01877094 0.01453891
-0.01616358 0.73060948 0.00000440
-0.41107279 -0.19242670 0.07013782
-0.33755890 -0.01495406 0.21791095
-0.42337754 -0.38596016 0.00000423
-0.32394543 -0.45665598 0.00000330
-0.24366325 0.21173041 0.23160060
-0.33098930 0.00091350 0.05093666
-0.06349037 0.56818682 0.00000517
-0.28941140 0.10128585 0.19238102
-0.50887132 -0.51459503 0.00000455
-0.32307032 0.02002105 0.30196816
-0.06007773 0.39029801 0.00000701
-0.45996630 -0.65902507 0.00000382
-0.26050675 0.17106605 0.24053346
-0.48065045 -0.36041245 0.30721119
-0.01925704 -0.48019427 0.00000094
-0.21931957 -0.56174523 0.00000225
-0.26570088 0.15853363 0.06674623
-0.43760821 -0.25649408 0.18754928
-0.04836744 0.00230686 0.00001110
-0.15227722 -0.63917470 0.00000155
-0.28617272 0.10910443 0.19986244
-0.58763772 -0.61869150 0.01645950
-0.63405669 -0.73075855 0.13467965
-0.04587679 0.68924004 0.01868499
-0.53146917 -0.48309052 0.07203450
