ply
format ascii 1.0
element vertex 529
property float x
property float y
property float z
end_header
-0.64588439 -0.54337096 0.10966926
-0.60738361 -0.13530684 0.26970312
-0.53980809 -0.45856264 0.02268209
-0.23749587 0.29989183 0.03720657
-0.44800398 -0.17576712 0.05374329
-0.46992800 0.06962545 0.20524590
-0.27330947 0.36403096 0.11369354
-0.53746909 0.06654285 0.28649339
-0.43255371 -0.07978126 0.08354732
-0.31362313 0.31099296 0.13618544
-0.50560921 0.00832712 0.21786261
-0.49063802 -0.28241509 0.05185385
-0.58678180 -0.29819834 0.16171788
-0.72042942 -0.71138513 0.11574019
-0.17175537 0.56255388 0.09000362
-0.09741285 0.60212612 0.01894934
-0.72114170 -0.71033347 0.11714760
-0.43227172 -0.15280414 0.04611627
-0.33855230 0.22583787 0.12350238
-0.39669427 0.01987935 0.09018759
-0.69094372 -0.48031622 0.19693860
-0.61660075 -0.54408765 0.07340128
-0.36894765 -0.08926330 0.00074583
-0.43567652 0.08466908 0.17089009
-0.70663851 -0.70647275 0.10132614
-0.60076511 -0.53799820 0.05707809
-0.52541488 -0.27375859 0.09888925
-0.69335580 -0.60553586 0.13630213
-0.21242797 0.37958246 0.04694424
-0.26747793 0.27918819 0.06345292
-0.43317598 0.10769476 0.17951860
-0.54483372 -0.26448250 0.12740915
-0.47576115 -0.15347876 0.09909508
-0.54015416 -0.04778114 0.23172529
-0.68264002 -0.57712013 0.13759485
-0.63767368 -0.35766470 0.19391473
-0.36712238 0.20847271 0.14971302
-0.53553730 -0.12049379 0.18913697
-0.14018917 0.46581560 0.00216779
-0.59732550 -0.35827199 0.14413634
-0.56830096 0.02833241 0.30489042
-0.61831981 -0.19709283 0.25173324
-0.61775261 -0.41571930 0.14000651
-0.73155642 -0.68899113 0.14075576
-0.21295984 0.49901199 0.10825297
-0.35941893 0.31382039 0.19377235
-0.13222378 0.53841323 0.02927265
-0.30329683 0.30669224 0.12133992
-0.48027691 -0.26887769 0.04602540
-0.25031897 0.23082723 0.01785220
-0.60117960 -0.06515777 0.29772234
-0.62599385 -0.10226082 0.30930346
-0.24335033 0.35231245 0.07100850
-0.60559630 -0.43621948 0.11469073
-0.64207906 -0.13105521 0.31440166
-0.29419753 0.29226267 0.10285456
-0.07838671 0.64289945 0.01632933
-0.47877452 0.04996884 0.20610943
-0.71592832 -0.74840146 0.09142234
-0.53540534 0.07037699 0.28591031
-0.61923873 -0.26008475 0.22086889
-0.45507827 0.03250044 0.16818313
-0.66463250 -0.56557935 0.12137716
-0.58626503 -0.35151571 0.13400659
-0.38635939 0.23319875 0.18585785
-0.48149151 0.00387881 0.18603227
-0.46399987 -0.09493733 0.11440558
-0.64957654 -0.14272702 0.31766659
-0.50173932 -0.39008123 0.01078570
-0.63577133 -0.45535931 0.14196731
-0.38106531 0.07598496 0.09951994
-0.49852169 -0.27919260 0.06315639
-0.55567557 -0.47074431 0.03595033
-0.18502887 0.42410883 0.03596411
-0.50674832 0.01055384 0.22039016
-0.35239246 0.14536694 0.09960188
-0.35855591 -0.05991763 0.00290821
-0.31057492 0.36442333 0.15958454
-0.60367340 -0.02828045 0.31950805
-0.26804927 0.39969993 0.12535973
-0.65564102 -0.17650437 0.30794805
-0.66209096 -0.23452455 0.28639016
-0.48880157 0.08445097 0.23591676
-0.60262948 -0.63219553 0.01152506
-0.44401580 0.19773798 0.23854119
-0.65294933 -0.74638128 0.01523083
-0.35106507 0.18517573 0.11819271
-0.49209851 -0.18261611 0.10432828
-0.33581945 0.08266323 0.04743513
-0.46798071 0.09516088 0.21582741
-0.32777655 0.05188457 0.02194154
-0.33294091 0.03709662 0.02076306
-0.41088215 0.04490990 0.12029622
-0.52415371 -0.29584885 0.08612423
-0.15961275 0.45187205 0.01890159
-0.57909679 -0.35968322 0.12106987
-0.46546903 -0.05523893 0.13636807
-0.34170181 0.20645110 0.11751776
-0.61620498 -0.25528800 0.21958533
-0.50993836 -0.42013645 0.00557456
-0.64940029 -0.58125472 0.09474045
-0.44484624 0.04656280 0.16277957
-0.44036540 0.13639233 0.20290875
-0.54146534 -0.45452991 0.02676212
-0.44661105 0.10799032 0.19614165
-0.62516540 -0.55043226 0.08068005
-0.33491144 0.18026420 0.09589202
-0.51439232 -0.30338553 0.07032841
-0.62665397 -0.42682710 0.14527901
-0.31168661 0.18036279 0.06746577
-0.43795022 -0.20493722 0.02660234
-0.64925516 -0.16448358 0.30622327
-0.71079773 -0.66918623 0.12536193
-0.69442034 -0.78957123 0.04414338
-0.60718149 -0.62026876 0.02316323
-0.51442623 -0.18960682 0.12815353
-0.19331847 0.47954735 0.07428457
-0.27226865 0.33359352 0.09695860
-0.50062400 -0.36291301 0.02321588
-0.45377231 -0.19048309 0.05334207
-0.17610990 0.51046187 0.06888596
-0.49952820 -0.35898301 0.02386821
-0.35740307 0.14177506 0.10392123
-0.57346106 -0.30951619 0.13963777
-0.27738103 0.13200416 0.00084251
-0.46496022 -0.08728803 0.11946781
-0.65249193 -0.26071900 0.26131782
-0.64467824 -0.48297399 0.13886353
-0.28803244 0.18579261 0.04122076
-0.71568584 -0.70232588 0.11452492
-0.46107039 -0.11853426 0.09882992
-0.35667834 0.23864253 0.15223026
-0.26740023 0.26414213 0.05571597
-0.59435636 -0.22327968 0.20905295
-0.34258401 0.11439389 0.07184482
-0.74511343 -0.80750334 0.09719040
-0.60146254 -0.60614717 0.02332319
-0.60135770 -0.62250704 0.01488611
-0.53105956 -0.03191199 0.22863074
-0.43043175 -0.22918454 0.00506990
-0.63769490 -0.29558668 0.22546764
-0.65042561 -0.60868472 0.08206701
-0.16375177 0.41522890 0.00536596
-0.57644087 -0.41254082 0.09096927
-0.25230628 0.40925732 0.11091107
-0.43438986 -0.19190875 0.02885366
-0.23959617 0.42128384 0.10143511
-0.61955225 -0.48991746 0.10453079
-0.47946694 -0.32637781 0.01583041
-0.28849703 0.13212004 0.01453085
-0.61864102 -0.38906106 0.15463437
-0.34917188 0.23373652 0.14053480
-0.66599709 -0.44513935 0.18421675
-0.32474643 0.24964909 0.11866816
-0.62410581 -0.34081870 0.18583488
-0.62784272 -0.34627318 0.18764655
-0.29376686 0.14882658 0.02947730
-0.33554855 0.01704820 0.01377801
-0.33217740 0.23355328 0.11960456
-0.70319963 -0.65403348 0.12374155
-0.22418407 0.33389708 0.03815557
-0.69227749 -0.56964940 0.15320528
-0.17513199 0.39705035 0.01008676
-0.30660447 0.31019452 0.12717423
-0.67384583 -0.40118048 0.21616487
-0.41686240 -0.12825756 0.03968944
-0.42317155 -0.16409566 0.02922427
-0.34984344 0.12575278 0.08651473
-0.61935002 -0.56644052 0.06541997
-0.64961451 -0.26392636 0.25616097
-0.45511520 -0.29513896 0.00183819
-0.50405908 -0.03393375 0.19449824
-0.17019136 0.44836414 0.03009056
-0.20847628 0.31113917 0.00733757
-0.20856123 0.31251299 0.00813949
-0.69856489 -0.67991811 0.10491318
-0.50273776 0.05004269 0.23552860
-0.74527735 -0.78013629 0.11128987
-0.35890761 0.18982381 0.13016926
-0.54642862 -0.51881868 0.00019788
-0.23974214 0.24000180 0.00954344
-0.42261487 -0.16434404 0.02841559
-0.63295990 -0.11470311 0.31152543
-0.65967757 -0.55924577 0.11851858
-0.40507162 0.22437434 0.20431937
-0.40603730 0.13778336 0.16152506
-0.36211905 0.08662259 0.08169237
-0.62065649 -0.45549646 0.12336566
-0.37883276 0.24686770 0.18357161
-0.12815967 0.60439211 0.05779935
-0.44557804 -0.18930493 0.04389362
-0.67201102 -0.55377752 0.13641755
-0.31835857 0.20673025 0.08903803
-0.36907369 0.07283338 0.08321620
-0.37279135 0.12933625 0.11647151
-0.21056274 0.51191735 0.11186839
-0.46039745 0.01083229 0.16370013
-0.37200925 -0.07009906 0.01423232
-0.23865338 0.32634503 0.05206101
-0.28904995 0.19391496 0.04659358
-0.58012772 -0.40901306 0.09728129
-0.35725352 0.23605709 0.15162241
-0.62440497 -0.56358802 0.07306637
-0.34279904 0.05631069 0.04260883
-0.58751774 -0.14259750 0.24164341
-0.67999309 -0.75907707 0.04194104
-0.46240890 -0.16730297 0.07570345
-0.67356277 -0.55101395 0.13972357
-0.69405276 -0.43336049 0.22459741
-0.69350219 -0.56879359 0.15514149
-0.58014870 -0.22802816 0.18922172
-0.58610094 -0.14065722 0.24089172
-0.61876220 -0.29334742 0.20339188
-0.52572894 -0.35916001 0.05590244
-0.36326298 0.26495707 0.17366859
-0.63991654 -0.12111430 0.31679884
-0.07421015 0.68054527 0.03032819
-0.50176531 -0.26230949 0.07570759
-0.25829691 0.27085093 0.04796157
-0.51614231 -0.08322245 0.18428575
-0.53252959 -0.30448166 0.09200949
-0.71836638 -0.63517934 0.15191251
-0.34724942 0.03322543 0.03634080
-0.62065136 -0.43011609 0.13624901
-0.59341258 -0.31025851 0.16372283
-0.12931085 0.62047601 0.06737974
-0.56564510 -0.18339014 0.19410896
-0.60026163 -0.06363182 0.29737183
-0.27727747 0.39611527 0.13485394
-0.26861280 0.42864776 0.14075288
-0.65651304 -0.50807077 0.14062832
-0.64378536 -0.67542768 0.04002955
-0.30141005 0.18901733 0.05926106
-0.56090182 -0.13796458 0.21136315
-0.43254220 0.15313941 0.20182222
-0.58557522 -0.01428547 0.30442548
-0.62708116 -0.34381902 0.18795919
-0.58447492 -0.29642895 0.15978806
-0.53507453 0.05511173 0.27775171
-0.28548986 0.34450260 0.11870992
-0.11880837 0.59137732 0.03972353
-0.54013073 -0.12734245 0.19129071
-0.63533759 -0.59996945 0.06799398
-0.28099820 0.20364787 0.04166445
-0.48237827 -0.01158303 0.17926671
-0.15662189 0.53777248 0.05886210
-0.01830486 0.71448439 0.00000368
-0.52888274 0.00999912 0.24724777
-0.63976818 -0.62587887 0.06026792
-0.34610158 0.02213072 0.02929857
-0.46982458 0.13026637 0.23591781
-0.53813744 -0.37665278 0.06223236
-0.61066425 -0.41885471 0.12972324
-0.31903043 0.24405169 0.10881685
-0.65286434 -0.53071368 0.12465527
-0.51211560 -0.16310811 0.13877805
-0.45727637 -0.03514816 0.13652653
-0.58528352 -0.46352687 0.07591739
-0.41831690 0.12029008 0.16769665
-0.71487743 -0.57100433 0.18022658
-0.28831694 0.22813360 0.06307403
-0.58280754 -0.01423426 0.30105799
-0.65858346 -0.37529653 0.21059732
-0.20630099 0.31945828 0.00889559
-0.47395980 -0.11466795 0.11659686
-0.67407620 -0.65042776 0.08986493
-0.17205371 0.50850081 0.06291662
-0.41900706 0.11008073 0.16335766
-0.53495258 -0.13792831 0.17956579
-0.06754942 0.70101768 0.03255904
-0.61701387 -0.56454831 0.06351668
-0.09727604 0.57743859 0.00624317
-0.20077077 0.46723729 0.07716985
-0.69671839 -0.60277402 0.14182755
-0.22062065 0.27889270 0.00585044
-0.65716040 -0.41376391 0.18931654
-0.31256834 0.36445752 0.16204607
-0.49872369 -0.12001166 0.14424545
-0.59774125 -0.14988306 0.25047818
-0.31186789 0.36064956 0.15925322
-0.36685160 0.01691406 0.05209102
-0.32359686 0.18458955 0.08421583
-0.29551861 0.11280562 0.01333059
-0.63276994 -0.12912360 0.30396894
-0.34865296 -0.03502352 0.00340911
-0.56510544 -0.41377226 0.07644577
-0.45123050 -0.12844437 0.08173251
-0.43724662 0.16353269 0.21286897
-0.57608533 -0.25320798 0.17145196
-0.05091987 0.70891869 0.01618210
-0.64527941 -0.16719784 0.29997021
-0.48653793 0.00878637 0.19471227
-0.64484221 -0.32422370 0.21968724
-0.39856049 0.25833631 0.21358481
-0.11800100 0.63151866 0.05912087
-0.27700642 0.30806980 0.08980452
-0.54582423 -0.23560654 0.14328852
-0.61461347 -0.29218769 0.19889426
-0.52145094 -0.21860459 0.12203955
-0.46080709 -0.00924673 0.15400451
-0.64260030 -0.34991330 0.20389178
-0.38693765 -0.06047498 0.03742335
-0.62156111 -0.64969188 0.02585100
-0.42788473 0.20371652 0.22179905
-0.57718790 -0.04652673 0.27776673
-0.59110922 -0.05139159 0.29236513
-0.63694191 -0.66095859 0.03898720
-0.65444309 -0.21116474 0.28887668
-0.64361197 -0.19153301 0.28556693
-0.32102901 0.20521481 0.09154262
-0.67124993 -0.49805546 0.16378330
-0.63123387 -0.67697442 0.02385491
-0.51723152 -0.24583229 0.10303838
-0.08192372 0.61562645 0.00681454
-0.04184792 0.70235288 0.00172416
-0.39144292 -0.01164073 0.06774021
-0.39342004 0.14226536 0.14833117
-0.34743708 0.23624252 0.13968050
-0.65991575 -0.57046288 0.11311392
-0.21951792 0.34127733 0.03618266
-0.53246671 -0.02920933 0.23172870
-0.55500203 -0.20489547 0.17013811
-0.52131104 -0.00464093 0.23052856
-0.58585632 -0.52442098 0.04569408
-0.32959735 0.31789383 0.15927653
-0.64887625 -0.75156456 0.00760456
-0.30627874 0.09298049 0.01645484
-0.21250446 0.36630106 0.04029258
-0.38276711 0.04133863 0.08401017
-0.37274829 0.27444911 0.19011958
-0.18135396 0.39987743 0.01915146
-0.46276248 0.00523082 0.16375500
-0.19657628 0.50259882 0.08998655
-0.28197938 0.17687257 0.02926866
-0.35606083 0.25422791 0.15938875
-0.52583212 0.02425522 0.25074783
-0.02747373 0.74647951 0.00651107
-0.60170954 -0.35152927 0.15293591
-0.61180800 -0.22395924 0.23010492
-0.52182782 0.04527678 0.25651464
-0.59055978 -0.11579852 0.25898331
-0.64041138 -0.40209648 0.17470632
-0.58598274 -0.35205701 0.13338561
-0.28724265 0.35864848 0.12804355
-0.06045279 0.70093840 0.02381747
-0.66908556 -0.73849422 0.03902069
-0.63132405 -0.30985370 0.21041086
-0.62549043 -0.21133813 0.25329033
-0.43359229 0.12797347 0.19032831
-0.42326963 -0.20591056 0.00810847
-0.62417948 -0.41461664 0.14844635
-0.46347985 0.15445724 0.24042463
-0.62299061 -0.10700818 0.30321026
-0.48337746 -0.22302537 0.07311342
-0.33384824 0.25356057 0.13181461
-0.64075726 -0.10899434 0.32398486
-0.61698490 -0.55072218 0.07050287
-0.31263879 0.32127139 0.14019881
-0.49039352 -0.15470576 0.11641234
-0.19574279 0.51773238 0.09665072
-0.62868315 -0.57876390 0.07060455
-0.40050855 0.21062852 0.19174322
-0.63458824 -0.36398447 0.18692222
-0.50107855 -0.16131377 0.12615710
-0.40130058 0.23930576 0.20727913
-0.54497164 -0.09751256 0.21237536
-0.57986099 -0.29823136 0.15321571
-0.36515304 0.26417768 0.17559019
-0.34705505 0.09156740 0.06573357
-0.68834627 -0.48196793 0.19291507
-0.39927664 -0.12009263 0.02227457
-0.65027821 -0.72592878 0.02234288
-0.36682650 0.24455249 0.16767469
-0.17919880 0.54435647 0.08988789
-0.44287670 -0.03598235 0.11844775
-0.39768797 0.22493593 0.19555143
-0.57028729 -0.05833495 0.26331103
-0.39908090 -0.14900610 0.00735062
-0.41048446 0.04721291 0.12097829
-0.28589147 0.26824757 0.08047343
-0.67040962 -0.71865112 0.05072159
-0.70071822 -0.50363088 0.19708239
-0.65192717 -0.46985623 0.15441324
-0.31389982 0.18005678 0.07002399
-0.64857984 -0.71736479 0.02460982
-0.50848985 0.09501844 0.26542392
-0.59252733 -0.52414423 0.05401380
-0.57246470 -0.11718870 0.23609135
-0.61830682 -0.41617170 0.14045624
-0.33619726 0.02704670 0.01965149
-0.24149038 0.45152777 0.11911811
-0.54350096 -0.26892176 0.12352063
-0.39459687 -0.12313089 0.01499379
-0.53997785 -0.38066864 0.06244939
-0.45755547 -0.14138883 0.08291349
-0.38574791 0.26551229 0.20151968
-0.60391837 -0.33864868 0.16218556
-0.42448664 -0.19018890 0.01758498
-0.27443483 0.21589725 0.03983827
-0.59097147 -0.09759483 0.26873296
-0.62464511 -0.41272807 0.14997633
-0.48621777 -0.33253309 0.02098141
-0.66880327 -0.32424647 0.24905396
-0.31708986 0.18415967 0.07601914
-0.68705553 -0.42915884 0.21815208
-0.61669546 -0.17320377 0.26187390
-0.38758752 0.15643963 0.14837874
-0.47628838 -0.20880017 0.07164603
-0.40290529 -0.16940556 0.00167957
-0.46067479 -0.16915908 0.07263465
-0.43148521 0.01897950 0.13238825
-0.30225283 0.31718978 0.12539141
-0.29855078 0.34705305 0.13601941
-0.36643368 -0.07273152 0.00605930
-0.16592160 0.55349159 0.07824813
-0.26231495 0.37728277 0.10694340
-0.58522844 -0.32788289 0.14473782
-0.12839635 0.49201775 0.00101615
-0.43634981 0.20164157 0.23112436
-0.17786434 0.44085032 0.03568235
-0.31715742 0.35190561 0.16129787
-0.38589695 -0.00600895 0.06380052
-0.65957057 -0.50187671 0.14752281
-0.54561877 -0.08591109 0.21906070
-0.69754386 -0.76041359 0.06278101
-0.16042238 0.53334475 0.06127316
-0.58830070 -0.42616367 0.09859189
-0.57627594 -0.05585997 0.27191046
-0.57825142 -0.52525753 0.03594503
-0.70788896 -0.70105499 0.10561073
-0.33120862 0.09295253 0.04700751
-0.39464974 0.03820093 0.09698604
-0.66902316 -0.43012097 0.19555418
-0.29818222 0.10642357 0.01335512
-0.08465023 0.60997492 0.00728722
-0.57874441 -0.41314408 0.09348725
-0.53650200 -0.23747569 0.13090946
-0.29723817 0.14114934 0.02983435
-0.50133348 -0.27347600 0.06950710
-0.32157087 0.34238371 0.16187324
-0.03681908 0.71242917 0.00067585
-0.43197790 0.01535937 0.13115375
-0.59795892 -0.55089855 0.04708590
-0.38164067 0.22050314 0.17362422
-0.44494846 -0.03924385 0.11933152
-0.29251316 0.17022268 0.03880691
-0.64367211 -0.12548859 0.31918192
-0.16498864 0.40871254 0.00357292
-0.52306902 -0.44072452 0.01121795
-0.21125428 0.34856611 0.02975236
-0.57215089 -0.44138080 0.07106278
-0.25381619 0.31368673 0.06422338
-0.45517042 -0.20213206 0.04914024
-0.45053884 -0.12999262 0.08009819
-0.28427732 0.21766157 0.05280236
-0.37991112 0.11862293 0.11976004
-0.65369946 -0.66121519 0.05940289
-0.69678980 -0.56580698 0.16068915
-0.65501201 -0.18257885 0.30409181
-0.59591317 -0.35066113 0.14626998
-0.70996726 -0.62339395 0.14759973
-0.31188330 0.16876616 0.06181718
-0.36891168 -0.03499040 0.02826469
-0.51875418 -0.44728765 0.00259452
-0.49812409 -0.16952977 0.11836212
-0.56155902 -0.06546865 0.24898662
-0.47821411 0.11430364 0.23809707
-0.15017672 0.59460276 0.07982290
-0.52349091 -0.11527435 0.17701790
-0.48762146 -0.19616684 0.09195720
-0.66886866 -0.68238521 0.06725019
-0.26061735 0.32089394 0.07622284
-0.64407247 -0.63019931 0.06335119
-0.40404120 -0.02779428 0.07499080
-0.18881994 0.40309337 0.02993894
-0.66501635 -0.23898302 0.28771263
-0.51645899 -0.01725368 0.21817353
-0.55583936 -0.09317082 0.22790504
-0.52940631 -0.20378022 0.13932212
-0.48234919 -0.06754468 0.15081488
-0.71745557 -0.77678281 0.07888120
-0.28933987 0.33384398 0.11801708
-0.62184507 -0.52144200 0.09133196
-0.44766599 0.07683211 0.18161030
-0.46917960 -0.29505366 0.01912554
-0.43194097 0.21116240 0.23055413
-0.64495653 -0.31525353 0.22438297
-0.56468242 -0.11704573 0.22662222
-0.23167239 0.24841978 0.00392436
-0.48828149 -0.07765469 0.15295386
-0.35853186 -0.06553857 0.00002408
-0.35606080 -0.04420636 0.00782809
-0.23140150 0.26932433 0.01420937
-0.69160354 -0.46409506 0.20598565
-0.39036459 0.14107217 0.14397883
-0.53980136 -0.08312606 0.21334250
-0.44422740 -0.18255104 0.04566765
-0.63921815 -0.07648384 0.33860847
-0.45366344 -0.07893405 0.10985972
-0.65878785 -0.42126304 0.18750346
-0.36239806 0.28988144 0.18526687
-0.61692780 -0.20692311 0.24503411
-0.54772723 -0.34316596 0.09099678
-0.61245561 -0.09458051 0.29660502
-0.42727408 -0.11717802 0.05808182
-0.43520170 0.06007264 0.15781572
-0.36463681 0.06119385 0.07186452
-0.63625044 -0.37717575 0.18226092
-0.38492808 0.01652068 0.07405507
-0.60972476 -0.13801461 0.27119842
-0.39635751 -0.05556567 0.05146608
-0.36029342 0.26416555 0.16962557
-0.65631402 -0.31954053 0.23613098
-0.29170558 0.34719393 0.12769800
-0.56303638 -0.33255544 0.11515561
-0.63355023 -0.64295137 0.04397381
-0.65151751 -0.37880939 0.20014989
-0.55010158 -0.16766210 0.18303902
-0.52913648 -0.41861019 0.02988808
-0.45556533 -0.21084020 0.04520195
-0.64543480 -0.44938433 0.15684989
-0.57047367 -0.26482609 0.15867124
-0.13086595 0.51791900 0.01719903
-0.61336678 -0.22786908 0.23003042
-0.27251881 0.29609215 0.07821889
-0.40978247 -0.04939962 0.07105757
-0.36160669 0.14886853 0.11267801
-0.67655981 -0.36270246 0.23903385
-0.37172541 -0.00228007 0.04831842
