ply
format ascii 1.0
element vertex 1076
property float x
property float y
property float z
end_header
-0.09395637 0.51644391 0.02872397
-0.32104483 0.07247050 0.09815248
-0.22663362 -0.61628121 0.06929265
-0.25612894 -0.08240725 0.07831077
-0.06062408 0.16730517 0.01852705
-0.62857246 -0.60548633 0.19218490
-0.42658710 -0.50578147 0.13042791
-0.34500924 0.38622740 0.10548600
-0.32963669 -0.20269032 0.10078557
-0.44760269 -0.31801480 0.13685341
-0.09272800 -0.33920842 0.02835135
-0.34977096 -0.42014000 0.10694158
-0.21195231 -0.33124283 0.06480388
-0.19110042 -0.62066597 0.05842847
-0.12026486 -0.54820597 0.03677067
-0.22303955 -0.57755274 0.06819377
-0.22408734 0.51194108 0.06851397
-0.01916304 0.30690563 0.00585196
-0.00104269 0.31989515 0.00031166
-0.45704389 0.26177001 0.13974059
-0.36983281 0.25217408 0.11307380
-0.29813337 0.44293967 0.09115379
-0.19160856 0.11768715 0.05857626
-0.24630930 0.00494564 0.07529994
-0.65428650 -0.18476932 0.20004813
-0.05142847 -0.29344392 0.01572412
-0.03744771 0.00708176 0.01143824
-0.46752924 -0.08700901 0.14294662
-0.18741606 0.55418980 0.05730175
-0.09788011 0.06591321 0.02991699
-0.29557940 0.49070314 0.09037376
-0.05702326 0.57736498 0.01743217
-0.68437535 0.08341994 0.20924857
-0.75479698 -0.14634199 0.23077966
-0.14657797 -0.01742581 0.04481584
-0.31028262 -0.16820879 0.09486811
-0.71436286 -0.40398180 0.21841611
-0.37406132 0.34641638 0.11436853
-0.36505726 -0.03819902 0.11161554
-0.18737485 -0.30368447 0.05728938
-0.40662602 -0.06177368 0.12432529
-0.54103291 -0.79380220 0.16541943
-0.13695844 0.11392980 0.04186633
-0.13339886 0.02528118 0.04077663
-0.42680466 -0.47850624 0.13049443
-0.07864384 -0.49070001 0.02404515
-0.01957697 -0.74980271 0.00598561
-0.16765787 -0.44518822 0.05126096
-0.53587508 -0.71516633 0.16384244
-0.47080013 -0.75441933 0.14394593
-0.00722439 -0.73595619 0.00220884
-0.52688891 -0.19367714 0.16109580
-0.53561908 0.14737178 0.16376445
-0.31204233 -0.18800674 0.09540615
-0.04354180 -0.53517073 0.01331280
-0.44363430 -0.30139238 0.13564010
-0.57583117 -0.55508792 0.17605917
-0.12569544 0.06117918 0.03842176
-0.35981905 0.42268294 0.11001511
-0.16559984 0.52775484 0.05063049
-0.30491194 0.47930905 0.09322719
-0.59743011 -0.70086670 0.18266276
-0.15380181 0.60588831 0.04702447
-0.11141058 0.04812517 0.03405381
-0.27087775 -0.52883732 0.08282018
-0.25721142 0.38404632 0.07863994
-0.71774757 -0.68769658 0.21945018
-0.30716896 -0.76720512 0.09391612
-0.66495407 -0.45835203 0.20330907
-0.12542970 0.29818419 0.03834404
-0.21302275 -0.08092449 0.06513116
-0.03134890 0.18079907 0.00957605
-0.35444543 -0.37178195 0.10837079
-0.49852568 -0.12383770 0.15242380
-0.57931399 0.03447248 0.17712297
-0.31502375 -0.64174187 0.09631770
-0.00680603 0.78127593 0.00208074
-0.22389069 -0.66100168 0.06845401
-0.39694220 -0.78463519 0.12136406
-0.28832257 -0.17327464 0.08815389
-0.03108924 -0.04531644 0.00950546
-0.51171494 -0.59541172 0.15645555
-0.11772558 -0.55819225 0.03599430
-0.32870796 0.34370497 0.10050075
-0.33931625 -0.76461625 0.10374508
-0.21639065 0.16862684 0.06615442
-0.07072727 -0.71667027 0.02162468
-0.27732295 -0.42046562 0.08479078
-0.07070494 -0.21772183 0.02161785
-0.35369536 0.19982286 0.10813845
-0.55375355 -0.03839931 0.16931017
-0.09744125 -0.47347268 0.02979241
-0.20408975 -0.59725130 0.06239992
-0.62651891 -0.54371911 0.19155715
-0.15040024 -0.06034091 0.04598449
-0.68858808 -0.78103495 0.21053435
-0.41556481 -0.63394696 0.12705788
-0.14130579 -0.28155649 0.04320388
-0.29744151 -0.05281625 0.09094198
-0.20914361 -0.60388803 0.06394512
-0.14656110 -0.10879324 0.04481068
-0.59818941 -0.41867587 0.18289563
-0.15924034 0.34911421 0.04868277
-0.47868177 -0.63056356 0.14635573
-0.71389359 -0.26981840 0.21827300
-0.60332483 -0.59303832 0.18446536
-0.29457685 0.14387991 0.09006069
-0.06567911 -0.28791630 0.02008122
-0.14188702 0.29380018 0.04337598
-0.01306601 -0.39706483 0.00399490
-0.37585965 -0.73774374 0.11491813
-0.44571871 -0.17552628 0.13627774
-0.20939185 0.42944011 0.06401896
-0.38908303 -0.34630802 0.11896114
-0.12701461 -0.36805475 0.03883439
-0.12731315 -0.54074502 0.03892567
-0.62332237 -0.75796545 0.19057927
-0.13974819 0.17509574 0.04272024
-0.32735857 -0.20307980 0.10008905
-0.58620799 0.05730754 0.17923136
-0.41640499 -0.75102651 0.12731476
-0.10068785 -0.26469538 0.03078505
-0.41161993 0.05951110 0.12584746
-0.70135438 -0.50375187 0.21443845
-0.06745952 -0.66000479 0.02062558
-0.18035567 0.43545166 0.05514066
-0.76357692 -0.35918924 0.23346353
-0.07565627 -0.47300255 0.02313171
-0.19187985 0.51331645 0.05866588
-0.52218622 -0.59758157 0.15965711
-0.46200535 -0.48581049 0.14125694
-0.65421826 -0.21873370 0.20002718
-0.12654617 0.23718356 0.03868450
-0.64811313 -0.14600413 0.19816069
-0.32040703 -0.42725649 0.09796364
-0.67272294 -0.66007477 0.20568389
-0.43697184 -0.24125588 0.13360319
-0.21164899 -0.44003877 0.06471114
-0.22120927 0.34634039 0.06763082
-0.12749998 0.34512806 0.03897775
-0.00645028 0.76742655 0.00197176
-0.15830173 -0.48828754 0.04840035
-0.04804219 0.68856978 0.01468781
-0.68611932 -0.21870840 0.20978105
-0.62471670 -0.46311814 0.19100633
-0.13788021 0.08619343 0.04214776
-0.09821554 0.52429867 0.03002638
-0.76046467 -0.66354495 0.23251109
-0.15796266 -0.51392221 0.04829668
-0.21925272 -0.53138757 0.06703596
-0.04853745 -0.50469863 0.01484020
-0.48408300 -0.47559816 0.14800714
-0.23441036 -0.10678394 0.07167037
-0.39240682 -0.42584133 0.11997738
-0.03274332 0.72449547 0.01001053
-0.00270320 -0.03538824 0.00082650
-0.19850789 -0.42597359 0.06069328
-0.47911358 -0.68657345 0.14648776
-0.07553116 0.06396329 0.02308352
-0.21390460 0.42536515 0.06539876
-0.53191525 -0.47898448 0.16263190
-0.14003174 0.44816601 0.04281101
-0.15611857 0.06996349 0.04772410
-0.18705752 -0.61802667 0.05719236
-0.29999879 -0.31880936 0.09172387
-0.70049345 -0.69146091 0.21417469
-0.38756010 0.33961144 0.11849594
-0.25698736 -0.16856267 0.07857322
-0.17499049 0.24086657 0.05349694
-0.10367067 0.06274569 0.03168747
-0.62233096 -0.65501279 0.19027640
-0.63425893 -0.14185733 0.19392473
-0.58802313 -0.11830135 0.17978801
-0.72506666 -0.60653782 0.22168823
-0.04746566 0.00547164 0.01450131
-0.10805767 -0.62586349 0.03303836
-0.11530655 -0.73906815 0.03525468
-0.46929505 -0.01551381 0.14348669
-0.27903286 -0.66411114 0.08531359
-0.02551740 0.44780391 0.00779698
-0.05182946 -0.64954054 0.01584673
-0.57020789 -0.56365806 0.17433979
-0.41304237 0.07741932 0.12628274
-0.07937174 0.38771611 0.02426264
-0.63813102 -0.62003160 0.19510743
-0.57166231 -0.56088126 0.17478451
-0.44113871 0.20178489 0.13487612
-0.14705013 -0.75825268 0.04496020
-0.23108625 0.38701162 0.07065168
-0.10981073 0.48106921 0.03357109
-0.40817422 0.01151976 0.12479297
-0.75259632 -0.15451902 0.23010679
-0.35023639 -0.73665679 0.10708389
-0.05865757 -0.04139806 0.01793440
-0.51603276 -0.62563187 0.15777570
-0.00163123 0.19939277 0.00048982
-0.06926035 -0.21307322 0.02117618
-0.31861347 -0.32042462 0.09741525
-0.57213771 0.02843409 0.17492855
-0.58320564 -0.67640263 0.17831364
-0.03400584 -0.08720733 0.01039720
-0.07512631 0.24065691 0.02296236
-0.19322737 -0.09598710 0.05907877
-0.53154135 -0.65521723 0.16251741
-0.13517401 0.19993442 0.04132200
-0.14826314 0.47934261 0.04532852
-0.00091772 -0.20082840 0.00028059
-0.64372343 -0.08226989 0.19681868
-0.49804357 -0.70317894 0.15227555
-0.75049132 -0.34955060 0.22946261
-0.06384181 0.02319166 0.01950877
-0.04267880 -0.55550212 0.01304893
-0.40343004 -0.32277969 0.12334771
-0.15941399 0.10094455 0.04873217
-0.39810988 -0.75942326 0.12172108
-0.57752413 -0.03036162 0.17657813
-0.74648631 -0.10272976 0.22823879
-0.09042594 0.52974480 0.02764470
-0.33050507 -0.20398083 0.10105108
-0.08671999 -0.05161565 0.02651442
-0.32439688 -0.08717709 0.09918352
-0.21566100 0.03679013 0.06592936
-0.28425267 -0.66445529 0.08690952
-0.08047247 -0.77288681 0.02460425
-0.55302083 -0.22947451 0.16908565
-0.31716934 0.07419576 0.09696750
-0.56107521 -0.39428529 0.17154789
-0.13574483 -0.16551252 0.04150363
-0.61421084 -0.54042369 0.18779393
-0.60969901 -0.71203905 0.18641399
-0.42228666 -0.33499521 0.12911306
-0.34342691 0.21889172 0.10499903
-0.51644212 -0.63640654 0.15790085
-0.01935613 -0.24285646 0.00591809
-0.07943193 0.15048698 0.02427751
-0.16885383 0.16045088 0.05161939
-0.49370623 -0.36115709 0.15094964
-0.61235166 -0.08154187 0.18722665
-0.32056040 -0.37938175 0.09801052
-0.08974991 0.48301092 0.02743730
-0.12207281 0.52660251 0.03732117
-0.00625835 0.37478507 0.00190722
-0.35753551 -0.74146169 0.10931557
-0.19194432 -0.06425823 0.05868648
-0.07481601 -0.07350836 0.02287480
-0.42981961 -0.31425840 0.13141625
-0.69925058 -0.13245675 0.21379621
-0.46845993 -0.01502185 0.14323136
-0.55918217 -0.46817672 0.17096888
-0.29221460 0.03792166 0.08933648
-0.26216888 -0.26031959 0.08015747
-0.44131541 -0.56781280 0.13493106
-0.48102829 -0.78631389 0.14707316
-0.33081603 -0.67398727 0.10114615
-0.72361392 -0.51813829 0.22124432
-0.59833866 -0.02032500 0.18294229
-0.73344707 -0.55865371 0.22425070
-0.00240385 0.26105216 0.00072697
-0.02039638 -0.55984598 0.00623614
-0.65158135 -0.77882218 0.19921947
-0.44306406 0.26391384 0.13546601
-0.70624650 -0.65762168 0.21593378
-0.44493580 -0.75839818 0.13603799
-0.42926690 -0.40334839 0.13124727
-0.40643811 -0.02778045 0.12426792
-0.11691795 0.34605545 0.03574219
-0.65051323 0.11351495 0.19889510
-0.37324965 0.08490251 0.11411543
-0.36878654 -0.20396692 0.11275554
-0.22270191 0.56549162 0.06809135
-0.07047571 0.03563732 0.02153734
-0.09596336 -0.05399916 0.02934055
-0.47139585 0.06258518 0.14412525
-0.05362230 -0.30730551 0.01639488
-0.02537684 -0.37845534 0.00775890
-0.06653558 -0.01370549 0.02034308
-0.60515857 -0.16000713 0.18502714
-0.61821276 -0.72240901 0.18901707
-0.56589365 0.04305499 0.17301957
-0.76073766 -0.04487719 0.23259634
-0.44289863 -0.68353772 0.13541514
-0.53184056 -0.78802490 0.16260889
-0.74247575 -0.32528344 0.22701192
-0.30905655 0.13183755 0.09448793
-0.14599706 -0.65929973 0.04463823
-0.31007668 0.21387342 0.09480140
-0.69835222 -0.00334298 0.21352185
-0.50102115 -0.35476828 0.15318622
-0.48601738 -0.21522798 0.14859910
-0.51013255 0.05162894 0.15596960
-0.44666758 -0.11618480 0.13656801
-0.42887181 0.16773447 0.13112462
-0.03073739 0.41021115 0.00939249
-0.05895765 0.20794947 0.01801813
-0.19046327 -0.08393926 0.05823366
-0.12046762 -0.19814803 0.03683267
-0.19349276 -0.78586918 0.05915992
-0.50907725 -0.07113835 0.15565012
-0.58891004 -0.05619440 0.18005934
-0.50973624 -0.06494768 0.15585163
-0.63617361 -0.13422687 0.19451018
-0.34301126 -0.07568004 0.10487482
-0.68524855 -0.10272018 0.20951511
-0.68967652 -0.33555251 0.21086839
-0.52021623 -0.35511884 0.15905519
-0.57103682 -0.28510070 0.17459396
-0.27710935 -0.66530484 0.08472548
-0.32948011 0.44405207 0.10073873
-0.37562314 -0.76059723 0.11484582
-0.30916229 -0.75925052 0.09452558
-0.75343353 -0.48547915 0.23036180
-0.40748146 -0.13246030 0.12458666
-0.61146599 -0.10214613 0.18695579
-0.54402685 -0.28310680 0.16633555
-0.26493552 0.39926919 0.08100203
-0.25889090 -0.00644263 0.07915523
-0.29145411 0.22141843 0.08910730
-0.32874066 0.21028365 0.10050823
-0.66722286 -0.19254309 0.20400345
-0.13745861 -0.46609721 0.04202762
-0.45739487 -0.13208444 0.13984787
-0.37725580 0.02639455 0.11533929
-0.52388626 -0.63581455 0.16017687
-0.39580223 0.00076883 0.12100977
-0.05473051 0.10386840 0.01672409
-0.25514230 -0.68755788 0.07800910
-0.44370264 0.27891406 0.13566156
-0.27720842 -0.62852383 0.08475576
-0.35940763 0.39646861 0.10988880
-0.07614801 0.53780454 0.02327919
-0.33936581 -0.74628216 0.10376023
-0.09281388 -0.13971448 0.02837761
-0.74324936 -0.46345118 0.22724804
-0.11588028 0.67678022 0.03543050
-0.57382584 -0.50062454 0.17544615
-0.26093596 -0.50238818 0.07978050
-0.42029572 -0.57451683 0.12850434
-0.33264410 -0.67406082 0.10170509
-0.38137063 -0.18867624 0.11660309
-0.37553132 0.18852320 0.11481505
-0.61644417 -0.60126984 0.18847664
-0.40183225 0.34133068 0.12285997
-0.38455164 -0.63777202 0.11757568
-0.23034269 0.18559182 0.07042066
-0.03706148 0.68307048 0.01133021
-0.71451747 -0.52563286 0.21846303
-0.07986608 0.36859715 0.02441351
-0.41197541 -0.49251303 0.12596042
-0.36093482 0.40072402 0.11035585
-0.30649096 0.42705739 0.09370900
-0.01421694 -0.26722690 0.00434679
-0.52563721 -0.06122144 0.16071343
-0.08197880 -0.43697539 0.02506481
-0.20736155 0.12823476 0.06339307
-0.61584151 -0.37846434 0.18829294
-0.75964999 -0.75548047 0.23226173
-0.71440560 -0.33769852 0.21842937
-0.52810931 -0.66263288 0.16146807
-0.18123169 -0.02339558 0.05541113
-0.00215187 0.23452170 0.00064954
-0.12244290 -0.79623169 0.03743660
-0.58220506 -0.61962754 0.17800784
-0.48468083 -0.56343275 0.14818992
-0.44580427 0.00699528 0.13629904
-0.48054129 0.10049272 0.14692238
-0.74569088 -0.32218719 0.22799495
-0.67969149 -0.10676350 0.20781599
-0.62246674 -0.61050409 0.19031802
-0.54937690 -0.39659217 0.16797107
-0.72854859 -0.12722601 0.22275420
-0.05181542 -0.67000741 0.01584243
-0.62048143 -0.16509587 0.18971214
-0.15149835 -0.20569915 0.04632023
-0.14442515 -0.40414554 0.04415762
-0.38278538 -0.32556856 0.11703565
-0.35791931 0.00343404 0.10942632
-0.55657411 0.17002328 0.17017232
-0.37192982 -0.78652149 0.11371659
-0.28072450 -0.51540846 0.08583079
-0.15303703 -0.79540795 0.04679068
-0.45181310 -0.39612821 0.13814069
-0.07634410 0.45819634 0.02333796
-0.64853746 -0.37443307 0.19828984
-0.53703874 0.20769387 0.16419967
-0.19267739 0.59672284 0.05891134
-0.56707019 -0.35562670 0.17338096
-0.57385045 0.15520880 0.17545465
-0.05514084 -0.52705884 0.01685917
-0.31716940 -0.38771823 0.09697373
-0.10804819 -0.33773130 0.03303546
-0.29843411 -0.34419128 0.09124547
-0.26631764 0.03865864 0.08141822
-0.50569504 -0.32758984 0.15461536
-0.35790989 -0.51859581 0.10943003
-0.33007532 0.16638696 0.10091550
-0.05342434 -0.42967615 0.01633436
-0.14093308 -0.26095498 0.04308993
-0.17388669 -0.79353511 0.05316541
-0.10359134 0.45376870 0.03166904
-0.55169153 -0.13189231 0.16867945
-0.12417211 -0.62265468 0.03796530
-0.38299134 -0.31661624 0.11709862
-0.46557918 0.30135226 0.14235118
-0.56122148 -0.07209864 0.17159341
-0.23349181 0.01968842 0.07138107
-0.33880928 0.01424331 0.10358324
-0.58295321 0.01429241 0.17823534
-0.18082756 -0.12515798 0.05528756
-0.44781497 0.16964085 0.13691692
-0.29422298 0.43913591 0.08995803
-0.41936731 0.15822504 0.12821823
-0.16252968 -0.45893592 0.04969303
-0.39257431 -0.46013126 0.12002860
-0.32757106 -0.13878790 0.10015402
-0.29462761 0.45987475 0.09008215
-0.03196941 -0.64678359 0.00977456
-0.33935609 -0.43264937 0.10375726
-0.34141892 -0.38962391 0.10438796
-0.00337280 0.29540479 0.00102375
-0.70746815 -0.10446045 0.21630885
-0.03830812 0.20815264 0.01170431
-0.37674096 0.20813282 0.11518529
-0.14252436 0.45332551 0.04357328
-0.02344538 0.69316286 0.00716709
-0.71550959 -0.03594198 0.21876770
-0.30746952 0.40451866 0.09400779
-0.02990439 -0.62743682 0.00914319
-0.13406400 -0.34632230 0.04098973
-0.13127702 0.28605878 0.04013174
-0.26615259 0.24511148 0.08137128
-0.39465883 -0.08254263 0.12066621
-0.05683599 0.41551337 0.01737250
-0.63537794 0.11840699 0.19426726
-0.71501487 -0.52089649 0.21861514
-0.25194693 0.06159881 0.07702455
-0.19234443 -0.06746535 0.05880881
-0.29603654 0.10413125 0.09050627
-0.32742435 -0.12803826 0.10010916
-0.48644388 -0.29166943 0.14872932
-0.24722236 -0.12407973 0.07558761
-0.36526766 -0.07302655 0.11167977
-0.04947168 -0.72802371 0.01512584
-0.56123471 -0.47249728 0.17159645
-0.31549069 -0.10769926 0.09646047
-0.23949818 -0.48244688 0.07322596
-0.27705932 0.20840383 0.08470555
-0.14599609 -0.38969040 0.04463793
-0.38044009 0.29490325 0.11631800
-0.62601447 -0.75420386 0.19140239
-0.38835570 -0.05958064 0.11873907
-0.36605698 0.19395289 0.11191817
-0.09982888 -0.37018272 0.03052243
-0.38131949 0.21871898 0.11658546
-0.33945945 -0.02773276 0.10378894
-0.02382644 -0.04894777 0.00728487
-0.49744150 0.07758466 0.15208954
-0.15950139 -0.14047705 0.04876714
-0.23586303 0.42168960 0.07211293
-0.62413579 -0.76038593 0.19082797
-0.00196056 0.36986867 0.00059305
-0.25567415 -0.79873550 0.07817172
-0.14787585 0.45608217 0.04520966
-0.10426781 -0.19783644 0.03187962
-0.30258980 0.20101091 0.09251188
-0.32233015 0.15786050 0.09854710
-0.29122213 0.39233619 0.08903958
-0.52932149 -0.13623054 0.16183971
-0.63385969 -0.62189722 0.19380143
-0.42306384 -0.45135605 0.12935069
-0.65854359 -0.14964207 0.20134984
-0.37609103 0.17278720 0.11498589
-0.36802125 0.15220103 0.11251800
-0.51097798 -0.68805742 0.15623021
-0.01417682 -0.47318321 0.00433453
-0.24070321 -0.47417301 0.07359439
-0.19991888 0.29513058 0.06111988
-0.00689793 -0.76652002 0.00210902
-0.02953578 -0.60758764 0.00903049
-0.46399066 0.05007145 0.14186072
-0.05157889 -0.12334991 0.01577011
-0.62581182 -0.11975561 0.19134204
-0.47042406 0.05103173 0.14382790
-0.39440018 -0.41871703 0.12058685
-0.16783534 0.57640439 0.05131495
-0.13877782 0.08674134 0.04242222
-0.51303482 0.22230756 0.15686025
-0.31838182 0.16709135 0.09733999
-0.10848849 0.30080089 0.03316411
-0.74248254 -0.72268385 0.22701284
-0.69604623 0.01143281 0.21281584
-0.10500369 0.61454058 0.03210358
-0.66587806 -0.70664632 0.20359093
-0.33964705 0.32889843 0.10384532
-0.08707503 0.05957468 0.02661312
-0.56588393 -0.29956460 0.17301841
-0.24644645 -0.04297167 0.07535037
-0.23422427 -0.47111937 0.07161347
-0.22937332 0.15886508 0.07012387
-0.65634936 0.02145565 0.20067789
-0.42203072 -0.44340050 0.12903482
-0.44223860 -0.36484727 0.13521332
-0.22269115 0.35623920 0.06808412
-0.70999503 0.00362026 0.21708082
-0.04338901 -0.76065373 0.01326608
-0.43470123 -0.21557690 0.13290900
-0.03523142 0.03848825 0.01076105
-0.68256813 -0.45248392 0.20869467
-0.22292231 -0.18935342 0.06815793
-0.08470570 0.43749231 0.02589430
-0.00034702 -0.21953574 0.00010610
-0.36905971 -0.69155735 0.11283906
-0.06257297 -0.66778582 0.01913152
-0.25529614 -0.61346960 0.07805614
-0.14559899 0.11008880 0.04450822
-0.36906609 -0.48854885 0.11284101
-0.68496227 0.01187291 0.20942670
-0.30794442 0.23454285 0.09414980
-0.39427951 -0.02188634 0.12055039
-0.29873666 -0.54943538 0.09133797
-0.04279136 -0.39699027 0.01308335
-0.24197318 -0.25133502 0.07398268
-0.20358184 -0.62834400 0.06224463
-0.26121739 -0.49260032 0.07986655
-0.01055984 -0.76704496 0.00322864
-0.01566271 0.06425194 0.00477809
-0.73405361 -0.12658080 0.22443739
-0.30412275 0.32470268 0.09298295
-0.64697397 -0.64382213 0.19781111
-0.22917210 0.51901907 0.07006887
-0.38582635 0.14646849 0.11796218
-0.69098473 -0.70816600 0.21126734
-0.75075692 -0.03926859 0.22954470
-0.37297708 -0.03843559 0.11403705
-0.63713241 0.00094635 0.19480151
-0.26070818 -0.54117036 0.07971086
-0.72342587 0.00667604 0.22118765
-0.76430559 -0.16326213 0.23368689
-0.68534780 -0.45671234 0.20954454
-0.21181223 0.54489911 0.06476121
-0.27249873 -0.29473552 0.08331579
-0.09266255 -0.71190000 0.02833134
-0.22877075 -0.44378656 0.06994607
-0.45925140 -0.30866051 0.14041507
-0.73305380 -0.52602053 0.22413056
-0.01951313 -0.30622128 0.00596609
-0.11412596 -0.51911867 0.03489372
-0.63789093 -0.40872639 0.19503455
-0.26128671 -0.03649531 0.07988775
-0.37829104 -0.64894813 0.11566152
-0.27387962 -0.05264507 0.08373800
-0.38231212 0.22929396 0.11688918
-0.24673930 -0.65620989 0.07543991
-0.71807367 0.04614002 0.21955183
-0.60509193 -0.13704276 0.18500681
-0.12586606 0.08884807 0.03847434
-0.03480034 0.26608917 0.01063263
-0.50511175 -0.38238141 0.15443687
-0.40701529 -0.54316276 0.12444388
-0.35890692 -0.45961055 0.10973488
-0.49994233 -0.75714856 0.15285610
-0.08821198 -0.47195846 0.02697059
-0.08124978 -0.49392402 0.02484191
-0.58629882 -0.15959640 0.17926069
-0.16461317 0.25297135 0.05032414
-0.21719261 -0.27251017 0.06640608
-0.49758193 -0.58351600 0.15213440
-0.34235668 -0.19289462 0.10467468
-0.19254069 -0.32319438 0.05886883
-0.28452504 0.19327822 0.08698806
-0.46864909 -0.20835605 0.14328870
-0.04449306 0.32014757 0.01359710
-0.10646369 -0.20863868 0.03255100
-0.16096798 -0.26453620 0.04921554
-0.31356341 0.11703465 0.09586572
-0.12408909 -0.59436619 0.03793992
-0.21643245 0.13266060 0.06616667
-0.52803367 -0.43926525 0.16144519
-0.66837043 -0.29618829 0.20435406
-0.28428006 -0.32191026 0.08691790
-0.03542537 -0.37742296 0.01083122
-0.27817497 0.38473329 0.08505000
-0.68510199 -0.55702680 0.20946911
-0.71790183 -0.17958044 0.21949877
-0.51976013 -0.67232978 0.15891534
-0.33470997 -0.27998596 0.10233672
-0.11913153 0.24311075 0.03641748
-0.23614600 -0.01659896 0.07220104
-0.74865091 -0.19807205 0.22890034
-0.67722845 -0.11602099 0.20706289
-0.19755751 -0.07808033 0.06040270
-0.33516467 -0.03906061 0.10247576
-0.19287917 0.22385557 0.05896635
-0.48330295 -0.07039753 0.14776954
-0.17299797 0.53354460 0.05289273
-0.20331763 -0.23543178 0.06216385
-0.33581686 -0.54941994 0.10267515
-0.11499140 0.01251045 0.03514816
-0.10126460 -0.21304533 0.03096139
-0.69083470 -0.19041891 0.21122287
-0.27229416 0.49067515 0.08325381
-0.35872900 -0.75502062 0.10968048
-0.43572462 -0.47086549 0.13322169
-0.14868581 0.56353790 0.04545935
-0.05447353 -0.29666099 0.01665514
-0.29204893 -0.45347577 0.08929322
-0.36643276 -0.22242661 0.11203588
-0.35042560 -0.34066644 0.10714173
-0.30297434 -0.53282362 0.09263363
-0.19083130 -0.02531800 0.05834618
-0.17499755 0.36547440 0.05350099
-0.23262055 -0.26582453 0.07112314
-0.38373783 -0.65797400 0.11732686
-0.39541185 -0.45047289 0.12089616
-0.50145543 -0.28622636 0.15331918
-0.53424585 -0.22206636 0.16334513
-0.73309833 -0.36447424 0.22414462
-0.16597173 0.50348115 0.05074375
-0.67829370 -0.09600083 0.20738864
-0.01389879 -0.55503815 0.00424952
-0.01865801 0.18413550 0.00569572
-0.75433666 -0.77877992 0.23063710
-0.34300044 -0.66308320 0.10487151
-0.51937139 -0.17861602 0.15879732
-0.60516316 -0.66672236 0.18502724
-0.24820343 -0.04642357 0.07588756
-0.45020735 -0.44574445 0.13764974
-0.41570571 0.27812621 0.12710088
-0.69558448 -0.08535377 0.21267539
-0.31028503 0.33812144 0.09486744
-0.12177932 0.29620874 0.03722787
-0.59649670 -0.71642846 0.18237732
-0.14295980 0.38085991 0.04370529
-0.39418706 0.19601902 0.12051957
-0.03420840 -0.08124008 0.01045913
-0.04378881 -0.22667269 0.01338832
-0.18816645 0.57435226 0.05753158
-0.50872010 -0.15724657 0.15554070
-0.03693592 -0.78801858 0.01129306
-0.26141644 -0.25236160 0.07992741
-0.42520061 -0.20454882 0.13000418
-0.16401188 -0.54750961 0.05014621
-0.37573141 0.09672067 0.11487450
-0.16012545 0.52366555 0.04895650
-0.00597266 0.56773525 0.00182275
-0.25257045 0.28655225 0.07721903
-0.03183972 0.01150082 0.00972360
-0.71229547 -0.56061363 0.21778356
-0.70496398 -0.28436291 0.21554270
-0.62058395 0.11484907 0.18974362
-0.24931683 0.31342688 0.07622467
-0.48017123 -0.73486823 0.14681113
-0.17061619 0.33343944 0.05216083
-0.64543390 -0.11769647 0.19734158
-0.10549504 0.03988089 0.03224495
-0.70077258 -0.08671265 0.21426167
-0.40887368 0.12885308 0.12500905
-0.73730081 -0.03640539 0.22543044
-0.30702260 -0.40131918 0.09387137
-0.17902590 0.14298490 0.05472936
-0.55541027 -0.70178330 0.16981527
-0.21123838 0.29887202 0.06458112
-0.45735344 0.12887546 0.13983274
-0.29629192 -0.37329328 0.09059050
-0.60387349 -0.45013073 0.18463346
-0.00771410 -0.49221274 0.00235857
-0.67627716 -0.49719262 0.20677105
-0.51952523 -0.05848880 0.15884466
-0.08728403 0.62100053 0.02668555
-0.68104708 0.02411283 0.20822977
-0.57792962 -0.77516520 0.17670050
-0.25996140 0.40779409 0.07948125
-0.20806664 0.30137321 0.06361134
-0.16405360 0.11032583 0.05015093
-0.03368917 -0.24577668 0.01030038
-0.54598331 -0.21206868 0.16693392
-0.04361569 0.61187077 0.01333318
-0.47593117 -0.51898307 0.14551474
-0.68115473 -0.01827572 0.20826362
-0.04949034 0.28656852 0.01512457
-0.55689520 -0.37989411 0.17026986
-0.23039927 -0.22301881 0.07044398
-0.05966452 0.06932758 0.01823220
-0.45334095 -0.47935033 0.13860783
-0.37416315 -0.56917638 0.11439943
-0.35751387 0.37405765 0.10930932
-0.39836055 -0.61359358 0.12179772
-0.01904170 -0.75244665 0.00582195
-0.40422758 -0.10866760 0.12359184
-0.63845903 -0.52392769 0.19520795
-0.21373360 -0.11023506 0.06534850
-0.01909483 0.49089354 0.00583385
-0.32170597 -0.13564964 0.09836077
-0.48624110 -0.09382076 0.14866783
-0.57465225 -0.46261412 0.17569894
-0.05644244 0.69844347 0.01725654
-0.63231939 -0.20503081 0.19333155
-0.26917997 -0.74910688 0.08230109
-0.65162992 -0.47178584 0.19923513
-0.38642308 -0.10907824 0.11814804
-0.44679767 -0.32285655 0.13660726
-0.45376974 -0.05866417 0.13873968
-0.03579838 -0.06952167 0.01094526
-0.30573398 -0.68181545 0.09347738
-0.04377487 0.41178304 0.01337887
-0.09671336 0.49411964 0.02956662
-0.01193077 0.58091575 0.00364470
-0.31563431 0.27005121 0.09650182
-0.05306689 -0.06475335 0.01622507
-0.12668300 0.56825495 0.03873161
-0.65700376 -0.40291366 0.20087838
-0.11945071 0.03714450 0.03651201
-0.71862811 -0.34828532 0.21972039
-0.11041514 -0.33483037 0.03375915
-0.34121412 -0.59209263 0.10432535
-0.07140013 -0.73831254 0.02183041
-0.09466669 0.52956927 0.02894135
-0.02007059 -0.49556130 0.00613653
-0.13675678 0.44147620 0.04180955
-0.36994451 0.04463148 0.11310406
-0.36770397 -0.67562902 0.11242455
-0.24662410 -0.62244856 0.07540469
-0.51384228 0.04788698 0.15710387
-0.02792677 -0.29745406 0.00853854
-0.13840257 -0.03096070 0.04231623
-0.23375082 -0.13733333 0.07146871
-0.38147381 0.10000325 0.11663042
-0.62628669 -0.19741160 0.19148704
-0.11786214 -0.08119840 0.03603605
-0.52661401 -0.41507784 0.16101117
-0.53430617 0.11569105 0.16336238
-0.55123037 0.07603222 0.16853657
-0.09679977 -0.58746225 0.02959628
-0.21627091 -0.29019168 0.06612428
-0.13973591 0.45285499 0.04272064
-0.74480927 -0.47907442 0.22772495
-0.66521513 -0.57265729 0.20338862
-0.27501339 -0.74350655 0.08408464
-0.24832253 -0.00743558 0.07592398
-0.13382176 -0.42729804 0.04091566
-0.32806271 -0.05393919 0.10030434
-0.15916166 -0.20461348 0.04866327
-0.35943937 0.04480063 0.10989189
-0.32568648 -0.05093687 0.09957781
-0.29662970 0.23908129 0.09069018
-0.45242473 -0.03047713 0.13832849
-0.07593873 0.22796287 0.02321058
-0.22660172 -0.69413805 0.06928290
-0.37845424 -0.32411903 0.11571142
-0.01295592 -0.03606772 0.00396124
-0.48831040 -0.58592343 0.14929967
-0.55564314 0.20538279 0.16988832
-0.15885416 0.02688340 0.04855989
-0.16819911 0.38595140 0.05142260
-0.25193155 -0.16089454 0.07702743
-0.45896584 -0.65199941 0.14032763
-0.36060292 -0.25375852 0.11025343
-0.46905634 -0.33343691 0.14341290
-0.02673714 0.45913792 0.00817010
-0.55382621 0.10276058 0.16933082
-0.69165480 -0.20965031 0.21147357
-0.06551213 -0.08050798 0.02003017
-0.16071135 -0.61446571 0.04913708
-0.10943635 -0.75764960 0.03345988
-0.34487239 -0.38049382 0.10544385
-0.09945715 -0.63848943 0.03040877
-0.17598058 0.17530380 0.05379870
-0.10212092 0.57716393 0.03122141
-0.36279452 -0.73270035 0.11092349
-0.13407490 -0.14069547 0.04099306
-0.40258324 -0.59554887 0.12308880
-0.45649827 -0.06928157 0.13957390
-0.36908746 0.17803141 0.11284450
-0.73340267 -0.78767568 0.22423646
-0.69081682 -0.31095153 0.21121708
-0.14189044 -0.17484565 0.04338264
-0.01124132 0.73630297 0.00343621
-0.00717404 0.25903374 0.00218548
-0.69273257 -0.22389105 0.21180305
-0.46977499 0.01294422 0.14362872
-0.60249621 -0.48612294 0.18421228
-0.23872992 -0.42701295 0.07299106
-0.56275946 -0.08865642 0.17206363
-0.42783880 -0.55514008 0.13081062
-0.74994922 -0.49332765 0.22929646
-0.42787525 -0.60999733 0.13082176
-0.75612372 -0.19353186 0.23118518
-0.19090071 -0.32686344 0.05836741
-0.30223772 -0.09400021 0.09240841
-0.28208724 -0.19367717 0.08624745
-0.56481713 -0.32324502 0.17269216
-0.04174505 0.53589308 0.01276008
-0.56280637 0.10361943 0.17207670
-0.13767023 0.15228593 0.04208454
-0.00869881 -0.76329738 0.00265964
-0.63810307 -0.69149715 0.19509868
-0.22847892 -0.57343376 0.06985685
-0.14912573 -0.09681167 0.04559481
-0.41287529 -0.29170185 0.12623556
-0.12146323 0.45704761 0.03713361
-0.45308527 0.13334119 0.13852774
-0.16447204 -0.69875544 0.05028691
-0.07541684 -0.04316035 0.02305851
-0.09975676 0.48066500 0.03049697
-0.37121728 0.02843742 0.11349292
-0.21951850 -0.38116771 0.06711722
-0.39569858 -0.10500267 0.12098407
-0.10557556 -0.70226556 0.03227946
-0.40280822 -0.66191822 0.12315758
-0.30693555 -0.25673667 0.09384476
-0.27304414 0.49980423 0.08348330
-0.07475079 -0.12107188 0.02285486
-0.73480582 -0.69793367 0.22466575
-0.31292263 0.33375391 0.09567386
-0.37765658 -0.11974244 0.11546762
-0.08346426 0.33140525 0.02551314
-0.38112608 0.21944997 0.11652634
-0.39219484 0.05939575 0.11990784
-0.74218601 -0.13393696 0.22692387
-0.69209427 0.03190033 0.21160783
-0.39706454 0.22115520 0.12139989
-0.52075917 -0.42952159 0.15922101
-0.23808911 -0.41164908 0.07279514
-0.19435145 0.45813203 0.05942058
-0.18975520 -0.73204380 0.05801717
-0.52705222 -0.76222217 0.16114487
-0.29272002 -0.42486054 0.08949839
-0.22724622 -0.55997717 0.06947995
-0.34518048 -0.68770838 0.10553805
-0.06423686 0.56359625 0.01963761
-0.05837120 -0.45656070 0.01784685
-0.09698500 0.45328340 0.02964907
-0.21093552 0.16457444 0.06448640
-0.10302243 -0.30818480 0.03149884
-0.57096183 0.04943475 0.17456938
-0.25201982 -0.72328538 0.07705442
-0.69904822 -0.18279871 0.21373421
-0.26617265 0.21453995 0.08137684
-0.00673109 0.55060768 0.00205439
-0.21242830 -0.37945849 0.06494941
-0.71250665 0.02311516 0.21784917
-0.12827323 -0.67973369 0.03921921
-0.72533107 -0.66979963 0.22176890
-0.10950661 -0.30969137 0.03348137
-0.35913715 -0.02219285 0.10980548
-0.62170726 -0.54874885 0.19008598
-0.45702669 -0.57848227 0.13973475
-0.43116745 -0.13269800 0.13182874
-0.07508962 -0.26422301 0.02295846
-0.27806500 0.13366906 0.08501165
-0.31090048 0.09691097 0.09505110
-0.11643442 -0.10412064 0.03559953
-0.67342126 0.04666507 0.20589845
-0.74478555 -0.14282815 0.22771867
-0.10932718 -0.17363134 0.03342651
-0.15550087 -0.61790705 0.04754399
-0.27838808 -0.25577334 0.08511644
-0.44370916 -0.08529464 0.13566354
-0.60999918 -0.39601636 0.18650657
-0.23685098 0.10618393 0.07240946
-0.71807569 -0.30950427 0.21955159
-0.31457525 -0.37043530 0.09618058
-0.39325052 -0.05206594 0.12023570
-0.41036826 0.03770965 0.12546434
-0.02488916 0.15289994 0.00760050
-0.12541308 -0.37673175 0.03834473
-0.66449583 -0.77853489 0.20316809
-0.35279083 0.07956096 0.10785962
-0.14622030 -0.20317383 0.04470648
-0.72589165 -0.72466201 0.22194014
-0.22609758 -0.12329995 0.06912876
-0.43419623 -0.10132184 0.13275488
-0.07492983 0.32020512 0.02290347
-0.41501868 0.17240763 0.12688883
-0.21523485 -0.18964370 0.06580750
-0.15829822 0.28553185 0.04839376
-0.41545299 0.16580601 0.12702151
-0.36261615 -0.31495640 0.11086896
-0.28687969 0.38855630 0.08771172
-0.07531865 -0.50625342 0.02302848
-0.16575681 -0.13304877 0.05067972
-0.18745278 0.37320891 0.05730958
-0.23847744 -0.58152580 0.07291387
-0.04540792 -0.09383101 0.01388336
-0.11114176 0.58808005 0.03397993
-0.24006876 -0.35624447 0.07340041
-0.18816341 -0.70843351 0.05753048
-0.21630432 -0.63853222 0.06613449
-0.14581887 0.47439238 0.04458104
-0.19468421 0.00671491 0.05951502
-0.09219809 0.62910527 0.02818828
-0.18105331 -0.14438723 0.05535659
-0.62220162 -0.45232612 0.19023736
-0.69677353 -0.62505281 0.21303751
-0.42746523 -0.74758565 0.13069640
-0.24438956 0.39420116 0.07471958
-0.34509370 0.16753571 0.10550771
-0.11689432 -0.07172304 0.03574014
-0.12375829 0.60064453 0.03783793
-0.45203182 -0.39276955 0.13820758
-0.01183972 -0.19883719 0.00361997
-0.66239244 -0.46386832 0.20252582
-0.52070761 -0.36698300 0.15920539
-0.31663862 -0.65577430 0.09681145
-0.12266830 -0.74416953 0.03750552
-0.01263369 0.04740925 0.00385168
-0.41684183 -0.43993545 0.12744832
-0.31982607 -0.27858683 0.09778600
-0.59044427 -0.29723802 0.18052784
-0.11180453 -0.79281896 0.03418395
-0.64806926 -0.42431176 0.19814657
-0.20802946 -0.24830329 0.06360448
-0.08941819 0.20553742 0.02733174
-0.39828855 -0.18151894 0.12177577
-0.50395036 0.25347099 0.15408306
-0.04714977 -0.21939190 0.01441592
-0.63623142 -0.62252206 0.19452661
-0.24371214 -0.30484816 0.07451436
-0.55399895 -0.26479301 0.16938461
-0.45196900 0.08473233 0.13818552
-0.69715595 -0.44507477 0.21315496
-0.32423496 -0.03652184 0.09913401
-0.17518511 -0.66450328 0.05356240
-0.15094285 -0.43890017 0.04615039
-0.66756654 -0.01046001 0.20410898
-0.05589564 0.26968127 0.01708281
-0.10805428 -0.17622261 0.03303732
-0.06203055 -0.33705974 0.01896568
-0.40493822 -0.26448160 0.12380882
-0.15115844 -0.71232790 0.04621631
-0.51166886 0.13386016 0.15644091
-0.16228248 0.47335041 0.04961511
-0.20206025 0.10139069 0.06177174
-0.30859613 -0.65842807 0.09435248
-0.04971364 -0.27611056 0.01519982
-0.10958729 -0.26484120 0.03350603
-0.00451456 0.45380765 0.00137522
-0.04646633 -0.63339937 0.01420696
-0.03865286 -0.73681754 0.01181801
-0.01973749 0.69004655 0.00603332
-0.27837750 0.39287859 0.08511208
-0.36955288 -0.14243411 0.11298985
-0.76256180 -0.69765043 0.23315217
-0.31825548 -0.21955939 0.09730580
-0.50221473 -0.10877896 0.15355179
-0.02333421 -0.36822990 0.00713437
-0.13556093 0.65224493 0.04144781
-0.00834049 0.19159465 0.00254113
-0.51946682 -0.27850410 0.15882625
-0.31880152 -0.12370723 0.09747275
-0.31205019 -0.33414772 0.09540855
-0.66248173 -0.49659032 0.20255305
-0.15420136 -0.56911635 0.04714667
-0.33043814 -0.38030604 0.10103062
-0.56821191 -0.64578909 0.17372935
-0.09889742 0.38163692 0.03023274
-0.23330820 -0.54932517 0.07133338
-0.59221709 -0.18468030 0.18107016
-0.50081044 0.19149011 0.15312181
-0.09625029 0.68551147 0.02942838
-0.07167284 -0.44676533 0.02191379
-0.23888129 -0.28131223 0.07303734
-0.68615562 -0.44501901 0.20979157
-0.33940324 -0.28289926 0.10377168
-0.33733523 -0.56589276 0.10313938
-0.05188289 -0.39681613 0.01586306
-0.73704964 -0.36910498 0.22535273
-0.74208510 -0.23413128 0.22689272
-0.70514631 -0.02445518 0.21559912
-0.20031606 0.50638771 0.06124529
-0.05925246 -0.42047894 0.01811629
-0.09729178 0.53711826 0.02974412
-0.46731997 -0.50623864 0.14288189
-0.62375778 0.06613078 0.19071317
-0.75794750 -0.35132575 0.23174237
-0.06582607 -0.52710170 0.02012615
-0.07114558 0.63554358 0.02175116
-0.44727102 -0.36220646 0.13675196
-0.65973717 -0.62997895 0.20171355
-0.21998610 -0.31438491 0.06726019
-0.32721090 -0.25383461 0.10004390
-0.25925702 0.11652186 0.07926051
-0.53496385 -0.37634450 0.16356426
-0.42147508 -0.44780549 0.12886493
-0.27681258 -0.63457906 0.08463474
-0.33583602 0.21435419 0.10267786
-0.02790433 0.21516481 0.00852334
-0.24917021 0.38369840 0.07618117
-0.71042246 -0.14343858 0.21721201
-0.56841916 -0.45291069 0.17379317
-0.25813946 -0.36046118 0.07892548
-0.24530609 0.21893422 0.07499653
-0.26466176 -0.70940733 0.08091965
-0.68639231 -0.66680551 0.20986331
-0.73393881 -0.42700139 0.22440143
-0.34239656 0.23539069 0.10468428
-0.09053883 0.34046739 0.02767640
-0.05244987 -0.36899033 0.01603641
-0.18182687 -0.25041577 0.05559310
-0.16482085 0.52447748 0.05039224
-0.18893383 -0.60414284 0.05776604
-0.50651062 -0.03427957 0.15486546
-0.53537476 -0.21722084 0.16369033
-0.61126280 -0.11684345 0.18689363
-0.14966197 -0.20900291 0.04575876
-0.10461402 -0.02095143 0.03198547
-0.08118970 -0.46428472 0.02482354
-0.39722657 0.23549274 0.12144970
-0.74034131 -0.49871024 0.22635879
-0.02238483 0.59522903 0.00684136
-0.52518785 -0.04698453 0.16057606
-0.27198917 -0.48136103 0.08315999
-0.25602368 0.16483556 0.07827264
-0.40930849 -0.19468869 0.12514512
-0.21977441 -0.19852580 0.06719546
-0.14451295 0.20128810 0.04417751
-0.55555493 -0.77176082 0.16985948
-0.16723597 -0.34476051 0.05113197
-0.53586537 0.00111436 0.16383700
-0.09481198 0.58919054 0.02898678
-0.40652516 0.18843372 0.12429206
-0.08593885 -0.07741955 0.02627558
-0.22437204 0.15747148 0.06859466
-0.11632058 0.34319139 0.03555949
-0.20598803 0.04117520 0.06297181
-0.37137318 -0.42161071 0.11354640
-0.59322178 -0.15159032 0.18137744
-0.57615811 0.01144861 0.17615753
-0.07833011 -0.07708416 0.02394923
-0.41602692 -0.78937650 0.12719917
-0.34899709 -0.38069680 0.10670497
-0.75349647 -0.21382223 0.23038185
-0.63582873 -0.77739882 0.19440308
-0.45157126 -0.66219586 0.13806675
-0.63317060 -0.42547393 0.19359124
-0.13377538 -0.41586065 0.04090148
-0.29468906 -0.42756641 0.09010043
-0.00864644 -0.35937104 0.00264363
-0.75982481 -0.79442883 0.23231506
-0.39022860 -0.62721503 0.11931139
-0.07286553 0.13447841 0.02226953
-0.13824610 -0.15444499 0.04226839
-0.17670587 -0.73148298 0.05402737
-0.45433253 0.04546259 0.13890748
-0.61275935 -0.58379847 0.18735002
-0.61740661 -0.47527990 0.18877122
-0.28357613 0.46227458 0.08670297
-0.00250068 -0.48449951 0.00076458
-0.71607822 -0.11895235 0.21894135
-0.20545533 0.51136929 0.06281683
-0.57983118 -0.54693198 0.17728220
-0.34203362 -0.36878794 0.10457591
-0.17625526 0.50649619 0.05388821
-0.63532287 -0.46834028 0.19424920
-0.35734567 -0.69216895 0.10925753
-0.22915222 -0.02114051 0.07006271
-0.05384605 0.36776620 0.01645758
-0.15942889 -0.13224101 0.04874498
-0.57969159 0.06984248 0.17723908
-0.27670279 -0.06300528 0.08460117
-0.38495338 0.16143654 0.11769553
-0.52810961 -0.54205012 0.16146816
-0.61602569 0.07844249 0.18834914
-0.07847535 -0.68634957 0.02399364
-0.37529489 -0.22857578 0.11474545
-0.07158458 -0.42015570 0.02188680
-0.35224628 0.00296288 0.10769167
-0.10363237 -0.01905530 0.03168533
-0.48840678 -0.15160047 0.14932984
-0.15493409 -0.46472564 0.04737070
-0.22252984 0.04477268 0.06802970
-0.31354553 0.27545601 0.09586323
-0.07304644 -0.06750553 0.02233376
-0.42117488 -0.36101222 0.12877315
-0.70313597 0.04718771 0.21498436
-0.08762920 -0.17300768 0.02679241
-0.44121554 -0.34934491 0.13490053
