ply
format ascii 1.0
element vertex 503
property float x
property float y
property float z
end_header
-0.74135023 -0.67764926 0.09502295
-0.50634688 -0.42167741 0.00023585
-0.50347281 0.12121972 0.16338494
-0.33059606 0.08028158 0.02386849
-0.77075535 -0.80969119 0.07643838
-0.62552047 -0.01343909 0.21208821
-0.08703906 0.60156226 0.00356265
-0.25528154 0.40407717 0.06709005
-0.49401733 0.04316904 0.13267481
-0.30354357 0.37310541 0.09313091
-0.41087866 -0.13218632 0.01819880
-0.63052458 -0.13100626 0.17997888
-0.58254653 -0.32862598 0.08456179
-0.47277063 -0.24145895 0.03042043
-0.27914193 0.27386516 0.04498553
-0.40752774 0.20876852 0.11952376
-0.72332859 -0.34316105 0.18359992
-0.47812212 0.07515487 0.13073026
-0.62764275 -0.52912611 0.05666952
-0.67478561 -0.27287492 0.16932075
-0.16648486 0.57093513 0.05262658
-0.70044941 -0.20089716 0.21009216
-0.69590569 -0.55566108 0.09875942
-0.44593346 0.02366821 0.09139952
-0.30158663 0.20451584 0.04036898
-0.62306654 -0.62908435 0.02287815
-0.53418422 0.08224854 0.17409194
-0.13359818 0.60290968 0.03819091
-0.29682094 0.32191223 0.07260546
-0.52986532 -0.45322105 0.00791771
-0.67408359 -0.43034193 0.12087035
-0.55873615 -0.14956962 0.12156969
-0.13312356 0.56284046 0.02564383
-0.52364057 -0.15510474 0.09409250
-0.44256246 0.21665223 0.14767213
-0.67960775 -0.00832148 0.25339699
-0.34275451 0.36505005 0.11949623
-0.54281253 0.07436614 0.17803355
-0.44991234 0.12069467 0.12386149
-0.23125076 0.46889770 0.06916223
-0.66840523 -0.78133392 0.00985194
-0.50703835 -0.22430079 0.06082737
-0.62372482 -0.10708917 0.18226223
-0.71532303 -0.22681403 0.21313363
-0.71940553 -0.68011069 0.07814615
-0.46223295 0.15451927 0.14321361
-0.57886976 -0.25687543 0.10370124
-0.22479361 0.29739097 0.01220485
-0.58952856 -0.26739639 0.10833189
-0.63143545 -0.04772736 0.20599920
-0.46005017 -0.12706722 0.05589391
-0.61037612 -0.28281078 0.11896073
-0.12021021 0.60343575 0.02851172
-0.06597373 0.69498211 0.01652073
-0.72555184 -0.68933207 0.07985608
-0.71817100 -0.76605552 0.05107645
-0.68717068 -0.24572457 0.18668751
-0.36620110 0.14817400 0.07070446
-0.68708938 -0.21151517 0.19704144
-0.59606040 -0.44700211 0.05845852
-0.23385499 0.26383054 0.00864760
-0.16259094 0.51450890 0.03258693
-0.40802020 0.07031936 0.07773761
-0.47034350 0.17926393 0.15670736
-0.62323141 -0.63706285 0.02057058
-0.76060474 -0.67953408 0.10859960
-0.18042383 0.51416069 0.04558700
-0.67578065 -0.59208184 0.07288236
-0.72289276 -0.26533604 0.20697029
-0.30160609 0.17156772 0.03035289
-0.55044395 0.03508443 0.17168365
-0.70487553 -0.58269632 0.09712169
-0.41494417 -0.05810884 0.04373649
-0.46138689 0.19308349 0.15433191
-0.67770112 -0.53368610 0.09206997
-0.61728144 -0.33836174 0.10712533
-0.50032818 -0.31313175 0.02885500
-0.48028696 0.15225285 0.15579221
-0.38825777 0.23479810 0.11328570
-0.76315236 -0.74639124 0.09011993
-0.74582553 -0.60645097 0.11998532
-0.53133214 -0.46635777 0.00499676
-0.53704917 -0.23436615 0.07981877
-0.45428401 0.26215985 0.17014062
-0.69822359 -0.74406654 0.04311048
-0.71666378 -0.37581137 0.16876280
-0.30555698 0.42326599 0.10988102
-0.49188724 -0.12543550 0.07978814
-0.35889086 0.16420531 0.07021230
-0.37963927 0.27566537 0.11939286
-0.51915574 -0.19508041 0.07862758
-0.53492659 -0.18337372 0.09378142
-0.68872058 -0.25673243 0.18447569
-0.73067272 -0.80211097 0.04928855
-0.53491992 -0.16882274 0.09820599
-0.28263962 0.40077403 0.08619096
-0.16714796 0.54879045 0.04637240
-0.69828254 -0.57690781 0.09403847
-0.60867411 -0.58398646 0.02602914
-0.21753493 0.45195773 0.05392491
-0.44471869 0.06392643 0.10276252
-0.11628862 0.53343660 0.00431976
-0.11704663 0.55195731 0.01051512
-0.58694953 -0.15405518 0.14093865
-0.72510093 -0.68882680 0.07967851
-0.30754429 0.19296826 0.04123206
-0.40522712 -0.01973201 0.04827756
-0.38957563 -0.05703633 0.02541928
-0.33472803 0.02455726 0.00994107
-0.32004091 0.31383175 0.08721075
-0.24732895 0.23993590 0.01127589
-0.53820723 -0.46817636 0.00949576
-0.70666546 -0.35382536 0.16810763
-0.53030992 -0.20905247 0.08257170
-0.12586243 0.54657382 0.01535529
-0.46143034 -0.11007411 0.06208110
-0.62950891 -0.37152141 0.10601733
-0.40641376 0.04792184 0.06973850
-0.73695207 -0.35729161 0.18931055
-0.42466155 -0.14888556 0.02324463
-0.52567261 -0.43557462 0.01020818
-0.57021368 0.12458688 0.21346042
-0.40586981 -0.04218031 0.04191641
-0.45664266 -0.03284642 0.08207140
-0.54612571 0.10026598 0.18835323
-0.60249883 -0.43721208 0.06617037
-0.44163951 0.12934661 0.12041539
-0.40121469 0.30829269 0.14518219
-0.27477661 0.35279968 0.06580732
-0.59394723 -0.41534272 0.06654295
-0.60504562 -0.04525813 0.18735658
-0.69133162 -0.06112867 0.24593826
-0.48403418 0.13328920 0.15277307
-0.58743972 0.03145456 0.19776820
-0.60923481 -0.27700979 0.11988787
-0.38814348 0.33407217 0.14342371
-0.06999286 0.63366699 0.00080839
-0.66220534 -0.57523549 0.06803391
-0.35782123 -0.03889398 0.00760523
-0.67482817 -0.17893659 0.19794777
-0.41812125 -0.09275309 0.03552532
-0.27943105 0.28306457 0.04799859
-0.40990916 0.15464255 0.10479639
-0.52844638 -0.08703558 0.11834529
-0.65280002 -0.47797096 0.09073005
-0.34744030 0.26420718 0.09224040
-0.59097362 -0.14558277 0.14647509
-0.36861113 0.02576732 0.03521143
-0.60536498 -0.33833629 0.09837550
-0.48707560 -0.11507201 0.07940675
-0.18575405 0.48992202 0.04212540
-0.13122539 0.61704630 0.04075066
-0.65034711 -0.52052057 0.07597484
-0.34388238 0.24571963 0.08399739
-0.66332072 -0.57041371 0.07032140
-0.21394099 0.37518314 0.02791112
-0.71150464 -0.16664670 0.22864299
-0.65242058 -0.23083626 0.16568135
-0.65440583 -0.65899986 0.03680324
-0.46156481 -0.02476587 0.08814857
-0.27328789 0.31808680 0.05414556
-0.60895103 -0.37889105 0.08866568
-0.69202709 -0.61891896 0.07665265
-0.49341324 -0.00640885 0.11713784
-0.28727624 0.19877450 0.02810389
-0.72953129 -0.50107431 0.14008810
-0.35803825 0.37343076 0.13328016
-0.59718841 -0.40150151 0.07313831
-0.54054558 -0.24570715 0.07893599
-0.72430444 -0.24204297 0.21509838
-0.50938147 -0.09410830 0.10218118
-0.44944280 0.02144251 0.09330109
-0.23090111 0.46347857 0.06725550
-0.44258228 0.03131194 0.09126358
-0.34753442 0.20919780 0.07556308
-0.47846931 -0.14116777 0.06513808
-0.72659343 -0.53947157 0.12624051
-0.61069942 0.05494658 0.22201432
-0.60962564 0.02786766 0.21298154
-0.73292500 -0.39788154 0.17399503
-0.68624032 -0.52813274 0.10003606
-0.64839387 -0.58125633 0.05605084
-0.22157831 0.46004772 0.05935939
-0.28007886 0.36347315 0.07295347
-0.62421793 -0.20776418 0.15197816
-0.61084235 -0.47073385 0.06209781
-0.65782231 -0.27676296 0.15567063
-0.42225549 0.09013892 0.09423335
-0.41628447 0.00257208 0.06318705
-0.68088549 -0.30989689 0.16253380
-0.47783735 0.17629619 0.16131140
-0.07204884 0.62703609 0.00030077
-0.47602811 0.01132043 0.10975817
-0.11327279 0.61708069 0.02756709
-0.60837054 -0.47972742 0.05754353
-0.72260892 -0.38964894 0.16891968
-0.63271844 -0.22420573 0.15322037
-0.49237573 0.13716406 0.16008322
-0.66270405 -0.25954360 0.16450001
-0.27648139 0.35270384 0.06703105
-0.10907192 0.62437671 0.02670083
-0.67120206 -0.59156758 0.06967406
-0.32996419 0.37558216 0.11330242
-0.49764436 -0.30774549 0.02852223
-0.59205145 -0.06974508 0.17035294
-0.64732772 -0.56564701 0.06001894
-0.38646838 0.28833044 0.12826747
-0.50118870 -0.15089835 0.07887280
-0.50284266 0.13781279 0.16797327
-0.55896074 0.13277869 0.20768403
-0.61329907 -0.20135167 0.14590581
-0.63467818 -0.33700308 0.12032402
-0.23961431 0.30414653 0.02515373
-0.32683051 0.07611603 0.01983291
-0.58020729 -0.17745505 0.12886053
-0.57174551 -0.17855752 0.12230625
-0.49892548 0.07161485 0.14494173
-0.47396713 0.05012483 0.12005670
-0.69017822 -0.19667394 0.20382930
-0.31314954 0.42359197 0.11556032
-0.59851617 -0.26837319 0.11463963
-0.54826283 -0.04833252 0.14469025
-0.67606729 -0.11127710 0.21945460
-0.54102319 0.15092567 0.20002554
-0.71546990 -0.49393824 0.13192648
-0.33954448 0.19082682 0.06409830
-0.44164842 -0.26235276 0.00118801
-0.64028585 -0.47598350 0.08213819
-0.06834834 0.65542120 0.00622240
-0.27705511 0.42027941 0.08802472
-0.25180167 0.38819504 0.05969758
-0.51757151 -0.07858047 0.11292700
-0.11241307 0.66006458 0.04002082
-0.50788516 -0.32338583 0.03128728
-0.45171905 -0.01216125 0.08474974
-0.30008781 0.36737785 0.08884750
-0.35409039 0.16133845 0.06581150
-0.53537494 -0.27705947 0.06559206
-0.40009406 -0.10940883 0.01720672
-0.63351029 -0.56827420 0.04906458
-0.46828014 0.12387120 0.13832770
-0.54265392 0.12121030 0.19217777
-0.65227306 -0.27400443 0.15243213
-0.60931599 -0.01008905 0.20119882
-0.37920249 0.04317175 0.04829385
-0.46379659 0.18065415 0.15231901
-0.59984934 -0.25681815 0.11913686
-0.28918260 0.38837934 0.08722633
-0.75460255 -0.64950216 0.11333050
-0.31044188 0.21896826 0.05127680
-0.37556243 0.27472639 0.11611080
-0.60618359 -0.29826105 0.11117636
-0.33276567 0.14016058 0.04369197
-0.49126902 -0.07988722 0.09319915
-0.30664441 0.20298432 0.04361989
-0.14067870 0.54338509 0.02527360
-0.53515321 0.16992339 0.20149498
-0.24456529 0.46503842 0.07777270
-0.35610387 0.12057223 0.05488082
-0.58040351 -0.54437780 0.01730994
-0.54929304 -0.04599949 0.14615753
-0.03356090 0.73601550 0.00519112
-0.64530832 -0.65190458 0.03227723
-0.55622816 -0.37422740 0.05133857
-0.43722373 -0.02512229 0.07015146
-0.37874573 0.12311037 0.07229387
-0.50823110 -0.21462904 0.06464810
-0.24702835 0.27920368 0.02300925
-0.53783345 -0.49095881 0.00228589
-0.54285908 -0.06413029 0.13590994
-0.49572876 -0.00927677 0.11796653
-0.31813148 0.37599352 0.10473135
-0.74989182 -0.62230569 0.11814734
-0.51024926 -0.30840948 0.03758362
-0.74192125 -0.62854284 0.11039101
-0.38813657 0.24963701 0.11771404
-0.61632687 0.01939919 0.21532847
-0.10351688 0.56847203 0.00559917
-0.36822549 0.33196592 0.12814401
-0.04626952 0.71386576 0.00778811
-0.23890674 0.22600324 0.00084457
-0.71846420 -0.37364724 0.17074472
-0.50680244 -0.10555084 0.09680261
-0.69528341 -0.04600159 0.25344729
-0.42635149 0.17491458 0.12305189
-0.74696738 -0.59548205 0.12416353
-0.53173232 -0.24439119 0.07285961
-0.34236351 0.27878708 0.09294784
-0.64217323 -0.35405922 0.12064016
-0.47235084 -0.05275307 0.08755579
-0.61551750 -0.23415534 0.13755038
-0.56930745 -0.49960679 0.02278404
-0.60930747 -0.39861566 0.08292326
-0.52012092 -0.08167479 0.11385865
-0.70317018 -0.73005497 0.05101102
-0.56674600 -0.25100416 0.09657861
-0.24636692 0.20903175 0.00116070
-0.21812704 0.28547654 0.00367822
-0.33264029 0.04322049 0.01408837
-0.54900724 -0.46520859 0.01833625
-0.44778976 0.00354870 0.08663880
-0.26488465 0.35433757 0.05900552
-0.46045753 0.06377679 0.11428404
-0.00616077 0.78982961 0.00143641
-0.61970305 -0.39505634 0.09164662
-0.30002493 0.40975335 0.10170166
-0.43715346 -0.23562679 0.00602025
-0.23219462 0.24907599 0.00293560
-0.66727000 -0.47258878 0.10300263
-0.65497977 -0.24876550 0.16210429
-0.15296143 0.43691197 0.00188703
-0.36047480 0.14687195 0.06609959
-0.24935070 0.21330968 0.00465592
-0.63721842 -0.19623145 0.16504309
-0.71366680 -0.80233294 0.03672307
-0.40316850 0.03153834 0.06236582
-0.48373431 0.00907345 0.11473771
-0.58677441 -0.11964062 0.15128610
-0.71106392 -0.26768795 0.19756119
-0.62355989 -0.15256062 0.16829909
-0.57948929 -0.54569072 0.01623842
-0.15879498 0.56346387 0.04470050
-0.48581713 -0.34536558 0.00837833
-0.38714176 0.11416516 0.07574124
-0.42568478 -0.10676594 0.03681823
-0.58416307 -0.43640235 0.05294164
-0.38732520 -0.05719917 0.02371583
-0.66897464 -0.03056835 0.23880967
-0.38105488 0.03804155 0.04809346
-0.46784988 -0.27974114 0.01515065
-0.52647293 0.04832504 0.15809727
-0.55836862 -0.11389885 0.13215812
-0.56066751 -0.28952914 0.08038406
-0.64431137 -0.42741314 0.09988191
-0.56968331 -0.19252983 0.11653740
-0.28295764 0.45568186 0.10314029
-0.41573137 0.20117824 0.12324220
-0.54196912 -0.48496100 0.00715105
-0.44839084 -0.00637493 0.08405950
-0.21992730 0.54049045 0.08263518
-0.23627153 0.49171379 0.07979808
-0.48017901 0.15085512 0.15528736
-0.62260252 -0.46044442 0.07387274
-0.57942861 0.05663980 0.19954768
-0.22017358 0.46226275 0.05900132
-0.35059395 0.20511979 0.07657018
-0.06453766 0.66199255 0.00542231
-0.21847095 0.38710201 0.03486881
-0.59188300 -0.14367320 0.14772470
-0.31769818 0.36391166 0.10073481
-0.46226680 0.21755037 0.16242702
-0.56228960 -0.02321173 0.16264570
-0.60660619 -0.10611218 0.16997889
-0.20004147 0.47868904 0.04920613
-0.30032831 0.10549170 0.00929828
-0.53317171 -0.13862272 0.10611436
-0.34284279 0.13977747 0.05098140
-0.64498627 -0.71286952 0.01348224
-0.47706899 -0.06181781 0.08826385
-0.40647823 -0.17261298 0.00265860
-0.74289227 -0.73276627 0.07937803
-0.58085978 0.06269312 0.20244232
-0.53254980 -0.28325996 0.06162834
-0.43681207 0.06210011 0.09639568
-0.16131158 0.48707107 0.02329379
-0.71869898 -0.55919713 0.11443410
-0.37401885 0.10731476 0.06401124
-0.61831260 -0.23663086 0.13885099
-0.26626536 0.38024089 0.06790601
-0.08035130 0.63309622 0.00824744
-0.41414452 -0.13756354 0.01896205
-0.67426628 -0.54502666 0.08609352
-0.22072323 0.50547570 0.07256058
-0.63139176 -0.49517927 0.06975843
-0.68662143 -0.52454007 0.10140980
-0.58203006 -0.10546010 0.15211606
-0.46684486 -0.10467322 0.06770438
-0.50870883 0.00355934 0.13141377
-0.33764863 0.14446305 0.04859044
-0.52590436 -0.41575998 0.01641027
-0.61899853 -0.03696269 0.20013598
-0.76139522 -0.80896461 0.06978066
-0.51830536 0.13160904 0.17744876
-0.72930306 -0.40505981 0.16914807
-0.23946035 0.23958457 0.00538599
-0.64804095 -0.09599544 0.20350954
-0.45596570 0.03660528 0.10271102
-0.31055805 0.12398609 0.02244677
-0.73768586 -0.57292360 0.12420939
-0.68159992 -0.79454041 0.01552873
-0.21178597 0.54235649 0.07721988
-0.17668074 0.42430240 0.01548053
-0.48179948 -0.31266379 0.01538043
-0.41165116 0.09659174 0.08840425
-0.59814316 -0.05771210 0.17849274
-0.69456941 -0.13274406 0.22651730
-0.55232888 -0.43045875 0.03135556
-0.63958454 -0.47631419 0.08152215
-0.49667504 -0.18874219 0.06403560
-0.44710779 -0.19755323 0.02492576
-0.53640211 0.13687728 0.19235258
-0.46320933 -0.19903468 0.03630805
-0.14524060 0.48441198 0.01067313
-0.24850258 0.22271694 0.00689646
-0.71063215 -0.39256123 0.15923125
-0.66606855 -0.35294870 0.13853925
-0.47725379 0.18473300 0.16345094
-0.32444471 0.33890745 0.09808107
-0.54209334 -0.16427121 0.10486337
-0.30312502 0.44449243 0.11455566
-0.62340349 0.03210972 0.22439879
-0.20457627 0.31956577 0.00409704
-0.37904683 0.02454819 0.04250989
-0.46708158 -0.03936080 0.08776009
-0.74968815 -0.72152084 0.08779567
-0.42503694 0.22760533 0.13812642
-0.64922327 -0.21485136 0.16819754
-0.71120691 -0.75248438 0.05008962
-0.51410723 0.02905247 0.14314212
-0.49303669 -0.14895812 0.07347239
-0.59117991 -0.06903517 0.16992852
-0.73874706 -0.54649955 0.13303304
-0.30523235 0.18943323 0.03845677
-0.50975287 -0.04660447 0.11691477
-0.45053232 -0.19957089 0.02682831
-0.70936292 -0.32752815 0.17809516
-0.59030241 -0.56601018 0.01799967
-0.59619170 -0.46381211 0.05343788
-0.60198623 -0.20686266 0.13591421
-0.50787878 -0.20310970 0.06789578
-0.59175032 -0.21329173 0.12643465
-0.71615016 -0.79273468 0.04146991
-0.71111161 -0.26153654 0.19946876
-0.54740202 -0.46857440 0.01613195
-0.52118140 0.10913051 0.17271934
-0.66445261 -0.68780828 0.03541720
-0.42887813 0.03108780 0.08112364
-0.55792052 -0.33569169 0.06431292
-0.38810492 -0.12588643 0.00337981
-0.62363815 -0.50260144 0.06180084
-0.59315640 -0.36518842 0.08122919
-0.70991147 -0.44677907 0.14219716
-0.44479448 0.13023414 0.12300427
-0.24557702 0.43194866 0.06844275
-0.72165716 -0.69499433 0.07527019
-0.72807014 -0.77267712 0.05633578
-0.56186026 0.12142930 0.20635988
-0.76013315 -0.63319468 0.12235918
-0.03889609 0.71365923 0.00230623
-0.52551466 -0.13005023 0.10309666
-0.66155636 -0.04768952 0.22814699
-0.57899708 -0.01817004 0.17645617
-0.62631106 0.06540811 0.23667273
-0.68244952 -0.35914457 0.14869174
-0.18705948 0.56470174 0.06584998
-0.69821781 -0.73037320 0.04727456
-0.39968213 0.15053922 0.09603099
-0.23933356 0.23674677 0.00442890
-0.63628972 -0.45798972 0.08467887
-0.75765258 -0.62777764 0.12218516
-0.64329708 -0.08445992 0.20353471
-0.33849782 0.30838326 0.09911677
-0.51916057 0.03078982 0.14738493
-0.39134371 -0.10034081 0.01353635
-0.60840136 -0.27718720 0.11922134
-0.66677058 -0.68526024 0.03789636
-0.23842125 0.27029973 0.01397293
-0.65322983 -0.20810977 0.17319424
-0.31161839 0.29263607 0.07456814
-0.72398800 -0.69430161 0.07719400
-0.75998658 -0.71999884 0.09582745
-0.42736849 0.21477762 0.13593484
-0.46438339 -0.02827047 0.08915315
-0.76057076 -0.76060098 0.08389708
-0.65551609 -0.36766279 0.12630495
-0.53113216 0.02476890 0.15435034
-0.38428074 -0.01385319 0.03467335
-0.28854769 0.45841631 0.10808114
-0.68903083 -0.76743579 0.02924072
-0.40325496 0.24539359 0.12753332
-0.33231494 0.23299746 0.07162305
-0.20857255 0.38255006 0.02620835
-0.69238997 -0.54444659 0.09958945
-0.58082747 -0.58423263 0.00548934
-0.61885518 0.03272115 0.22124219
-0.50936091 -0.32798660 0.03097128
-0.66765249 -0.47752476 0.10178117
-0.65188783 -0.46691626 0.09342483
-0.56597149 -0.11925246 0.13611589
-0.24773978 0.22471038 0.00694271
-0.05677850 0.69781262 0.01062450
-0.31403691 0.41289359 0.11295557
-0.76394433 -0.68826163 0.10839714
-0.41108346 -0.16179948 0.00933478
-0.39436179 0.10024876 0.07681093
-0.59088868 -0.52282441 0.03157672
-0.56259149 0.13155994 0.20998140
-0.17111069 0.39265206 0.00175156
-0.40296978 0.01709984 0.05782427
-0.51315278 -0.18104723 0.07848773
-0.50220627 -0.03980141 0.11343957
-0.74807900 -0.48309487 0.15919220
-0.40235114 -0.11463908 0.01727336
