ply
format ascii 1.0
element vertex 1122
property float x
property float y
property float z
end_header
-0.48627496 -0.73929703 0.17699818
-0.51996499 0.14220336 0.18926048
-0.07095511 0.25390378 0.02581929
-0.10059776 0.22607827 0.03660884
-0.50126404 0.11251706 0.18245254
-0.01950847 0.13557790 0.00709077
-0.01809442 -0.71992880 0.00658615
-0.17474744 0.21118329 0.06359923
-0.12020613 0.12787534 0.04374479
-0.40376741 -0.77344680 0.14696644
-0.25416714 -0.62698853 0.09251376
-0.67534822 -0.29412422 0.24581981
-0.36039713 0.34573641 0.13117988
-0.33216995 0.15143067 0.12090114
-0.65648919 -0.36984494 0.23895511
-0.01539761 0.49426195 0.00560000
-0.40647447 -0.42081878 0.14795178
-0.52893102 -0.24545169 0.19252510
-0.68670958 -0.51606274 0.24995473
-0.70129848 -0.40584609 0.25526521
-0.56763643 -0.47553882 0.20661314
-0.16451034 0.41339192 0.05987619
-0.10142656 -0.57895267 0.03691804
-0.12258908 -0.48627654 0.04462094
-0.54589105 -0.60743678 0.19869772
-0.40262350 -0.58536094 0.14655007
-0.34849584 -0.56391388 0.12684827
-0.62177551 -0.50588208 0.22631931
-0.03210959 0.59618241 0.01168478
-0.09593141 -0.12955517 0.03491787
-0.70576042 -0.62788200 0.25688863
-0.50540817 -0.34802812 0.18396273
-0.36136055 -0.46976787 0.13153087
-0.72678322 -0.73064470 0.26454034
-0.47581619 -0.39262119 0.17319138
-0.05668469 -0.24973100 0.02063254
-0.02608811 -0.44278547 0.00949576
-0.03243376 -0.22629616 0.01180549
-0.19012706 -0.17147686 0.06920394
-0.15472481 -0.16378255 0.05631795
-0.36808565 0.23800665 0.13397652
-0.10907518 -0.67116034 0.03970204
-0.21497020 -0.12218858 0.07824655
-0.44661698 -0.54077184 0.16256317
-0.10200432 0.09685930 0.03711882
-0.30175248 -0.21969166 0.10983424
-0.37995565 -0.04879541 0.13829949
-0.11703739 -0.74462271 0.04260019
-0.66396391 -0.06844682 0.24167643
-0.37474823 -0.55965632 0.13640381
-0.16956262 0.14873677 0.06171098
-0.38852692 -0.05136023 0.14141938
-0.69655114 -0.31168595 0.25353751
-0.35886842 -0.71989048 0.13062374
-0.72305137 -0.48638394 0.26318276
-0.10854342 -0.40691480 0.03950849
-0.56399870 0.02927859 0.20528708
-0.28687504 -0.07316822 0.10441904
-0.31322196 0.26852193 0.11400611
-0.27486089 0.11930526 0.10003938
-0.26528108 0.03358703 0.09655089
-0.07309352 0.08442393 0.02659504
-0.45778036 -0.71234006 0.16662650
-0.20827337 0.03077495 0.07579992
-0.48390222 -0.38297403 0.17613466
-0.21495849 -0.18438832 0.07824229
-0.42844015 0.23776686 0.15594624
-0.11259905 -0.61656594 0.04098469
-0.02080807 -0.31104010 0.00757389
-0.02726053 0.70755726 0.00992145
-0.08079805 0.48780569 0.02940578
-0.25763154 0.40427110 0.09377318
-0.68608373 -0.67079103 0.24972646
-0.51924419 -0.31842089 0.18899901
-0.25835720 0.44259492 0.09403806
-0.50736308 -0.79465657 0.18467401
-0.53771800 -0.58699214 0.19572283
-0.73577160 -0.10474630 0.26781386
-0.48788047 0.26762098 0.17758375
-0.19083869 -0.57553446 0.06946297
-0.55820471 -0.02824663 0.20318092
-0.51781350 -0.24356087 0.18847840
-0.72845167 -0.72694981 0.26514766
-0.32995030 -0.47123972 0.12009791
-0.37172556 0.07143119 0.13529830
-0.19965509 -0.18771924 0.07267203
-0.16240013 -0.34754339 0.05911168
-0.43669012 0.05390071 0.15894578
-0.20987083 -0.62436712 0.07639044
-0.24940550 0.13006589 0.09077365
-0.65461111 -0.70392263 0.23827076
-0.17822127 -0.44930461 0.06487038
-0.19121824 -0.69706517 0.06960112
-0.63408983 -0.59259826 0.23080146
-0.19043238 -0.65581685 0.06931508
-0.03376334 0.21143612 0.01228076
-0.45857486 0.23551750 0.16691557
-0.53944921 0.20285524 0.19635411
-0.32647905 0.11301420 0.11882884
-0.73649591 -0.24014883 0.26807711
-0.00785506 -0.53944296 0.00285915
-0.69221050 -0.49432412 0.25195706
-0.69759881 -0.71233541 0.25391766
-0.73220068 -0.03735007 0.26651421
-0.38689095 -0.37745357 0.14082360
-0.69291437 -0.33270028 0.25221369
-0.29623067 0.32666799 0.10782221
-0.12375518 0.44382611 0.04504158
-0.19624484 0.13470685 0.07142313
-0.73560828 -0.14623466 0.26775429
-0.65220493 0.05441428 0.23739561
-0.01418586 -0.46219808 0.00516348
-0.21645863 -0.25993651 0.07878832
-0.16284263 0.14583775 0.05926484
-0.65091765 -0.34345642 0.23692717
-0.62491870 -0.63368946 0.22746316
-0.07642195 -0.32091665 0.02781666
-0.00586646 -0.45163146 0.00213532
-0.01542558 -0.77815509 0.00561472
-0.23054618 -0.23638186 0.08391602
-0.04666290 0.41696632 0.01697942
-0.04177836 -0.28679839 0.01520682
-0.05129541 -0.62152600 0.01867091
-0.45070684 0.01827282 0.16404735
-0.12736693 0.17805859 0.04635212
-0.31226009 0.06178518 0.11365200
-0.05312085 -0.54465479 0.01933534
-0.50864673 -0.75589120 0.18514124
-0.26146498 -0.01150655 0.09517008
-0.05956640 -0.03564279 0.02168145
-0.66621315 -0.60374534 0.24249403
-0.31066963 -0.05935502 0.11307997
-0.30815524 0.12228211 0.11215896
-0.42959607 -0.13029104 0.15636811
-0.22940564 -0.21943630 0.08350087
-0.33026466 0.32394129 0.12021091
-0.04297167 0.26769772 0.01563348
-0.71605825 -0.63113904 0.26063690
-0.69943941 -0.24559098 0.25458893
-0.58100516 -0.45897812 0.21147929
-0.40867022 0.11416306 0.14874738
-0.37538072 -0.03103949 0.13663429
-0.55292374 -0.18691708 0.20125838
-0.52547729 -0.41248596 0.19126762
-0.47728065 -0.17823742 0.17372485
-0.40426117 -0.63387603 0.14714617
-0.25310317 0.31623548 0.09212310
-0.10448666 0.13092779 0.03802292
-0.52802593 -0.57283914 0.19219504
-0.15684769 -0.07210574 0.05709065
-0.56467557 0.16360104 0.20553605
-0.07188828 0.16481102 0.02615758
-0.25449330 -0.18375553 0.09263248
-0.57981539 -0.51982725 0.21104611
-0.11591886 -0.08827676 0.04219306
-0.40323231 -0.46336186 0.14677167
-0.30632058 -0.59024179 0.11149698
-0.57725281 -0.72910619 0.21011302
-0.18271358 0.18771416 0.06649856
-0.21883604 0.24779506 0.07964817
-0.25279930 -0.27390653 0.09201588
-0.71252698 -0.18147486 0.25935286
-0.66458166 -0.63766432 0.24190009
-0.01212620 0.03904356 0.00440211
-0.32622823 -0.12726574 0.11874312
-0.43301311 -0.62002808 0.15761152
-0.62767404 -0.16504610 0.22846700
-0.70928633 -0.13990553 0.25817335
-0.48136625 -0.51686257 0.17521147
-0.30313393 -0.07356149 0.11033707
-0.33823219 0.30368331 0.12311079
-0.41506168 -0.39710569 0.15107742
-0.50091457 -0.44716069 0.18232691
-0.20661461 -0.04280083 0.07520522
-0.17399944 -0.64138967 0.06333369
-0.05352038 -0.21602732 0.01948077
-0.00834988 -0.00639042 0.00303925
-0.32023558 -0.24969701 0.11656186
-0.22424503 -0.48120052 0.08162247
-0.02910261 0.73283070 0.01059239
-0.31272846 0.42906287 0.11382955
-0.39566547 -0.00407137 0.14401785
-0.12858778 -0.46874744 0.04680439
-0.19235633 -0.49623826 0.07001537
-0.54938537 -0.20475098 0.19997041
-0.22543010 -0.56563413 0.08205382
-0.60772336 -0.54901987 0.22120436
-0.72572798 -0.46258542 0.26415706
-0.13246225 -0.69149077 0.04821465
-0.46985734 0.11304957 0.17102017
-0.33037347 0.28171369 0.12024970
-0.20585383 -0.22731510 0.07492830
-0.46755117 -0.56413800 0.17018296
-0.51127940 0.01850298 0.18609644
-0.13059829 -0.65249473 0.04753619
-0.68666136 0.00892603 0.24993727
-0.31083304 -0.46798384 0.11313946
-0.59249020 0.12742089 0.21566018
-0.57563746 -0.33601353 0.20952572
-0.17210925 0.57957637 0.06264547
-0.02424613 0.69305843 0.00882397
-0.16439301 -0.47160375 0.05983706
-0.13373008 0.04118376 0.04866619
-0.55606037 0.12404016 0.20239925
-0.00256661 -0.24631694 0.00093422
-0.36567625 -0.61465651 0.13310173
-0.36300391 0.22447032 0.13212647
-0.28906995 0.08852396 0.10521104
-0.40291116 0.33328575 0.14665523
-0.44615945 0.04626018 0.16239259
-0.35702428 -0.66784239 0.12995251
-0.62617725 -0.32681268 0.22792186
-0.23960499 -0.47357801 0.08721332
-0.15071252 -0.62021315 0.05485753
-0.50947648 -0.62854576 0.18544327
-0.17261283 -0.64638960 0.06282898
-0.65468234 -0.60632640 0.23829696
-0.71608520 -0.42028922 0.26064733
-0.73777717 -0.42593452 0.26854292
-0.63675469 -0.45122153 0.23177174
-0.58447099 -0.50325704 0.21274073
-0.59604138 -0.00642945 0.21695325
-0.17061099 -0.57540733 0.06210033
-0.31995842 -0.65018809 0.11646099
-0.04536018 0.38916031 0.01650479
-0.60357916 -0.61809814 0.21969576
-0.23218456 0.26730829 0.08450756
-0.17155902 0.57086235 0.06244501
-0.56801856 -0.47071517 0.20675223
-0.41254812 -0.37763137 0.15016252
-0.35945141 0.27536052 0.13083430
-0.57657009 -0.66819185 0.20986456
-0.67445087 -0.32907557 0.24549313
-0.04299094 0.12020242 0.01563820
-0.61623269 -0.43793672 0.22430190
-0.58692974 -0.65474313 0.21363541
-0.09744345 0.37991109 0.03546306
-0.42776805 -0.21596339 0.15570255
-0.28977513 0.31890193 0.10547216
-0.39476320 -0.51793981 0.14368902
-0.46560225 0.30351046 0.16947494
-0.23737855 -0.30674809 0.08640292
-0.01394558 0.28858516 0.00506826
-0.01436232 -0.03982679 0.00522771
-0.06151723 0.36881611 0.02238568
-0.20619543 0.49506029 0.07505160
-0.61630559 -0.24773838 0.22432882
-0.27237344 -0.48017544 0.09914063
-0.20403920 0.36461785 0.07426420
-0.37360865 -0.42478091 0.13598903
-0.55512643 -0.45424655 0.20205963
-0.49470904 -0.54272836 0.18006809
-0.58038259 0.03336812 0.21125108
-0.34520218 0.13218050 0.12564465
-0.57617354 -0.60219121 0.20972034
-0.50348836 -0.57624686 0.18326364
-0.07226609 0.36788282 0.02629827
-0.51522440 -0.13952510 0.18753617
-0.16891304 -0.13518958 0.06148230
-0.51959383 -0.32153288 0.18912627
-0.01178643 -0.13763843 0.00429012
-0.36592442 0.18390407 0.13318877
-0.24088109 0.27162528 0.08767327
-0.65029603 -0.79490530 0.23669985
-0.15277107 -0.35562176 0.05560682
-0.57296795 -0.13886167 0.20855443
-0.34533027 -0.55903947 0.12569603
-0.28092492 -0.01771678 0.10225326
-0.67639101 -0.29223371 0.24619938
-0.47751057 -0.50931764 0.17380805
-0.22806886 0.54068589 0.08301465
-0.38894343 -0.28940731 0.14157069
-0.53791964 -0.59319264 0.19579624
-0.15649229 0.57902592 0.05696071
-0.67311323 -0.58663380 0.24500562
-0.12407370 -0.64652044 0.04516132
-0.43582851 -0.15770558 0.15863661
-0.12614036 0.29529488 0.04590747
-0.33375478 0.28518203 0.12148061
-0.24498580 -0.61575192 0.08917186
-0.22547635 -0.34566677 0.08207066
-0.37786758 -0.43672094 0.13753922
-0.46619621 -0.01148403 0.16969052
-0.30639097 -0.12079274 0.11152260
-0.10053330 0.58304870 0.03659108
-0.15996049 0.40823641 0.05821989
-0.40741450 0.09381012 0.14828989
-0.20826676 0.00140971 0.07579706
-0.67368907 -0.30706319 0.24521586
-0.49433795 0.13122790 0.17993174
-0.17838536 -0.66615713 0.06493011
-0.64385915 -0.49080962 0.23435763
-0.08794369 0.07913965 0.03200045
-0.63996840 0.06467895 0.23294158
-0.36327150 -0.00886941 0.13222666
-0.38336429 -0.60637724 0.13953996
-0.69484425 -0.16826843 0.25291649
-0.08955153 0.38194823 0.03259042
-0.01466028 0.48488680 0.00533146
-0.17202751 0.45715585 0.06261336
-0.13157725 0.24936356 0.04788580
-0.31408370 -0.22403437 0.11432266
-0.33338386 -0.15229955 0.12134768
-0.20965804 -0.50485283 0.07631299
-0.59224242 -0.10483799 0.21557027
-0.39547503 0.30594280 0.14394787
-0.27128050 0.30184782 0.09873959
-0.53321260 -0.63769096 0.19408292
-0.48776025 -0.07715709 0.17753956
-0.02069627 -0.22479971 0.00753319
-0.29217556 0.03335126 0.10634052
-0.50681567 -0.70033181 0.18447477
-0.01661318 -0.19415858 0.00604700
-0.52599698 -0.51724929 0.19145659
-0.08413688 0.45912653 0.03062068
-0.42362639 0.07703079 0.15419088
-0.72742778 -0.16183022 0.26477668
-0.00840753 -0.44234157 0.00306024
-0.00664059 -0.72950262 0.00241709
-0.07980375 -0.39755499 0.02904760
-0.24620305 -0.63452959 0.08961493
-0.44692382 -0.39732590 0.16267484
-0.06982112 -0.78808123 0.02541404
-0.38495708 -0.58466703 0.14011972
-0.10426406 -0.69453108 0.03795085
-0.52762699 -0.50765043 0.19204992
-0.19974715 -0.75380284 0.07270554
-0.40505937 0.14106894 0.14743350
-0.35880274 0.07710174 0.13059434
-0.13353138 0.33036131 0.04859836
-0.20171265 0.39766660 0.07341795
-0.07511273 -0.11382327 0.02734012
-0.62801927 -0.68413335 0.22859167
-0.45589727 -0.61094582 0.16594107
-0.37982807 -0.58019209 0.13825281
-0.61787677 -0.47986057 0.22490026
-0.43802533 -0.41806439 0.15943591
-0.21148713 0.51524931 0.07697823
-0.14871021 0.40091711 0.05412458
-0.52595466 -0.27947405 0.19144166
-0.62177038 -0.60519212 0.22631726
-0.22306071 -0.47268167 0.08119139
-0.15463261 0.18207517 0.05627694
-0.32410505 -0.18500234 0.11797031
-0.43660748 -0.41688284 0.15891983
-0.60393405 -0.34633589 0.21982548
-0.56970441 -0.79230165 0.20736550
-0.13463528 -0.36154178 0.04900561
-0.34484735 -0.29766977 0.12552026
-0.06599084 0.25834268 0.02401236
-0.23930548 0.45283964 0.08710322
-0.57471800 -0.30918300 0.20919111
-0.61573559 -0.09032881 0.22412163
-0.54856211 -0.21065271 0.19967075
-0.46750304 0.14868748 0.17016385
-0.16259027 0.15948632 0.05917319
-0.58485085 0.13210084 0.21287945
-0.07495123 -0.23896784 0.02728134
-0.10862012 -0.02361871 0.03953641
-0.59872890 -0.55018383 0.21793042
-0.23617910 -0.70506114 0.08596633
-0.03644737 0.17495987 0.01325718
-0.15718526 0.00366782 0.05720333
-0.18881021 -0.03087549 0.06872463
-0.73592871 -0.07051569 0.26787111
-0.44047385 0.13707346 0.16032469
-0.16611585 -0.04798603 0.06046415
-0.27356592 0.19519386 0.09956945
-0.47534615 0.18538408 0.17301954
-0.49210709 -0.68299204 0.17912102
-0.58556092 0.03135457 0.21313600
-0.18197101 -0.35193455 0.06623524
-0.01391781 0.48303318 0.00506117
-0.41921893 -0.31421706 0.15259060
-0.69932103 -0.15530057 0.25454602
-0.27613527 0.26831973 0.10050613
-0.21507517 -0.15269846 0.07828475
-0.73099482 -0.05682590 0.26607525
-0.44104889 -0.64945942 0.16053645
-0.47731391 -0.60170883 0.17373648
-0.42185256 -0.13303556 0.15354951
-0.29644832 -0.04445266 0.10790359
-0.38323236 0.22671387 0.13948987
-0.31295717 -0.79880345 0.11391262
-0.71483976 -0.25390849 0.26019451
-0.29344454 0.21922718 0.10680596
-0.00549150 -0.16902204 0.00199884
-0.14884147 0.22361320 0.05416960
-0.01394994 -0.27513236 0.00507761
-0.30709830 0.44963622 0.11178051
-0.49245220 -0.39998752 0.17924675
-0.19984069 -0.43651968 0.07273959
-0.19178364 0.21545623 0.06980051
-0.46130407 -0.52892506 0.16790909
-0.04681648 -0.22452790 0.01704063
-0.22897950 0.24565095 0.08334046
-0.07427870 0.07115037 0.02702624
-0.07186500 -0.11956764 0.02615799
-0.35880706 0.40915221 0.13060230
-0.53813648 -0.34242523 0.19587563
-0.07922497 -0.18226790 0.02883693
-0.11829468 0.06190767 0.04304799
-0.47715890 -0.00545055 0.17368089
-0.40903693 -0.33317292 0.14888448
-0.01831156 -0.21811193 0.00666519
-0.25210619 -0.56390923 0.09176360
-0.46806836 0.00653138 0.17036690
-0.17323220 -0.39996630 0.06305442
-0.08907840 0.09432381 0.03241372
-0.16276158 -0.19960348 0.05924324
-0.71668792 -0.07577269 0.26086760
-0.42042270 -0.59233052 0.15302876
-0.54711914 0.01487699 0.19914244
-0.33127725 0.12911363 0.12057576
-0.12798566 0.51857966 0.04658281
-0.22035348 0.10725671 0.08019830
-0.34807432 -0.34525615 0.12669483
-0.00250305 -0.07459305 0.00091108
-0.11751625 0.60094643 0.04277341
-0.33454719 -0.63275945 0.12177112
-0.39586535 -0.54624724 0.14409019
-0.23565818 0.21877599 0.08577107
-0.31150344 -0.41426966 0.11338348
-0.29004931 -0.12642279 0.10557443
-0.58573920 -0.61197078 0.21320216
-0.47560066 -0.60586452 0.17311288
-0.26451716 -0.56320542 0.09628104
-0.13827942 -0.62216455 0.05033203
-0.23992018 -0.14249383 0.08732804
-0.31575805 -0.54087985 0.11493210
-0.44809002 0.22332408 0.16309872
-0.64890766 -0.55886430 0.23619512
-0.18811198 -0.19608480 0.06847048
-0.50258225 0.13042907 0.18293273
-0.55589980 -0.44040030 0.20234115
-0.06961229 0.31842765 0.02533151
-0.61492282 -0.05541043 0.22382587
-0.11610714 0.07217337 0.04225189
-0.65525651 -0.66186333 0.23850580
-0.28046048 0.11592495 0.10207763
-0.31942928 -0.31188461 0.11626839
-0.21181446 -0.71337742 0.07709790
-0.30225113 -0.17611465 0.11001575
-0.31916508 0.19504963 0.11616806
-0.05759569 -0.08965308 0.02096413
-0.06577258 -0.29440421 0.02394042
-0.43183491 0.20236026 0.15718129
-0.08431768 0.63236153 0.03068936
-0.44789135 0.12703785 0.16302456
-0.00079674 -0.41968507 0.00029000
-0.62479651 -0.72407031 0.22741853
-0.62601024 -0.61589187 0.22786050
-0.22423531 0.21291825 0.08161294
-0.68337858 -0.69634682 0.24874176
-0.39583272 -0.24628140 0.14407831
-0.06050014 0.72824699 0.02202136
-0.29754281 -0.73863435 0.10830198
-0.06643051 -0.09340678 0.02417990
-0.70654488 -0.27173719 0.25717524
-0.18034837 -0.75490105 0.06564462
-0.42800555 -0.40045103 0.15578884
-0.05931801 -0.52705240 0.02159104
-0.67814088 0.04230770 0.24683636
-0.47568846 -0.21197625 0.17314523
-0.17609842 -0.42662835 0.06409769
-0.13041803 -0.54048437 0.04747058
-0.23845014 0.43990171 0.08679162
-0.57324433 -0.41366205 0.20865449
-0.10169690 -0.44693369 0.03701644
-0.06684051 0.19363564 0.02432063
-0.19168687 0.37755626 0.06976806
-0.69623268 -0.18079214 0.25342184
-0.31309932 -0.11190571 0.11396436
-0.13781615 -0.18159553 0.05016341
-0.72453934 -0.47544020 0.26372436
-0.24438715 0.35646963 0.08895115
-0.21119478 -0.32922617 0.07687234
-0.46931553 -0.11089916 0.17082573
-0.69467628 -0.36265680 0.25285494
-0.30536133 -0.29899490 0.11114782
-0.61845827 -0.19195744 0.22511248
-0.39038172 0.28843847 0.14209352
-0.01306868 0.04187927 0.00474522
-0.00473831 -0.79364139 0.00172469
-0.37922075 0.26664236 0.13803038
-0.28474209 -0.76171649 0.10364267
-0.30110374 -0.58944660 0.10959811
-0.50421065 -0.59058404 0.18352656
-0.09257319 0.64826947 0.03369477
-0.43323120 -0.21759379 0.15769109
-0.13141572 -0.22157604 0.04783373
-0.69641936 -0.79667610 0.25348812
-0.64750552 -0.12562433 0.23568560
-0.51374823 0.08255656 0.18699636
-0.36720994 0.09819821 0.13365507
-0.20566890 -0.03837902 0.07486098
-0.66425276 -0.32165149 0.24178109
-0.14008746 0.54332691 0.05098848
-0.60074580 -0.06826809 0.21866551
-0.49909329 0.03243972 0.18166083
-0.72991592 -0.07434510 0.26568249
-0.18955575 -0.21676093 0.06899600
-0.08827753 -0.55709368 0.03213195
-0.30421844 0.18292952 0.11072708
-0.51048881 -0.79349852 0.18581174
-0.13476740 0.25865877 0.04904716
-0.01735080 -0.45320755 0.00631548
-0.12210562 -0.27100965 0.04444496
-0.00862119 0.27768454 0.00313000
-0.58724463 -0.45549312 0.21375042
-0.28941965 -0.67436612 0.10534524
-0.50900185 -0.49947205 0.18527052
-0.64537138 -0.55985194 0.23490794
-0.11358384 0.67815959 0.04134346
-0.18569085 0.32860762 0.06758450
-0.09632384 0.68345845 0.03506072
-0.25619495 0.49627841 0.09325202
-0.70280433 -0.51863635 0.25581297
-0.74742723 -0.36851120 0.27205557
-0.12280972 0.46086439 0.04469769
-0.67486548 -0.15772018 0.24564438
-0.00578059 0.35830158 0.00209727
-0.69237393 -0.47190732 0.25201660
-0.19236295 0.18105267 0.07001084
-0.60777426 -0.02778512 0.22122391
-0.37683287 -0.56321645 0.13716260
-0.46180117 0.30757728 0.16809136
-0.29819456 0.10838906 0.10853289
-0.29158252 -0.08836124 0.10613250
-0.41944358 -0.74905318 0.15267238
-0.14702810 -0.73026198 0.05351645
-0.27365527 -0.03905056 0.09960720
-0.41189641 -0.76927435 0.14992531
-0.65103936 -0.78137726 0.23697045
-0.71106678 -0.64579493 0.25882003
-0.46678478 -0.55958855 0.16990399
-0.45536384 -0.63912940 0.16574693
-0.17225924 0.55892813 0.06269967
-0.11839425 0.34794718 0.04308869
-0.02732387 0.43401134 0.00994024
-0.25840354 0.38516766 0.09405383
-0.34505814 -0.48665565 0.12559699
-0.10581044 -0.31844288 0.03851372
-0.53036439 -0.52576244 0.19304627
-0.45315155 0.17282581 0.16494021
-0.41859603 -0.35154736 0.15236388
-0.44703290 -0.09820135 0.16271505
-0.26572263 -0.74235678 0.09671982
-0.71598637 -0.30955565 0.26061171
-0.36157653 -0.46642789 0.13160947
-0.04499215 -0.18041445 0.01637660
-0.07489000 0.35243422 0.02725313
-0.02830314 0.60303134 0.01029933
-0.13736090 -0.32431024 0.04999770
-0.33990517 -0.43625981 0.12372136
-0.32109579 0.29840302 0.11687285
-0.01118991 0.73034722 0.00407206
-0.55789709 -0.47309029 0.20306809
-0.72975320 -0.72066230 0.26562142
-0.35433272 -0.01388210 0.12897301
-0.50835776 -0.02304964 0.18503702
-0.31998190 0.31018767 0.11646760
-0.39343736 0.32497332 0.14320651
-0.04509451 0.18373369 0.01640489
-0.63948715 0.11770425 0.23276745
-0.00123719 0.16192523 0.00044040
-0.12169151 0.66847724 0.04429455
-0.63381767 0.10944942 0.23070350
-0.69908565 0.02770563 0.25446022
-0.12106921 0.04903592 0.04405773
-0.46563506 0.22813705 0.16948542
-0.26017511 -0.08510234 0.09470058
-0.00121123 0.57673335 0.00043741
-0.37057632 -0.66975904 0.13488528
-0.66104925 0.03616974 0.24061470
-0.68765521 0.05741309 0.25029999
-0.48250601 -0.15874937 0.17562689
-0.37249801 -0.50675797 0.13558476
-0.47191447 -0.69538856 0.17177115
-0.39927608 -0.72503746 0.14533167
-0.65341961 -0.44918111 0.23783766
-0.20530498 -0.17467453 0.07472852
-0.19436105 -0.47998077 0.07074506
-0.37347919 -0.18884890 0.13594189
-0.04477171 -0.24693578 0.01629636
-0.16513032 -0.33537003 0.06010543
-0.16917023 0.24108137 0.06156958
-0.14210877 -0.45165795 0.05172587
-0.30400321 0.47607234 0.11065437
-0.37498060 -0.23668136 0.13648839
-0.25169399 0.39669499 0.09161169
-0.17294222 0.04531679 0.06293954
-0.58666909 0.15239795 0.21354172
-0.23175257 0.17673913 0.08434867
-0.30153504 0.23887436 0.10975137
-0.68191433 -0.76822156 0.24820857
-0.11732635 -0.26217264 0.04270537
-0.01443972 0.04911071 0.00524439
-0.62081945 -0.26200330 0.22597180
-0.10332156 0.16993868 0.03759943
-0.67821312 -0.26919493 0.24686266
-0.73922688 0.00424069 0.26907161
-0.08716078 -0.37030277 0.03172547
-0.25633588 -0.35292429 0.09330315
-0.13667719 -0.53528261 0.04974884
-0.73387295 -0.51823938 0.26712155
-0.33165398 0.35669485 0.12071727
-0.22643895 -0.41628757 0.08242104
-0.04572922 -0.39719108 0.01664488
-0.37892497 0.07253112 0.13791898
-0.04508890 -0.71898472 0.01641181
-0.06966961 0.36146078 0.02535304
-0.22635621 0.13466395 0.08238373
-0.27794081 0.31331217 0.10116423
-0.39904955 -0.15070847 0.14524934
-0.63479930 -0.72349066 0.23105946
-0.34220400 -0.61711752 0.12455811
-0.70630956 -0.34985897 0.25708935
-0.09341713 -0.34688565 0.03400270
-0.22753283 0.11192479 0.08281167
-0.48542801 -0.48898470 0.17668991
-0.57742721 0.04233451 0.21017544
-0.38514435 -0.09925969 0.14018805
-0.15763259 -0.46840206 0.05737635
-0.73917431 -0.48454410 0.26905128
-0.24102163 0.28024036 0.08772460
-0.74666536 -0.09685843 0.27177906
-0.35810730 -0.55743098 0.13034672
-0.65701336 -0.39836705 0.23914585
-0.74684185 -0.47353035 0.27184218
-0.45928788 -0.33867213 0.16717529
-0.34759697 -0.75611532 0.12652110
-0.31750825 0.36384508 0.11556820
-0.68979782 0.02047954 0.25107920
-0.45771822 -0.64474583 0.16660389
-0.25535679 0.37117347 0.09294451
-0.29038581 0.06591101 0.10568960
-0.35680890 -0.06558726 0.12987421
-0.21008211 -0.04874094 0.07646734
-0.72315377 -0.39155447 0.26322028
-0.39970523 -0.68113297 0.14548786
-0.40132189 -0.50925195 0.14607631
-0.62303126 -0.78069800 0.22677585
-0.17830089 -0.16507298 0.06489936
-0.04270116 -0.59195894 0.01554270
-0.50431478 -0.13800012 0.18356515
-0.36960691 0.40483904 0.13453352
-0.11448332 0.00394715 0.04165975
-0.19415881 -0.75285405 0.07067145
-0.50392115 -0.51520640 0.18342118
-0.06946760 -0.54619294 0.02528536
-0.05051523 0.13059741 0.01837721
-0.15967850 -0.57174391 0.05812104
-0.35561222 -0.70968902 0.12943853
-0.38717851 -0.25360373 0.14092828
-0.43284252 0.30072343 0.15754996
-0.22782739 0.26333106 0.08292142
-0.11413363 -0.11609074 0.04154326
-0.06213107 0.51395738 0.02261137
-0.65586346 -0.70124787 0.23872659
-0.72738957 -0.29673004 0.26476234
-0.44496393 -0.46449572 0.16196148
-0.38794139 -0.27888870 0.14120597
-0.10255656 -0.08291596 0.03732934
-0.07182703 -0.56438398 0.02614417
-0.45542583 0.10022679 0.16576669
-0.02872601 -0.17618519 0.01045592
-0.22191511 -0.13843091 0.08077441
-0.37609246 0.03036448 0.13688710
-0.59088147 -0.37419397 0.21507436
-0.04370253 0.57031012 0.01590423
-0.05796832 0.31165493 0.02109298
-0.09423012 0.32922158 0.03429261
-0.07831042 0.38680395 0.02849871
-0.16205619 0.08999370 0.05897771
-0.00948429 -0.16084762 0.00345216
-0.65564477 -0.14380841 0.23864821
-0.03989461 -0.67660534 0.01452116
-0.63241589 -0.54540026 0.23019227
-0.54026878 -0.44529530 0.19665156
-0.59979266 -0.24583063 0.21831822
-0.12723918 -0.43824452 0.04631352
-0.08322319 -0.04287734 0.03029223
-0.19831918 -0.00321923 0.07218578
-0.42029235 -0.77710301 0.15298133
-0.47088626 0.19332600 0.17139626
-0.26597074 -0.54449463 0.09681012
-0.72330254 -0.34547403 0.26327458
-0.49865395 -0.36331156 0.18150422
-0.31642523 -0.64375085 0.11517495
-0.65876949 -0.01972507 0.23978581
-0.59810936 -0.18211432 0.21770564
-0.16872343 -0.56738007 0.06141328
-0.27373371 0.15551287 0.09962977
-0.41851828 0.31740099 0.15233609
-0.07810302 -0.25234255 0.02842855
-0.22590302 -0.72487378 0.08222596
-0.16372471 0.13941334 0.05958581
-0.59235901 -0.59038913 0.21561176
-0.29880586 -0.77403587 0.10876171
-0.50531429 0.22742797 0.18392910
-0.01326265 -0.24535513 0.00482744
-0.04603728 0.44426113 0.01675212
-0.06243255 -0.38030174 0.02272469
-0.56973463 -0.54296768 0.20737673
-0.23264685 0.13153321 0.08467348
-0.47760791 0.14416528 0.17384204
-0.42805564 -0.29277644 0.15580708
-0.54236203 -0.70699632 0.19741321
-0.32241392 -0.49362132 0.11735476
-0.62344581 -0.61817086 0.22692709
-0.51607955 -0.29280916 0.18784717
-0.08500926 -0.19144826 0.03094234
-0.50950485 0.13771524 0.18545277
-0.73494661 -0.29488590 0.26751301
-0.72085440 -0.44808671 0.26238319
-0.13249958 -0.06994227 0.04822824
-0.10055269 0.24961260 0.03659280
-0.10613668 -0.54879177 0.03863247
-0.10593660 -0.02824580 0.03855964
-0.35972711 -0.54019159 0.13093631
-0.68895894 -0.46924624 0.25077361
-0.45677841 -0.79707199 0.16626181
-0.58809966 -0.20045207 0.21406214
-0.67084861 -0.43414769 0.24418171
-0.53580016 -0.55763298 0.19502480
-0.49619859 -0.14168812 0.18061092
-0.46122071 -0.56156498 0.16787875
-0.34812546 -0.54926383 0.12671345
-0.61615360 -0.57860970 0.22427283
-0.16987365 0.35333389 0.06182738
-0.28558201 -0.29566002 0.10394838
-0.29212597 -0.29061404 0.10633031
-0.67359483 -0.08063124 0.24518201
-0.70651919 -0.13729304 0.25716612
-0.43410876 0.30764985 0.15801102
-0.09474096 0.63019329 0.03448351
-0.54842013 -0.69017762 0.19961828
-0.19642165 0.01340025 0.07148561
-0.08094544 0.08966972 0.02945323
-0.08251025 -0.20328622 0.03003273
-0.15481658 -0.58828670 0.05635136
-0.15677866 0.56068891 0.05706460
-0.70215434 -0.74341130 0.25557575
-0.29189497 -0.00252193 0.10624623
-0.31156865 -0.40466273 0.11340721
-0.19792186 0.55805671 0.07204114
-0.15743004 -0.07498005 0.05730262
-0.32995391 -0.68227911 0.12009922
-0.48915181 -0.48801509 0.17804533
-0.45833269 0.11268795 0.16682506
-0.60632414 -0.78892249 0.22069465
-0.21309014 -0.10649467 0.07756222
-0.10600213 0.09412334 0.03857398
-0.06521499 -0.11055875 0.02373747
-0.12643583 0.42352739 0.04601702
-0.70871907 -0.02213773 0.25796708
-0.42846134 -0.69576490 0.15595473
-0.51543957 -0.16858608 0.18761444
-0.31655273 -0.28960311 0.11522136
-0.33783615 -0.04105165 0.12296831
-0.70015532 -0.30427691 0.25484940
-0.51982850 -0.62831801 0.18921128
-0.50426602 -0.17657512 0.18354733
-0.12079881 -0.44315884 0.04396930
-0.19885504 -0.09032509 0.07238082
-0.73685479 -0.61464328 0.26820663
-0.15622838 -0.61851007 0.05686524
-0.51898432 -0.24343564 0.18890455
-0.51412743 -0.55189043 0.18713614
-0.09604030 0.22755516 0.03494994
-0.74572623 -0.33215791 0.27143654
-0.03448163 0.26496401 0.01254305
-0.18289019 -0.79032379 0.06656981
-0.37403384 0.02837134 0.13613769
-0.13017559 -0.73392099 0.04738234
-0.26239008 0.47374597 0.09550667
-0.25721446 -0.74998933 0.09362295
-0.27431789 0.40367287 0.09984718
-0.02753112 0.46227247 0.01001612
-0.10526262 -0.05724067 0.03831432
-0.10006177 -0.39634511 0.03642127
-0.26206601 0.19513321 0.09538335
-0.04649816 -0.74907362 0.01692477
-0.61685467 -0.56709647 0.22452804
-0.66438621 -0.25355887 0.24182981
-0.55791211 -0.54871839 0.20307340
-0.69861424 0.05411720 0.25428912
-0.07485799 0.54246974 0.02724444
-0.55425185 -0.73285359 0.20174095
-0.00950422 0.19121100 0.00345007
-0.20874695 0.25849703 0.07597585
-0.13258512 0.52805007 0.04825726
-0.67850316 -0.18969086 0.24696837
-0.33757180 -0.56580812 0.12287205
-0.44714266 -0.22631031 0.16275474
-0.38973075 -0.71146852 0.14185727
-0.39436445 -0.75475073 0.14354387
-0.46991307 -0.57823974 0.17104267
-0.73015851 -0.71380866 0.26576898
-0.17082430 0.61150366 0.06217835
-0.31540057 0.30187041 0.11479979
-0.05726402 0.19055998 0.02083472
-0.35791802 -0.49262941 0.13027783
-0.69546372 -0.20730875 0.25314188
-0.18274772 -0.17106588 0.06651795
-0.17618179 0.51697916 0.06412672
-0.03406086 -0.49122497 0.01239774
-0.01666688 0.43965054 0.00606117
-0.00089661 -0.59654385 0.00032635
-0.02088215 0.26709896 0.00759285
-0.01881606 -0.04183348 0.00684882
-0.17899048 0.24393851 0.06514422
-0.20913623 -0.78980088 0.07612305
-0.24887320 0.21804819 0.09058146
-0.19436648 0.27973723 0.07074167
-0.07170306 -0.75246423 0.02609905
-0.01266071 -0.10875881 0.00460835
-0.02096408 0.44588187 0.00762545
-0.45959681 -0.78459704 0.16728766
-0.44719589 -0.74844009 0.16277388
-0.31902686 0.17408048 0.11611734
-0.35203227 0.30818233 0.12813427
-0.06411165 0.30961800 0.02332913
-0.07407825 -0.10407326 0.02696358
-0.25182062 -0.17597070 0.09165965
-0.14494660 -0.41221243 0.05275881
-0.56864953 -0.39858750 0.20698205
-0.04469586 -0.56178576 0.01626875
-0.55554998 0.12967160 0.20221359
-0.11845101 -0.12671815 0.04311473
-0.08162123 -0.17276092 0.02970914
-0.59117788 -0.17566320 0.21518265
-0.00453844 0.74675673 0.00165117
-0.59548008 -0.40947145 0.21674815
-0.25267407 -0.28162631 0.09197030
-0.56989062 -0.69176871 0.20743328
-0.49366000 -0.65371323 0.17968626
-0.08294532 0.53558254 0.03018814
-0.28129554 -0.41525635 0.10238817
-0.11911396 -0.28593600 0.04335604
-0.02736354 -0.19577971 0.00996000
-0.51291376 0.22585939 0.18669537
-0.35129088 -0.71641022 0.12786563
-0.12815760 0.25678155 0.04664115
-0.50303829 -0.49239528 0.18309984
-0.05332807 0.73576361 0.01941078
-0.16493370 -0.75485671 0.06003387
-0.01016607 0.50585151 0.00369589
-0.00714560 -0.71000195 0.00260091
-0.48165503 -0.57313472 0.17531659
-0.14041342 -0.66231155 0.05110878
-0.21606307 0.08542838 0.07863624
-0.71039397 -0.21312845 0.25857636
-0.21923555 -0.31268778 0.07979908
-0.12991697 0.23679380 0.04728125
-0.16808107 0.28172475 0.06117376
-0.04092527 -0.63120461 0.01489630
-0.63085681 0.10072842 0.22962554
-0.43493614 -0.15629716 0.15831180
-0.54140592 -0.18301427 0.19706598
-0.42494458 -0.22382066 0.15467481
-0.29153004 0.14626029 0.10610766
-0.01031028 -0.47771546 0.00375282
-0.18561590 0.59731847 0.06756239
-0.62338871 -0.66890264 0.22690620
-0.02823455 0.19675142 0.01026804
-0.73823476 -0.37377450 0.26870960
-0.24788126 -0.66077501 0.09022578
-0.46925664 -0.02322924 0.17080447
-0.20101812 -0.12578298 0.07316816
-0.49123415 -0.03989514 0.17880410
-0.39106584 0.05591725 0.14233808
-0.41810414 -0.13992769 0.15218510
-0.68925756 -0.46074027 0.25088233
-0.64732641 -0.14527442 0.23562036
-0.00482817 0.04784283 0.00174575
-0.24022590 -0.15965913 0.08743931
-0.01047763 0.20719653 0.00380465
-0.08902125 0.42251480 0.03239803
-0.47760963 -0.30597427 0.17384435
-0.01490269 -0.34470260 0.00542440
-0.24998866 -0.76186907 0.09099284
-0.04334678 0.23796558 0.01576956
-0.18917336 -0.68205416 0.06885680
-0.31071201 -0.62044007 0.11309540
-0.36207297 0.40417072 0.13179103
-0.74591905 -0.42003071 0.27150649
-0.74925834 -0.22018655 0.27272251
-0.54564023 0.19231611 0.19860750
-0.35110214 -0.29345593 0.12779693
-0.44666368 0.04555169 0.16257611
-0.72319007 -0.40159175 0.26323348
-0.23948112 -0.17759377 0.08716822
-0.23311193 -0.28727609 0.08484992
-0.67321479 -0.72046059 0.24504219
-0.51671845 0.22171842 0.18808024
-0.58711278 -0.48438761 0.21370237
-0.08755494 -0.19574197 0.03186894
-0.41396502 0.19913852 0.15067638
-0.26836723 -0.67995709 0.09768242
-0.21743426 -0.16262533 0.07914343
-0.74326086 -0.04910361 0.27054003
-0.37758303 -0.14758088 0.13743569
-0.12556480 -0.40927362 0.04570406
-0.22050717 0.50317132 0.08026139
-0.35553926 0.04350370 0.12940575
-0.46664432 -0.09609208 0.16985346
-0.24251600 -0.64657444 0.08827288
-0.42576534 -0.25241917 0.15497351
-0.33246049 0.12466161 0.12100639
-0.74626338 0.00004361 0.27163291
-0.51055735 -0.24421962 0.18583719
-0.06658336 0.70524532 0.02423527
-0.17098033 -0.54035115 0.06223477
-0.53207672 0.01393750 0.19366682
-0.40761656 -0.43030664 0.14836749
-0.66019374 -0.29760072 0.24030368
-0.50547868 0.21260950 0.18398865
-0.16694316 0.38586897 0.06076123
-0.34968120 -0.73542088 0.12727971
-0.28086981 0.37018701 0.10223152
-0.71348572 -0.66104746 0.25970045
-0.39328319 -0.72430855 0.14315031
-0.22178327 -0.13510425 0.08072642
-0.63658535 -0.68586916 0.23170964
-0.15868898 0.38538375 0.05775663
-0.11980684 0.44369456 0.04360437
-0.15583439 0.27648497 0.05671586
-0.40642560 -0.19277106 0.14793409
-0.25328216 -0.08463434 0.09219164
-0.34483671 0.34785697 0.12551576
-0.25645739 0.26447847 0.09334309
-0.47314999 0.07011370 0.17221791
-0.34056902 0.33318475 0.12396199
-0.24300753 -0.79423988 0.08845179
-0.06986635 -0.34866208 0.02543050
-0.66099393 -0.46069673 0.24059463
-0.05437512 0.45878616 0.01978733
-0.31775445 0.21046889 0.11565487
-0.57459331 -0.10894505 0.20914611
-0.10786413 -0.18872139 0.03926123
-0.29086959 -0.51178259 0.10587300
-0.70484847 -0.78300726 0.25655624
-0.29891720 0.44233000 0.10880236
-0.32594773 -0.47025025 0.11864103
-0.04866409 -0.61395305 0.01771314
-0.06965910 0.30634603 0.02534836
-0.39986506 -0.42240050 0.14554603
-0.17455587 0.13739982 0.06352835
-0.26209706 0.31217635 0.09539690
-0.59377080 -0.24716154 0.21612631
-0.52844018 -0.43754312 0.19234604
-0.13642858 -0.62357348 0.04965835
-0.00937750 0.38488784 0.00340696
-0.32084802 -0.41773391 0.11678479
-0.32896262 -0.70773375 0.11973841
-0.67442554 -0.58520639 0.24548329
-0.64361203 0.07148163 0.23426802
-0.74519712 -0.54253411 0.27124333
-0.19419260 -0.47310439 0.07068376
-0.18086806 -0.68505144 0.06583378
-0.64046627 -0.58938861 0.23312247
-0.52870488 0.08388746 0.19244076
-0.48794037 -0.27362245 0.17760473
-0.62507784 -0.17318079 0.22752199
-0.06369403 0.17460337 0.02317501
-0.16421896 0.04436143 0.05976425
-0.19413485 -0.48043060 0.07066273
-0.62574732 -0.67296672 0.22776470
-0.56519467 -0.43489295 0.20572443
-0.35374999 0.15369752 0.12875655
-0.17203501 -0.18855666 0.06261866
-0.43238747 -0.63071823 0.15738380
-0.40220493 0.13592684 0.14639437
-0.04202071 0.45580500 0.01529026
-0.05433881 0.17944738 0.01976977
-0.27660134 0.03319663 0.10067147
-0.03722618 0.34728718 0.01354335
-0.37663403 0.08279646 0.13708524
-0.07365306 0.45231971 0.02680444
-0.38551533 0.16928181 0.14031981
-0.36055970 0.29145208 0.13123801
-0.30098104 -0.48665091 0.10955345
-0.33203179 0.29456106 0.12085360
-0.46300176 -0.57596046 0.16852702
-0.43850535 -0.24700923 0.15961078
-0.08324601 0.69390118 0.03030045
-0.20726512 -0.52482766 0.07544199
-0.11190597 -0.72401589 0.04073242
-0.57795298 0.12979895 0.21036851
-0.20097286 0.02302945 0.07314240
-0.42570427 -0.05921057 0.15495165
-0.07734989 0.06868066 0.02814412
-0.25561947 0.23057944 0.09303742
-0.66558701 -0.46197185 0.24226648
-0.20903994 0.35663036 0.07608437
-0.63102317 -0.14346652 0.22968611
-0.58988166 -0.28509036 0.21471062
-0.18482049 -0.22058219 0.06727242
-0.10110109 -0.27604491 0.03679957
-0.29836869 0.13042577 0.10859670
-0.72269255 -0.41230622 0.26305234
-0.60845828 -0.29103145 0.22147235
-0.61304682 -0.55226076 0.22314204
-0.01105933 0.12796022 0.00401515
-0.06083153 -0.01428426 0.02214194
-0.50703728 0.12068472 0.18455423
-0.03646940 -0.55214137 0.01327442
-0.44762182 -0.50232649 0.16292892
-0.50428611 0.14380448 0.18355320
-0.44502717 -0.54358029 0.16198449
-0.29477325 -0.16450334 0.10729388
-0.72545367 -0.71962780 0.26405644
-0.30266297 -0.79921597 0.11016565
-0.11699434 0.62452388 0.04258389
-0.16038790 0.57759780 0.05837873
-0.08515163 0.35813907 0.03098847
-0.33411151 0.26151061 0.12161001
-0.25316805 0.39421615 0.09214823
-0.05869130 -0.44968006 0.02136292
-0.10248963 -0.07572741 0.03730498
-0.03277090 -0.61153287 0.01192821
-0.74807811 -0.50711817 0.27229208
-0.72226477 -0.75515598 0.26289564
-0.07614206 0.71455270 0.02771493
-0.62051255 -0.79313481 0.22585905
-0.12187905 0.31258509 0.04435661
-0.05647820 -0.26854157 0.02055738
-0.03678881 0.40967336 0.01338512
-0.63373625 -0.70724612 0.23067255
-0.33473477 -0.79704046 0.12183940
-0.10810777 0.40910161 0.03934535
-0.53005618 -0.57369375 0.19293402
-0.31808072 -0.77782905 0.11577752
-0.64933443 -0.71785915 0.23635007
-0.50493234 -0.78675401 0.18378925
-0.08047705 0.38527244 0.02928734
-0.33060384 -0.75847989 0.12033579
-0.12252829 0.57656199 0.04459739
-0.07530799 -0.50599992 0.02741120
-0.50682288 -0.25657505 0.18447787
-0.51858342 -0.33164054 0.18875846
-0.34970376 0.38580689 0.12728815
-0.44123393 -0.74089634 0.16060381
-0.21442038 0.33622608 0.07804252
-0.63639253 -0.33362344 0.23164015
-0.73585761 -0.13369560 0.26784509
-0.75157917 -0.37501958 0.27356681
-0.37368920 -0.78136355 0.13601834
-0.36654612 -0.79612041 0.13341834
-0.51262408 -0.66580015 0.18658894
-0.47558779 -0.01023142 0.17310899
-0.33054408 -0.45091566 0.12031404
-0.52967995 -0.41958988 0.19279736
-0.56792432 -0.60024822 0.20671768
-0.43734169 -0.13556127 0.15918744
-0.20907284 -0.60622132 0.07609998
-0.60166717 -0.07927694 0.21900085
-0.54006320 -0.77884978 0.19657646
-0.24549364 0.19634174 0.08935085
-0.18718465 0.35179257 0.06812871
-0.50736058 0.10002193 0.18467152
-0.08750427 -0.37296665 0.03185049
-0.38203079 -0.00138771 0.13905492
-0.48882145 -0.23018470 0.17792553
-0.17105122 0.53951281 0.06225957
-0.10024209 -0.06700499 0.03648690
-0.48204985 -0.16261207 0.17546085
-0.38932148 -0.18210737 0.14170834
-0.08823751 0.09492074 0.03210764
-0.47065598 0.20867196 0.17131270
-0.07721430 -0.34004804 0.02810507
-0.53438115 -0.79767108 0.19450827
-0.65045226 -0.67395097 0.23675708
-0.25725991 -0.13522147 0.09363949
-0.41111180 -0.15975225 0.14963989
-0.64364034 -0.25283790 0.23427846
-0.25655019 0.23672999 0.09337634
-0.49078417 0.21991239 0.17863981
-0.21251570 -0.66133666 0.07735313
-0.65923637 -0.29465854 0.23995522
-0.74769032 -0.42740187 0.27215117
-0.18684658 0.02904237 0.06800050
-0.35114762 -0.44031671 0.12781347
-0.53333402 -0.65906459 0.19412711
-0.60921234 -0.52588403 0.22174639
-0.38290006 0.38147917 0.13937189
-0.16283588 0.18967877 0.05926307
-0.24197096 -0.33502963 0.08807450
-0.45454168 0.22703815 0.16544728
-0.52083206 0.20102923 0.18957724
-0.35385919 -0.49870008 0.12880047
-0.22757602 -0.79552782 0.08283491
-0.06079331 -0.40141898 0.02212803
-0.64784276 -0.00193576 0.23580860
-0.19346224 0.13637380 0.07041029
-0.18273205 0.36125314 0.06650809
-0.34412596 -0.08825031 0.12525769
-0.02844342 -0.42644370 0.01035306
-0.08482773 -0.13736245 0.03087626
-0.68114686 -0.77693683 0.24792919
-0.38088384 -0.08107357 0.13863729
-0.08507071 -0.38971043 0.03096471
-0.47140682 -0.68919683 0.17158636
-0.18725863 0.42010036 0.06815695
-0.14156494 -0.71405995 0.05152792
-0.72682363 -0.62853158 0.26455539
-0.17949484 0.18745156 0.06532693
-0.11423450 -0.09434326 0.04157997
-0.30827186 -0.36680487 0.11220721
-0.06172819 -0.67137808 0.02246831
-0.02038277 0.40103108 0.00741316
-0.37407798 -0.16795094 0.13615984
-0.44446847 -0.02828626 0.16178174
-0.29350972 0.12318550 0.10682783
-0.03654751 0.11425069 0.01329269
-0.74499547 -0.09019265 0.27117127
-0.61631328 -0.78925550 0.22433054
-0.47180459 -0.48894155 0.17173114
-0.45911446 -0.19820163 0.16711245
-0.40351295 -0.70274401 0.14687383
