ply
format ascii 1.0
element vertex 1251
property float x
property float y
property float z
end_header
-0.28752297 0.11659592 -0.00021155
-0.60529339 -0.66131967 0.19377734
-0.02134380 -0.77736348 -0.00000003
-0.40864649 -0.76240021 -0.00000230
-0.35318890 -0.19346377 0.00000052
-0.06409745 0.36726382 -0.00000134
-0.04299642 0.72598219 -0.00059109
-0.46937096 -0.35526136 -0.00000089
-0.05719061 -0.22399032 0.00000217
-0.62677860 -0.47496921 -0.00477712
-0.09262650 0.02853874 -0.00000853
-0.34386501 -0.76655161 -0.00000193
-0.07181500 -0.38597307 0.00000138
-0.20238002 -0.10732532 0.00000181
-0.70051658 -0.62110424 -0.00541727
-0.30078754 -0.41981819 -0.00000015
-0.68788046 -0.68509889 -0.00352185
-0.03286501 0.52068710 0.00000136
-0.43651447 0.12472548 -0.00759018
-0.01947887 0.65860403 0.00000423
-0.36381108 0.22018117 -0.00598365
-0.37719125 0.36386135 -0.00951329
-0.76226974 -0.74824089 -0.00585733
-0.52164853 0.19016202 -0.01302558
-0.58562768 -0.51509154 -0.00197951
-0.20359281 -0.60895276 -0.00000039
-0.54873830 -0.35438833 -0.00341603
-0.66637272 -0.58741581 -0.00443942
-0.60103875 -0.19673510 -0.00911080
-0.16996238 -0.66354477 -0.00000043
-0.53608537 0.15293448 -0.01297811
-0.10101193 -0.12965006 0.00000232
-0.61236984 -0.58223683 -0.00192795
-0.51916671 -0.34344715 -0.00220333
-0.68252569 -0.32593372 -0.01046597
-0.23627354 0.52472484 -0.00591499
-0.62960005 -0.70693976 -0.00026136
-0.41028529 -0.19053701 0.31629124
-0.57438707 -0.62987512 -0.00000272
-0.32602733 -0.38692802 -0.00000016
-0.20903702 -0.50710219 0.00000002
-0.36436838 -0.58526808 -0.00000126
-0.16043790 -0.78684652 -0.00000091
-0.64834607 -0.74175054 -0.00047106
-0.34412965 -0.78527403 -0.00000201
-0.28257522 -0.16130713 0.00000109
-0.39620715 -0.67830753 -0.00000186
-0.02761409 0.33588329 -0.00000319
-0.79682994 -0.13994437 -0.01973167
-0.40852752 -0.54148531 -0.00000133
-0.33520976 0.45082480 -0.00922428
-0.46850327 0.11356636 -0.00891558
-0.43374097 -0.37550837 -0.00000076
-0.49740407 0.10510139 -0.01014545
-0.32463759 -0.74702370 -0.00000173
-0.41562259 -0.20342222 0.31170934
-0.15726270 0.52013475 -0.00199647
-0.18720964 0.37547937 -0.00054559
-0.56004494 -0.19780143 -0.00710411
-0.36086601 0.33939832 -0.00823204
-0.55832160 -0.54792249 0.20192440
-0.42731330 -0.23164840 0.39086714
-0.21307915 -0.13775751 0.00000161
-0.29592121 -0.76780635 -0.00000165
-0.31825742 0.20904393 -0.00355414
-0.57719433 -0.73378754 -0.00000319
-0.06702398 -0.08889526 0.00000271
-0.54278225 -0.21928680 -0.00583717
-0.52345335 -0.00931703 -0.00911224
-0.38679171 -0.38963252 -0.00000054
-0.09051106 -0.47969344 0.00000086
-0.40876666 -0.08775735 -0.00198482
-0.12909234 0.07750389 -0.00000626
-0.12768368 -0.46095988 0.00000071
-0.07880032 -0.35378197 0.00000148
-0.30381367 0.34833223 -0.00564820
-0.76047748 -0.31446025 -0.01447112
-0.66372865 -0.80239129 0.13746451
-0.53157699 -0.48335686 0.27919367
-0.35323504 -0.77661926 -0.00000203
-0.37480602 0.29988560 -0.00811468
-0.60461861 -0.65969062 0.15889120
-0.15725110 -0.40506607 0.00000078
-0.75853032 -0.12067259 -0.01826355
-0.00762729 0.72934252 0.00000555
-0.14731692 0.49903202 -0.00109157
-0.73274070 -0.49839571 -0.00943880
-0.30363718 -0.24783631 0.00000058
-0.16919582 -0.37050614 0.00000086
-0.48831305 -0.42661241 -0.00000131
-0.52356350 -0.20058894 -0.00528142
-0.06137941 0.28133932 -0.00000347
-0.62685347 -0.71902049 -0.00000343
-0.12447027 -0.78910917 -0.00000070
-0.51139730 -0.60893083 -0.00000225
-0.41604659 -0.20444568 0.30716944
-0.05530179 0.24528971 -0.00000451
-0.33616969 -0.14979444 0.00000082
-0.73178220 -0.21278606 -0.01512073
-0.16695385 0.32096982 0.00000066
-0.31515136 -0.65073019 -0.00000125
-0.49362081 -0.39172488 0.29519212
-0.11010493 0.12196257 -0.00000578
-0.21357629 -0.30654535 0.00000087
-0.35492453 -0.41733295 -0.00000047
-0.29861906 0.17746444 -0.00196971
-0.72124422 0.02630667 -0.01940561
-0.22572108 0.33453190 -0.00158943
-0.18383962 0.28648216 0.00000035
-0.05050013 0.46994945 0.00000069
-0.65492028 -0.48353925 -0.00596812
-0.00170561 -0.39066663 0.00000179
-0.12990424 0.66799152 -0.00363691
-0.73188174 -0.20165728 -0.01534875
-0.32982436 0.29428658 -0.00582395
-0.52674091 -0.42445353 -0.00094548
-0.30421534 -0.04140835 0.00000148
-0.70800376 -0.60271591 -0.00614862
-0.75777632 -0.42853868 -0.01205220
-0.36630860 -0.69116801 -0.00000173
-0.69809198 0.07323942 -0.01922565
-0.52752233 -0.47356832 0.25778258
-0.69402283 0.10259162 -0.01961727
-0.63441974 -0.66903019 -0.00125509
-0.62334663 -0.66149288 -0.00087000
-0.54817897 -0.27391568 -0.00500290
-0.57310706 -0.52431220 -0.00118821
-0.62888384 -0.73971015 -0.00000353
-0.43229064 0.04094813 -0.00570539
-0.41242817 0.25400856 -0.00901659
-0.07344727 -0.50705642 0.00000084
-0.66317415 -0.80105263 0.14077578
-0.56728786 -0.73134470 -0.00000312
-0.49802399 -0.21162282 -0.00382326
-0.11686068 -0.00823332 0.00000276
-0.26362011 0.13872074 -0.00000075
-0.08434407 -0.01295054 0.00000293
-0.38960189 0.40898266 -0.01101928
-0.47076997 -0.33655861 0.28930500
-0.57117563 -0.57895410 0.23207805
-0.03460375 -0.21790297 0.00000234
-0.29733959 0.42155272 -0.00680317
-0.34868634 -0.04182581 0.36988214
-0.63587403 0.12420341 -0.01723459
-0.70997417 -0.29972190 -0.01232099
-0.15069333 0.59273618 -0.00313442
-0.57319266 -0.30792800 -0.00553215
-0.46962470 -0.09285349 -0.00482994
-0.34300548 0.26274189 -0.00582964
-0.71467847 -0.49142554 -0.00870402
-0.69573170 -0.38606042 -0.00989963
-0.18873951 -0.70790005 -0.00000074
-0.24664754 -0.30663639 0.00000067
-0.54966909 0.20368499 -0.01465381
-0.23918395 -0.18419217 0.00000125
-0.43479994 -0.24971996 0.30188459
-0.23887061 0.26072541 -0.00074600
-0.36552623 -0.00353263 -0.00157992
-0.22088410 0.45921120 -0.00385575
-0.44965798 0.18956536 -0.00952714
-0.38304713 -0.24767850 0.00000010
-0.36554134 -0.53757572 -0.00000106
-0.37384206 -0.21249713 0.00000031
-0.07760398 -0.69429505 -0.00000001
-0.43805769 -0.25758499 0.30823964
-0.36664018 -0.65023702 -0.00000156
-0.37499297 -0.10533331 0.36358336
-0.00164098 -0.13474762 0.00000291
-0.72233808 0.05695990 -0.02007337
-0.06452749 0.58897614 0.00000394
-0.00874264 0.51529813 0.00000050
-0.10662990 0.61417639 -0.00143045
-0.00380022 -0.07653260 0.00000317
-0.04805335 0.40296596 -0.00000098
-0.14671057 0.34155384 0.00000054
-0.12253276 -0.13458544 0.00000217
-0.27997190 -0.40130302 0.00000005
-0.65813285 -0.04236466 -0.01497189
-0.68756652 -0.44301772 -0.00836186
-0.79929131 -0.12676384 -0.02011523
-0.51176244 -0.52622497 -0.00000189
-0.76685053 -0.55205804 -0.01001408
-0.30268914 -0.23659366 0.00000064
-0.68821406 -0.63342273 -0.00457447
-0.16253293 -0.61924547 -0.00000019
-0.69062376 -0.15763693 -0.01423351
-0.48061281 0.07183540 -0.00866508
-0.18363170 0.33936101 0.00000160
-0.02698574 -0.38835859 0.00000164
-0.67948228 -0.56226218 -0.00557879
-0.41288698 -0.19681920 0.35346526
-0.25796059 0.45051160 -0.00547686
-0.24583048 0.31145424 -0.00210048
-0.33106506 -0.55620813 -0.00000093
-0.06677762 0.66064304 -0.00043236
-0.59029168 -0.76073682 -0.00000339
-0.79475689 -0.77731699 -0.00684718
-0.03642069 0.45392051 -0.00000012
-0.23635213 -0.22732960 0.00000108
-0.11592497 0.29724628 -0.00000144
-0.67449546 -0.25025406 -0.01159490
-0.44318584 0.32971904 -0.01202462
-0.41747704 -0.20789969 0.32491988
-0.28342694 -0.50121838 -0.00000040
-0.30452105 -0.08880655 0.00000127
-0.08753258 0.55152822 0.00000374
-0.19922094 -0.41092271 0.00000050
-0.77536494 -0.32830036 -0.01491438
-0.35886756 -0.78489065 -0.00000210
-0.50180471 -0.55164719 -0.00000194
-0.36550376 -0.48900083 -0.00000085
-0.47919154 -0.63243055 -0.00000216
-0.18235479 -0.03434240 0.00000225
-0.37362456 -0.01059002 -0.00183057
-0.55299819 0.11930272 -0.01312267
-0.67368150 0.12040874 -0.01898944
-0.33183864 -0.65175796 -0.00000135
-0.05142497 -0.04093033 0.00000301
-0.36004743 -0.06925347 0.37328368
-0.52605754 -0.66601384 -0.00000259
-0.06295926 -0.55597138 0.00000069
-0.36425924 -0.07013060 -0.00018287
-0.19361879 -0.45698109 0.00000033
-0.15927786 -0.63960719 -0.00000026
-0.09642043 -0.51219684 0.00000068
-0.62764865 0.14465789 -0.01724648
-0.41071197 -0.70560426 -0.00000207
-0.26403871 0.51180464 -0.00700051
-0.49583548 -0.31354436 -0.00167314
-0.17363247 0.29991260 0.00000036
-0.03291462 -0.54683429 0.00000091
-0.41068363 -0.10724297 -0.00168685
-0.49848726 -0.67270529 -0.00000245
-0.36350149 -0.13275599 0.00000073
-0.76657373 -0.44270942 -0.01219394
-0.68936270 -0.05289722 -0.01627310
-0.62006122 -0.46866372 -0.00457826
-0.71907693 -0.61808443 -0.00637654
-0.64793783 -0.26461256 -0.01002076
-0.35116246 -0.52136576 -0.00000090
-0.52709216 -0.20870271 -0.00528959
-0.06598978 -0.24690256 0.00000202
-0.37754714 -0.11150047 0.37493122
-0.11047284 -0.67176843 -0.00000011
-0.38429743 0.00492195 -0.00265856
-0.58964711 -0.71922976 -0.00000321
-0.20489359 0.06292114 -0.00000432
-0.25580835 -0.55482906 -0.00000047
-0.19571929 -0.23455758 0.00000129
-0.49733168 0.29016098 -0.01385350
-0.54910582 -0.48166046 -0.00088127
-0.38774055 -0.13610907 0.37768504
-0.16775198 -0.71424854 -0.00000064
-0.19182007 -0.79844052 -0.00000115
-0.52001745 -0.21337016 -0.00485335
-0.43151101 -0.48729199 -0.00000124
-0.37915295 -0.27528641 0.00000001
-0.48162133 0.26092473 -0.01250629
-0.44473335 -0.02844374 -0.00491626
-0.63024247 -0.72155052 0.17319307
-0.54500532 -0.51577502 0.23700787
-0.14699651 -0.35635495 0.00000105
-0.67629361 -0.37573177 -0.00916541
-0.33627245 -0.35830432 -0.00000010
-0.31058109 0.19346470 -0.00286992
-0.18626978 -0.33351380 0.00000092
-0.62355042 -0.48689789 -0.00438154
-0.39428490 0.24363036 -0.00792978
-0.51595592 -0.08488628 -0.00723352
-0.11427262 -0.66037995 -0.00000008
-0.62749082 -0.69119924 -0.00047491
-0.19398145 -0.48109579 0.00000022
-0.28193936 -0.70670271 -0.00000129
-0.45254818 -0.72587532 -0.00000241
-0.55160338 -0.41118434 -0.00241569
-0.11384190 0.56427133 -0.00077883
-0.75135392 -0.65459484 -0.00720709
-0.28286391 0.42086419 -0.00608831
-0.79110837 -0.41357756 -0.01396623
-0.65320253 -0.41230407 -0.00731363
-0.46143505 0.08843205 -0.00806917
-0.13641527 0.29488042 -0.00000088
-0.69152409 -0.68817097 -0.00363666
-0.08700452 -0.19143593 0.00000214
-0.23861630 -0.47726846 -0.00000003
-0.55884695 -0.26462629 -0.00570585
-0.21294634 0.42895678 -0.00286454
-0.22653386 -0.05856747 0.00000188
-0.21954347 -0.57212758 -0.00000033
-0.26794744 -0.00921900 0.00000184
-0.16650258 0.20593399 -0.00000208
-0.57509238 -0.29669535 -0.00584944
-0.56470805 -0.25973818 -0.00608774
-0.07541539 -0.61196947 0.00000037
-0.34833997 -0.19976103 0.00000052
-0.17119554 0.33814248 0.00000120
-0.61817509 -0.61606121 -0.00153072
-0.11607147 -0.71032131 -0.00000031
-0.64834088 -0.40681711 -0.00718823
-0.01477718 0.00087005 -0.00001153
-0.49830046 -0.00847245 -0.00791103
-0.14089257 0.05583458 -0.00000642
-0.38751236 -0.40254325 -0.00000060
-0.54523867 0.03097944 -0.01097547
-0.53593040 -0.14420907 -0.00701110
-0.20022497 -0.26785073 0.00000112
-0.64266980 -0.55791730 -0.00388312
-0.72897822 -0.27122101 -0.01381296
-0.61533517 -0.65705103 -0.00057109
-0.62554216 -0.71020323 0.14760810
-0.48394817 0.18659201 -0.01112817
-0.03167677 -0.34207189 0.00000181
-0.43872210 0.13800180 -0.00796336
-0.64384037 -0.09675219 -0.01318892
-0.26357982 0.52445728 -0.00723205
-0.23736919 0.55818295 -0.00663905
-0.67127639 -0.19654153 -0.01251626
-0.34158832 -0.02682062 0.00000132
-0.06697541 0.13760433 -0.00000671
-0.35343039 -0.11146129 0.00000088
-0.38330504 -0.12540264 0.39552385
-0.52328688 -0.59790212 -0.00000227
-0.48465264 -0.49064746 -0.00000157
-0.22703554 -0.58051878 -0.00000041
-0.07276952 -0.06770250 0.00000276
-0.72514117 -0.31622076 -0.01272462
-0.57632005 -0.48820901 -0.00206790
-0.73747325 -0.54672331 -0.00869862
-0.27762616 -0.25733265 0.00000070
-0.43422276 -0.24832766 0.33694890
-0.30206206 0.06154928 -0.00000142
-0.54479915 -0.21973538 -0.00592586
-0.00755417 -0.56423306 0.00000103
-0.00153563 0.33139491 -0.00000408
-0.62007219 -0.37258324 -0.00650578
-0.12122304 0.31690919 -0.00000082
-0.77030772 -0.27896512 -0.01565905
-0.06137338 -0.63562781 0.00000035
-0.74815392 -0.23398429 -0.01548845
-0.77915305 -0.58120555 -0.01002515
-0.67946810 -0.84038877 0.11238423
-0.45428887 0.04072162 -0.00676621
-0.43342915 0.17226303 -0.00839417
-0.06180397 -0.01947167 0.00000304
-0.58607703 -0.07125621 -0.01090282
-0.07564451 0.03940487 -0.00000878
-0.31601363 0.26930708 -0.00465411
-0.34961227 -0.71089733 -0.00000172
-0.26178530 -0.56343514 -0.00000055
-0.09564515 -0.12332555 0.00000238
-0.07198160 -0.42784655 0.00000119
-0.50922883 0.13143292 -0.01124622
-0.29569286 -0.71762115 -0.00000142
-0.15473089 -0.58933026 -0.00000001
-0.13772604 0.21501324 -0.00000274
-0.40425247 -0.69993180 -0.00000200
-0.09688607 -0.08422988 0.00000255
-0.16191266 -0.60604721 -0.00000013
-0.69395959 -0.15988894 -0.01434990
-0.16307341 0.29019138 -0.00000019
-0.02383983 0.15502229 -0.00000760
-0.71110731 -0.67385477 -0.00487203
-0.45790651 -0.30550510 0.36251390
-0.12878437 0.41432613 0.00000173
-0.37598801 -0.18593208 0.00000042
-0.46904436 -0.37438127 -0.00000097
-0.33099082 -0.79614335 -0.00000198
-0.13684252 -0.50094301 0.00000048
-0.39624652 -0.20450541 0.00000021
-0.01139552 -0.44416007 0.00000149
-0.34420633 -0.33290017 -0.00000003
-0.29229328 0.43439832 -0.00681641
-0.23580226 0.11798433 -0.00000208
-0.64740396 -0.76298088 0.15104958
-0.49425802 -0.25446308 -0.00278168
-0.45655659 -0.36571291 -0.00000086
-0.61792952 -0.30988705 -0.00765945
-0.08894873 -0.27212563 0.00000177
-0.40677273 -0.18205908 0.38287941
-0.32722953 -0.77101481 -0.00000185
-0.69723511 -0.55154532 -0.00665348
-0.28167862 -0.25258997 0.00000069
-0.46433857 -0.32103148 0.27763948
-0.76365870 -0.05450644 -0.01983894
-0.49389994 -0.13420610 -0.00517621
-0.11416333 0.68344343 -0.00318449
-0.49410367 -0.39289004 0.26157653
-0.09563109 -0.48203140 0.00000081
-0.08238929 0.13934980 -0.00000620
-0.47218516 -0.22148824 -0.00237404
-0.54046285 -0.03035387 -0.00951408
-0.60506123 -0.78631312 -0.00000359
-0.24078597 0.12380163 -0.00000179
-0.50539452 -0.03526494 -0.00771724
-0.47728756 -0.26883307 -0.00167160
-0.35949963 0.37943465 -0.00896883
-0.22490697 0.07892851 -0.00000334
-0.27849603 0.39063057 -0.00527041
-0.40142620 -0.74031401 -0.00000216
-0.05816057 -0.37174430 0.00000152
-0.08293044 -0.79055691 -0.00000046
-0.27037716 -0.21436416 0.00000093
-0.36326525 -0.46945798 -0.00000075
-0.33635068 -0.13775706 0.00000087
-0.01329625 -0.51772851 0.00000115
-0.41164392 -0.19382007 0.41717815
-0.54188925 0.14011347 -0.01300205
-0.01466120 0.63650310 0.00000356
-0.58246928 -0.60621864 0.17714833
-0.21325029 0.46026689 -0.00350722
-0.28375888 0.51243490 -0.00796819
-0.13163590 0.25823951 -0.00000189
-0.51208931 -0.43631059 0.25655362
-0.15997466 -0.75936502 -0.00000079
-0.33568868 -0.08269944 0.00000111
-0.21826993 -0.20511508 0.00000129
-0.21835206 -0.54568076 -0.00000021
-0.15417181 0.33640984 0.00000064
-0.24246575 -0.07406664 0.00000171
-0.59218949 -0.74514645 -0.00000333
-0.19511604 0.49782005 -0.00338215
-0.00944842 -0.73839885 0.00000021
-0.03106249 -0.57683867 0.00000079
-0.36745223 0.21910463 -0.00613840
-0.56883699 -0.57330829 0.22887506
-0.48813090 -0.08110846 -0.00596174
-0.25482249 -0.23762533 0.00000092
-0.08284220 0.13183992 -0.00000637
-0.05551616 -0.19685069 0.00000230
-0.59904629 -0.37515560 -0.00543592
-0.66242003 -0.58328635 -0.00433081
-0.78804272 -0.61493999 -0.00977896
-0.49431840 0.07109579 -0.00931400
-0.34670722 -0.52246916 -0.00000088
-0.68354565 -0.65061891 -0.00400349
-0.02423183 -0.31272486 0.00000199
-0.07221792 -0.08053319 0.00000271
-0.37980866 -0.38373402 -0.00000047
-0.15803392 -0.47536442 0.00000047
-0.09338792 0.10155935 -0.00000677
-0.73476213 0.01940489 -0.01992186
-0.06159943 -0.47419807 0.00000105
-0.47926182 -0.50948972 -0.00000162
-0.00693269 -0.24962877 0.00000241
-0.12389408 0.29127914 -0.00000134
-0.00132890 -0.67544168 0.00000054
-0.04111726 -0.18327719 0.00000245
-0.60296285 0.10373132 -0.01523014
-0.08545396 0.67434692 -0.00161169
-0.00191576 -0.40549955 0.00000171
-0.78636634 -0.73351097 -0.00731955
-0.14152932 -0.71961582 -0.00000050
-0.44993028 -0.15658821 -0.00259788
-0.59507209 -0.43312576 -0.00408080
-0.19951589 -0.73176658 -0.00000091
-0.18162167 0.50555992 -0.00288386
-0.22430502 -0.53716487 -0.00000020
-0.34821120 -0.10055612 0.00000096
-0.25557092 -0.32789081 0.00000052
-0.13490120 -0.12279021 0.00000215
-0.49883136 -0.33982006 -0.00129124
-0.61490530 -0.45680797 -0.00456634
-0.61320376 -0.33143505 -0.00699841
-0.54682541 -0.38424560 -0.00272457
-0.02224763 0.26590297 -0.00000501
-0.24199103 -0.56086278 -0.00000041
-0.40209740 0.02090061 -0.00384107
-0.41994277 -0.74599016 -0.00000230
-0.76179737 -0.66548079 -0.00749442
-0.09904662 -0.59689450 0.00000029
-0.48138481 -0.56491959 -0.00000188
-0.05791765 -0.61663830 0.00000045
-0.22231062 -0.48020574 0.00000006
-0.26893315 -0.50192046 -0.00000032
-0.44869015 0.04122617 -0.00650518
-0.65940899 -0.13088390 -0.01325836
-0.01915805 0.15258174 -0.00000780
-0.29672506 -0.62867415 -0.00000104
-0.18725459 0.03342372 -0.00000556
-0.22723278 -0.79297763 -0.00000134
-0.42390728 -0.67226923 -0.00000200
-0.62579888 -0.26755425 -0.00888958
-0.45820507 -0.31047341 -0.00000062
-0.26364014 0.02653270 -0.00000341
-0.00258508 0.12436215 -0.00000897
-0.24215372 -0.15675528 0.00000135
-0.45967934 -0.23894943 -0.00141819
-0.32690993 0.29333740 -0.00566376
-0.02378201 0.14711523 -0.00000779
-0.33880642 -0.74855739 -0.00000182
-0.04702111 0.67595261 0.00000547
-0.72432071 -0.02641616 -0.01849720
-0.42797792 0.12904575 -0.00726341
-0.45533013 -0.41308361 -0.00000106
-0.29024890 -0.61649925 -0.00000095
-0.32408267 0.43734863 -0.00841513
-0.70549631 -0.12945156 -0.01551907
-0.00916739 -0.53965956 0.00000108
-0.07498390 0.21334302 -0.00000467
-0.38062996 -0.11894323 0.38005930
-0.24689449 0.09245087 -0.00000235
-0.20667742 -0.41855887 0.00000042
-0.19578923 -0.01450222 0.00000225
-0.46081653 -0.53654689 -0.00000163
-0.07714255 0.01277691 -0.00000937
-0.28719401 -0.54409176 -0.00000061
-0.10966156 0.64839643 -0.00226359
-0.69708872 -0.65917587 -0.00448767
-0.04836767 -0.02406243 0.00000310
-0.09692241 -0.10380888 0.00000246
-0.26811999 -0.49582601 -0.00000029
-0.23891717 -0.66707063 -0.00000086
-0.47200528 -0.33954170 0.34958360
-0.43507618 0.02599017 -0.00554029
-0.02112586 -0.71753156 0.00000023
-0.40143940 0.03050448 -0.00400182
-0.27350417 0.40969878 -0.00541109
-0.60352623 -0.56996179 -0.00174585
-0.46908730 -0.57611966 -0.00000185
-0.47835085 -0.35485998 0.27633455
-0.22705528 -0.75270057 -0.00000116
-0.74191123 -0.29708239 -0.01392063
-0.14319873 -0.19844954 0.00000177
-0.17129934 0.46722031 -0.00161501
-0.05178693 -0.58780217 0.00000062
-0.33808640 0.04942187 -0.00131307
-0.63907671 -0.60615528 -0.00274165
-0.62664247 -0.54310989 -0.00340390
-0.15398154 -0.29489058 0.00000128
-0.28165612 -0.00086989 0.00000180
-0.60911095 -0.68175644 -0.00000316
-0.47868901 -0.65220755 -0.00000224
-0.72794408 -0.11512402 -0.01689356
-0.32504481 -0.53799796 -0.00000082
-0.64881670 -0.78797919 -0.00000386
-0.37325537 -0.10113768 0.35372016
-0.60227579 -0.33961028 -0.00630521
-0.41246438 -0.59588093 -0.00000160
-0.78318375 0.00890949 -0.02205635
-0.69208175 -0.53327757 -0.00677028
-0.19788408 -0.73570758 -0.00000091
-0.24072686 -0.37906724 0.00000039
-0.66927165 -0.72673267 -0.00178567
-0.21369819 -0.04160389 0.00000203
-0.48465115 -0.24633577 -0.00247942
-0.37814602 0.11802080 -0.00462896
-0.20232511 0.17213582 -0.00000181
-0.56725270 -0.07464600 -0.00992318
-0.19047707 -0.32608768 0.00000092
-0.20575373 0.05079341 -0.00000458
-0.13164654 -0.63704348 -0.00000008
-0.47325039 -0.78552186 -0.00000279
-0.44759911 0.35098037 -0.01266477
-0.29470468 -0.09409896 0.00000131
-0.23021704 -0.08856100 0.00000172
-0.03932195 -0.56876844 0.00000077
-0.59217894 -0.27290431 -0.00715408
-0.31627223 -0.24771541 0.00000051
-0.09540864 -0.26439154 0.00000177
-0.07008802 0.19819424 -0.00000518
-0.42375842 -0.55846202 -0.00000150
-0.22518250 0.54064018 -0.00569705
-0.74380267 -0.12518032 -0.01745989
-0.76665050 0.00577909 -0.02119292
-0.67422491 -0.25051749 -0.01157652
-0.08651188 -0.10487628 0.00000252
-0.48462898 -0.12140213 -0.00498401
-0.78606820 0.00576553 -0.02213298
-0.04407041 0.14683856 -0.00000718
-0.12777491 -0.69884413 -0.00000033
-0.27306944 -0.18266584 0.00000105
-0.43459931 0.24075317 -0.00982448
-0.00031245 0.21934718 -0.00000678
-0.10122595 0.58363146 -0.00055613
-0.52354461 -0.52482086 -0.00000196
-0.21250722 0.00160404 -0.00000555
-0.77835673 -0.50937009 -0.01142743
-0.45832020 -0.76648980 -0.00000262
-0.65589982 -0.70623976 -0.00154909
-0.08599100 0.04410204 -0.00000836
-0.32081777 0.40656841 -0.00763968
-0.50179243 0.28783396 -0.01402286
-0.72017360 -0.42747089 -0.01025282
-0.17472929 -0.04372336 0.00000225
-0.07829442 0.06214083 -0.00000816
-0.42154700 -0.34163138 -0.00000054
-0.09056055 0.47632426 0.00000205
-0.35789049 0.14279348 -0.00414483
-0.53836936 -0.02529167 -0.00951422
-0.54381597 -0.51290369 0.23482575
-0.46299970 -0.67661822 -0.00000225
-0.58286184 -0.09909402 -0.01018879
-0.53083152 -0.10443856 -0.00756180
-0.57642508 -0.59162700 0.18615441
-0.42820814 -0.73458302 -0.00000230
-0.57870877 -0.59714019 0.20720918
-0.49147174 -0.61307997 -0.00000215
-0.54616266 -0.51856893 0.24989127
-0.53783375 -0.13348405 -0.00731838
-0.54834878 0.02777368 -0.01106180
-0.68764198 -0.54683638 -0.00628334
-0.66140288 -0.44407189 -0.00707363
-0.53425121 0.05965534 -0.01101848
-0.12245087 0.39206091 0.00000101
-0.14282219 -0.44963551 0.00000067
-0.17444213 0.31854570 0.00000083
-0.40613595 0.33464536 -0.01032911
-0.31363636 -0.05207611 0.00000138
-0.49831322 -0.69600105 -0.00000255
-0.35389435 -0.05439946 0.37838435
-0.32066667 -0.14139593 0.00000095
-0.53247124 -0.78688109 -0.00000316
-0.29470381 -0.07153491 0.00000141
-0.41356879 -0.25925365 -0.00000013
-0.72934175 -0.30356207 -0.01318194
-0.38719863 -0.01543165 -0.00239085
-0.48835474 -0.57861704 -0.00000198
-0.26779273 0.42329788 -0.00540723
-0.14432339 -0.24174497 0.00000157
-0.35660642 0.36481896 -0.00853558
-0.64644891 0.10123219 -0.01728602
-0.21436939 0.03125639 -0.00000479
-0.04271231 0.74219114 -0.00090241
-0.65731180 -0.45051780 -0.00674622
-0.65353149 -0.31727031 -0.00923555
-0.17906006 -0.68805873 -0.00000059
-0.58425242 -0.61052346 0.20155673
-0.70390159 -0.53698325 -0.00726839
-0.46107188 -0.31314471 0.26730114
-0.27667251 -0.53992140 -0.00000053
-0.43286636 0.29726163 -0.01087388
-0.27920997 0.42517382 -0.00599779
-0.14597821 -0.70042717 -0.00000045
-0.10978270 0.35120672 -0.00000035
-0.02002603 0.01097913 -0.00001113
-0.27139455 -0.77625215 -0.00000153
-0.72299731 -0.04554588 -0.01804944
-0.55296946 -0.02107632 -0.01030584
-0.15318865 -0.17717119 0.00000180
-0.29723915 -0.64456332 -0.00000111
-0.47702622 0.13169962 -0.00969202
-0.71415883 0.07975211 -0.02013433
-0.38154846 0.29906774 -0.00842481
-0.11675619 -0.52180153 0.00000051
-0.26099646 0.25300413 -0.00166268
-0.04261192 -0.45487919 0.00000125
-0.33031267 -0.20051767 0.00000063
-0.22068232 -0.03219192 0.00000203
-0.27141210 0.16076103 -0.00031708
-0.41127539 -0.19292864 0.35887343
-0.20208199 0.46299335 -0.00302102
-0.33384752 -0.45566958 -0.00000051
-0.61486685 -0.53047019 -0.00308711
-0.14625502 0.10233683 -0.00000516
-0.13735159 0.00252893 -0.00000780
-0.29604214 -0.56160593 -0.00000074
-0.16091926 -0.07901984 0.00000218
-0.02095146 0.75498021 -0.00010504
-0.18597855 -0.13551752 0.00000178
-0.39194244 -0.70880401 -0.00000197
-0.01942028 -0.70545977 0.00000030
-0.09654080 -0.48583356 0.00000079
-0.55466861 -0.61843890 -0.00000255
-0.24717700 -0.36381984 0.00000042
-0.11116867 0.37358129 0.00000023
-0.62830281 -0.77245617 -0.00000367
-0.51827043 -0.62778175 -0.00000237
-0.50595689 -0.42150506 0.22761127
-0.31360966 -0.73813123 -0.00000162
-0.53776336 -0.04316512 -0.00912641
-0.06110255 0.56344086 0.00000323
-0.26819935 -0.39355654 0.00000016
-0.76061803 0.00748650 -0.02093501
-0.21996789 -0.28083026 0.00000094
-0.02440921 -0.77627015 -0.00000004
-0.01778702 0.77147287 -0.00028257
-0.34297481 -0.02803710 0.36655644
-0.42278001 -0.41039580 -0.00000085
-0.31760532 -0.69004130 -0.00000144
-0.48579288 -0.61402017 -0.00000212
-0.47891173 -0.35621491 0.30302170
-0.59549290 -0.16117334 -0.00955545
-0.18984658 -0.36776742 0.00000075
-0.29526415 0.50392938 -0.00835480
-0.11596667 0.64794064 -0.00255980
-0.60154212 -0.21170057 -0.00883504
-0.55234444 0.21146604 -0.01493943
-0.02927549 -0.74242330 0.00000008
-0.15395926 -0.12285136 0.00000203
-0.32398781 -0.33784854 0.00000007
-0.79388356 -0.65209830 -0.00931647
-0.34811792 0.45060274 -0.00984496
-0.36738920 -0.25676352 0.00000016
-0.14111803 0.48810270 -0.00057216
-0.45419067 -0.26660442 -0.00059773
-0.06481923 0.28313813 -0.00000332
-0.71087360 -0.58099931 -0.00672316
-0.49586770 0.20505556 -0.01207573
-0.44446960 -0.41804928 -0.00000101
-0.05084643 0.41234839 -0.00000067
-0.07426369 -0.51303226 0.00000081
-0.17731822 -0.00608953 0.00000240
-0.09056033 0.17938678 -0.00000501
-0.50362313 -0.57818073 -0.00000207
-0.15036942 -0.54001951 0.00000023
-0.73970848 -0.24383055 -0.01488197
-0.42021814 0.00252135 -0.00435004
-0.42065746 0.09520801 -0.00623023
-0.60987765 -0.46270198 -0.00420464
-0.47279933 0.28386638 -0.01253916
-0.65232122 -0.42418545 -0.00703265
-0.27274111 -0.41482490 0.00000004
-0.33157560 -0.07598311 0.00000117
-0.46039331 -0.48911369 -0.00000142
-0.76696062 -0.55153340 -0.01002994
-0.53622437 -0.49457633 0.27493867
-0.25658542 0.25375116 -0.00146404
-0.41639283 -0.57898015 -0.00000155
-0.12783097 0.30085811 -0.00000100
-0.71772301 -0.57781315 -0.00711872
-0.06060841 0.21120185 -0.00000515
-0.00819168 -0.23833652 0.00000241
-0.43048996 0.35560974 -0.01192902
-0.25041309 0.09733160 -0.00000213
-0.14697318 -0.10556685 0.00000215
-0.46008593 -0.26654863 -0.00088435
-0.17628856 -0.57827437 -0.00000009
-0.10765277 -0.65347803 -0.00000001
-0.51676881 -0.31680217 -0.00262159
-0.17965303 -0.48415995 0.00000030
-0.59607226 0.09157925 -0.01465271
-0.19148543 0.00560103 -0.00000609
-0.73931217 -0.26879090 -0.01436217
-0.14079314 -0.13322911 0.00000207
-0.51871115 -0.45229650 0.22975218
-0.22854660 0.34482014 -0.00193261
-0.10621633 -0.72425282 -0.00000031
-0.78557384 -0.60883379 -0.00978189
-0.10300951 -0.06477699 0.00000259
-0.37876475 -0.11443916 0.36626127
-0.25820276 -0.74525905 -0.00000132
-0.51843578 0.15472633 -0.01215929
-0.21886580 0.44150892 -0.00340296
-0.61616021 -0.61610931 -0.00143217
-0.32062185 -0.37418216 -0.00000007
-0.49738848 0.24246849 -0.01289973
-0.54798138 -0.60398555 -0.00000245
-0.34414113 -0.51640826 -0.00000084
-0.49017081 -0.38339606 0.32373559
-0.10862791 -0.35075864 0.00000131
-0.23173440 0.46817186 -0.00456094
-0.47991019 -0.06767371 -0.00583306
-0.00843581 -0.31675339 0.00000206
-0.78122002 -0.07387336 -0.02030101
-0.79209995 -0.42177969 -0.01384973
-0.50025207 -0.51253724 -0.00000176
-0.55766064 -0.38464132 -0.00324138
-0.21344239 0.27265689 0.00000092
-0.31069905 0.10714406 -0.00114439
-0.46022877 -0.04405076 -0.00535368
-0.14768672 -0.77541858 -0.00000078
-0.38234273 -0.12307719 0.36916277
-0.51599056 -0.63953233 -0.00000241
-0.29225335 -0.20230030 0.00000085
-0.49957314 -0.40609452 0.26393455
-0.46555436 0.04301443 -0.00735777
-0.15310878 -0.47442183 0.00000050
-0.66618919 -0.13216583 -0.01356101
-0.71457452 -0.19706191 -0.01460273
-0.19263680 -0.48237804 0.00000023
-0.51375735 -0.14281678 -0.00596520
-0.02821159 -0.51462805 0.00000108
-0.04339632 0.09569071 -0.00000842
-0.14875092 0.25408682 -0.00000148
-0.68299156 -0.55296803 -0.00593514
-0.18224321 0.09054016 -0.00000435
-0.57285869 0.11438704 -0.01398592
-0.38025203 -0.03921433 -0.00157745
-0.41579831 -0.11968952 -0.00168493
-0.44563046 -0.06058338 -0.00431512
-0.21986672 0.27214667 -0.00005471
-0.00627232 0.48719215 -0.00000024
-0.65884626 -0.08948882 -0.01406132
-0.18093452 0.26613247 -0.00000022
-0.77423012 -0.28311259 -0.01576578
-0.42255384 -0.22015730 0.36409494
-0.58505476 -0.33565810 -0.00555047
-0.70324427 -0.59183043 -0.00613650
-0.19874135 0.57508677 -0.00510738
-0.63837254 0.08552799 -0.01657992
-0.54061145 -0.74851024 -0.00000304
-0.72579217 -0.68493909 -0.00536075
-0.27336529 -0.63600641 -0.00000093
-0.14528991 0.08092818 -0.00000569
-0.07095371 -0.75470054 -0.00000023
-0.59390658 -0.63383007 0.19469132
-0.28070143 -0.75507677 -0.00000150
-0.47600302 -0.34919101 0.25025481
-0.56507075 -0.56421602 0.18796010
-0.59137952 0.17310056 -0.01606043
-0.58608091 -0.14164902 -0.00949121
-0.78479397 -0.65236819 -0.00887094
-0.64717269 0.14165309 -0.01813175
-0.15464735 0.60166425 -0.00350497
-0.31422710 0.26800385 -0.00454145
-0.08066907 -0.36279288 0.00000143
-0.14970604 -0.72641963 -0.00000058
-0.01449759 -0.72151387 0.00000026
-0.22796865 0.13903987 -0.00000182
-0.02974815 0.27782807 -0.00000450
-0.27695060 -0.70161152 -0.00000124
-0.50964886 -0.24723710 -0.00367197
-0.48240250 -0.44234246 -0.00000135
-0.19884828 0.59839565 -0.00558002
-0.44808340 -0.56167507 -0.00000166
-0.44561443 -0.06486269 -0.00422851
-0.54659551 -0.01012006 -0.01021689
-0.08558130 0.43453863 0.00000090
-0.32602423 0.13482094 -0.00244167
-0.75324380 -0.09805211 -0.01846120
-0.50378370 -0.35159597 -0.00129491
-0.14336875 -0.24597165 0.00000156
-0.61221093 -0.29743993 -0.00763214
-0.50108337 -0.28137010 -0.00257258
-0.52358198 -0.53242528 -0.00000199
-0.32839394 -0.11778960 0.00000100
-0.44426039 -0.30259678 -0.00000051
-0.72505230 -0.18979935 -0.01525582
-0.62011671 -0.69040656 -0.00013368
-0.17810677 -0.26539284 0.00000126
-0.05846835 -0.73641330 -0.00000007
-0.33995774 -0.13629366 0.00000085
-0.45749146 -0.31675646 -0.00000065
-0.16485251 -0.33730766 0.00000103
-0.32788566 0.21017887 -0.00404319
-0.49041563 0.28671440 -0.01344943
-0.75563473 -0.62745637 -0.00795870
-0.40223151 -0.69778246 -0.00000198
-0.22983961 -0.39563054 0.00000038
-0.03007986 -0.22072726 0.00000235
-0.41562310 -0.10253081 -0.00202058
-0.43012291 -0.39981565 -0.00000085
-0.39908552 -0.38668415 -0.00000060
-0.38821888 0.22508152 -0.00726399
-0.57737082 -0.59118348 -0.00005354
-0.00457105 -0.56348389 0.00000101
-0.05025976 0.74485487 -0.00132132
-0.67710263 -0.07898979 -0.01515604
-0.19729798 -0.79549247 -0.00000117
-0.54274893 -0.51032764 0.24778119
-0.06876851 -0.33651444 0.00000161
-0.14768700 -0.27752790 0.00000139
-0.77929825 -0.56353378 -0.01038663
-0.50607324 0.05949555 -0.00965063
-0.28564036 -0.51239890 -0.00000047
-0.34494963 -0.66566944 -0.00000149
-0.00870992 -0.20481661 0.00000255
-0.28494745 -0.24096563 0.00000073
-0.06131639 0.23918249 -0.00000447
-0.11733119 -0.03949123 0.00000262
-0.43482015 0.07428205 -0.00649643
-0.31484190 -0.17902955 0.00000082
-0.06496791 0.03226029 -0.00000927
-0.59017622 -0.62482440 0.21731932
-0.59072018 -0.62613767 0.17067762
-0.53731382 -0.39782375 -0.00199161
-0.49128473 -0.38608521 0.33116069
-0.64856374 -0.35407379 -0.00825684
-0.19156742 -0.46972615 0.00000029
-0.16572924 0.03768747 -0.00000610
-0.01453745 0.73575479 0.00000591
-0.40413010 -0.04453579 -0.00262712
-0.71840310 -0.26028439 -0.01352016
-0.42421076 -0.56704986 -0.00000154
-0.04279714 -0.29965729 0.00000193
-0.35570937 -0.00257219 -0.00112375
-0.25922120 -0.61310059 -0.00000075
-0.09730051 -0.51652211 0.00000065
-0.52167475 -0.71729237 -0.00000279
-0.56297022 -0.40475687 -0.00309509
-0.20527519 -0.67765617 -0.00000070
-0.62081283 -0.69878590 0.15364663
-0.51897657 -0.16959678 -0.00568086
-0.18667392 0.17787491 -0.00000214
-0.05353308 -0.07228509 0.00000286
-0.24620607 0.52707052 -0.00644306
-0.48608178 0.12917256 -0.01007989
-0.21794645 -0.35935336 0.00000061
-0.70113182 -0.46234784 -0.00863114
-0.42549610 -0.73911697 -0.00000230
-0.40656129 -0.11262183 -0.00137933
-0.50228381 -0.41263786 0.23696148
-0.39840642 -0.16186205 0.42483258
-0.36324143 0.27101842 -0.00697565
-0.55265558 0.18169679 -0.01435745
-0.73114991 -0.49279481 -0.00947411
-0.54000533 -0.39609748 -0.00215658
-0.22382788 0.23915751 0.00000043
-0.50864142 -0.42798701 0.30123979
-0.63750279 -0.36468500 -0.00750834
-0.14450508 -0.46965152 0.00000057
-0.51664621 0.09890961 -0.01095316
-0.77786630 -0.26926297 -0.01621964
-0.76958156 -0.14577782 -0.01829525
-0.13454293 0.14311430 -0.00000454
-0.21987247 0.18756153 -0.00000091
-0.11395467 0.31626543 -0.00000105
-0.31891531 -0.61906838 -0.00000113
-0.19109094 -0.50422227 0.00000014
-0.63573545 -0.38435388 -0.00702827
-0.48416743 0.15902393 -0.01058588
-0.45188969 -0.67594427 -0.00000218
-0.62386084 -0.54277635 -0.00327588
-0.71533650 -0.37227422 -0.01112558
-0.03140663 0.48747429 0.00000053
-0.32327214 0.41536832 -0.00793504
-0.32274258 -0.29015389 0.00000028
-0.66567701 0.03399113 -0.01686864
-0.66443473 -0.80409586 0.11028850
-0.75894374 -0.78029275 -0.00505341
-0.04630547 -0.61535436 0.00000053
-0.25459835 -0.02562987 0.00000185
-0.50126553 0.04502975 -0.00912767
-0.57184345 -0.58056629 0.22225729
-0.79053479 -0.05165863 -0.02119765
-0.58867121 -0.42182916 -0.00399737
-0.67436367 -0.51608801 -0.00625696
-0.36353964 -0.63135964 -0.00000146
-0.41924307 -0.45242760 -0.00000101
-0.39813542 -0.09401042 -0.00134454
-0.01909927 0.32391480 -0.00000373
-0.01935734 0.34405935 -0.00000324
-0.00396133 -0.57524449 0.00000096
-0.50511259 -0.41946679 0.23131517
-0.73874694 -0.51242983 -0.00944814
-0.06233264 0.21408305 -0.00000503
-0.09066740 -0.43235207 0.00000106
-0.30779594 0.40763956 -0.00703052
-0.08614659 -0.68329448 -0.00000001
-0.47598174 -0.27848822 -0.00141472
-0.48041552 -0.37750679 -0.00000105
-0.07091025 0.35424167 -0.00000145
-0.20770317 -0.61883426 -0.00000046
-0.61561304 -0.60470462 -0.00163441
-0.23286422 0.22741011 0.00000043
-0.34339488 0.19006389 -0.00439087
-0.19615248 0.12377140 -0.00000314
-0.28277603 0.29829597 -0.00362583
-0.55725211 -0.53463238 -0.00021338
-0.28900155 -0.04904604 0.00000154
-0.34140924 -0.09837276 0.00000101
-0.61829031 -0.55538779 -0.00275316
-0.00747648 -0.21330769 0.00000257
-0.41804546 0.02574430 -0.00471057
-0.11393450 0.04110553 -0.00000759
-0.54999155 0.09457337 -0.01248109
-0.53991503 -0.13636702 -0.00736136
-0.01469761 -0.15502615 0.00000273
-0.14189325 0.65322584 -0.00392138
-0.33293846 0.22092757 -0.00450347
-0.43842310 -0.25846693 0.29980934
-0.04348389 -0.15414484 0.00000256
-0.40903118 -0.28357944 -0.00000021
-0.69870025 0.08549776 -0.01950096
-0.65720963 -0.65577102 -0.00262472
-0.36610782 -0.35232216 -0.00000025
-0.42377120 -0.36624652 -0.00000066
-0.34685421 -0.51356137 -0.00000084
-0.51939875 -0.51395935 -0.00000188
-0.26147127 -0.03115629 0.00000179
-0.12351951 -0.54927695 0.00000035
-0.25037199 -0.57231492 -0.00000052
-0.37389615 -0.10268586 0.36864999
-0.68990976 0.06380720 -0.01864021
-0.00684865 -0.00840534 0.00000342
-0.50062674 -0.40863824 0.27340102
-0.01004962 0.28235042 -0.00000499
-0.03571929 -0.54857272 0.00000088
-0.75072694 -0.29950398 -0.01429898
-0.06125382 0.66510534 -0.00025434
-0.22390255 -0.03000189 0.00000202
-0.73274010 0.01303220 -0.01969612
-0.38246036 -0.12336490 0.41064534
-0.32322398 0.18350600 -0.00328248
-0.04104433 0.71984863 -0.00037353
-0.01510814 -0.31809407 0.00000202
-0.00274006 0.60659194 0.00000249
-0.15262517 0.52734804 -0.00191655
-0.67102844 0.11921877 -0.01883713
-0.53219527 -0.04541829 -0.00881156
-0.27236032 0.27802739 -0.00271490
-0.32595897 -0.78903031 -0.00000192
-0.78636485 -0.23170657 -0.01738443
-0.34879661 0.38929754 -0.00864830
-0.52536500 -0.27382633 -0.00389982
-0.61523426 0.01217165 -0.01398811
-0.39688307 -0.01520474 -0.00286442
-0.56577480 -0.44092092 -0.00250561
-0.46794292 -0.32973450 0.32962871
-0.17466301 0.42447400 -0.00092059
-0.22859792 -0.72581714 -0.00000106
-0.33245829 0.33935794 -0.00685545
-0.56015790 -0.51659232 -0.00071592
-0.62700814 -0.35034531 -0.00728769
-0.66007876 -0.62487561 -0.00338331
-0.62206542 -0.79296231 -0.00000372
-0.04351066 0.23152567 -0.00000519
-0.15688112 -0.02483588 0.00000244
-0.00785071 -0.19332363 0.00000261
-0.34250659 -0.54931355 -0.00000097
-0.76488513 0.01877397 -0.02136805
-0.42177421 -0.57891846 -0.00000158
-0.23210555 -0.79892427 -0.00000140
-0.42577383 -0.68133998 -0.00000205
-0.71815729 -0.41906521 -0.01032375
-0.07595996 -0.72602135 -0.00000013
-0.43255740 0.33918622 -0.01169976
-0.29561368 0.31090447 -0.00450043
-0.59483999 0.17640126 -0.01629421
-0.13995589 -0.64991999 -0.00000019
-0.22296128 0.16718496 -0.00000130
-0.04681937 -0.10960601 0.00000274
-0.77092332 -0.74137491 -0.00641406
-0.51675779 0.08756123 -0.01073096
-0.54266471 -0.60440558 -0.00000242
-0.62222809 -0.21222451 -0.00982634
-0.26794770 -0.11145614 0.00000140
-0.17145500 0.62452334 -0.00477741
-0.26845497 0.52336973 -0.00744634
-0.72920567 -0.53273267 -0.00857892
-0.00101438 -0.58672088 0.00000093
-0.40530089 -0.17850621 0.39723259
-0.18471546 0.00874280 -0.00000622
-0.08049383 -0.06281100 0.00000274
-0.74895215 -0.78781760 -0.00441868
-0.39390731 0.08094023 -0.00464858
-0.55750531 0.09836390 -0.01292100
-0.47477666 0.02126261 -0.00736815
-0.54351801 -0.73623115 -0.00000300
-0.12226002 -0.29077932 0.00000149
-0.00652299 -0.36869842 0.00000185
-0.39726040 -0.22387569 0.00000012
-0.77942574 -0.52642989 -0.01113702
-0.48739403 -0.28458467 -0.00184514
-0.64517146 -0.35468334 -0.00808033
-0.23285919 -0.03333884 0.00000195
-0.58386147 0.17822680 -0.01579914
-0.59089357 -0.60938042 -0.00034348
-0.59481388 -0.41059512 -0.00452017
-0.77179766 -0.43346494 -0.01263231
-0.35504192 -0.63998228 -0.00000144
-0.13381398 -0.38435844 0.00000101
-0.60932010 -0.66168147 -0.00018692
-0.33416843 0.35225031 -0.00719685
-0.38139346 -0.39018810 -0.00000051
-0.43869060 -0.25911391 0.33680931
-0.52383202 -0.18065557 -0.00569421
-0.27335384 0.17433809 -0.00068342
-0.32583469 -0.04000436 0.00000136
-0.74252552 -0.78994334 -0.00406486
-0.23815192 0.53719050 -0.00625597
-0.38714761 0.28827500 -0.00847951
-0.50106502 -0.25639820 -0.00307253
-0.40815282 0.20366675 -0.00779988
-0.47528219 -0.34745160 0.27669516
-0.56643879 -0.28817016 -0.00560133
-0.42264906 -0.57454956 -0.00000156
-0.47266346 -0.34112874 0.25471437
-0.39145893 0.11348991 -0.00518282
-0.00294835 -0.02617377 0.00000337
-0.06986032 -0.60632581 0.00000043
-0.62610155 0.10458289 -0.01636781
-0.37297729 -0.04126660 -0.00118397
-0.18747742 -0.18117312 0.00000158
-0.23586315 0.41298500 -0.00365406
-0.40958205 -0.63572711 -0.00000175
-0.19202532 -0.68851072 -0.00000067
-0.66211879 -0.19743769 -0.01205479
-0.03909966 -0.62830853 0.00000052
-0.04302022 -0.13465773 0.00000265
-0.28924435 -0.09030236 0.00000136
-0.71542478 -0.57820576 -0.00699956
-0.06954589 0.17379896 -0.00000577
-0.17750575 0.21047252 -0.00000164
-0.29583520 0.10908851 -0.00046354
-0.23591807 0.51471758 -0.00569707
-0.60630673 -0.55142534 -0.00225228
-0.57190973 -0.58072633 0.20381804
-0.03078045 -0.20571566 0.00000241
-0.49404642 -0.66403371 -0.00000239
-0.15852571 -0.01802113 0.00000246
-0.50927132 -0.79431701 -0.00000305
-0.73792011 -0.65102607 -0.00662820
-0.01533830 -0.59887320 0.00000079
-0.00101877 -0.16145143 0.00000279
-0.22101182 0.57615000 -0.00620725
-0.11866269 0.28217360 -0.00000172
-0.43749526 -0.25622711 0.30429736
-0.02328026 0.31907481 -0.00000372
-0.44145450 -0.51330042 -0.00000141
-0.49342138 -0.58523577 -0.00000204
-0.41467372 0.06868108 -0.00540842
-0.65020233 -0.50079477 -0.00539356
-0.62392282 -0.76306087 -0.00000360
-0.13132147 -0.51187801 0.00000047
-0.75798309 -0.42365253 -0.01216021
-0.15775242 -0.44974381 0.00000058
-0.28586292 0.16047011 -0.00101110
-0.60527569 -0.49798149 -0.00327421
-0.79731053 -0.15056749 -0.01954187
-0.79896545 -0.69132805 -0.00877569
-0.15299033 -0.52348042 0.00000029
-0.50516164 -0.27484521 -0.00290095
-0.50717813 -0.12103574 -0.00608341
-0.46580979 -0.32458380 0.29138497
-0.55168414 -0.53189874 0.25187358
-0.45987332 -0.47214967 -0.00000134
-0.68739128 -0.76066470 -0.00198250
-0.30842653 -0.20153698 0.00000076
-0.54040706 -0.23873954 -0.00533200
-0.52735198 -0.72726768 -0.00000286
-0.05076504 0.30704769 -0.00000318
-0.22253726 0.36327597 -0.00201173
-0.53210241 0.14946124 -0.01271556
-0.33574069 -0.63699722 -0.00000131
-0.09457352 -0.36500740 0.00000133
-0.67978358 -0.43339214 -0.00817799
-0.39306745 -0.17732567 0.00000035
-0.35095796 -0.52063704 -0.00000090
-0.35563380 -0.67788094 -0.00000161
-0.09972448 -0.32501933 0.00000148
-0.01013285 -0.59794563 0.00000082
-0.04007588 0.25613105 -0.00000471
-0.59018141 -0.70140707 -0.00000313
-0.67032951 -0.22132145 -0.01197342
-0.12764971 -0.57154334 0.00000023
-0.34196886 -0.71798509 -0.00000171
-0.07389422 -0.60612136 0.00000040
-0.21941091 0.05344606 -0.00000411
-0.37754166 0.27471048 -0.00774225
-0.02582549 -0.02201008 0.00000325
-0.47821262 -0.45149854 -0.00000136
-0.29713300 0.06012183 -0.00000161
-0.34007239 -0.00812069 -0.00025518
-0.53607965 0.02891772 -0.01049055
-0.05204497 0.64199156 0.00000482
-0.22341315 -0.65991044 -0.00000074
-0.25139922 -0.13897108 0.00000137
-0.13829336 -0.41262048 0.00000086
-0.13642187 0.09619195 -0.00000560
-0.38143256 -0.41508514 -0.00000062
-0.03537799 -0.49971846 0.00000110
-0.55426127 0.10288509 -0.01285457
-0.54598051 -0.00279622 -0.01033400
-0.65637410 -0.48117015 -0.00608605
-0.39080796 -0.45492679 -0.00000085
-0.20521823 0.23827882 -0.00000015
-0.46933690 0.03343401 -0.00734882
-0.52322167 -0.46318588 0.29169694
-0.36227193 -0.07462473 0.38504595
-0.79311448 -0.69137114 -0.00849152
-0.67498076 -0.46788165 -0.00725367
-0.53350186 0.26151684 -0.01503068
-0.45387799 -0.09989903 -0.00392602
-0.62844092 -0.58517671 -0.00264731
-0.61431742 -0.26047891 -0.00847544
-0.37416944 -0.71564108 -0.00000189
-0.11587059 0.19244155 -0.00000393
-0.06896802 -0.09248859 0.00000268
-0.53625071 -0.65416163 -0.00000260
-0.54434925 -0.51419115 0.25518978
-0.29462433 0.12801230 -0.00078443
-0.26682717 -0.38357303 0.00000021
-0.34296843 -0.47318271 -0.00000064
-0.21695305 -0.71150774 -0.00000092
-0.03860548 0.54873264 0.00000220
-0.27966160 -0.00541761 0.00000179
-0.76387316 -0.07766397 -0.01938488
-0.30024096 -0.13513727 0.00000110
-0.04272951 0.43738258 -0.00000032
-0.77774692 -0.79438901 -0.00568113
-0.09898124 -0.53458822 0.00000056
-0.22393446 0.19338757 -0.00000065
-0.09162775 0.31176627 -0.00000183
-0.73264569 -0.34115168 -0.01258805
-0.34125465 -0.43669984 -0.00000047
-0.47157648 0.27197254 -0.01224140
-0.47463286 -0.57094944 -0.00000186
-0.50393105 0.27535853 -0.01387622
-0.27542770 -0.50476515 -0.00000037
-0.57197690 -0.68070501 -0.00000293
-0.06802648 -0.34559730 0.00000158
-0.26912767 -0.60496062 -0.00000077
-0.57018816 0.08422691 -0.01325169
-0.11789763 -0.48234248 0.00000068
-0.10531401 -0.51877755 0.00000059
-0.03511143 0.71561474 -0.00000129
-0.46310174 0.03039065 -0.00698581
-0.26408952 -0.04798982 0.00000170
-0.72193736 -0.49895406 -0.00890450
-0.57356149 -0.21206796 -0.00747258
-0.33115128 -0.58548838 -0.00000106
-0.50419694 -0.08045092 -0.00675300
-0.49312139 0.23009737 -0.01244496
-0.62013906 -0.24984466 -0.00897066
-0.49220738 0.17883646 -0.01137261
-0.37116772 0.01292203 -0.00218314
-0.53556734 -0.52424580 -0.00000203
-0.27728143 0.20990199 -0.00158690
-0.74897057 -0.62356913 -0.00771399
-0.35609370 -0.45859969 -0.00000066
-0.30997324 0.00753485 -0.00000247
-0.73534483 -0.18567479 -0.01583701
-0.06515459 0.18568191 -0.00000562
-0.10025862 0.61606264 -0.00115972
-0.18337558 0.29774675 0.00000061
-0.40713587 -0.38448784 -0.00000064
-0.56682914 -0.56846100 0.25002915
-0.27503130 -0.07462739 0.00000151
-0.35905549 -0.56282395 -0.00000113
-0.37254152 -0.73154306 -0.00000195
-0.01933818 -0.06050187 0.00000312
-0.03791426 -0.33339301 0.00000181
-0.41891924 0.15228084 -0.00729070
-0.23734736 -0.20977165 0.00000115
-0.62541670 -0.56894988 -0.00282629
-0.74498624 -0.17152089 -0.01658781
-0.51385671 -0.59234732 -0.00000219
-0.78485012 -0.32440799 -0.01545173
-0.43802777 -0.38693801 -0.00000084
-0.14359319 0.34360236 0.00000049
-0.26686421 -0.57972020 -0.00000065
-0.36714521 -0.06769831 -0.00037142
-0.17826886 -0.34260702 0.00000093
-0.39719439 -0.13712098 -0.00043434
-0.20714863 0.26543531 0.00000056
-0.34703162 -0.73085207 -0.00000179
-0.23799889 0.21352465 0.00000025
-0.31539053 -0.63308173 -0.00000117
-0.47742546 0.22409476 -0.01156443
-0.48535275 -0.79433429 -0.00000290
-0.77027959 -0.06607913 -0.01992749
-0.20781635 -0.34000111 0.00000076
-0.79087734 -0.03598973 -0.02152850
-0.54270327 0.14292517 -0.01309786
-0.02404223 -0.19209564 0.00000251
-0.61070412 0.16918278 -0.01691773
-0.29071283 0.14266093 -0.00088879
-0.55588019 -0.31809148 -0.00448988
-0.17445050 0.18579093 -0.00000232
-0.17340697 -0.72133929 -0.00000070
