ply
format ascii 1.0
element vertex 1286
property float x
property float y
property float z
end_header
-0.32608980 -0.78725427 0.00000000
0.04731135 -0.56054914 0.77341467
-0.34643996 -0.34510964 0.00000000
-0.00779034 0.66142929 0.00000000
0.04492513 -0.10831290 0.73439842
-0.11452121 0.22146484 0.00000000
-0.79257292 -0.62480253 -0.00000044
-0.23381799 -0.10823185 0.00000000
-0.39884102 0.39878723 -0.00000099
-0.29751948 -0.59198165 0.00000000
-0.46461102 -0.05479807 -0.00000047
0.04432246 -0.31988326 0.72455114
-0.03970435 -0.46814728 0.00000000
0.04332857 0.04575378 0.70830840
-0.32672745 -0.22456384 0.00000000
-0.34867492 -0.11444936 0.00000000
-0.42789730 -0.56188565 0.00000000
-0.01183370 -0.17415354 0.00000000
-0.77483970 -0.40271816 -0.00000099
-0.41609466 0.06033746 -0.00000047
-0.07742389 0.52540314 0.00000000
-0.13573249 0.16010368 0.00000000
-0.62408686 -0.38321644 -0.00000057
0.04749505 -0.03127226 0.77640671
-0.68179119 -0.24543235 -0.00000106
-0.28390139 0.05860800 0.00000000
-0.18224591 -0.40059882 0.00000000
-0.41358176 -0.06623927 -0.00000023
-0.33389583 0.01631891 -0.00000004
0.04352818 -0.70389026 0.71157491
-0.51073426 0.10967863 -0.00000096
-0.38422412 -0.16603242 0.00000000
-0.69077420 0.04739007 -0.00000162
-0.34660086 -0.77582413 0.00000000
-0.55142742 0.18396561 -0.00000126
-0.19709653 -0.07746692 0.00000000
-0.26497164 -0.64289802 0.00000000
-0.10663475 -0.65644014 0.00000000
0.04504245 0.06194768 0.73631287
0.01681932 0.49212357 0.27495590
-0.21677878 -0.71722555 0.00000000
-0.40702280 -0.01268781 -0.00000030
-0.47237632 0.29497164 -0.00000112
-0.35918787 -0.33585835 0.00000000
-0.03595319 0.50095564 0.00000000
0.04690997 -0.67250490 0.76685560
-0.38316438 -0.66356450 0.00000000
-0.07001501 0.37360057 0.00000000
-0.49884227 -0.12799895 -0.00000049
-0.25630459 -0.65491539 0.00000000
-0.17982478 -0.07565918 0.00000000
0.02621795 0.34930372 0.42859310
-0.62228292 -0.21004798 -0.00000087
-0.27988139 0.38468623 -0.00000046
-0.75810063 -0.46399406 -0.00000084
-0.42286232 -0.55008978 0.00000000
-0.10209442 -0.22587362 0.00000000
-0.18843609 -0.27777290 0.00000000
-0.79064679 -0.12740324 -0.00000168
-0.56669116 0.23308782 -0.00000142
-0.47907838 -0.55578852 0.00000000
-0.55215478 -0.32860753 -0.00000036
-0.24201721 -0.41453087 0.00000000
-0.40204623 -0.13602494 -0.00000006
-0.31424731 0.01350122 0.00000000
-0.05628649 0.54061240 0.00000000
-0.27034464 0.40822279 -0.00000046
-0.37866056 0.04821530 -0.00000029
-0.38813493 -0.41516271 0.00000000
-0.20432240 -0.14878894 0.00000000
-0.48568869 -0.77533996 0.00000000
-0.49366790 -0.15802388 -0.00000041
-0.44649664 0.28440264 -0.00000099
-0.36332390 -0.47516453 0.00000000
-0.12109621 -0.26686040 0.00000000
-0.05167970 -0.12547091 0.00000000
-0.23628876 -0.09066169 0.00000000
-0.57980818 0.07156499 -0.00000119
-0.53906244 0.13375954 -0.00000112
-0.46761441 -0.72313571 0.00000000
-0.58748925 -0.77717322 0.00000000
-0.60082531 0.00538489 -0.00000116
-0.17613669 -0.16778412 0.00000000
-0.20173103 0.26340216 0.00000000
-0.25922126 -0.54503500 0.00000000
-0.40861788 0.27713841 -0.00000082
-0.00318167 0.37019661 0.00000000
0.04647753 -0.04964294 0.75977385
-0.14609323 0.42296681 0.00000000
-0.41933316 -0.23342796 0.00000000
-0.67441589 -0.10126214 -0.00000129
-0.00819415 -0.63652629 0.00000000
-0.74322444 -0.68952006 -0.00000028
-0.23531857 0.40800503 -0.00000031
-0.13391711 -0.69105226 0.00000000
-0.36798686 -0.07681974 -0.00000002
-0.43352836 0.25336012 -0.00000088
-0.45441413 0.06035564 -0.00000063
-0.72329384 -0.47027388 -0.00000082
-0.22775619 -0.25809112 0.00000000
-0.38541365 -0.33644116 0.00000000
-0.43159327 -0.33154872 0.00000000
-0.09873871 0.15719868 0.00000000
-0.41757774 0.08467290 -0.00000052
-0.12214721 0.06317239 0.00000000
-0.20592856 -0.36143097 0.00000000
-0.72155660 -0.48112044 -0.00000080
-0.52224118 -0.00884214 -0.00000080
0.04853165 -0.77308065 0.79336691
-0.23062012 -0.15601975 0.00000000
-0.42820176 -0.36150911 0.00000000
-0.31412190 0.32351878 -0.00000050
0.03882857 0.15364772 0.63473684
-0.18258832 0.24642287 0.00000000
-0.26441109 -0.75235432 0.00000000
-0.08618428 -0.50057667 0.00000000
-0.63932467 -0.24276324 -0.00000089
-0.57860625 -0.26042131 -0.00000059
-0.28154123 -0.39825970 0.00000000
0.04418281 -0.34892508 0.72226876
-0.16790634 -0.08787594 0.00000000
0.03520377 0.20904627 0.57548308
-0.65188313 -0.19229496 -0.00000103
-0.67470348 -0.67636305 -0.00000027
-0.57288098 -0.30269754 -0.00000050
-0.45489720 0.17917196 -0.00000084
-0.38441625 0.33260852 -0.00000081
-0.26179901 -0.03826960 0.00000000
0.04387720 -0.12409402 0.71726841
-0.70041263 -0.31626683 -0.00000102
-0.21958278 -0.73936415 0.00000000
0.04674119 -0.32848707 0.76408958
-0.27989164 -0.40029478 0.00000000
-0.05838493 -0.44687608 0.00000000
-0.39964545 0.38206238 -0.00000097
0.02710713 0.29624042 0.44313940
-0.76425385 -0.66780496 -0.00000033
-0.69041079 0.05404214 -0.00000163
-0.51101238 -0.44986895 0.00000000
-0.29145378 -0.34799427 0.00000000
-0.63279998 -0.23009370 -0.00000088
-0.52317840 0.17906404 -0.00000114
-0.78557426 -0.10443101 -0.00000174
-0.42135146 -0.77506727 0.00000000
-0.77947795 -0.43072504 -0.00000092
-0.30584297 -0.24091630 0.00000000
-0.69283360 -0.52182716 -0.00000062
-0.20196259 -0.06982446 0.00000000
-0.76082236 -0.35768747 -0.00000111
-0.27227110 0.46338028 -0.00000057
-0.28237873 -0.14466912 0.00000000
-0.78480530 -0.74397045 -0.00000014
-0.75808412 -0.54465723 -0.00000064
-0.26268613 -0.31678575 0.00000000
0.04871994 -0.32461697 0.79643559
-0.08448910 0.63788754 -0.00000007
0.04716600 -0.06894229 0.77102858
-0.00942010 0.20184302 0.00000000
-0.22779649 -0.36387759 0.00000000
-0.11355128 -0.11497317 0.00000000
-0.55227280 -0.66433805 0.00000000
-0.25421366 -0.72956228 0.00000000
-0.02474103 0.43354684 0.00000000
-0.26698598 -0.68605459 0.00000000
-0.62498832 -0.28312641 -0.00000075
-0.26558772 0.38692299 -0.00000040
-0.03731560 0.51370311 0.00000000
-0.45982048 -0.75959349 0.00000000
-0.72508639 -0.31558564 -0.00000112
0.04876630 -0.04616551 0.79718775
-0.21724761 -0.18664905 0.00000000
-0.13556010 -0.09960152 0.00000000
-0.39265710 -0.19953427 0.00000000
-0.21254949 0.08140046 0.00000000
-0.45722866 -0.20420901 -0.00000018
-0.43200913 -0.55721337 0.00000000
0.04632288 -0.73068917 0.75725985
-0.09629171 -0.26044139 0.00000000
-0.54514873 -0.48599416 -0.00000005
-0.49336299 -0.25400984 -0.00000024
-0.62104404 -0.40653831 -0.00000052
-0.74532509 -0.00232491 -0.00000176
0.01409259 0.55777365 0.23037605
-0.02046722 -0.60675853 0.00000000
-0.10175760 -0.14392310 0.00000000
0.02850519 0.33071387 0.46597683
-0.43075716 -0.72484767 0.00000000
-0.49784434 0.28317985 -0.00000121
0.03758372 0.10228395 0.61440748
-0.71360040 -0.13676763 -0.00000139
-0.41255751 0.24174345 -0.00000077
0.04368677 -0.44791961 0.71416223
-0.23370814 -0.43859643 0.00000000
-0.67816675 0.09554671 -0.00000165
-0.03701296 -0.71470433 0.00000000
-0.49440080 -0.13135858 -0.00000046
-0.13693598 -0.19246709 0.00000000
-0.59325439 -0.38195390 -0.00000044
-0.73561341 -0.07070501 -0.00000160
-0.51220840 0.24257195 -0.00000120
-0.13637738 -0.76760274 0.00000000
-0.21364307 0.48205173 -0.00000035
0.04383923 -0.49197435 0.71665537
0.04167173 0.08031851 0.68122178
-0.24730794 0.22825997 -0.00000004
-0.05805409 0.32217047 0.00000000
-0.29862931 -0.35705236 0.00000000
-0.37527025 -0.30386791 0.00000000
-0.60048705 0.12931617 -0.00000138
0.04680594 -0.31941020 0.76514781
-0.42788914 -0.29495177 0.00000000
-0.40784433 -0.66544187 0.00000000
0.04316478 -0.08650723 0.70562196
-0.19812737 0.45241719 -0.00000023
-0.52101082 -0.45975286 0.00000000
-0.23902851 0.55413997 -0.00000059
0.04641232 -0.65403003 0.75872034
-0.51335561 -0.72556376 0.00000000
-0.75964946 -0.78772444 -0.00000003
-0.29499412 -0.71572387 0.00000000
-0.09651889 -0.29925603 0.00000000
-0.58789188 -0.67374551 0.00000000
-0.22502457 -0.76959491 0.00000000
-0.65407681 0.05628046 -0.00000148
-0.30707148 -0.42304012 0.00000000
-0.46947086 -0.71387726 0.00000000
-0.38329953 -0.24102430 0.00000000
-0.07224652 -0.08140198 0.00000000
-0.02975108 -0.43481761 0.00000000
-0.05337378 -0.30882239 0.00000000
-0.74220550 -0.66051179 -0.00000035
-0.59328866 -0.15643843 -0.00000084
-0.74138856 -0.58857679 -0.00000053
0.04514937 -0.15034027 0.73806483
0.04747937 -0.54390681 0.77616090
-0.19831529 0.54805177 -0.00000040
-0.35275993 -0.57299250 0.00000000
-0.17166898 -0.57941884 0.00000000
0.04793156 -0.72619128 0.78355640
0.04387244 -0.27068883 0.71719366
-0.19975442 -0.31675577 0.00000000
-0.53280789 0.21529663 -0.00000124
-0.62092352 -0.24508809 -0.00000080
-0.08048622 0.61392903 -0.00000001
-0.24696419 0.31196135 -0.00000019
-0.48439413 -0.73471528 0.00000000
-0.55869824 -0.03079813 -0.00000092
0.04727601 -0.15761605 0.77282858
-0.44707882 0.02658205 -0.00000054
-0.35977948 -0.25785124 0.00000000
0.04420848 -0.12396344 0.72268391
-0.79249418 -0.59321171 -0.00000052
-0.42255360 -0.37189552 0.00000000
-0.05767929 -0.67847091 0.00000000
-0.20334546 0.38521144 -0.00000013
-0.77194309 -0.39839870 -0.00000100
0.04622017 0.01852091 0.75557196
-0.32833755 0.01676913 -0.00000002
-0.08518950 0.40208724 0.00000000
-0.04554674 -0.20920195 0.00000000
-0.57861608 -0.75171220 0.00000000
-0.39285514 -0.79440647 0.00000000
-0.30130497 0.19299729 -0.00000021
-0.08347730 0.27388233 0.00000000
-0.35816723 -0.21322218 0.00000000
-0.34034887 -0.27628037 0.00000000
-0.35619247 -0.53705192 0.00000000
-0.36390337 -0.34557948 0.00000000
-0.40764230 -0.70736092 0.00000000
0.04754695 -0.28539115 0.77726030
-0.41755363 -0.60944629 0.00000000
-0.30509654 -0.10515977 0.00000000
-0.21248487 0.20636226 0.00000000
-0.44860643 -0.34672078 0.00000000
-0.47555792 0.06235809 -0.00000073
-0.52112579 -0.00566832 -0.00000080
-0.17491472 0.49396506 -0.00000021
-0.64091551 -0.79466277 0.00000000
-0.77514976 -0.30248114 -0.00000124
-0.58541018 -0.74877369 0.00000000
-0.11536416 -0.05127398 0.00000000
-0.76854825 -0.44941759 -0.00000088
-0.48650220 -0.27746284 -0.00000017
-0.54257327 -0.55397666 0.00000000
-0.30053669 -0.56659985 0.00000000
-0.07233982 0.38242659 0.00000000
-0.52042210 -0.29948542 -0.00000028
-0.77874589 -0.45955762 -0.00000085
-0.10286649 -0.19893304 0.00000000
-0.24066277 -0.11092006 0.00000000
-0.68259341 -0.02804937 -0.00000145
0.04563646 -0.57692552 0.74603593
-0.22081652 -0.75470811 0.00000000
-0.06709723 0.56015921 0.00000000
-0.10804142 0.15585256 0.00000000
-0.73638612 -0.78938019 -0.00000003
-0.13674726 -0.06216816 0.00000000
-0.53757173 -0.61292934 0.00000000
-0.75690800 -0.45054853 -0.00000087
-0.08343719 -0.27399951 0.00000000
-0.36634797 0.11376298 -0.00000035
-0.56921929 -0.10424247 -0.00000083
-0.07591512 0.31120029 0.00000000
-0.27090669 -0.79124659 0.00000000
-0.76620996 -0.59149635 -0.00000052
-0.62541378 0.13518330 -0.00000149
-0.54566026 0.13387306 -0.00000115
-0.50600797 -0.54608452 0.00000000
-0.52700150 -0.76213694 0.00000000
-0.53545415 -0.50986195 0.00000000
-0.24264783 -0.70113760 0.00000000
-0.73692375 -0.38709685 -0.00000103
-0.27436453 -0.12348800 0.00000000
-0.18733115 -0.43062678 0.00000000
-0.28650329 -0.42161384 0.00000000
0.04835850 -0.70725399 0.79053515
0.04506297 -0.23930131 0.73665428
0.04675799 -0.35692236 0.76436484
-0.05398458 -0.35787511 0.00000000
-0.30168766 0.25673780 -0.00000033
-0.26759034 -0.36591947 0.00000000
0.02963170 0.31400761 0.48439214
0.04629911 -0.67111707 0.75687003
-0.19366063 -0.63397181 0.00000000
-0.68853849 -0.57309055 -0.00000051
-0.42910752 -0.35350311 0.00000000
-0.79048079 -0.31277144 -0.00000122
-0.38816178 0.39373508 -0.00000094
-0.08405286 -0.48214939 0.00000000
0.04784217 -0.52697003 0.78209114
-0.26850170 -0.23828541 0.00000000
-0.22908236 0.17619753 0.00000000
-0.22479489 -0.18160717 0.00000000
-0.71569693 -0.70051831 -0.00000025
-0.62196285 -0.41552761 -0.00000051
-0.67722720 -0.00213832 -0.00000147
-0.08431467 -0.21933185 0.00000000
0.04389163 -0.59501398 0.71751392
-0.27567050 -0.41937250 0.00000000
-0.25261265 -0.70107394 0.00000000
-0.69948345 -0.38685036 -0.00000089
0.01236670 0.59367639 0.20215954
-0.69036978 -0.14384313 -0.00000128
-0.19169407 -0.59888977 0.00000000
-0.09577351 0.12035285 0.00000000
-0.43048316 0.11182900 -0.00000062
-0.30314264 0.20387615 -0.00000024
-0.10497318 0.43088695 0.00000000
-0.66955608 -0.23197734 -0.00000103
-0.19117817 0.13181843 0.00000000
-0.18619782 0.49771750 -0.00000026
-0.00477711 0.30565050 0.00000000
-0.05931304 0.44601971 0.00000000
-0.09781985 -0.59098643 0.00000000
0.04862984 -0.37501228 0.79496384
-0.18191358 -0.46717474 0.00000000
-0.62686294 -0.30859882 -0.00000072
-0.24677703 0.52493197 -0.00000057
0.04434583 -0.66781873 0.72494018
0.04569424 -0.28024283 0.74697447
0.04509477 -0.77919149 0.73718512
-0.68672687 0.03778153 -0.00000158
-0.18332113 -0.39083114 0.00000000
-0.79106992 -0.40141386 -0.00000100
-0.41423503 0.19489694 -0.00000070
-0.19980428 0.20077804 0.00000000
-0.46983272 -0.77069134 0.00000000
-0.36613941 0.29381201 -0.00000067
-0.39029253 0.08314747 -0.00000040
-0.02551287 0.12650861 0.00000000
-0.10321562 -0.55086750 0.00000000
-0.77263767 -0.14844422 -0.00000162
0.04820483 -0.76483291 0.78802431
-0.45070189 0.16200624 -0.00000080
-0.21180668 0.47288626 -0.00000033
-0.32878208 -0.19427888 0.00000000
-0.65551364 -0.24840195 -0.00000094
-0.20932125 0.55858189 -0.00000047
0.04845802 -0.59105217 0.79215950
-0.07289652 -0.47361687 0.00000000
0.04553369 -0.71184850 0.74435884
-0.62146842 -0.34720498 -0.00000062
-0.21499211 -0.60107988 0.00000000
-0.18562685 -0.65471697 0.00000000
-0.12408128 -0.34754038 0.00000000
0.04346373 -0.15303005 0.71051013
-0.19444659 -0.12111248 0.00000000
-0.11590016 -0.10455809 0.00000000
-0.75194049 -0.68704146 -0.00000028
0.03277160 0.25694719 0.53572184
-0.57333589 -0.13336681 -0.00000080
-0.71427548 -0.67250329 -0.00000032
-0.24302264 0.07517451 0.00000000
-0.08777919 0.08043538 0.00000000
-0.54310983 -0.20743558 -0.00000054
-0.30336443 -0.26879662 0.00000000
-0.58783484 -0.05153192 -0.00000100
-0.40103787 -0.78270268 0.00000000
-0.16097619 0.09591734 0.00000000
-0.55452627 -0.54119670 0.00000000
-0.11705022 -0.56008357 0.00000000
-0.11163350 -0.45828179 0.00000000
-0.39465803 0.37966445 -0.00000094
-0.14440010 -0.65970480 0.00000000
-0.19461647 -0.29051703 0.00000000
-0.14977992 0.54720402 -0.00000019
-0.43038321 0.28029814 -0.00000092
-0.23550791 0.25526723 -0.00000004
-0.48664570 -0.68084836 0.00000000
-0.15741731 -0.63108373 0.00000000
-0.51701057 -0.67221212 0.00000000
-0.13613477 -0.10968878 0.00000000
-0.50550598 -0.64525044 0.00000000
-0.05910181 0.37847748 0.00000000
-0.45291084 -0.16613728 -0.00000023
-0.52614057 -0.61940956 0.00000000
-0.21071038 -0.30750915 0.00000000
0.04561846 0.01473735 0.74573952
0.04849273 -0.27698505 0.79272050
-0.70621514 -0.33451357 -0.00000101
-0.58064967 -0.15084104 -0.00000080
-0.41384628 -0.01550607 -0.00000032
-0.47148061 -0.16991693 -0.00000030
-0.28483486 0.11912938 -0.00000001
-0.09723152 -0.57095844 0.00000000
-0.35343435 0.37633610 -0.00000076
-0.46351734 -0.56150544 0.00000000
-0.05690204 0.53374785 0.00000000
0.04331719 -0.44448510 0.70812070
-0.18095581 -0.74396545 0.00000000
-0.29206106 -0.73966026 0.00000000
-0.15861464 0.10339232 0.00000000
-0.02968066 -0.14652938 0.00000000
-0.07061537 -0.46643990 0.00000000
-0.33629626 -0.01950710 0.00000000
-0.06425689 0.10756365 0.00000000
-0.25496429 -0.32515314 0.00000000
0.01770431 0.49857348 0.28941703
-0.19764759 0.51930809 -0.00000035
-0.08332100 0.01318735 0.00000000
0.02817047 0.31685832 0.46051121
-0.22548573 -0.42217165 0.00000000
0.04327024 -0.39091974 0.70735210
-0.52739573 0.10913476 -0.00000103
-0.12170024 -0.46895099 0.00000000
-0.65029913 -0.58183688 -0.00000033
-0.38155305 -0.30653679 0.00000000
0.04229995 0.01622590 0.69150656
-0.44494638 -0.32378662 0.00000000
-0.06221537 0.11736181 0.00000000
-0.33645236 -0.58626086 0.00000000
-0.16093703 0.13812420 0.00000000
-0.22574387 -0.20300914 0.00000000
-0.29532164 -0.71001971 0.00000000
-0.32971483 -0.24580722 0.00000000
-0.49134547 -0.47701874 0.00000000
-0.13589042 -0.14009573 0.00000000
-0.41442683 -0.69077420 0.00000000
-0.53238076 -0.11553898 -0.00000065
-0.74200547 -0.37738422 -0.00000106
-0.14116386 0.65812665 -0.00000034
-0.01305581 -0.27226350 0.00000000
-0.22426279 -0.59075892 0.00000000
-0.10426490 0.15016821 0.00000000
-0.65543342 -0.72010934 -0.00000011
-0.64273274 -0.14055742 -0.00000108
-0.42028725 -0.76347136 0.00000000
-0.25549307 -0.49526072 0.00000000
-0.15337440 0.15424447 0.00000000
-0.05228919 -0.12183066 0.00000000
-0.73543459 -0.72537810 -0.00000019
-0.39566708 0.19988036 -0.00000063
-0.38886523 0.00038542 -0.00000025
-0.05528267 -0.73559237 0.00000000
0.04543049 -0.63803101 0.74267024
-0.79075027 -0.47992972 -0.00000080
-0.22056293 0.44461480 -0.00000031
-0.04508570 0.24687926 0.00000000
-0.57836854 -0.38776237 -0.00000037
-0.22301552 -0.55020171 0.00000000
-0.20876248 -0.43317240 0.00000000
-0.29914257 -0.63877797 0.00000000
-0.56720072 -0.33566037 -0.00000041
-0.13117468 0.10501948 0.00000000
-0.03972547 0.61890173 0.00000000
-0.01816731 0.72807610 0.00000000
-0.14358713 -0.73982489 0.00000000
-0.34695184 -0.47619060 0.00000000
0.02750941 0.31242320 0.44970912
-0.49423239 -0.60795712 0.00000000
-0.31422278 -0.10968355 0.00000000
-0.59783071 -0.05590028 -0.00000104
0.02895999 0.32118171 0.47341147
-0.36001414 0.05696074 -0.00000022
-0.68205756 -0.23398875 -0.00000108
-0.75001520 -0.02301824 -0.00000175
-0.02081410 0.45894086 0.00000000
-0.04927792 0.51057780 0.00000000
-0.06483484 0.20548432 0.00000000
0.04405083 -0.62693238 0.72011715
0.00974712 0.62514961 0.15934137
-0.42398098 0.09549928 -0.00000056
-0.54720104 -0.56691879 0.00000000
-0.03864248 -0.38991144 0.00000000
0.04422067 -0.59572160 0.72289270
-0.56070286 0.17946775 -0.00000130
0.04687514 -0.73761439 0.76628768
0.04728267 -0.13625181 0.77293706
-0.34033155 0.01507970 -0.00000006
-0.35680264 0.16573386 -0.00000040
-0.56515867 -0.22743990 -0.00000060
-0.28359348 -0.20452186 0.00000000
-0.02767538 -0.17543051 0.00000000
-0.20571382 -0.68303251 0.00000000
-0.77259839 -0.78858024 -0.00000003
-0.22943276 0.38345075 -0.00000024
-0.00237436 0.27807054 0.00000000
-0.44086441 0.01833991 -0.00000050
-0.08556480 0.09292773 0.00000000
-0.36065856 0.26350895 -0.00000059
-0.12058438 -0.15527906 0.00000000
-0.40733474 -0.54848689 0.00000000
-0.59663612 0.09869082 -0.00000131
-0.64476430 -0.66492110 -0.00000016
-0.19512403 0.40724581 -0.00000014
-0.56917351 -0.07746534 -0.00000088
-0.61703062 -0.31442365 -0.00000066
-0.13027890 0.50259084 -0.00000003
-0.42565373 0.13653980 -0.00000064
-0.66073352 0.05757927 -0.00000151
-0.65420628 -0.28903645 -0.00000087
-0.09955826 0.48069453 0.00000000
-0.39632773 -0.04544119 -0.00000020
-0.40083352 -0.57674044 0.00000000
-0.60542583 -0.25210515 -0.00000072
-0.03854554 -0.10359958 0.00000000
-0.26549229 -0.45778093 0.00000000
-0.33614203 0.31034982 -0.00000057
0.04617614 -0.29929858 0.75485235
-0.52066600 -0.48274639 0.00000000
-0.23007230 -0.33761582 0.00000000
0.04481247 -0.01947513 0.73255491
-0.51850682 0.21020709 -0.00000117
-0.28653952 -0.34570202 0.00000000
-0.38115057 0.12257943 -0.00000043
-0.11390204 0.29527476 0.00000000
-0.33877635 -0.25631848 0.00000000
-0.54009145 -0.71730274 0.00000000
-0.71670699 -0.13443853 -0.00000141
0.04574055 -0.51088953 0.74773604
-0.09139050 -0.40033722 0.00000000
0.04364072 -0.35975033 0.71340770
-0.07867830 0.13155642 0.00000000
-0.34813544 0.13722613 -0.00000031
-0.37924463 -0.39606363 0.00000000
0.02793170 0.32722002 0.45660615
-0.20929617 -0.76250690 0.00000000
-0.16751187 -0.72886741 0.00000000
-0.32028946 -0.24880202 0.00000000
-0.29210567 0.46119270 -0.00000065
-0.71404099 -0.77807701 -0.00000005
-0.46108839 -0.79619241 0.00000000
-0.39447516 0.32361767 -0.00000084
-0.09060964 0.69698918 -0.00000020
-0.49195859 -0.49550617 0.00000000
-0.44438767 -0.14001161 -0.00000023
-0.61710829 -0.51065791 -0.00000032
-0.68222678 -0.28239021 -0.00000100
-0.34135485 -0.48941687 0.00000000
0.02244527 0.39309424 0.36692575
-0.01663602 -0.65072626 0.00000000
-0.63748956 -0.36653054 -0.00000066
0.04362537 -0.58082372 0.71316117
0.03808091 0.11252765 0.62252986
-0.11347926 0.45961407 0.00000000
-0.05631434 0.55507171 0.00000000
-0.53916019 -0.56180906 0.00000000
-0.62210709 -0.79288089 0.00000000
-0.08761486 -0.05348893 0.00000000
-0.43590453 0.08742194 -0.00000060
-0.10401097 -0.76096338 0.00000000
0.04640870 -0.55737400 0.75865906
-0.01633157 0.30734798 0.00000000
-0.64490265 -0.76948136 0.00000000
-0.45129755 -0.75405425 0.00000000
-0.09173566 -0.34138721 0.00000000
-0.64526397 -0.46552774 -0.00000052
-0.64263529 -0.33232549 -0.00000074
-0.30180961 -0.71488041 0.00000000
-0.38841262 0.18168750 -0.00000056
0.04395902 -0.75792515 0.71861899
-0.30286181 0.10529727 -0.00000006
-0.35114479 -0.16964437 0.00000000
-0.21250293 0.00133671 0.00000000
-0.68007272 -0.76734746 -0.00000008
-0.54089415 0.00701212 -0.00000091
-0.65348786 -0.59528750 -0.00000032
-0.34331143 -0.32876691 0.00000000
-0.21092620 -0.54044795 0.00000000
-0.18442290 0.30986547 0.00000000
0.04675439 -0.59646088 0.76431084
-0.28471226 0.45350462 -0.00000060
-0.28628471 -0.72580028 0.00000000
-0.07696842 0.47117341 0.00000000
-0.32845950 -0.17485398 0.00000000
-0.16664609 -0.59288430 0.00000000
-0.73757267 -0.04316039 -0.00000166
-0.17308930 -0.51091725 0.00000000
-0.08681568 0.37876317 0.00000000
-0.21611127 -0.14204048 0.00000000
-0.36742517 -0.13532047 0.00000000
0.04663492 -0.28905725 0.76235163
-0.57428473 -0.01180152 -0.00000102
-0.08744986 -0.20231131 0.00000000
-0.62855554 -0.37284663 -0.00000061
-0.07503668 -0.11000910 0.00000000
-0.17495289 0.60385174 -0.00000040
-0.73143250 -0.17944480 -0.00000139
-0.43835196 -0.03852130 -0.00000039
-0.08850702 0.36188501 0.00000000
-0.11306239 0.17642143 0.00000000
-0.46135673 -0.60269415 0.00000000
-0.43463999 -0.76055276 0.00000000
-0.21245813 0.07245209 0.00000000
0.03197282 0.23765565 0.52267331
-0.68843251 -0.17420977 -0.00000122
-0.40439156 -0.14796107 -0.00000005
-0.06425364 -0.36832088 0.00000000
-0.03767353 0.69518238 0.00000000
-0.00266054 0.61638731 0.00000000
-0.08996160 0.60141802 -0.00000003
-0.05383122 -0.06298867 0.00000000
-0.13757882 0.56449342 -0.00000017
-0.46437570 -0.76153296 0.00000000
0.04851883 -0.22270796 0.79314607
-0.19900945 0.26066312 0.00000000
-0.37046176 -0.68062109 0.00000000
-0.44417110 0.25163910 -0.00000093
-0.54862612 -0.73889250 0.00000000
0.01485218 0.55565208 0.24279012
-0.06010365 0.59282446 0.00000000
-0.52050024 -0.69340718 0.00000000
-0.59447110 -0.52028340 -0.00000020
-0.18398692 -0.63607371 0.00000000
-0.24097501 0.47285792 -0.00000045
-0.45597926 -0.64207464 0.00000000
0.04408185 -0.70986807 0.72062588
-0.10773351 -0.52727282 0.00000000
-0.36245054 -0.64011753 0.00000000
-0.76249361 0.01249351 -0.00000186
-0.56481063 -0.30299249 -0.00000046
-0.23838265 -0.03639352 0.00000000
-0.30653524 -0.06519468 0.00000000
-0.06054143 -0.42684394 0.00000000
-0.22415939 0.48073167 -0.00000039
-0.38718608 -0.21492997 0.00000000
-0.02210027 -0.01556400 0.00000000
-0.09132237 0.65701658 -0.00000014
-0.03823264 0.03371338 0.00000000
-0.78522897 -0.72374552 -0.00000019
-0.46148285 0.08151412 -0.00000070
-0.20268264 -0.29800919 0.00000000
-0.35408345 -0.44434425 0.00000000
-0.69352847 -0.50320619 -0.00000066
-0.41943112 -0.17975874 -0.00000006
-0.28418976 0.17648004 -0.00000011
-0.21804358 -0.44176164 0.00000000
-0.00102321 -0.63394916 0.00000000
-0.62285239 -0.07925533 -0.00000110
-0.17317154 -0.62020236 0.00000000
-0.33559453 -0.48421338 0.00000000
-0.32432762 -0.60094690 0.00000000
-0.10769814 -0.33001798 0.00000000
-0.41194871 0.29522079 -0.00000087
0.01798742 0.50402659 0.29404223
-0.08708143 0.67343050 -0.00000015
-0.54273629 -0.31359518 -0.00000035
-0.51171458 -0.41718483 -0.00000003
-0.08136906 -0.48980817 0.00000000
-0.01796891 0.69762993 0.00000000
-0.29365468 0.19846545 -0.00000019
0.04502504 -0.07850420 0.73603100
-0.27511850 0.05577332 0.00000000
-0.34506896 -0.36651677 0.00000000
-0.27009580 0.31850874 -0.00000030
-0.78966546 -0.74940425 -0.00000013
-0.22392657 -0.74816990 0.00000000
-0.37774548 -0.70870060 0.00000000
-0.06347671 0.04356370 0.00000000
0.02155680 0.43903136 0.35239312
-0.51166844 0.13901736 -0.00000102
-0.17697804 0.35845199 0.00000000
-0.34582675 -0.21874854 0.00000000
-0.63416380 -0.61273319 -0.00000021
-0.14030728 -0.10624035 0.00000000
0.04852550 -0.06687110 0.79325193
-0.01581342 -0.26965818 0.00000000
-0.25919911 -0.57389319 0.00000000
-0.40423328 -0.21507217 0.00000000
-0.28832251 -0.77023476 0.00000000
0.04678471 -0.54015464 0.76480532
-0.25884640 -0.77834427 0.00000000
-0.10166786 0.56885111 -0.00000003
-0.15790360 -0.38843280 0.00000000
-0.20138006 -0.54532802 0.00000000
-0.07472579 -0.16472174 0.00000000
-0.25611272 -0.49965066 0.00000000
-0.15744671 -0.64387184 0.00000000
-0.18558545 -0.46586159 0.00000000
-0.71110594 -0.34192756 -0.00000102
0.04757601 -0.44929311 0.77773875
-0.47947446 0.06764966 -0.00000075
-0.70882887 0.01257340 -0.00000163
-0.00476156 0.26860017 0.00000000
-0.27095178 -0.17728564 0.00000000
-0.51509053 -0.10927658 -0.00000059
-0.32844332 -0.20025432 0.00000000
-0.01527261 -0.19087239 0.00000000
-0.37139735 -0.40988091 0.00000000
0.04642893 -0.39397359 0.75898653
-0.76571238 -0.23862857 -0.00000140
-0.58025920 -0.00585232 -0.00000105
-0.28112483 -0.58050036 0.00000000
-0.66729081 -0.16334115 -0.00000114
-0.06252327 -0.56341571 0.00000000
-0.46439463 -0.14181422 -0.00000032
-0.49692088 -0.74735415 0.00000000
-0.42457783 -0.57646298 0.00000000
-0.67858887 0.01547318 -0.00000151
-0.11892620 0.02115158 0.00000000
-0.12113211 0.38072872 0.00000000
0.04706222 -0.23409158 0.76933545
-0.24473505 -0.20009951 0.00000000
-0.12904903 -0.71632725 0.00000000
-0.78985238 0.00672784 -0.00000197
-0.71630305 -0.50262684 -0.00000074
-0.00961914 -0.50741231 0.00000000
-0.51489532 -0.30963913 -0.00000024
-0.65229529 -0.22234742 -0.00000098
-0.20827663 -0.32849249 0.00000000
-0.67534959 -0.58584189 -0.00000043
-0.09924684 0.25943187 0.00000000
-0.03094595 -0.18902819 0.00000000
-0.27902162 -0.24638657 0.00000000
-0.70693427 -0.60101837 -0.00000050
0.03669944 0.19383591 0.59993023
-0.21124819 -0.31122124 0.00000000
0.04357599 -0.46746302 0.71235174
-0.54926693 -0.39216897 -0.00000024
-0.60042113 0.08230732 -0.00000129
0.03421781 0.23708342 0.55936217
-0.14831439 -0.38629612 0.00000000
-0.23222002 -0.62569028 0.00000000
-0.61749679 0.12525500 -0.00000144
-0.25589874 -0.35301718 0.00000000
-0.58054620 0.06577797 -0.00000118
-0.51229721 -0.27780685 -0.00000028
-0.15374310 0.11803590 0.00000000
0.04594196 0.02940341 0.75102222
-0.78173643 -0.00015308 -0.00000192
-0.14942078 -0.31082928 0.00000000
-0.10159582 -0.08930191 0.00000000
-0.33010536 -0.66173142 0.00000000
-0.45591614 -0.57084584 0.00000000
-0.70612258 -0.11710960 -0.00000139
-0.62575424 0.07603491 -0.00000139
-0.14818326 0.37140974 0.00000000
-0.35766959 -0.78993976 0.00000000
-0.17012136 -0.36348483 0.00000000
-0.39305726 0.17195185 -0.00000057
-0.19846426 0.27332649 0.00000000
-0.61772174 0.00983898 -0.00000124
-0.47186720 -0.58462220 0.00000000
-0.17200036 -0.05322196 0.00000000
-0.53725415 0.24154150 -0.00000131
-0.18263511 0.38606003 -0.00000005
0.04821465 -0.44728678 0.78817832
-0.39025232 -0.33271497 0.00000000
-0.32125795 -0.44795325 0.00000000
-0.23867345 -0.15173092 0.00000000
-0.30425137 -0.60075921 0.00000000
-0.13635224 -0.28757966 0.00000000
-0.30402488 -0.42354763 0.00000000
-0.04312849 -0.26928902 0.00000000
-0.02774358 -0.45697975 0.00000000
-0.10402262 0.03464994 0.00000000
-0.11399546 -0.04288515 0.00000000
-0.78180969 -0.18201609 -0.00000154
0.04697499 -0.09932031 0.76790684
-0.38702258 -0.40571070 0.00000000
-0.30969399 -0.56619155 0.00000000
-0.63330048 -0.33134979 -0.00000070
-0.46056002 -0.36694619 0.00000000
-0.04698705 -0.14960106 0.00000000
-0.51644117 -0.62567699 0.00000000
-0.13433316 0.34309644 0.00000000
0.01045566 0.60565794 0.17092612
-0.53078336 -0.35229450 -0.00000023
-0.14860076 -0.10879108 0.00000000
-0.67327863 -0.50279236 -0.00000057
-0.76517600 -0.50585872 -0.00000074
-0.51269954 -0.09894704 -0.00000060
-0.01105587 0.45094439 0.00000000
-0.75132400 -0.56763458 -0.00000058
-0.08925530 0.31268379 0.00000000
-0.64705896 -0.22438464 -0.00000095
-0.50156754 -0.36835510 -0.00000008
-0.28911433 -0.50978690 0.00000000
-0.57371777 -0.30086592 -0.00000050
-0.14856517 -0.66325754 0.00000000
0.04655108 -0.11081173 0.76097751
-0.36215815 -0.27298686 0.00000000
-0.51107979 0.07318740 -0.00000090
-0.25565004 0.10490344 0.00000000
-0.10288901 -0.10639354 0.00000000
-0.09027759 0.27061924 0.00000000
-0.21561947 0.53832090 -0.00000046
-0.55818266 -0.41907880 -0.00000023
-0.41588545 0.19829334 -0.00000071
-0.42038187 -0.18687756 -0.00000005
-0.06334969 0.40043327 0.00000000
-0.57567781 -0.62398165 0.00000000
-0.46221563 0.13544646 -0.00000080
-0.17193790 0.59236670 -0.00000037
-0.10498887 0.14633027 0.00000000
-0.78325659 -0.25035247 -0.00000137
-0.33405882 -0.28023285 0.00000000
-0.77827650 -0.11048203 -0.00000171
-0.70950609 -0.70799828 -0.00000023
-0.49206719 -0.13313799 -0.00000045
-0.24252136 0.31804895 -0.00000018
-0.01836931 -0.67360508 0.00000000
-0.25912103 0.15143925 0.00000000
-0.44280040 -0.51964790 0.00000000
-0.70015746 -0.52430230 -0.00000065
-0.37609738 -0.73891300 0.00000000
-0.69334626 -0.00608586 -0.00000153
0.03471305 0.17285435 0.56747377
-0.68545908 -0.62748951 -0.00000040
-0.77797639 -0.59139848 -0.00000052
-0.58178407 -0.21850403 -0.00000068
-0.21409616 -0.47079352 0.00000000
-0.50774777 -0.03566080 -0.00000069
-0.34445006 -0.74803734 0.00000000
-0.35649946 -0.35988474 0.00000000
-0.73298895 -0.31588730 -0.00000116
-0.55378503 0.20934410 -0.00000132
-0.49756026 -0.57675374 0.00000000
-0.18106279 -0.37096912 0.00000000
-0.54343146 -0.46970040 -0.00000007
-0.38109720 -0.49960524 0.00000000
-0.11771914 0.45400050 0.00000000
-0.41154730 -0.70385230 0.00000000
-0.10936567 -0.71790266 0.00000000
-0.60506946 -0.24972951 -0.00000073
-0.26511565 0.04971859 0.00000000
-0.63601500 -0.00636479 -0.00000129
-0.64180845 -0.58817971 -0.00000029
-0.77312678 -0.60248458 -0.00000049
-0.53717738 0.07014317 -0.00000100
0.04744945 -0.35208294 0.77566779
-0.24390124 0.02051959 0.00000000
-0.28424793 0.19021615 -0.00000014
0.00530095 0.71050221 0.08665589
-0.50171584 -0.06026593 -0.00000062
-0.27040577 -0.12895037 0.00000000
-0.53049797 -0.11115363 -0.00000065
-0.00136500 0.70335495 0.00000000
-0.07094328 0.71022636 -0.00000014
0.01665066 0.52496928 0.27218971
-0.46125272 -0.14314771 -0.00000030
-0.27358747 -0.39900437 0.00000000
-0.50053769 0.25004843 -0.00000116
-0.03475624 -0.32524472 0.00000000
-0.70309156 -0.08576855 -0.00000143
-0.18153466 0.19609247 0.00000000
-0.21990994 -0.18861735 0.00000000
0.04339267 0.06024023 0.70935178
-0.07631016 0.62848008 -0.00000002
-0.27611476 -0.73268157 0.00000000
-0.07440992 -0.69863689 0.00000000
-0.68916291 -0.46364084 -0.00000071
-0.23364376 -0.64518011 0.00000000
-0.60312301 -0.42752850 -0.00000040
-0.63659465 -0.60002315 -0.00000024
-0.04228468 -0.06260004 0.00000000
-0.16040158 0.17816119 0.00000000
0.01962417 0.45089430 0.32080573
-0.06178792 -0.78947854 0.00000000
-0.25133714 -0.43039086 0.00000000
-0.65640986 -0.03241869 -0.00000133
-0.11069477 -0.31150895 0.00000000
-0.42195335 -0.37020364 0.00000000
-0.34256139 0.17702962 -0.00000036
-0.63022947 -0.13947579 -0.00000103
-0.54138547 0.13301387 -0.00000113
-0.48759720 -0.54416257 0.00000000
-0.77836978 -0.18692683 -0.00000153
0.02730486 0.34356886 0.44635749
-0.56165302 0.01755130 -0.00000101
-0.17435049 -0.57117182 0.00000000
-0.55101478 0.12805669 -0.00000116
-0.17475498 -0.58226210 0.00000000
-0.27528054 -0.20504934 0.00000000
-0.41259000 0.27851579 -0.00000084
-0.29471439 0.29987448 -0.00000037
0.03389279 0.21423034 0.55405694
-0.35861695 0.34678444 -0.00000073
-0.27411705 -0.61805302 0.00000000
-0.40025616 0.22470692 -0.00000069
-0.01815808 0.08588364 0.00000000
-0.50997180 -0.65150797 0.00000000
-0.05485251 -0.43280768 0.00000000
-0.31059909 0.39094508 -0.00000060
-0.38158336 -0.43441769 0.00000000
-0.29351482 -0.06919794 0.00000000
-0.04616694 0.07822091 0.00000000
-0.07735624 -0.04044145 0.00000000
0.04441709 -0.31239879 0.72609782
-0.44907302 -0.22681004 -0.00000010
-0.50263882 -0.40733597 -0.00000001
-0.27884212 0.31443393 -0.00000033
-0.72402763 -0.24871120 -0.00000124
-0.20066573 -0.40557799 0.00000000
-0.44073775 -0.19329740 -0.00000013
-0.37052038 0.31568116 -0.00000073
-0.57317793 -0.43022719 -0.00000027
0.01402928 0.53923386 0.22934651
-0.21598135 -0.43174839 0.00000000
-0.24576405 -0.23531573 0.00000000
-0.34143829 0.03980126 -0.00000011
-0.68536347 -0.34632894 -0.00000090
-0.45668751 -0.33630711 0.00000000
-0.49986190 -0.32473642 -0.00000015
-0.27356288 0.17161636 -0.00000006
-0.35485271 -0.77543062 0.00000000
-0.60314095 -0.29441455 -0.00000064
-0.34692976 -0.01566761 -0.00000004
-0.64303809 -0.25249860 -0.00000088
-0.13278517 -0.33238205 0.00000000
-0.26974776 -0.73210615 0.00000000
-0.64949119 -0.56058306 -0.00000037
0.04535558 -0.70481199 0.74144709
0.04665988 0.00379389 0.76276195
-0.11300644 0.33460510 0.00000000
-0.29598069 -0.17435808 0.00000000
-0.00563063 -0.18187872 0.00000000
-0.27044499 -0.79198694 0.00000000
-0.40231833 -0.26669520 0.00000000
0.04684400 -0.20159663 0.76576763
-0.05516185 0.01967375 0.00000000
-0.04362809 -0.56822485 0.00000000
-0.06242390 0.68685651 -0.00000007
-0.30128697 0.29718620 -0.00000040
-0.08393081 0.27247116 0.00000000
-0.22004461 -0.25532424 0.00000000
-0.58514804 -0.33369893 -0.00000049
-0.39321771 -0.78808099 0.00000000
-0.03415668 -0.12056410 0.00000000
0.04815675 -0.59936130 0.78723496
-0.34957469 -0.79791987 0.00000000
-0.32632229 -0.34704763 0.00000000
-0.32994092 -0.13005745 0.00000000
-0.18839186 0.37488878 -0.00000005
-0.07581016 0.62243927 -0.00000001
-0.54386753 -0.25237328 -0.00000046
-0.69711065 -0.48810709 -0.00000070
-0.10979750 0.54011720 -0.00000001
-0.37541714 -0.67202222 0.00000000
-0.13352111 -0.77943653 0.00000000
-0.60272157 0.04214137 -0.00000123
-0.79142749 -0.62207317 -0.00000044
-0.19691734 0.20524368 0.00000000
-0.62018263 -0.70173460 0.00000000
-0.02802620 0.61644483 0.00000000
-0.57631201 -0.78893036 0.00000000
-0.14794779 -0.16103478 0.00000000
-0.06900505 0.55089384 0.00000000
-0.23606583 -0.32461426 0.00000000
-0.34268212 -0.05924375 0.00000000
-0.57978439 -0.28244844 -0.00000056
0.02549693 0.36296549 0.41680595
-0.46496242 -0.30530789 -0.00000003
-0.33894974 0.31502607 -0.00000059
-0.35105875 0.28089750 -0.00000058
-0.45026439 -0.44404843 0.00000000
-0.67964554 -0.49926004 -0.00000060
-0.15755440 -0.14860804 0.00000000
-0.02208879 -0.56014615 0.00000000
-0.23718180 -0.74254870 0.00000000
-0.01414892 0.42094597 0.00000000
-0.47536868 -0.77925444 0.00000000
-0.31128407 -0.63505024 0.00000000
-0.72128993 -0.41673443 -0.00000093
-0.15581031 0.28795713 0.00000000
-0.31981444 -0.26295736 0.00000000
-0.31793132 0.00676272 0.00000000
0.04444429 -0.55491185 0.72654736
-0.47034842 -0.71705312 0.00000000
-0.63088632 -0.32928130 -0.00000070
0.04850988 -0.35748318 0.79300255
0.04739875 -0.51383579 0.77484226
-0.04869974 -0.41074333 0.00000000
-0.55762464 0.23008844 -0.00000137
-0.65176821 -0.42722809 -0.00000061
-0.05089844 -0.23623422 0.00000000
-0.25184730 -0.48677376 0.00000000
0.04393565 0.02468868 0.71823555
-0.74568623 -0.03299159 -0.00000171
-0.28901467 -0.19522355 0.00000000
-0.53920013 -0.28453836 -0.00000038
-0.28687876 -0.39279804 0.00000000
-0.02670365 -0.03026392 0.00000000
-0.59086102 -0.76441830 0.00000000
-0.08390985 0.26104999 0.00000000
0.04722258 0.00805784 0.77195674
-0.23329706 -0.52227032 0.00000000
-0.25174293 0.27572435 -0.00000015
-0.77596051 -0.29816186 -0.00000125
-0.49753940 -0.21181303 -0.00000033
-0.67440325 -0.67889857 -0.00000026
-0.38759705 0.41084930 -0.00000097
-0.26696998 -0.02904734 0.00000000
0.04747586 -0.10390840 0.77609444
-0.15606198 -0.41566178 0.00000000
-0.02615862 -0.77434582 0.00000000
-0.09308439 -0.30277926 0.00000000
-0.32334185 0.36782688 -0.00000062
-0.41750008 -0.67308867 0.00000000
-0.40915561 0.17763585 -0.00000065
-0.02218433 0.38010591 0.00000000
-0.27301627 0.30694020 -0.00000029
-0.63182217 -0.25733668 -0.00000083
-0.34480852 -0.56378961 0.00000000
-0.05279404 0.38238049 0.00000000
-0.69728392 -0.08474441 -0.00000141
-0.58632678 -0.42091182 -0.00000034
0.04315835 0.05568578 0.70552379
-0.77761143 -0.03069357 -0.00000185
-0.59736854 -0.08259263 -0.00000099
-0.53578919 0.06957333 -0.00000100
-0.71963352 -0.77063781 -0.00000007
-0.25301543 -0.02299493 0.00000000
-0.68962771 -0.32661137 -0.00000095
0.04353749 -0.03098265 0.71171337
0.04552711 -0.69379354 0.74425089
-0.04352055 0.54467326 0.00000000
-0.09660445 -0.22034751 0.00000000
-0.13031876 0.17092952 0.00000000
-0.78066421 -0.05701479 -0.00000182
-0.08961308 0.41192693 0.00000000
-0.03807809 -0.09713057 0.00000000
-0.20730290 0.17637897 0.00000000
-0.56218880 0.19769043 -0.00000133
-0.00452238 -0.16561286 0.00000000
0.04374634 -0.23628694 0.71513164
-0.77992755 -0.62584573 -0.00000044
-0.59668118 -0.47057077 -0.00000030
-0.58790219 0.04523357 -0.00000117
-0.11155057 0.59378409 -0.00000011
-0.06145964 0.13549507 0.00000000
-0.53588676 0.05327579 -0.00000097
-0.67413926 -0.30490574 -0.00000092
0.02437654 0.37633151 0.39849231
0.04553383 -0.35987905 0.74435377
-0.77727300 -0.08189033 -0.00000176
-0.46430892 -0.16938099 -0.00000027
-0.39385620 0.29304996 -0.00000078
-0.21227819 -0.25458071 0.00000000
-0.33973882 0.40032881 -0.00000074
-0.05315522 0.48603132 0.00000000
-0.66913486 -0.33654261 -0.00000085
-0.20057613 0.23761997 0.00000000
-0.65625060 0.08734624 -0.00000154
-0.43862584 -0.40126696 0.00000000
-0.52953881 -0.74377543 0.00000000
-0.20815241 0.22964741 0.00000000
-0.24036789 0.31847343 -0.00000017
-0.62666285 -0.30313775 -0.00000072
-0.13309342 -0.13051417 0.00000000
-0.41176999 -0.07157455 -0.00000022
-0.45505795 0.09195908 -0.00000069
-0.50733870 -0.69044566 0.00000000
-0.10631791 0.23542269 0.00000000
-0.22112010 0.13084774 0.00000000
-0.18613166 0.10079119 0.00000000
-0.60577565 0.19375251 -0.00000151
-0.53448343 -0.21231507 -0.00000049
0.02537231 0.36791158 0.41476789
-0.16356257 -0.55974704 0.00000000
-0.32989758 0.33875889 -0.00000059
-0.25494793 0.27645603 -0.00000016
-0.65312505 0.10740862 -0.00000156
0.04558025 -0.47815165 0.74511498
-0.15099369 -0.20133512 0.00000000
-0.01009699 -0.62999701 0.00000000
-0.75282639 0.03653916 -0.00000186
-0.33512688 0.37465844 -0.00000068
-0.19767281 -0.72536039 0.00000000
-0.20717135 -0.28441235 0.00000000
0.04424131 0.00232565 0.72323698
-0.42529023 0.09911715 -0.00000058
-0.08434954 -0.74730277 0.00000000
-0.51770997 0.27411309 -0.00000128
-0.68843836 -0.08104867 -0.00000138
-0.50759965 -0.66916364 0.00000000
-0.10824671 -0.34437704 0.00000000
-0.65925485 -0.56193566 -0.00000041
-0.27323145 0.47682703 -0.00000059
0.04375697 -0.49091905 0.71531057
-0.01185952 0.36840472 0.00000000
-0.44104400 -0.65616775 0.00000000
-0.55776536 -0.17071731 -0.00000066
-0.33486179 -0.56694788 0.00000000
-0.16746508 0.37079018 0.00000000
-0.25443897 -0.34744379 0.00000000
-0.01844256 0.01685232 0.00000000
-0.58484852 -0.42196587 -0.00000034
-0.28101304 -0.61861932 0.00000000
-0.59376764 -0.42982867 -0.00000036
0.04378652 0.01503021 0.71580112
0.02576236 0.34931949 0.42114750
-0.72094202 -0.29316702 -0.00000114
-0.69691479 0.03278458 -0.00000162
-0.39820895 -0.29842186 0.00000000
-0.72218692 -0.34215382 -0.00000106
-0.09597765 0.25208208 0.00000000
-0.51580453 -0.01811578 -0.00000076
-0.12589160 -0.06235526 0.00000000
-0.34388667 0.23774654 -0.00000047
-0.78803575 -0.65946209 -0.00000035
-0.58022618 -0.40012491 -0.00000035
-0.74735916 -0.09004590 -0.00000162
-0.72041041 -0.79920763 -0.00000000
-0.39762723 -0.33139440 0.00000000
-0.41671416 -0.13852586 -0.00000012
-0.08879015 0.16787910 0.00000000
-0.61642039 0.11143501 -0.00000141
0.01929421 0.46146789 0.31541041
-0.74376631 -0.75678176 -0.00000011
-0.69960433 -0.44031653 -0.00000079
-0.16533065 -0.11174095 0.00000000
0.02655875 0.35476008 0.43416095
-0.27821031 0.42390379 -0.00000052
-0.17444108 -0.70811057 0.00000000
-0.30508003 -0.01657134 0.00000000
-0.08559776 0.19374397 0.00000000
-0.59276855 -0.20683601 -0.00000075
0.02542759 0.33538395 0.41568047
-0.55649340 -0.27522799 -0.00000047
-0.67575449 -0.50651973 -0.00000057
-0.43450180 -0.22331379 -0.00000005
-0.39909068 -0.29781717 0.00000000
-0.39287156 -0.04323469 -0.00000019
-0.33997068 0.30274755 -0.00000057
-0.35920328 0.11622183 -0.00000032
-0.51427144 -0.27930903 -0.00000029
-0.31853697 0.27491647 -0.00000043
-0.24233083 0.13282977 0.00000000
-0.47106045 0.18906359 -0.00000093
-0.59841388 -0.46251741 -0.00000032
-0.20815213 0.44682518 -0.00000026
0.03900789 0.13307345 0.63767320
-0.24872936 -0.36212614 0.00000000
-0.47182015 -0.42134652 0.00000000
-0.39103335 -0.06582590 -0.00000014
-0.25787786 0.50148731 -0.00000057
-0.76198924 -0.10973388 -0.00000164
-0.44094762 -0.50907648 0.00000000
-0.42398125 -0.58657354 0.00000000
-0.22057764 0.39947325 -0.00000023
-0.79196709 -0.72109979 -0.00000020
-0.22895613 -0.09199257 0.00000000
0.01295191 0.56288213 0.21173307
0.04758491 -0.05417516 0.77787602
-0.30611750 -0.38957205 0.00000000
-0.02082880 -0.22501126 0.00000000
-0.04274483 -0.60420698 0.00000000
-0.14106177 -0.55829358 0.00000000
-0.09136078 -0.44828418 0.00000000
-0.52934957 -0.20530444 -0.00000048
0.01427703 0.53865999 0.23339556
-0.10679967 -0.74427563 0.00000000
0.04878651 -0.66302437 0.79753071
-0.41437194 0.00280377 -0.00000036
-0.71569729 -0.41485354 -0.00000091
-0.54470778 -0.16579722 -0.00000062
-0.78742874 -0.30284742 -0.00000124
-0.16978101 -0.24050978 0.00000000
-0.33896756 -0.28757706 0.00000000
-0.45971060 -0.13623530 -0.00000031
-0.14972621 0.53078693 -0.00000016
-0.13178866 -0.64473033 0.00000000
-0.44780684 -0.33262360 0.00000000
-0.43314347 0.11662334 -0.00000064
-0.34590051 -0.72042882 0.00000000
-0.04625889 -0.02661200 0.00000000
-0.43795705 -0.32103100 0.00000000
-0.10970617 -0.79602367 0.00000000
-0.23151536 -0.76590747 0.00000000
-0.27595609 0.38989833 -0.00000045
-0.35797441 -0.25154644 0.00000000
0.04552334 -0.28176087 0.74418068
-0.00512550 0.37422076 0.00000000
-0.79912579 -0.30539864 -0.00000124
-0.78130084 -0.54237688 -0.00000064
-0.05289201 -0.23396902 0.00000000
-0.68972296 -0.53429520 -0.00000058
-0.06224122 -0.02446134 0.00000000
-0.06678680 -0.16553076 0.00000000
-0.65221620 -0.20065330 -0.00000101
-0.00630483 -0.24119258 0.00000000
0.03610071 0.19151650 0.59014612
-0.05966240 -0.27566063 0.00000000
-0.17877629 0.38669443 -0.00000003
-0.76551223 0.03432073 -0.00000191
-0.47734770 0.29065296 -0.00000114
-0.31483009 -0.13411242 0.00000000
-0.50118434 0.10654664 -0.00000091
-0.05334752 0.15308706 0.00000000
-0.01476020 0.57168770 0.00000000
-0.15095340 0.27197266 0.00000000
-0.54744309 -0.50794494 -0.00000002
-0.71762902 -0.71360862 -0.00000022
-0.15032355 -0.60158288 0.00000000
-0.48353019 -0.76093072 0.00000000
-0.06835701 0.14431974 0.00000000
-0.58086598 -0.01659678 -0.00000104
-0.44294116 -0.77321136 0.00000000
-0.61418200 -0.42787397 -0.00000045
-0.18936878 -0.34574279 0.00000000
-0.28279212 0.44879386 -0.00000059
-0.13208222 -0.06393010 0.00000000
-0.61569077 -0.02767797 -0.00000116
-0.59048849 -0.26392484 -0.00000064
-0.27133149 -0.22397026 0.00000000
-0.58107513 0.21339045 -0.00000144
-0.69120902 -0.58535856 -0.00000050
-0.40627068 0.34220618 -0.00000092
-0.17302498 0.26432794 0.00000000
-0.45697302 -0.16473383 -0.00000024
-0.51470631 -0.39337128 -0.00000009
-0.31480673 0.06688775 -0.00000005
-0.21226957 -0.31442600 0.00000000
-0.65176749 -0.13279071 -0.00000113
0.04579410 -0.53971797 0.74861205
-0.30139384 0.48252201 -0.00000073
-0.49649823 -0.31375018 -0.00000015
0.04637765 -0.32682145 0.75814682
0.04478419 -0.36683154 0.73209983
-0.02163162 -0.48544970 0.00000000
-0.23506749 0.24421500 -0.00000002
-0.44454062 0.02567896 -0.00000053
0.04393504 -0.62441695 0.71822423
0.03960623 0.08701477 0.64746451
-0.12572995 0.62652206 -0.00000023
-0.08601654 0.06262319 0.00000000
-0.36726567 -0.56694001 0.00000000
-0.51034647 -0.40497339 -0.00000005
-0.02827368 0.01687648 0.00000000
-0.09283724 0.42335838 0.00000000
-0.74090350 -0.41409260 -0.00000096
-0.53209531 -0.58550203 0.00000000
0.03188830 0.23792028 0.52129191
-0.71875471 -0.72310269 -0.00000019
-0.42662740 0.05538432 -0.00000050
-0.08764796 -0.70437068 0.00000000
-0.50341427 0.10051265 -0.00000091
-0.59950042 0.07781399 -0.00000128
-0.06781747 -0.01116602 0.00000000
-0.03905470 0.69974840 0.00000000
-0.04336240 -0.12646911 0.00000000
-0.60590678 -0.18427369 -0.00000085
-0.16289479 -0.41455513 0.00000000
-0.33915263 -0.75398338 0.00000000
-0.49003273 -0.12966818 -0.00000045
-0.18928476 0.59474140 -0.00000044
-0.26985180 -0.41966191 0.00000000
-0.13769518 0.39732724 0.00000000
-0.36080447 -0.63842553 0.00000000
-0.01017847 -0.13864058 0.00000000
-0.02814669 0.35431603 0.00000000
-0.76218557 -0.01617402 -0.00000181
-0.20915852 0.23972230 0.00000000
-0.42478240 -0.05740151 -0.00000030
-0.49551058 -0.60334903 0.00000000
