ply
format ascii 1.0
element vertex 1387
property float x
property float y
property float z
end_header
0.59633076 -0.42226848 -0.00000038
-0.00463610 -0.04892285 0.00000000
-0.66920656 -0.76606786 -0.00000004
-0.23124157 0.46691021 0.17387432
-0.30358306 0.07008352 -0.00000000
0.23654513 0.41088855 -0.00000032
-0.31077904 0.27207175 0.37071267
0.37225494 -0.35264260 0.00000000
0.73352963 -0.17549939 -0.00000141
0.67813754 -0.24292040 -0.00000105
-0.15200578 0.12990201 0.00000000
-0.03724082 -0.73124033 0.00000000
-0.18381786 0.60847133 0.01316447
0.34785417 -0.58793491 0.00000000
-0.09812537 0.15907647 0.00000000
-0.32382736 0.38297918 0.15909879
-0.44515112 0.25367910 0.17271519
0.50493306 -0.48917136 0.00000000
-0.19447517 -0.67756069 0.00000000
-0.09074184 -0.08591209 0.00000000
0.71936947 -0.43914342 -0.00000088
-0.30994996 -0.05280240 0.00000000
0.48284128 -0.67118996 0.00000000
0.21022472 -0.44889012 0.00000000
0.67081165 -0.72126424 -0.00000017
0.10728707 -0.14474183 0.00000000
-0.42162365 -0.23445310 0.00000000
0.56362820 -0.28189307 -0.00000049
-0.17788507 -0.09174177 0.00000000
0.60889709 -0.68697345 0.00000000
-0.42927840 0.35292941 0.03037401
0.08769445 -0.52953058 0.00000000
0.31604865 -0.74467814 0.00000000
0.45566586 0.07779077 -0.00000067
-0.46505803 0.19821511 -0.00000046
-0.36869875 0.36966670 0.10522149
-0.61040550 -0.04178591 -0.00000056
0.61564893 -0.17896625 -0.00000090
0.09610691 -0.40810350 0.00000000
-0.36095604 -0.06273190 -0.00000001
0.03270433 -0.70922118 0.00000000
-0.26281095 -0.09468509 0.00000000
-0.04254986 -0.12658912 0.00000000
-0.76046348 -0.01496205 -0.00000090
-0.73082042 -0.36052233 -0.00000053
-0.38607648 -0.65935618 0.00000000
-0.11248616 0.63382643 0.09165544
-0.60550755 -0.31519330 -0.00000031
-0.49927238 -0.04867429 -0.00000032
-0.40086183 -0.44683141 0.00000000
0.71191949 -0.10997548 -0.00000143
0.44032481 -0.56056523 0.00000000
0.05657737 0.38076565 0.00000000
-0.27976620 -0.08380597 0.00000000
-0.40995324 -0.31890473 0.00000000
-0.32321900 0.44355181 -0.00000037
0.65668291 -0.32220733 -0.00000082
-0.75687510 0.03527559 0.01339779
-0.29926047 -0.02028633 0.00000000
0.48735425 -0.63982260 0.00000000
0.50691688 0.03702491 -0.00000081
0.51710582 0.17583604 -0.00000110
-0.61805761 -0.20308755 -0.00000043
-0.21699554 0.58015972 -0.00000027
-0.25735152 0.43927971 -0.00000023
-0.69967037 0.00005493 -0.00000079
-0.21448000 -0.57815814 0.00000000
0.08215377 0.20826317 0.00000000
-0.17186184 -0.49097654 0.00000000
-0.10415766 -0.02859033 0.00000000
-0.34307909 -0.71204698 0.00000000
0.15940736 0.21979661 0.00000000
-0.27864027 -0.33179048 0.00000000
-0.35588178 -0.35241309 0.00000000
0.30289683 -0.52073276 0.00000000
0.09442605 -0.31609100 0.00000000
0.69557846 -0.31904081 -0.00000099
0.00546041 -0.54128271 0.00000000
-0.28023529 -0.64626598 0.00000000
-0.31627536 0.26239097 0.37785628
-0.31944934 0.26438078 0.36904085
-0.33095160 0.38914341 0.13641281
0.20060346 -0.09407873 0.00000000
-0.46554163 0.30199757 0.05541584
0.52144092 -0.45392382 -0.00000001
0.25051793 -0.74050868 0.00000000
-0.74035746 -0.16435151 -0.00000073
-0.52179128 0.03277767 -0.00000044
0.08927955 0.08281817 0.00000000
0.41577023 0.02146899 -0.00000040
0.19188990 0.12106816 0.00000000
0.75006455 -0.62395197 -0.00000044
-0.54871255 -0.39298841 -0.00000012
0.24597961 -0.11085717 0.00000000
-0.24269830 -0.28451422 0.00000000
-0.54711664 -0.35583407 -0.00000015
-0.29580575 -0.48726878 0.00000000
0.29798302 -0.60158902 0.00000000
-0.15211768 -0.44574532 0.00000000
0.43612683 0.34504676 -0.00000106
-0.27499577 -0.49425939 0.00000000
-0.74691510 -0.26196289 -0.00000066
-0.36105698 -0.71350819 0.00000000
0.00427736 0.34137231 0.00000000
-0.01954330 0.41776583 0.00000000
-0.41034964 -0.09893360 -0.00000008
0.70382893 -0.20945793 -0.00000122
0.57655740 0.06498429 -0.00000116
-0.35728735 0.21059979 0.39625829
-0.38035855 0.40033272 -0.00000046
0.52050132 0.26779616 -0.00000128
0.50509381 0.18351237 -0.00000107
0.35207510 -0.51200199 0.00000000
-0.06435251 0.44397354 0.00000000
-0.79739922 -0.20936038 -0.00000074
-0.17457102 0.49157262 0.22851747
-0.75597411 -0.06684343 -0.00000085
-0.10814370 -0.11220795 0.00000000
0.29893756 -0.65912515 0.00000000
-0.34947473 0.02834516 -0.00000006
0.22259505 -0.09518280 0.00000000
0.06950561 0.14520609 0.00000000
0.11588314 -0.01762266 0.00000000
0.72883213 -0.04666422 -0.00000161
-0.40035760 -0.47429439 0.00000000
-0.32898697 0.43535236 -0.00000038
0.02423413 0.02580194 0.00000000
-0.11901522 -0.74204850 0.00000000
-0.28768364 0.41960865 0.15826970
-0.40701285 -0.51293296 0.00000000
-0.62657601 -0.49396753 -0.00000019
-0.00032546 0.11990049 0.00000000
0.34101379 -0.19174621 0.00000000
-0.50350279 0.22934198 0.11464563
0.52179492 0.13783179 -0.00000106
0.04447043 0.74629515 -0.00000009
-0.00765956 -0.02223855 0.00000000
-0.38884771 0.19328611 0.37193686
0.14470296 0.32879865 0.00000000
-0.24513033 -0.21127509 0.00000000
0.63343602 -0.13670793 -0.00000105
-0.63520461 -0.16577752 -0.00000050
0.05888404 -0.71937841 0.00000000
-0.45697471 -0.44113061 0.00000000
-0.24152946 -0.77123761 0.00000000
-0.53328955 -0.22064273 -0.00000024
0.24733569 0.14732783 0.00000000
-0.11262019 0.24013110 0.00000000
-0.30594438 0.28402668 -0.00000020
-0.42253518 -0.36741981 0.00000000
-0.33614987 0.24657384 0.37092969
-0.59685922 -0.12123835 -0.00000046
0.43647969 -0.37519875 0.00000000
-0.13231590 0.58537346 0.14052014
0.43977854 -0.78505528 0.00000000
0.09547832 -0.01098865 0.00000000
-0.13768952 0.63780963 0.04182855
-0.39778435 0.20099349 0.34352273
0.04196608 0.30404973 0.00000000
0.23904166 0.12795706 0.00000000
-0.42477003 -0.64829683 0.00000000
0.16713469 -0.25139147 0.00000000
-0.39750579 -0.47587577 0.00000000
-0.28267762 0.35615343 0.27514490
0.06952656 -0.77981013 0.00000000
-0.42543620 -0.29309317 0.00000000
0.58794689 -0.64644986 0.00000000
-0.24829362 0.54135668 0.01766929
-0.68919629 0.06623638 -0.00000082
0.66012973 -0.28926039 -0.00000089
0.46046171 -0.07310983 -0.00000042
0.54792804 -0.79966837 0.00000000
-0.46429655 0.23342191 0.17461307
0.36952621 -0.45658207 0.00000000
-0.28443328 0.42777553 -0.00000028
0.25576517 -0.25592637 0.00000000
-0.32965642 0.32284921 0.25180018
0.11665452 -0.78570235 0.00000000
0.50682712 -0.69383258 0.00000000
-0.43022919 0.09317272 -0.00000029
-0.17886411 0.23732388 0.00000000
-0.68397492 0.02644910 -0.00000078
0.40727982 -0.33223084 0.00000000
-0.50092453 0.09018332 -0.00000044
-0.07455639 0.03680248 0.00000000
0.57461792 -0.69319588 0.00000000
-0.58691376 0.02718394 -0.00000057
-0.07159047 -0.42785436 0.00000000
0.45550147 -0.10545899 -0.00000034
-0.07840441 0.00418757 0.00000000
-0.74930900 -0.69975531 -0.00000013
-0.21656667 0.31853044 0.45223612
0.42658213 0.18600006 -0.00000074
-0.37015146 0.23567899 0.33148271
-0.14640000 -0.34065622 0.00000000
-0.62359804 0.11556686 0.10385527
0.23084292 -0.55275679 0.00000000
-0.32742715 0.30146334 -0.00000026
0.48949599 -0.50412875 0.00000000
0.18558723 -0.71260023 0.00000000
0.58657926 0.00073264 -0.00000109
0.21796577 0.51915258 -0.00000043
-0.00037886 0.51180655 0.00000000
0.29816476 -0.15059032 0.00000000
0.02405253 0.61242801 0.00000000
0.17297880 -0.36166045 0.00000000
0.30283475 -0.46114975 0.00000000
-0.05255380 0.04937095 0.00000000
-0.69486618 -0.35118425 -0.00000047
-0.11355448 0.59185696 0.16148062
0.35393304 0.15485363 -0.00000037
0.43908632 0.14785951 -0.00000072
-0.14495394 -0.50008643 0.00000000
0.61505944 -0.59758413 -0.00000015
-0.54230583 -0.34286585 -0.00000015
0.63587964 -0.76621950 0.00000000
-0.22899806 -0.16610108 0.00000000
-0.37642655 0.39220834 0.05354582
0.37413967 0.19256020 -0.00000052
-0.50024021 0.10234550 -0.00000045
-0.24840213 0.42015398 0.22439910
0.06046886 0.07176069 0.00000000
0.49443299 -0.64084864 0.00000000
-0.24817276 -0.40961176 0.00000000
-0.45190296 0.33061814 -0.00000055
-0.14906397 0.44061068 -0.00000000
0.11471435 -0.24782053 0.00000000
-0.78105104 0.01410020 0.00827518
-0.68253517 0.06099531 0.09640214
-0.15631984 -0.69441992 0.00000000
0.18545116 -0.76031971 0.00000000
0.42718169 -0.61913168 0.00000000
0.25247380 0.09611017 0.00000000
0.26614815 0.31490245 -0.00000028
0.41292021 0.05713272 -0.00000045
-0.26065582 -0.47759661 0.00000000
-0.70287877 -0.06608700 -0.00000073
-0.54181588 0.21409521 0.07526681
-0.22696319 0.22156350 0.00000000
0.09187873 -0.10820133 0.00000000
-0.54917240 0.14511476 -0.00000059
-0.24773470 -0.71675676 0.00000000
-0.18940023 -0.68567312 0.00000000
0.19170760 0.12550029 0.00000000
-0.03051072 0.46241483 0.00000000
-0.05643904 0.17343079 0.00000000
0.30337650 -0.57432699 0.00000000
-0.41960177 0.10015952 -0.00000028
-0.06806116 -0.10677973 0.00000000
-0.27051318 0.24936065 0.47822487
0.69573033 -0.29072323 -0.00000104
0.01610406 0.05171346 0.00000000
-0.71968883 -0.40337455 -0.00000047
-0.11770872 0.67695397 0.00911291
-0.38948581 0.34494326 0.11194155
0.61723107 -0.14099729 -0.00000097
-0.78731322 -0.45034438 -0.00000044
0.55280584 -0.05341214 -0.00000085
0.40324727 -0.41022226 0.00000000
-0.51536852 0.11029472 -0.00000049
0.24984442 -0.32417360 0.00000000
0.15903324 -0.10581874 0.00000000
-0.57956684 -0.14791963 -0.00000040
-0.23887245 -0.58071071 0.00000000
0.38491425 0.31114328 -0.00000078
-0.24595325 0.45231247 0.17367983
-0.49002331 -0.17205405 -0.00000019
-0.42547601 -0.31505093 0.00000000
-0.16111793 -0.36005118 0.00000000
0.65651429 -0.71241242 -0.00000013
0.51650667 0.16476713 -0.00000108
-0.22054856 0.34320956 0.40330690
0.25231585 -0.62134892 0.00000000
-0.36286333 -0.32277450 0.00000000
0.64018428 0.10812420 -0.00000151
0.02041653 -0.22868133 0.00000000
0.17697066 0.52829194 -0.00000027
-0.40088952 0.25920153 0.23885050
-0.00039637 -0.45649749 0.00000000
0.06112983 -0.32159480 0.00000000
-0.44799489 0.16781837 0.31444046
0.42508674 -0.50270253 0.00000000
-0.14862464 -0.10371255 0.00000000
0.07760984 -0.47106570 0.00000000
0.40953165 -0.39363179 0.00000000
-0.54095590 -0.67714286 0.00000000
0.02649043 0.71931905 0.00000000
-0.14319140 -0.25873199 0.00000000
-0.06566657 0.72622442 0.01384493
-0.14455462 -0.14811604 0.00000000
0.67781848 -0.51356715 -0.00000057
-0.27294308 -0.05050313 0.00000000
-0.11840872 0.31091717 0.00000000
-0.63895845 -0.50149524 -0.00000021
-0.27891913 0.50817919 0.02202577
-0.29417253 -0.03512840 0.00000000
-0.26474264 -0.62800288 0.00000000
0.07100725 0.34947720 0.00000000
-0.76280117 -0.01415222 -0.00000091
0.45404592 -0.30650398 0.00000000
-0.31197295 -0.60750407 0.00000000
-0.72213489 -0.65512305 -0.00000018
-0.38094854 0.40926534 0.01670642
-0.63341087 0.02241090 -0.00000066
-0.70706087 0.04783669 0.07699623
-0.13843744 0.36657500 0.00000000
0.72660780 -0.41196421 -0.00000096
0.21968234 0.54418576 -0.00000049
-0.65098953 0.13865530 0.01767636
0.58046204 0.06573547 -0.00000118
0.52738023 -0.40112162 -0.00000013
-0.10551934 -0.54288292 0.00000000
0.28141254 0.49010691 -0.00000065
-0.78661746 -0.23777629 -0.00000070
0.44796273 -0.23930699 -0.00000007
-0.48774502 0.25439587 0.09877550
0.78297299 -0.51059914 -0.00000072
-0.25059402 0.28668112 0.44851786
-0.48860919 0.26710328 -0.00000057
-0.07211131 -0.41255778 0.00000000
-0.01199259 0.30386677 0.00000000
0.79818273 -0.48078874 -0.00000080
0.15439735 0.01669662 0.00000000
0.44831133 -0.28697807 0.00000000
-0.30293205 -0.00264306 0.00000000
0.54750651 -0.06243549 -0.00000081
-0.00184645 -0.19098231 0.00000000
-0.10783282 -0.47930551 0.00000000
0.65938264 -0.62859845 -0.00000029
-0.75184989 -0.46363336 -0.00000042
-0.02496320 0.61463612 0.00000000
-0.01002413 0.12167032 0.00000000
-0.71254832 -0.30174184 -0.00000055
-0.50335956 0.20038027 0.16433322
0.21056557 -0.17755364 0.00000000
0.38619557 0.19553068 -0.00000058
-0.35981092 -0.43350419 0.00000000
-0.42681250 -0.44419417 0.00000000
-0.09430542 0.59523803 0.18856986
-0.53405660 -0.74716794 0.00000000
-0.26161370 0.52241653 0.02726372
-0.15805709 -0.37977347 0.00000000
0.45094246 0.25965011 -0.00000097
-0.15592206 -0.41061157 0.00000000
0.70065451 -0.61625671 -0.00000046
-0.13489403 -0.53548098 0.00000000
-0.75724274 0.02199210 0.03544760
-0.48505366 0.26275313 0.08910270
-0.59509808 0.20048787 0.00753409
-0.44512090 0.19052900 0.28057593
-0.03766130 0.07282216 0.00000000
0.66797519 -0.28465170 -0.00000093
0.18930800 -0.54584306 0.00000000
-0.46021107 0.28582573 0.09212459
-0.15355004 0.53150034 0.19624044
-0.44832477 0.23417875 0.20058794
-0.51187688 -0.43648833 0.00000000
-0.19814233 0.01180140 0.00000000
-0.17394365 -0.17031658 0.00000000
0.17814153 0.12585175 0.00000000
-0.18890917 0.59407949 0.02904220
0.07965581 -0.29703388 0.00000000
-0.73437458 -0.43841317 -0.00000045
-0.55633038 0.16819166 -0.00000063
0.36948597 -0.46799913 0.00000000
-0.08919711 -0.51977181 0.00000000
0.33187973 -0.61999112 0.00000000
-0.33810923 -0.14828250 0.00000000
-0.62014002 0.12496846 0.09370852
-0.16300993 -0.12027617 0.00000000
-0.52071446 -0.41295007 -0.00000004
-0.36900812 -0.33297482 0.00000000
0.33555982 -0.75858265 0.00000000
-0.37349227 0.30849326 0.20147263
0.71663374 -0.45860916 -0.00000083
-0.61395419 0.17143513 0.02494155
-0.01078696 0.18668622 0.00000000
0.03560848 -0.71891761 0.00000000
0.78437728 -0.52770221 -0.00000068
0.36154327 -0.50786227 0.00000000
0.14399254 0.35184562 0.00000000
-0.17933396 -0.47463867 0.00000000
-0.72544712 -0.79264724 -0.00000001
-0.27082330 -0.02788817 0.00000000
-0.26750028 0.31239972 -0.00000014
0.09711049 -0.24271387 0.00000000
-0.66910315 -0.65796351 -0.00000014
-0.12392403 -0.70902056 0.00000000
-0.32507646 0.27595937 0.33966780
0.51155967 -0.19834699 -0.00000042
0.02295552 0.09695024 0.00000000
-0.11076396 -0.47101465 0.00000000
-0.11189271 0.67443711 0.02333868
0.08895713 -0.04950297 0.00000000
-0.02042193 0.46184567 0.00000000
-0.26884410 -0.23965840 0.00000000
0.22812873 -0.38995481 0.00000000
0.12683097 -0.79612368 0.00000000
0.42412478 -0.69293422 0.00000000
-0.06924985 0.06844492 0.00000000
-0.36695564 0.34375566 -0.00000038
-0.26339829 0.37538937 0.27521893
0.59591144 0.17019412 -0.00000143
0.29599574 -0.48981401 0.00000000
-0.72184730 -0.46277851 -0.00000042
0.32518569 -0.65571684 0.00000000
-0.04892751 -0.40284351 0.00000000
-0.55931270 0.10248415 -0.00000058
-0.30939564 -0.11974437 0.00000000
0.19212575 -0.29213214 0.00000000
-0.24177648 -0.45396373 0.00000000
-0.40216005 -0.31393886 0.00000000
0.51814991 0.19380063 -0.00000114
0.23111735 -0.67311782 0.00000000
0.19099794 -0.44013295 0.00000000
-0.09713961 0.01070726 0.00000000
0.31152332 -0.18500452 0.00000000
-0.30785760 0.43143919 0.10363190
-0.37684262 0.32417053 0.16898888
0.20256299 0.07033855 0.00000000
0.58913881 -0.05264025 -0.00000101
-0.33493578 0.41550401 0.08460851
-0.03010859 0.60829169 0.00000000
0.25393730 -0.61635721 0.00000000
-0.25995797 0.43675551 -0.00000023
-0.59724468 -0.44341937 -0.00000018
0.65351593 0.05664197 -0.00000147
0.37635303 0.19957374 -0.00000054
-0.13424438 0.52308315 0.24356796
-0.56833458 0.20561992 -0.00000069
-0.28469852 -0.41264766 0.00000000
0.48085138 -0.24688166 -0.00000020
-0.20230772 0.58968878 0.01366411
0.44826663 -0.66887802 0.00000000
-0.30198950 -0.63472104 0.00000000
-0.50646335 -0.11682498 -0.00000027
-0.54425061 -0.30141994 -0.00000019
0.34964538 0.44751483 -0.00000083
-0.42837417 0.17161541 0.34145415
-0.70991248 -0.67565155 -0.00000016
-0.62770331 0.10367960 0.11714059
-0.43853262 0.23854181 0.20985645
-0.41220891 0.32437524 0.10826231
-0.79126596 -0.75040066 -0.00000006
-0.77278221 -0.68801069 -0.00000014
0.15423270 -0.68654710 0.00000000
-0.60593343 -0.79511774 0.00000000
-0.70428127 -0.06928592 -0.00000073
-0.18518053 -0.41719338 0.00000000
0.30763897 0.17148589 -0.00000020
0.30006799 -0.22420000 0.00000000
-0.60849786 -0.54035479 -0.00000011
-0.17440189 -0.03390212 0.00000000
-0.00732326 0.14058176 0.00000000
0.22623137 0.19463781 0.00000000
0.73843396 -0.52717912 -0.00000068
-0.34098786 -0.54100782 0.00000000
-0.77615702 -0.69239789 -0.00000013
0.50577050 -0.71808755 0.00000000
-0.19324514 0.60401034 0.00468607
0.67996168 -0.44363526 -0.00000070
0.74492514 -0.65636867 -0.00000036
0.64873636 -0.58226329 -0.00000033
0.22258292 -0.49149692 0.00000000
-0.20254311 -0.28344741 0.00000000
0.08400269 0.60193664 -0.00000001
-0.09226338 0.64313436 -0.00000006
0.34074098 -0.32174626 0.00000000
0.60164332 -0.12250549 -0.00000094
-0.39710402 -0.76274276 0.00000000
0.02275015 -0.37704971 0.00000000
-0.35514060 -0.24270089 0.00000000
-0.33606124 0.27157557 0.32839882
-0.49734387 0.08492842 -0.00000043
-0.01690143 0.73064405 0.00000000
0.37218469 -0.31146923 0.00000000
-0.53797919 -0.73266351 0.00000000
-0.13010845 0.62188333 0.08196006
0.17696899 0.07104026 0.00000000
-0.72664720 0.07211665 -0.00000091
0.72654146 -0.72355300 -0.00000019
-0.15863784 -0.16296300 0.00000000
-0.38151029 0.26890171 0.25537449
0.03068037 0.16778886 0.00000000
0.64477074 -0.15945311 -0.00000106
0.04110081 0.02899652 0.00000000
-0.15090559 0.20403174 0.00000000
0.09618899 -0.15095118 0.00000000
0.01504847 -0.66825634 0.00000000
0.21935195 -0.17817464 0.00000000
-0.61899316 0.08773256 0.15923506
-0.46174321 -0.52552485 0.00000000
0.39354959 -0.09084965 -0.00000010
0.26499373 -0.24279791 0.00000000
0.01257462 -0.38955981 0.00000000
0.32377389 -0.26446342 0.00000000
-0.16211754 -0.74134654 0.00000000
0.66224033 -0.13705008 -0.00000117
0.06486690 -0.72702646 0.00000000
0.69029832 -0.68721932 -0.00000028
-0.39889991 0.09081347 -0.00000022
-0.16982108 -0.70471632 0.00000000
-0.35742411 0.39775819 0.07651206
0.17359921 -0.15410995 0.00000000
-0.40274662 -0.64454502 0.00000000
-0.23303674 0.38004848 -0.00000013
-0.39099145 -0.41473225 0.00000000
0.27271864 -0.25745252 0.00000000
0.05996010 0.05305237 0.00000000
-0.14010844 0.12484095 0.00000000
0.33679718 -0.78960556 0.00000000
0.17944697 0.05348341 0.00000000
-0.23970693 0.46134487 0.16892348
-0.10140090 0.66343898 0.06002613
-0.49844578 0.29406774 -0.00000062
0.18698978 -0.06494759 0.00000000
0.21693404 0.29327339 -0.00000003
-0.17127270 0.40654665 -0.00000002
-0.07870807 0.04758724 0.00000000
0.45504719 -0.11214892 -0.00000033
0.43564957 -0.79796058 0.00000000
-0.01312166 -0.65454936 0.00000000
0.73139894 -0.38544217 -0.00000103
0.24503988 0.22535101 -0.00000003
0.60376549 0.04737735 -0.00000125
-0.35679969 0.33782628 0.17989312
0.01301754 0.58532214 0.00000000
-0.13117631 0.55495405 0.19439670
-0.09691915 -0.59065205 0.00000000
-0.18870763 0.20371608 0.00000000
-0.48927340 0.05547457 -0.00000039
0.35614273 -0.50785309 0.00000000
0.45330092 0.34543079 -0.00000113
0.35640082 -0.14638591 0.00000000
-0.58036536 -0.29676902 -0.00000027
0.08014016 -0.23643188 0.00000000
-0.06211363 -0.13149834 0.00000000
0.39900929 0.36385116 -0.00000093
-0.66127163 0.09442514 -0.00000079
0.29019731 0.09048041 0.00000000
-0.16917078 0.59982622 0.05292875
-0.23678981 -0.53837502 0.00000000
-0.20099321 0.29603818 0.00000000
-0.29941487 0.43730429 0.10803243
-0.17648625 -0.13450080 0.00000000
-0.12776297 0.01170515 0.00000000
0.72204053 -0.72717190 -0.00000018
-0.22237846 0.38896513 -0.00000011
-0.62569463 0.13798884 0.06199751
-0.27280119 0.31241339 -0.00000015
0.14424273 0.15242685 0.00000000
-0.06170558 0.65954274 -0.00000001
-0.21172957 0.56023574 0.04786109
0.54992908 -0.46898919 -0.00000010
-0.01956866 -0.13057174 0.00000000
0.63085759 -0.57942438 -0.00000025
-0.59593296 -0.33716157 -0.00000027
0.16998398 0.26436582 0.00000000
0.18438572 -0.30801487 0.00000000
-0.26507235 0.25743592 0.47372746
0.53217095 -0.30817321 -0.00000031
-0.43906924 -0.70504463 0.00000000
-0.09052588 0.05115115 0.00000000
0.31912854 -0.46904224 0.00000000
0.30401197 -0.54743212 0.00000000
-0.60680401 -0.06915772 -0.00000053
-0.68301374 -0.11201283 -0.00000065
0.45639119 -0.36190450 0.00000000
0.16901597 -0.01521794 0.00000000
0.76543319 0.02121397 -0.00000189
0.37273648 -0.24694932 0.00000000
-0.30454212 -0.21217260 0.00000000
-0.36929110 0.30023146 0.22274935
-0.16031992 0.54574656 0.16036242
0.00716500 0.25019097 0.00000000
0.59157294 -0.46170351 -0.00000029
-0.00972148 0.38096717 0.00000000
-0.24122225 0.52743399 0.05351014
0.53167856 -0.77673274 0.00000000
-0.28300005 -0.34473738 0.00000000
-0.22619069 0.06012721 0.00000000
-0.15029059 0.13889483 0.00000000
-0.36134538 0.21506058 -0.00000025
0.27656189 0.51035565 -0.00000067
0.30977255 -0.45068654 0.00000000
0.12446706 0.30492422 0.00000000
0.35874200 -0.06327352 -0.00000000
-0.09474281 0.06113664 0.00000000
0.71418637 -0.50918072 -0.00000073
-0.79834539 -0.53175402 -0.00000034
-0.01808115 -0.41393653 0.00000000
-0.11268477 0.06889039 0.00000000
-0.75292689 0.02448137 0.03856589
0.67455661 -0.33034453 -0.00000088
0.19130275 -0.02922358 0.00000000
-0.20730124 -0.76940811 0.00000000
0.10286650 0.19868635 0.00000000
0.51432025 0.27369937 -0.00000126
0.58753616 -0.65996391 0.00000000
0.27287519 -0.44602072 0.00000000
0.68057054 0.09840315 -0.00000166
0.50285715 -0.17174748 -0.00000043
0.60941142 -0.21370851 -0.00000081
-0.35235918 0.13828170 -0.00000017
-0.02619430 0.52956933 0.00000000
0.45711839 -0.62243164 0.00000000
0.05496029 0.39365095 0.00000000
-0.47946465 -0.45709881 0.00000000
-0.14860813 -0.07787965 0.00000000
-0.10738607 -0.53292316 0.00000000
0.19956604 -0.35934153 0.00000000
0.34655586 -0.17923746 0.00000000
-0.59730422 -0.67520356 0.00000000
0.43850037 -0.52284586 0.00000000
-0.78525364 -0.57944304 -0.00000028
-0.61783218 0.15275761 0.05020711
-0.69798005 -0.20550448 -0.00000060
-0.44214877 -0.00283751 -0.00000023
0.32709590 0.44780242 -0.00000077
-0.42391413 0.32836020 0.08147612
0.40419060 -0.59993827 0.00000000
-0.26638821 0.47299445 0.10348551
-0.25085187 -0.31461239 0.00000000
-0.42817715 0.29911166 0.12413112
-0.02525592 -0.15010026 0.00000000
-0.12505206 -0.31850961 0.00000000
0.01147296 -0.73101646 0.00000000
0.79783815 -0.20159881 -0.00000150
-0.66975081 -0.59651464 -0.00000019
0.10161214 -0.15558776 0.00000000
-0.28922188 0.30963179 -0.00000018
0.51021445 -0.66113406 0.00000000
-0.44391590 0.05822014 -0.00000029
-0.46712309 -0.51664549 0.00000000
0.17220818 -0.60753387 0.00000000
0.44882295 0.05054378 -0.00000059
0.21606293 -0.11265494 0.00000000
0.04974807 0.63922721 0.00000000
0.32471728 -0.77085316 0.00000000
-0.64120901 0.13904876 -0.00000078
-0.50201327 -0.15437247 -0.00000023
0.65974474 -0.27363178 -0.00000092
-0.01650899 -0.63903528 0.00000000
0.34063277 -0.27013403 0.00000000
-0.26462325 -0.36047482 0.00000000
-0.36728626 -0.20359866 0.00000000
0.39226311 0.35714403 -0.00000089
-0.41212779 0.08365690 -0.00000025
0.31398773 0.38233033 -0.00000060
-0.63007212 0.12531644 0.07615842
-0.35279429 -0.02490924 -0.00000002
-0.67785484 -0.50846130 -0.00000029
-0.56504446 -0.04344157 -0.00000046
0.23872112 -0.15878175 0.00000000
-0.41882205 -0.38855353 0.00000000
-0.09739164 -0.75534308 0.00000000
-0.14441124 0.49235600 0.27866790
-0.49957317 0.25523981 0.07714179
-0.04893120 0.37474829 0.00000000
0.35821310 -0.62462115 0.00000000
-0.08049267 -0.72674346 0.00000000
0.30924356 -0.57902598 0.00000000
-0.76284534 -0.33671087 -0.00000058
-0.29264396 -0.59918791 0.00000000
0.48236272 -0.61812288 0.00000000
0.65645349 -0.05489666 -0.00000129
0.28189355 0.51182520 -0.00000069
0.20982355 -0.47691056 0.00000000
0.48012081 -0.67046046 0.00000000
-0.23672488 -0.27840158 0.00000000
-0.34548628 0.44270319 0.02016263
-0.28055882 0.33145177 0.32093194
-0.63135159 -0.23124348 -0.00000044
-0.07389407 -0.75657630 0.00000000
-0.02661991 -0.40061080 0.00000000
-0.09782910 -0.21456680 0.00000000
-0.61766601 -0.52103662 -0.00000015
0.35248184 -0.35169709 0.00000000
-0.30138108 0.43544784 -0.00000032
0.21961448 -0.62840629 0.00000000
0.41778123 0.11162622 -0.00000057
-0.42944127 0.19912143 0.29267502
-0.74188083 0.01302020 -0.00000089
-0.61989397 -0.44825354 -0.00000022
0.46511510 -0.11388821 -0.00000037
-0.55608976 -0.11773927 -0.00000038
-0.18045728 0.24616894 0.00000000
-0.39483449 0.27964610 0.21428487
-0.35290268 0.19240464 -0.00000022
0.79165089 -0.13277654 -0.00000167
-0.39821133 0.04870238 -0.00000019
0.18950079 0.37246224 -0.00000005
0.24018271 -0.40826628 0.00000000
0.06610373 0.35843337 0.00000000
0.71417814 -0.18885222 -0.00000130
-0.77556211 -0.69268197 -0.00000013
0.38074955 -0.19720955 0.00000000
-0.00961096 -0.53193104 0.00000000
-0.05278486 0.70554632 -0.00000003
0.26214656 0.45409325 -0.00000051
0.04825339 0.31154865 0.00000000
-0.01441732 -0.52022582 0.00000000
0.41940364 0.04936657 -0.00000046
-0.25381270 0.36141661 -0.00000015
-0.56158251 -0.61052740 0.00000000
-0.56031841 -0.15605149 -0.00000035
-0.14309980 0.38574171 0.00000000
0.20193310 0.41058311 -0.00000017
-0.69879049 -0.12472013 -0.00000067
-0.32319185 0.28845111 -0.00000024
0.47132084 -0.51109308 0.00000000
-0.09007680 -0.77730393 0.00000000
-0.00588248 -0.16338964 0.00000000
0.48634914 0.14691652 -0.00000092
-0.46146312 0.27290452 0.11204606
-0.60796601 -0.62800640 -0.00000004
0.30684564 -0.18445837 0.00000000
0.20814562 0.10688251 0.00000000
-0.54778397 0.23646601 0.02688692
-0.43821925 -0.53693038 0.00000000
-0.21385233 -0.22560100 0.00000000
-0.29479629 0.33345717 -0.00000022
-0.49186444 -0.52386403 0.00000000
-0.63308531 0.08711221 -0.00000072
0.34908760 0.34869274 -0.00000069
0.14499651 -0.36967412 0.00000000
0.30902553 0.27649954 -0.00000039
-0.12539186 0.54133034 -0.00000004
-0.26546344 -0.50596040 0.00000000
-0.74628294 -0.68756133 -0.00000014
0.08248963 -0.56602293 0.00000000
-0.18313056 0.48705348 0.22161983
0.76010203 -0.22953641 -0.00000142
-0.60088199 -0.53797078 -0.00000010
-0.58902240 -0.54213095 -0.00000007
0.47041714 0.03352707 -0.00000065
-0.11287820 0.33738747 0.00000000
0.13344410 -0.31735799 0.00000000
-0.02233612 -0.52452606 0.00000000
0.14937121 -0.25252533 0.00000000
-0.51808423 -0.34156573 -0.00000010
0.49729261 -0.50459009 0.00000000
-0.11085943 0.60479867 0.14398777
-0.21087709 -0.39549372 0.00000000
-0.70646042 0.05290143 0.06937484
-0.19494081 0.47171596 -0.00000013
-0.10558620 0.68359935 0.01846342
0.33343500 -0.00602184 0.00000000
0.08424214 -0.53570962 0.00000000
-0.55797243 -0.26238471 -0.00000025
0.64776850 -0.25616014 -0.00000090
-0.30284685 0.17893186 -0.00000010
-0.64652157 -0.45952466 -0.00000027
-0.43931836 0.02962974 -0.00000026
-0.25418502 0.46877885 -0.00000025
-0.29038960 0.03110218 0.00000000
-0.36581895 -0.54938358 0.00000000
-0.27038619 0.45634040 -0.00000027
0.18173888 0.07197121 0.00000000
-0.23676182 -0.55257982 0.00000000
-0.38484597 0.32599562 0.15220985
-0.07136603 -0.22285730 0.00000000
-0.65474224 -0.03382610 -0.00000066
0.15875858 -0.44172174 0.00000000
0.71594793 -0.22989495 -0.00000123
-0.11119654 0.62230116 0.11353262
-0.29809478 0.40588549 -0.00000029
0.77329606 -0.39860615 -0.00000100
-0.55261725 0.14422822 -0.00000060
-0.09987879 -0.76819825 0.00000000
-0.18250027 -0.41095018 0.00000000
0.63037550 -0.60913634 -0.00000020
-0.61089474 0.00487074 -0.00000060
0.12973939 -0.65619242 0.00000000
-0.08490033 -0.52959228 0.00000000
-0.13833605 0.07568520 0.00000000
-0.18400761 -0.33153728 0.00000000
-0.28223792 0.41557446 0.17445377
-0.08198102 -0.24311386 0.00000000
0.50798661 -0.02067538 -0.00000072
0.14982100 -0.27972388 0.00000000
0.55398804 -0.42613098 -0.00000020
-0.64934784 -0.61986256 -0.00000013
0.41739038 -0.26975706 0.00000000
-0.55377167 0.14201811 0.17790522
-0.67841363 -0.04936169 -0.00000070
0.67322272 -0.68751192 -0.00000024
0.47677287 -0.40106827 0.00000000
0.32796749 -0.55859321 0.00000000
0.51559192 0.27284357 -0.00000127
0.24815010 -0.69523001 0.00000000
0.54660451 -0.12637536 -0.00000070
-0.33619633 0.23913717 0.38354605
-0.14622040 0.47861722 0.29903373
-0.14734145 -0.17874113 0.00000000
-0.23748273 -0.31072873 0.00000000
0.61267233 -0.43344942 -0.00000043
-0.28034756 -0.53109688 0.00000000
-0.33864582 0.21261498 0.42464221
-0.20611875 0.36770278 -0.00000006
-0.70146632 -0.03579586 -0.00000076
0.67261732 -0.13052472 -0.00000123
0.14529888 -0.11461973 0.00000000
0.37382844 -0.12095577 0.00000000
0.78365058 -0.01082958 -0.00000191
0.01681167 0.38799825 0.00000000
-0.35112408 0.32863572 0.20527253
-0.34344721 0.40868661 0.08171641
-0.52347177 0.25459117 0.03744951
-0.67162228 0.04102027 -0.00000076
-0.14504494 -0.02109525 0.00000000
-0.18879585 0.48108611 0.22213553
0.13542013 -0.51599121 0.00000000
-0.22785318 -0.02050225 0.00000000
-0.17380229 -0.58692843 0.00000000
-0.53963691 -0.55510414 0.00000000
-0.59109366 0.18830626 0.03516666
0.64204746 -0.78594780 0.00000000
-0.29415262 0.29851007 0.35396212
-0.47277951 -0.18653184 -0.00000014
0.12257766 -0.09420924 0.00000000
0.26066515 -0.21579637 0.00000000
0.48747098 -0.43365252 0.00000000
0.39826751 -0.70967567 0.00000000
0.05036175 0.32290488 0.00000000
0.48281094 -0.25477624 -0.00000020
-0.08240587 0.70573884 0.02024049
0.35103950 -0.57354033 0.00000000
-0.56081104 -0.21176083 -0.00000030
0.08841374 -0.01072051 0.00000000
-0.54096818 0.12449315 0.22968169
-0.60434461 0.13467917 -0.00000070
-0.39438942 -0.47885662 0.00000000
-0.17397326 -0.30796567 0.00000000
-0.26059532 0.36240369 0.30217281
-0.37031540 0.39977592 0.05105943
-0.65065026 0.14796259 0.00236632
0.08536696 -0.23842782 0.00000000
-0.07374387 0.34889427 0.00000000
-0.55042821 -0.79420537 0.00000000
0.44792655 -0.51145607 0.00000000
-0.24388231 0.45558640 0.17162614
0.51457858 -0.70730895 0.00000000
-0.22148460 0.37824827 -0.00000010
0.34332597 0.41232958 -0.00000078
0.48548931 -0.07262188 -0.00000053
-0.66056049 -0.33981901 -0.00000040
-0.16816273 0.42633024 0.35083723
0.75868487 -0.19429135 -0.00000148
-0.65680188 -0.74993819 -0.00000003
-0.59016132 0.07420142 -0.00000062
0.47590935 -0.65117687 0.00000000
-0.29012257 0.49157429 0.03124701
-0.65833420 -0.06935550 -0.00000064
-0.61112350 -0.56623626 -0.00000010
-0.31745693 -0.63793683 0.00000000
0.68166256 -0.13606894 -0.00000125
0.04782512 -0.63040620 0.00000000
-0.35493964 0.22996329 0.36720943
0.69224322 0.10657957 -0.00000171
0.67881471 -0.49889648 -0.00000060
-0.29306594 0.35846850 0.25345811
-0.18117192 0.45622513 0.27759275
0.37549815 -0.53564423 0.00000000
0.16036595 -0.07695900 0.00000000
-0.51357961 0.22822465 0.09935002
-0.49448338 -0.08792850 -0.00000027
-0.18471634 0.21067826 0.00000000
0.58218503 -0.36901084 -0.00000042
-0.13733561 0.51396197 -0.00000004
-0.74328762 -0.13266569 -0.00000076
-0.17779972 0.51215684 -0.00000012
-0.60591251 -0.36530983 -0.00000026
-0.50693226 0.15796247 -0.00000051
0.53637284 -0.73666227 0.00000000
-0.07407861 -0.01550396 0.00000000
-0.12945265 0.57778984 -0.00000008
0.22977297 0.11480113 0.00000000
-0.38890424 -0.25540474 0.00000000
-0.59928030 -0.34689546 -0.00000027
0.69182742 -0.76930320 -0.00000008
-0.33015487 0.27166006 0.33833775
0.32517192 0.28951755 -0.00000049
0.56286138 0.05186271 -0.00000108
0.64482176 -0.65164721 -0.00000019
-0.74895364 -0.42685112 -0.00000047
0.20642351 0.01080718 0.00000000
-0.22645587 0.54866159 0.04247968
-0.73890001 -0.77430600 -0.00000003
-0.54689240 -0.38359979 -0.00000012
0.02329426 -0.21328704 0.00000000
-0.40736887 0.03762936 -0.00000020
0.48694032 -0.33013234 -0.00000008
-0.16882268 0.06936278 0.00000000
0.08813093 -0.00004078 0.00000000
-0.38192841 0.41172746 0.01083029
-0.17574257 0.25640494 0.00000000
-0.24796988 -0.70415801 0.00000000
0.41722137 -0.09289337 -0.00000020
-0.30983689 -0.08973612 0.00000000
-0.24321072 0.07085469 0.00000000
0.24448477 0.12454579 0.00000000
-0.60809916 -0.75305212 0.00000000
0.62442821 -0.20605350 -0.00000089
-0.70679694 0.08190298 0.01928924
-0.62968498 -0.37911713 -0.00000030
-0.10739031 0.67114562 0.03664432
-0.40745360 -0.48553461 0.00000000
-0.28088486 0.08796002 0.00000000
0.21617477 -0.57238477 0.00000000
-0.01574982 -0.24860260 0.00000000
-0.48519155 0.21569826 0.16919886
-0.66176111 -0.11789875 -0.00000060
-0.31603485 0.24601999 0.40621489
0.52774388 -0.74459207 0.00000000
0.78828055 -0.66267890 -0.00000034
0.53811371 0.10959117 -0.00000108
-0.36999926 -0.74199528 0.00000000
-0.64784801 0.08013676 0.12294175
-0.53679639 -0.16601546 -0.00000029
-0.33763853 0.18866125 -0.00000018
0.09782213 -0.74217254 0.00000000
-0.15014958 0.62238628 0.04688739
0.62097913 -0.73883498 0.00000000
-0.20294759 -0.51538795 0.00000000
-0.34891966 -0.50431436 0.00000000
-0.67324203 -0.28389123 -0.00000048
-0.42675531 -0.30517918 0.00000000
-0.10904054 -0.35810399 0.00000000
-0.19372863 0.05010668 0.00000000
0.27110696 0.07855572 0.00000000
0.04695628 -0.15451899 0.00000000
0.05613386 0.40188017 0.00000000
-0.32271063 0.35684776 0.20561653
0.03403182 -0.79898334 0.00000000
0.55209601 -0.21027777 -0.00000057
-0.10405191 0.67904478 0.02885832
-0.53013390 0.18256339 -0.00000059
0.26299679 -0.01570458 0.00000000
-0.08156584 -0.78452623 0.00000000
-0.21467072 -0.50424254 0.00000000
-0.38093352 0.20621940 0.36336836
-0.49928275 -0.20568603 -0.00000018
-0.04816637 -0.43378216 0.00000000
-0.33981335 0.38050404 0.13603307
0.17902669 0.44473347 -0.00000014
-0.07455732 0.69255310 0.05614993
-0.77260774 -0.45450768 -0.00000043
0.28564394 -0.27494606 0.00000000
-0.23918670 -0.33394909 0.00000000
0.14359292 -0.07457559 0.00000000
-0.19231629 -0.75447345 0.00000000
-0.43877038 0.27877641 0.14076251
-0.12638336 -0.02569096 0.00000000
-0.15278004 0.57917249 -0.00000013
0.07920872 0.55331802 0.00000000
0.32896653 0.20542860 -0.00000035
-0.52333170 -0.22614577 -0.00000021
-0.21656722 -0.26002124 0.00000000
-0.53694075 0.04079913 -0.00000047
0.51679200 0.13918358 -0.00000104
0.01760249 -0.78795803 0.00000000
-0.53332943 -0.64464295 0.00000000
0.33893368 -0.74605262 0.00000000
-0.15571278 0.53378654 0.18864532
0.32487872 -0.57922840 0.00000000
0.16360506 -0.62172860 0.00000000
-0.19349927 0.43860376 -0.00000009
0.29627171 -0.04483978 0.00000000
-0.56292003 -0.29355550 -0.00000023
0.31723019 0.39002955 -0.00000063
0.62051719 -0.37486932 -0.00000057
0.15705556 -0.49793831 0.00000000
0.72667629 -0.67800587 -0.00000030
-0.37871286 0.34584737 0.12878957
-0.05609369 -0.27596176 0.00000000
0.21720786 -0.16912942 0.00000000
-0.69557840 -0.79864472 -0.00000000
-0.15535399 0.37749815 0.00000000
-0.58403337 -0.54824400 -0.00000005
-0.57647425 0.13341929 0.15382734
-0.57391924 -0.39319175 -0.00000017
0.23753424 0.26103154 -0.00000006
-0.73300213 -0.03692443 -0.00000082
-0.35725981 -0.77881169 0.00000000
0.55517828 0.09232705 -0.00000112
-0.32150045 0.13372365 -0.00000010
-0.78464067 -0.35676432 -0.00000055
-0.26152888 0.03397300 0.00000000
-0.39968711 -0.02794116 -0.00000012
0.58742779 -0.52798003 -0.00000016
0.47774917 -0.74790406 0.00000000
-0.33487433 0.43237242 0.05591584
-0.26425210 -0.69408274 0.00000000
-0.07004470 0.42673874 0.00000000
-0.58366084 -0.71711695 0.00000000
-0.32634598 -0.46187851 0.00000000
-0.69894987 -0.11970138 -0.00000068
-0.35016257 0.26213783 0.32043731
-0.04891749 0.32233706 0.00000000
0.08174621 -0.76429588 0.00000000
-0.26969653 -0.33736324 0.00000000
-0.00294472 0.13861845 0.00000000
0.76284540 -0.30958408 -0.00000123
-0.62532729 -0.10203903 -0.00000054
0.05593165 -0.30941370 0.00000000
0.50245112 0.26369298 -0.00000120
-0.55575013 0.21462616 0.05057195
-0.65189803 -0.55447143 -0.00000019
-0.50707358 0.09960938 -0.00000046
0.25461420 -0.00792792 0.00000000
0.62927383 -0.42230743 -0.00000052
-0.05786070 -0.65076566 0.00000000
-0.04193408 -0.28194246 0.00000000
0.28537849 0.24588098 -0.00000024
0.39409158 -0.43994576 0.00000000
0.17985968 0.03452007 0.00000000
-0.31754115 -0.49889973 0.00000000
0.00232245 0.25126997 0.00000000
0.35098511 0.12557729 -0.00000031
-0.71080208 0.00217948 -0.00000081
0.03884296 -0.26997817 0.00000000
-0.43326449 0.32416263 0.07267930
0.69882119 -0.19267823 -0.00000123
-0.24719834 0.45641890 0.16454384
0.53736174 -0.28089160 -0.00000038
-0.79121101 -0.65283805 -0.00000018
-0.23378395 -0.55686432 0.00000000
-0.28013456 0.42143166 0.16804522
0.03077506 -0.64587557 0.00000000
-0.14933535 0.04244033 0.00000000
0.69037116 -0.52002281 -0.00000061
-0.25628290 0.11279131 0.00000000
0.46343333 -0.78866386 0.00000000
0.00332440 -0.40425417 0.00000000
-0.21035407 0.51129591 0.13375884
-0.46687379 -0.39052790 0.00000000
0.27117187 0.14261137 0.00000000
0.50664806 -0.29951921 -0.00000022
0.04615433 -0.00367840 0.00000000
-0.01947881 0.53401452 0.00000000
0.40759602 0.12579158 -0.00000055
-0.00692858 0.78718024 0.01005894
0.71939683 -0.30900073 -0.00000111
-0.14131355 0.50020188 0.27056187
-0.24864015 -0.38227138 0.00000000
0.19320114 0.43930623 -0.00000019
0.55596727 -0.02593303 -0.00000091
0.50750822 -0.59071165 0.00000000
-0.27340108 0.45853308 0.11620143
-0.38612217 0.35724893 0.09667580
-0.25168845 -0.24202964 0.00000000
0.52994072 -0.49805853 0.00000000
0.32398880 0.19892602 -0.00000032
-0.36289424 -0.23145574 0.00000000
-0.02588585 -0.55738717 0.00000000
0.68302315 -0.10788072 -0.00000131
0.00663083 0.21569313 0.00000000
-0.44873202 0.10453872 -0.00000034
-0.18662059 -0.59012210 0.00000000
-0.32806534 0.33366743 -0.00000029
0.29642203 -0.59476155 0.00000000
-0.55902505 0.18876290 -0.00000065
-0.36127919 0.01163990 -0.00000007
-0.33010745 -0.16831961 0.00000000
-0.02118576 0.59860241 0.00000000
0.24530394 -0.12372541 0.00000000
-0.67658389 -0.38144398 -0.00000040
0.16823319 -0.39881051 0.00000000
0.03540441 -0.72283018 0.00000000
-0.19617043 -0.38217789 0.00000000
0.03968112 0.62301654 0.00000000
-0.70402837 -0.30666611 -0.00000052
-0.22786157 -0.04131146 0.00000000
-0.19532676 -0.30943924 0.00000000
-0.15001498 0.03643751 0.00000000
-0.76793450 -0.38292265 -0.00000052
-0.52837569 0.13808931 -0.00000054
0.31204125 0.12589744 -0.00000014
0.19798297 0.55675262 -0.00000041
-0.30806708 -0.25448710 0.00000000
-0.31469196 -0.26983103 0.00000000
-0.07315770 0.02774365 0.00000000
-0.29474670 -0.05114639 0.00000000
-0.34621912 0.31585851 0.23545919
-0.29539111 0.38338602 0.20695028
-0.47963014 0.18177581 -0.00000048
0.75252676 -0.71447527 -0.00000021
0.62739289 -0.13257495 -0.00000103
-0.36873698 0.12225447 -0.00000019
0.49159732 -0.42668226 0.00000000
-0.37440386 0.27061450 0.26458231
-0.48090553 0.22160256 0.16643621
-0.13596559 0.10248728 0.00000000
-0.08954001 0.63092631 0.13577928
0.40356535 0.21416548 -0.00000069
-0.45823675 -0.59542131 0.00000000
0.68125582 -0.45962045 -0.00000068
-0.63834196 -0.57981330 -0.00000014
-0.16470093 0.55716330 0.13339297
0.07687592 -0.03642547 0.00000000
-0.42310572 0.27273765 -0.00000044
-0.25153255 0.44356468 0.17908894
-0.73553753 -0.19999810 -0.00000069
0.71007657 0.08000070 -0.00000176
0.42829713 -0.09710227 -0.00000024
-0.63092184 -0.38120937 -0.00000030
0.29066956 0.26405287 -0.00000029
-0.29325521 -0.06096592 0.00000000
0.18797220 0.46405974 -0.00000021
0.14112858 0.05260585 0.00000000
0.79229093 -0.33256388 -0.00000117
-0.52539527 -0.78318620 0.00000000
0.24061169 -0.53271675 0.00000000
0.55317336 -0.28063175 -0.00000045
0.57645547 -0.18350330 -0.00000072
-0.59562713 0.04601001 -0.00000060
-0.65198272 -0.22411948 -0.00000049
0.22610861 0.41643110 -0.00000029
0.15367915 0.16754842 0.00000000
-0.29326683 0.18115370 -0.00000008
0.67778820 -0.14962010 -0.00000121
-0.67809832 -0.42854530 -0.00000036
0.17959698 -0.15069568 0.00000000
-0.68935812 0.09570501 -0.00000085
-0.77957189 -0.58988404 -0.00000026
0.00622906 0.54760182 0.00000000
0.31119180 -0.38135478 0.00000000
-0.53119141 -0.69397813 0.00000000
-0.10469802 -0.74539697 0.00000000
-0.54906082 -0.57014549 0.00000000
0.26916009 -0.08158412 0.00000000
0.43284792 0.18845904 -0.00000077
-0.44153610 0.25206846 0.18163642
-0.37998277 0.40519917 -0.00000046
-0.01625356 -0.44054821 0.00000000
0.26981947 -0.16227028 0.00000000
-0.20799102 0.57027024 0.03711273
0.34115183 0.33596182 -0.00000064
0.19001445 0.02393771 0.00000000
0.32369894 0.28391212 -0.00000047
-0.16552591 0.28051108 0.00000000
-0.21976928 0.29071745 -0.00000002
-0.20197722 0.58295918 -0.00000024
-0.10699802 0.55027926 -0.00000001
0.11106162 0.59676701 -0.00000011
0.35738492 -0.32443935 0.00000000
-0.30994585 0.23532932 0.43486062
0.30988976 0.20596443 -0.00000027
-0.59685647 0.17559873 0.04702264
-0.49076131 0.26428711 -0.00000057
-0.32955301 0.16187060 -0.00000014
-0.17307083 0.19682479 0.00000000
0.24211150 -0.31986892 0.00000000
-0.48289528 0.23468637 0.14070275
0.14112929 0.23334339 0.00000000
-0.39862460 -0.69947702 0.00000000
-0.31776682 -0.50115675 0.00000000
-0.06612057 -0.47654521 0.00000000
0.30612454 -0.34591991 0.00000000
0.42749083 -0.66426438 0.00000000
0.44583151 0.11562111 -0.00000069
-0.09507010 0.69758469 -0.00000011
0.43085730 -0.61313689 0.00000000
-0.01082294 0.16333935 0.00000000
-0.09568299 0.65847313 0.07826519
0.19038120 0.48150072 -0.00000025
-0.14161342 -0.51814222 0.00000000
-0.66148818 0.01441337 -0.00000072
-0.25893986 -0.34604162 0.00000000
0.35013714 0.18918245 -0.00000041
-0.63761961 0.14916918 0.02255230
-0.21492630 0.44982558 -0.00000015
-0.14036682 0.62289548 0.06271919
-0.58177727 -0.11691213 -0.00000043
-0.35110787 0.35197341 0.16545835
0.11628498 -0.57987690 0.00000000
0.48953643 -0.46924779 0.00000000
0.76765728 -0.72395712 -0.00000019
-0.45673335 -0.69884223 0.00000000
0.57070810 -0.28038320 -0.00000053
-0.15405878 0.06313320 0.00000000
0.13773444 -0.10329488 0.00000000
-0.05043100 0.09395543 0.00000000
0.19784698 -0.11886173 0.00000000
0.35298619 -0.72994512 0.00000000
0.28495294 -0.12805617 0.00000000
-0.39555770 0.29225463 0.19152507
-0.32202521 0.47116175 0.01163111
-0.54670393 0.12233674 0.22357105
-0.41166517 0.31376219 0.12730905
0.47283679 -0.66507363 0.00000000
-0.36004663 -0.08666226 0.00000000
-0.73848838 -0.33308953 -0.00000057
-0.78209132 -0.31901556 -0.00000060
-0.63603461 -0.31814006 -0.00000037
0.65217149 -0.53516722 -0.00000042
-0.57991296 -0.08606988 -0.00000045
-0.13402015 0.16285247 0.00000000
-0.51302195 -0.49196437 0.00000000
-0.02363488 0.62209666 0.00000000
0.31572902 0.00117167 0.00000000
-0.22815897 0.51596498 0.09539148
-0.60525835 0.12496326 0.11912325
-0.52342302 -0.47220272 0.00000000
-0.59737355 -0.02032481 -0.00000055
0.51709628 0.26634875 -0.00000126
0.78484678 -0.09303051 -0.00000177
-0.00669993 0.54587829 0.00000000
-0.46721324 -0.55325580 0.00000000
0.14364126 0.39568985 0.00000000
0.04885387 0.22466847 0.00000000
-0.09211370 0.53128260 0.00000000
-0.27544931 0.26464245 0.44370946
-0.20190474 0.39187902 0.35204801
-0.65140116 0.10500705 0.07441751
0.55911112 0.23434681 -0.00000139
-0.34096110 -0.04280130 0.00000000
0.62061077 -0.12515841 -0.00000101
0.44430658 -0.05643652 -0.00000038
-0.62652278 -0.60843265 -0.00000009
-0.60876495 -0.17362984 -0.00000044
0.37983489 -0.09816852 -0.00000003
0.30627447 -0.12998594 0.00000000
0.24391219 -0.32046494 0.00000000
0.36643347 -0.11206806 0.00000000
0.19921242 -0.70403033 0.00000000
0.31896034 0.34385914 -0.00000055
-0.61688602 -0.69807863 0.00000000
0.23248850 -0.13271672 0.00000000
-0.44156605 0.28304943 -0.00000049
0.57104409 -0.08031577 -0.00000088
0.41350210 -0.71924579 0.00000000
-0.39000803 -0.13084143 -0.00000001
-0.14904442 0.56672126 -0.00000011
-0.31392914 -0.18199578 0.00000000
0.42894259 -0.23497690 -0.00000000
-0.34843045 -0.40588850 0.00000000
-0.05308336 -0.34764025 0.00000000
-0.21462955 -0.44473028 0.00000000
-0.36811894 -0.11508430 0.00000000
-0.79434723 -0.18855640 -0.00000076
-0.28214762 0.17573555 -0.00000005
0.31021580 -0.77307117 0.00000000
0.64913815 -0.47570702 -0.00000052
-0.51672941 0.27129719 0.02043974
0.14569587 0.06168828 0.00000000
0.30403477 0.21164729 -0.00000026
0.67517179 -0.65995383 -0.00000030
0.19881852 -0.65073180 0.00000000
0.18259586 0.19710171 0.00000000
-0.14960594 0.57281572 -0.00000012
0.32720795 -0.06368663 0.00000000
-0.04736177 0.36189333 0.00000000
-0.51243138 -0.16654857 -0.00000024
0.05352292 0.51622820 0.00000000
-0.19996579 0.59281772 0.01232050
-0.05232685 0.01027817 0.00000000
-0.01713790 -0.75648469 0.00000000
0.27272043 0.12657031 0.00000000
0.43042874 0.02109433 -0.00000046
-0.50628382 -0.56570727 0.00000000
-0.74436724 -0.38021666 -0.00000052
0.18419361 -0.75640690 0.00000000
-0.04914828 0.52499104 0.00000000
-0.47166395 -0.08408533 -0.00000023
0.25535485 -0.24328046 0.00000000
-0.24182275 -0.59562755 0.00000000
-0.03422176 -0.71397066 0.00000000
-0.69946438 0.04516224 -0.00000083
0.12570383 0.59150505 -0.00000017
-0.16087337 0.41148829 0.00000000
-0.27040589 0.35237896 0.30253842
-0.60270774 -0.16543742 -0.00000043
0.19814937 -0.33400407 0.00000000
0.42621899 -0.71602643 0.00000000
-0.19601960 -0.67267144 0.00000000
0.25809160 0.12542790 0.00000000
0.49846655 -0.53131205 0.00000000
-0.07502607 0.11757015 0.00000000
-0.17681663 -0.43083903 0.00000000
-0.29941294 0.36578524 -0.00000026
-0.75251949 -0.32168332 -0.00000060
-0.07258967 0.09685864 0.00000000
-0.47787827 0.23903555 -0.00000052
-0.37246260 0.16071928 -0.00000023
0.12776858 0.56740868 -0.00000013
0.15185048 -0.38171664 0.00000000
-0.37642521 -0.38521698 0.00000000
0.15215936 -0.70113808 0.00000000
0.45622560 -0.26017994 -0.00000007
0.04239994 0.75279808 -0.00000010
-0.28118068 -0.23742986 0.00000000
-0.27981824 -0.65595919 0.00000000
0.19997977 -0.06605569 0.00000000
-0.30216438 -0.49506763 0.00000000
-0.33838642 0.45284623 0.01496741
-0.01937526 0.35570627 0.00000000
-0.78434724 -0.61870050 -0.00000023
-0.34552974 -0.74922729 0.00000000
-0.11654238 0.24861461 0.00000000
-0.17437592 0.42993686 0.33407319
0.49480891 0.13311385 -0.00000093
0.46608946 -0.67806852 0.00000000
-0.16601013 0.43886709 -0.00000004
-0.12195713 0.62243724 0.09493021
0.12257351 -0.16366075 0.00000000
-0.61492497 -0.52851504 -0.00000014
0.34672284 -0.62656617 0.00000000
-0.60803139 -0.21861222 -0.00000040
0.55871350 -0.55685836 0.00000000
0.20840445 -0.43754622 0.00000000
0.73597014 -0.47206983 -0.00000082
0.13488044 -0.10659146 0.00000000
0.07654634 -0.67151803 0.00000000
0.55128181 -0.24344566 -0.00000051
-0.37280911 0.29975057 -0.00000035
0.63256109 -0.21064894 -0.00000091
0.21986882 -0.55577683 0.00000000
-0.49054539 -0.47084591 0.00000000
-0.20084895 -0.48751202 0.00000000
-0.64009386 -0.43274704 -0.00000028
0.54288083 0.13609160 -0.00000114
-0.76204228 -0.47177485 -0.00000041
-0.24932273 -0.65792698 0.00000000
-0.19213694 -0.14332324 0.00000000
0.36908323 -0.06571980 -0.00000004
0.74053591 -0.60238868 -0.00000049
0.18696027 -0.04963908 0.00000000
-0.72851866 -0.00227406 -0.00000085
-0.43665129 0.23441505 0.22011341
0.62064672 -0.33362812 -0.00000064
0.11689684 0.52929503 -0.00000002
-0.51862264 -0.10287291 -0.00000031
0.79900920 -0.49168333 -0.00000077
-0.20000155 -0.18665799 0.00000000
-0.05165089 0.06179388 0.00000000
0.68184316 -0.50858200 -0.00000060
-0.12865126 0.45444188 0.00000000
0.01560212 0.00430745 0.00000000
-0.51518250 -0.55088240 0.00000000
-0.43556589 0.21607178 0.25328180
-0.45537010 -0.16642809 -0.00000012
0.12877077 0.04712107 0.00000000
-0.30040923 0.33874816 0.27458781
0.14685585 0.48429054 -0.00000007
0.49500841 -0.74524224 0.00000000
-0.39083505 0.22214656 0.31927449
-0.45370311 -0.11137530 -0.00000016
0.71173131 -0.52101785 -0.00000070
-0.31832632 -0.31616834 0.00000000
0.14173485 -0.58713645 0.00000000
-0.11437143 0.66948771 -0.00000013
-0.30018437 0.12550113 -0.00000004
0.09887528 0.46870819 0.00000000
-0.35400772 0.21137471 0.40053421
-0.54164582 -0.13571064 -0.00000033
-0.52025533 0.20543163 -0.00000058
-0.19850048 0.00696055 0.00000000
-0.53744555 0.13950323 -0.00000056
-0.22799811 0.09787586 0.00000000
0.57386029 -0.31331462 -0.00000048
-0.37460625 0.40491149 -0.00000045
0.71868724 -0.36977065 -0.00000100
0.26551059 -0.17869936 0.00000000
-0.36451724 -0.15032040 0.00000000
-0.02922886 0.19109014 0.00000000
-0.07141358 0.18914434 0.00000000
0.09520256 0.45901990 0.00000000
-0.02926147 0.23725837 0.00000000
-0.38507712 -0.49686193 0.00000000
-0.09756041 -0.60370624 0.00000000
-0.08763398 -0.63092148 0.00000000
0.20505913 -0.45322341 0.00000000
0.12619005 -0.76103860 0.00000000
0.59361619 -0.09365132 -0.00000095
0.45498419 0.17138062 -0.00000083
-0.23620823 0.31441131 0.42573673
0.11088932 0.04652026 0.00000000
-0.03545728 0.74527812 -0.00000003
0.02051083 -0.75471061 0.00000000
-0.32547444 -0.43706882 0.00000000
0.13734485 -0.05538269 0.00000000
0.17837647 0.29108483 0.00000000
-0.38134247 0.39473456 0.04084067
-0.25405711 0.06589022 0.00000000
0.11741007 -0.51005167 0.00000000
