ply
format ascii 1.0
element vertex 1144
property float x
property float y
property float z
end_header
-0.32413888 -0.71889234 0.00000025
-0.70951736 -0.26358405 -0.00000091
-0.68173838 -0.03213787 -0.00000084
-0.15618888 -0.08975159 0.00000222
-0.39716813 0.15734337 0.00000173
-0.01310706 0.39029995 -0.00000335
-0.01597555 -0.29651248 0.00000157
-0.51290071 -0.15783487 0.00000089
-0.08282544 0.30025655 -0.00000337
-0.09007675 -0.48013574 0.00000100
-0.14375982 0.18226807 -0.00000422
-0.70519084 -0.17947125 -0.00000094
-0.39730242 -0.01152408 0.00000188
-0.33064103 0.46501493 0.00000215
-0.29782236 -0.15229082 0.00000202
-0.10983129 -0.64996332 0.00000047
-0.27081814 0.02468439 -0.00000412
-0.62806773 -0.24828981 -0.00000014
-0.32847723 -0.25779158 0.00000169
-0.76982129 0.02792439 -0.00000173
-0.27671161 -0.07573024 0.00000226
-0.04552841 0.04692611 -0.00000977
-0.52421618 -0.54882407 0.00000078
-0.44077829 -0.59414071 0.00000064
-0.56055355 0.14353947 0.00000018
-0.43409592 0.02332769 0.00000149
-0.63928711 -0.12020914 -0.00000035
-0.23469236 -0.39302719 0.00000127
-0.11124787 0.21482138 -0.00000441
-0.62118137 -0.35571814 0.00000002
-0.07765893 -0.23882298 0.00000175
-0.26557893 -0.58999699 0.00000066
-0.04224537 -0.68709844 0.00000035
-0.08575435 0.04441082 -0.00000873
-0.76679575 -0.51598895 -0.00000071
-0.45708859 -0.59573376 0.00000064
-0.28242275 -0.55742592 0.00000076
-0.36709651 -0.02422571 0.00000218
-0.03947031 0.72725439 0.00000468
-0.15380330 0.59197807 0.00000370
-0.04632891 0.09105057 -0.00000881
-0.24865250 0.26004350 0.00000307
-0.69459927 -0.36491251 -0.00000068
-0.47941634 -0.26938072 0.00000131
-0.13975114 -0.13708273 0.00000207
-0.61745095 -0.49867168 0.00000018
-0.74100035 -0.25548273 -0.00000122
-0.09168018 -0.70244849 0.00000030
-0.64569068 -0.53197509 -0.00000006
-0.33664331 0.10690084 0.00000236
-0.42692611 0.18910395 0.00000142
-0.66645533 -0.59844345 -0.00000021
-0.75705701 -0.05212547 -0.00000154
-0.70469576 -0.11862568 -0.00000098
-0.41042510 -0.14567798 0.00000187
-0.02855139 -0.41507000 0.00000120
-0.13321681 0.44586799 0.00000109
-0.10504352 -0.29082030 0.00000159
-0.15173504 -0.69053936 0.00000034
-0.34712124 0.33956662 0.00000206
-0.15012845 -0.73433614 0.00000021
-0.03372419 0.11619461 -0.00000861
-0.10692333 -0.69050312 0.00000034
-0.35931373 -0.53981358 0.00000081
-0.35943252 -0.25798944 0.00000169
-0.29583871 0.29004779 0.00000259
-0.12697640 0.20133772 -0.00000427
-0.07342358 -0.49245277 0.00000096
-0.59147310 -0.36323848 0.00000031
-0.53804862 -0.24728885 0.00000073
-0.14799993 0.53014189 0.00000381
-0.55791855 -0.68448699 0.00000036
-0.37384921 0.15142255 0.00000196
-0.03705001 -0.56062376 0.00000075
-0.47286385 -0.37032938 0.00000134
-0.05033197 -0.36612156 0.00000136
-0.47427198 0.21353012 0.00000095
-0.15107515 0.43257073 0.00000130
-0.01584026 0.09142919 -0.00000963
-0.74731123 -0.17106791 -0.00000135
-0.43491736 -0.63993233 0.00000050
-0.62129450 -0.30543080 -0.00000002
-0.50467151 -0.52917182 0.00000085
-0.15182738 -0.13349521 0.00000208
-0.40744409 0.06928383 0.00000171
-0.39598730 -0.74338144 0.00000018
-0.52681565 -0.23946466 0.00000083
-0.05024643 0.26962563 -0.00000491
-0.02628440 0.29785499 -0.00000496
-0.56148881 -0.69490933 0.00000033
-0.79144806 -0.20410420 -0.00000149
-0.51932579 -0.72755861 0.00000023
-0.04869610 -0.01531514 0.00000245
-0.44236618 -0.63990790 0.00000050
-0.14649875 -0.44917905 0.00000110
-0.21494606 -0.65313238 0.00000046
-0.11476138 -0.79415154 0.00000002
-0.60110998 -0.57742363 0.00000040
-0.79622048 -0.55190778 -0.00000062
-0.03483042 0.64589709 0.00000267
-0.63322484 -0.69113630 0.00000019
-0.59114593 0.05450954 -0.00000004
-0.05695459 0.09827218 -0.00000836
-0.27231210 -0.18735816 0.00000191
-0.67608774 0.01842791 -0.00000083
-0.36775497 -0.70421797 0.00000030
-0.23545422 0.03651358 -0.00000483
-0.63752121 -0.33232763 -0.00000016
-0.63507885 -0.67658341 0.00000016
-0.59944159 -0.63272965 0.00000047
-0.40285796 0.07631266 0.00000175
-0.08789726 -0.65896970 0.00000044
-0.00075080 -0.14567946 0.00000204
-0.23432922 -0.21133845 0.00000184
-0.16006891 -0.25703868 0.00000170
-0.32837468 -0.04882618 0.00000235
-0.01774519 -0.29257727 0.00000159
-0.29190540 -0.74614799 0.00000017
-0.58852524 -0.69280916 0.00000033
-0.03504241 -0.49547616 0.00000095
-0.15670499 -0.02980756 0.00000241
-0.27059257 -0.10600885 0.00000217
-0.77745450 -0.24819884 -0.00000138
-0.06337942 -0.41230780 0.00000121
-0.43135676 -0.10909212 0.00000163
-0.50685990 -0.67349243 0.00000040
-0.43239313 -0.75866961 0.00000013
-0.62936085 -0.16776614 -0.00000022
-0.22083388 0.06481158 -0.00000462
-0.22565953 0.03501139 -0.00000513
-0.68268251 -0.03658446 -0.00000084
-0.01181969 0.57475966 0.00000053
-0.72738987 -0.27589387 -0.00000107
-0.39440295 0.21009900 0.00000172
-0.55473280 -0.17913666 0.00000051
-0.09815047 -0.71734577 0.00000026
-0.67558461 -0.24704243 -0.00000059
-0.67118549 -0.01974062 -0.00000075
-0.40754372 0.05305770 0.00000172
-0.38200417 -0.48291385 0.00000099
-0.35950497 0.39467722 0.00000189
-0.19674334 0.56709617 0.00000331
-0.49377453 -0.75947767 0.00000013
-0.76806486 -0.13799880 -0.00000158
-0.46226913 -0.33375889 0.00000146
-0.66539657 -0.16678181 -0.00000057
-0.08947003 -0.09994919 0.00000219
-0.26781085 -0.10375258 0.00000218
-0.44878346 -0.66877520 0.00000041
-0.71735972 -0.77698457 -0.00000006
-0.61097479 -0.20940447 -0.00000001
-0.47430578 0.29767305 0.00000087
-0.55300975 -0.57002079 0.00000072
-0.38907945 0.25070316 0.00000173
-0.25987831 -0.73922980 0.00000019
-0.43602359 0.28902361 0.00000125
-0.09278201 -0.62274355 0.00000055
-0.02531119 -0.53531659 0.00000083
-0.09975275 0.22134699 -0.00000459
-0.00410529 -0.61507809 0.00000058
-0.05076961 -0.67251360 0.00000040
-0.39298549 -0.71047062 0.00000028
-0.70744830 -0.39440447 -0.00000078
-0.75845844 -0.23630325 -0.00000140
-0.17603996 -0.22693053 0.00000179
-0.01385964 0.39035985 -0.00000333
-0.39843574 0.23966993 0.00000165
-0.70312262 -0.11715618 -0.00000097
-0.46168953 -0.07553538 0.00000131
-0.39415747 -0.36164495 0.00000137
-0.35853213 -0.48778388 0.00000098
-0.22882549 -0.34732667 0.00000141
-0.12878715 -0.36312112 0.00000137
-0.36230484 -0.62574106 0.00000054
-0.28760964 0.36287594 0.00000261
-0.74513620 -0.64174479 -0.00000040
-0.33640003 -0.23012006 0.00000178
-0.17687578 0.06504869 -0.00000581
-0.29839140 -0.25448471 0.00000170
-0.33769915 -0.36485711 0.00000136
-0.50055289 0.28969228 0.00000063
-0.69369870 -0.52027702 -0.00000054
-0.14368029 -0.08601390 0.00000223
-0.07879926 -0.65506238 0.00000045
-0.65647757 -0.77341968 0.00000004
-0.73939079 -0.20978211 -0.00000124
-0.60023415 -0.34192041 0.00000021
-0.04246603 0.11169665 -0.00000847
-0.79781657 -0.53592026 -0.00000066
-0.16721669 -0.54777420 0.00000079
-0.42514417 -0.43957767 0.00000113
-0.37414113 -0.73574346 0.00000020
-0.54634184 0.12735201 0.00000033
-0.10137499 -0.25984991 0.00000169
-0.48955607 0.03872631 0.00000095
-0.38753271 0.35785067 0.00000166
-0.65519071 -0.04534922 -0.00000057
-0.43340260 -0.06559611 0.00000158
-0.38511074 -0.43267760 0.00000115
-0.64508748 -0.28821921 -0.00000027
-0.29334211 0.44544035 0.00000249
-0.58724672 -0.06474789 0.00000010
-0.49640724 -0.60212260 0.00000062
-0.05896523 0.00820053 -0.00001022
-0.17826074 0.55221742 0.00000350
-0.48266315 -0.56049842 0.00000075
-0.14032871 -0.06825727 0.00000229
-0.06983234 -0.21198931 0.00000184
-0.77680832 -0.34308836 -0.00000114
-0.66614932 -0.47171602 -0.00000031
-0.33057472 -0.39604855 0.00000126
-0.10412691 0.59378397 0.00000418
-0.19301540 -0.24967656 0.00000172
-0.66080332 0.08480252 -0.00000074
-0.04252057 -0.24997187 0.00000172
-0.05850389 -0.02764743 0.00000241
-0.49458894 0.06815144 0.00000087
-0.61315870 0.13997982 -0.00000033
-0.68039376 -0.76172727 -0.00000010
-0.20829175 0.39468917 0.00000335
-0.59226012 -0.73662847 0.00000020
-0.34807044 -0.50593942 0.00000092
-0.11994055 -0.71856993 0.00000025
-0.28313413 0.17044182 0.00000282
-0.16069910 -0.26711255 0.00000167
-0.06753543 -0.39151502 0.00000128
-0.18139631 -0.50340474 0.00000093
-0.18183641 -0.05406811 0.00000233
-0.21245466 -0.67128557 0.00000040
-0.17188020 0.62153459 0.00000350
-0.70299751 -0.68756783 -0.00000028
-0.25551590 -0.16186550 0.00000199
-0.41837436 -0.18394531 0.00000182
-0.25144649 -0.02888505 0.00000241
-0.34861332 -0.35773039 0.00000138
-0.79565096 -0.61617148 -0.00000046
-0.45716533 -0.41252032 0.00000121
-0.12581028 -0.73181212 0.00000021
-0.65662944 -0.17969726 -0.00000047
-0.55494750 -0.13969672 0.00000047
-0.01211615 -0.54545814 0.00000080
-0.39277372 0.19283795 0.00000175
-0.21539725 -0.06752336 0.00000229
-0.03983410 -0.08009698 0.00000225
-0.15342182 -0.70057052 0.00000031
-0.68899983 -0.28656682 -0.00000069
-0.54549015 -0.01953095 0.00000046
-0.08017792 -0.06072695 0.00000231
-0.36441413 0.37426466 0.00000186
-0.75883901 -0.63068187 -0.00000042
-0.01393861 0.61637926 0.00000148
-0.06489940 -0.25175309 0.00000171
-0.41081592 0.35545161 0.00000143
-0.17909870 -0.16507481 0.00000198
-0.27154377 0.10312966 -0.00000243
-0.03223649 0.73086214 0.00000475
-0.28226373 -0.31596395 0.00000151
-0.10748728 -0.23407046 0.00000177
-0.41966933 0.14484631 0.00000153
-0.68247455 -0.44035813 -0.00000050
-0.14642119 -0.57140851 0.00000071
-0.62283558 -0.35061413 0.00000000
-0.11588695 -0.35428181 0.00000139
-0.16222394 0.30285266 -0.00000116
-0.72084093 -0.20795462 -0.00000106
-0.38435718 0.24714962 0.00000178
-0.53242242 -0.20424286 0.00000074
-0.29303908 -0.70788449 0.00000029
-0.70719790 -0.08350244 -0.00000104
-0.18018822 0.46451536 0.00000356
-0.60111636 0.02780835 -0.00000011
-0.69787931 0.05890776 -0.00000107
-0.34915197 -0.73535538 0.00000020
-0.77775282 -0.68633509 -0.00000028
-0.26252884 0.44560942 0.00000278
-0.24756780 0.36792904 0.00000299
-0.39427674 -0.46049631 0.00000106
-0.18756407 0.04481194 -0.00000595
-0.19893587 -0.08944504 0.00000222
-0.21428615 0.13931011 -0.00000322
-0.34499934 0.10872147 0.00000228
-0.40418282 -0.74828404 0.00000016
-0.57377756 -0.16146435 0.00000031
-0.39661545 -0.01825702 0.00000189
-0.79418236 -0.36765081 -0.00000108
-0.27197874 -0.20715415 0.00000185
-0.17252760 -0.73521751 0.00000020
-0.35051921 0.29987401 0.00000206
-0.02019064 0.59116644 0.00000111
-0.30860355 -0.31453452 0.00000152
-0.02593509 0.75382072 0.00000479
-0.01743818 -0.07952108 0.00000225
-0.14169194 -0.69655287 0.00000032
-0.47438481 -0.33865404 0.00000142
-0.00203357 -0.11950334 0.00000213
-0.30958104 0.05043460 -0.00000252
-0.47445920 0.27299652 0.00000089
-0.20095959 -0.11817799 0.00000213
-0.45788935 0.15898180 0.00000115
-0.43335962 0.04541243 0.00000148
-0.11365209 -0.43554100 0.00000114
-0.54239005 -0.54075712 0.00000081
-0.75590438 -0.29385307 -0.00000127
-0.05706948 -0.68188387 0.00000037
-0.57213461 0.01139297 0.00000018
-0.34309268 0.19394583 0.00000222
-0.02119474 0.76267844 0.00000483
-0.14113158 0.58283305 0.00000383
-0.04744113 -0.16161741 0.00000199
-0.52823091 -0.42710444 0.00000097
-0.40475810 -0.69809061 0.00000032
-0.16344364 0.41366190 0.00000376
-0.12813042 0.35375786 -0.00000100
-0.34363633 -0.20749660 0.00000185
-0.27008054 -0.33638167 0.00000145
-0.17516690 0.29479471 -0.00000098
-0.71172166 -0.75937790 -0.00000010
-0.79567546 -0.40043235 -0.00000100
-0.39082259 0.38293794 0.00000160
-0.78455001 -0.73406172 -0.00000016
-0.31659892 0.43958187 0.00000227
-0.00703263 -0.24360701 0.00000174
-0.13225931 0.32622463 -0.00000148
-0.61094171 -0.05950421 -0.00000013
-0.23187374 -0.23568512 0.00000176
-0.48769492 0.16927493 0.00000085
-0.38232201 0.37390679 0.00000169
-0.18371533 0.40730274 0.00000357
-0.47765025 -0.76823461 0.00000010
-0.07548014 -0.73258489 0.00000021
-0.52678972 -0.45422256 0.00000101
-0.78469199 0.00013442 -0.00000185
-0.11076644 -0.45075756 0.00000109
-0.04027443 0.02624462 -0.00001035
-0.27299625 0.13624512 -0.00000169
-0.09978907 -0.44971624 0.00000109
-0.01132974 -0.45205191 0.00000109
-0.24037376 0.43271804 0.00000300
-0.67309922 -0.25700152 -0.00000056
-0.57097769 -0.64719027 0.00000048
-0.10301028 0.61255521 0.00000417
-0.75615931 -0.33061907 -0.00000117
-0.44076452 0.06883599 0.00000139
-0.54452032 -0.26804498 0.00000068
-0.18530479 -0.62629771 0.00000054
-0.79800713 -0.39372796 -0.00000102
-0.04378380 0.34717092 -0.00000343
-0.39212078 0.35122508 0.00000162
-0.50870544 -0.10419434 0.00000089
-0.05841657 0.31935489 -0.00000363
-0.04322852 0.05437045 -0.00000967
-0.55935991 -0.32482177 0.00000059
-0.05450442 -0.12783749 0.00000210
-0.06355745 0.44520989 -0.00000081
-0.04705286 0.07746515 -0.00000908
-0.50834656 -0.38287765 0.00000113
-0.13194846 0.02737315 -0.00000783
-0.79373324 -0.55369306 -0.00000062
-0.69809508 -0.33371717 -0.00000074
-0.33961901 -0.21737102 0.00000182
-0.45386481 -0.38857016 0.00000129
-0.59219986 -0.20936252 0.00000017
-0.22798716 0.02640124 -0.00000525
-0.71520549 -0.34362140 -0.00000089
-0.47840726 0.02259558 0.00000107
-0.27000216 0.31544349 0.00000282
-0.78716993 -0.57130903 -0.00000057
-0.70757282 -0.79721004 -0.00000001
-0.40904915 0.28461716 0.00000151
-0.03917665 -0.37590462 0.00000133
-0.02303918 -0.24366488 0.00000174
-0.13729440 -0.61802459 0.00000057
-0.45051426 0.12329154 0.00000125
-0.19315886 0.38808194 0.00000350
-0.44877604 0.34550187 0.00000108
-0.40181485 -0.50644189 0.00000092
-0.01621952 -0.43541002 0.00000114
-0.49546278 -0.15691660 0.00000106
-0.49023053 -0.31626451 0.00000124
-0.12882780 0.28762129 -0.00000239
-0.35302889 -0.55777645 0.00000076
-0.31363097 0.13179968 0.00000256
-0.24132165 -0.57507288 0.00000070
-0.46013516 0.18243694 0.00000111
-0.07826348 -0.70326263 0.00000030
-0.52301574 -0.14256917 0.00000078
-0.25311932 -0.02617643 0.00000242
-0.11670853 0.09706475 -0.00000677
-0.06887793 0.45121908 -0.00000054
-0.10169309 -0.36568215 0.00000136
-0.35273477 -0.13602240 0.00000207
-0.67647803 -0.45411879 -0.00000043
-0.12990469 0.04990974 -0.00000741
-0.32352516 0.15357336 0.00000244
-0.70475584 -0.34975544 -0.00000079
-0.04878539 0.34899080 -0.00000326
-0.05262968 0.49290413 -0.00000010
-0.31168583 -0.42973807 0.00000116
-0.51783758 -0.74062318 0.00000019
-0.78188676 -0.14932172 -0.00000163
-0.37916687 -0.40462646 0.00000124
-0.01373622 0.29002517 -0.00000546
-0.07878027 -0.73413175 0.00000021
-0.24874675 0.40544504 0.00000295
-0.61683053 -0.41694358 0.00000011
-0.79674256 -0.12856545 -0.00000168
-0.47069702 0.23404261 0.00000096
-0.64666289 0.04295122 -0.00000056
-0.57628691 0.11518285 0.00000005
-0.08188628 -0.66790074 0.00000041
-0.58119315 0.12338841 -0.00000000
-0.32653797 0.40086126 0.00000220
-0.59206963 -0.05769902 0.00000005
-0.42122608 0.13008261 0.00000153
-0.56378764 -0.65195048 0.00000046
-0.41271701 -0.54993087 0.00000078
-0.26133600 0.13398771 -0.00000205
-0.20994617 -0.03372678 0.00000239
-0.05590413 0.64166802 0.00000315
-0.69324356 -0.22979932 -0.00000078
-0.41190788 0.29273322 0.00000148
-0.68038809 -0.20644806 -0.00000068
-0.44755566 -0.79080826 0.00000003
-0.10850856 0.01336619 -0.00000877
-0.23884159 -0.77351844 0.00000008
-0.78130782 -0.25367597 -0.00000137
-0.52571809 0.11689997 0.00000053
-0.73636353 -0.62243313 -0.00000044
-0.65657371 -0.74898016 0.00000002
-0.10836840 -0.24165238 0.00000174
-0.39538068 -0.71906048 0.00000025
-0.16418324 -0.72984964 0.00000022
-0.05936854 -0.78037214 0.00000006
-0.44141361 -0.14857803 0.00000157
-0.15672866 0.52426875 0.00000373
-0.42039216 0.23241933 0.00000145
-0.50193316 -0.29401931 0.00000111
-0.45763832 -0.61131525 0.00000059
-0.37259480 -0.71659225 0.00000026
-0.14503700 -0.22021995 0.00000181
-0.47128025 0.29940656 0.00000090
-0.09525613 -0.20820270 0.00000185
-0.24025428 0.39247870 0.00000304
-0.07359395 -0.13049114 0.00000209
-0.10576600 -0.32921255 0.00000147
-0.03242952 -0.01773796 0.00000244
-0.21746241 0.08621550 -0.00000426
-0.09745629 0.07317280 -0.00000780
-0.10762060 -0.75336409 0.00000015
-0.15994582 0.07651141 -0.00000603
-0.27512646 -0.07560286 0.00000226
-0.43613726 -0.26792461 0.00000166
-0.50592798 -0.05458338 0.00000087
-0.51496816 0.20033179 0.00000057
-0.42965922 -0.75058579 0.00000015
-0.76773584 -0.35948035 -0.00000110
-0.36778679 -0.75361305 0.00000014
-0.31690741 -0.36034063 0.00000137
-0.21149381 0.19814295 -0.00000205
-0.23508450 0.19235882 -0.00000153
-0.01782488 -0.20820326 0.00000185
-0.22742681 0.02308977 -0.00000533
-0.42183325 0.05716060 0.00000158
-0.74325579 -0.58790725 -0.00000053
-0.52942228 -0.23592338 0.00000080
-0.10133627 -0.40493357 0.00000123
-0.54414505 -0.71677679 0.00000026
-0.13151658 -0.54218280 0.00000081
-0.14653349 -0.11208396 0.00000215
-0.08356066 -0.57420015 0.00000071
-0.79448676 -0.77328759 -0.00000007
-0.66515237 -0.06985876 -0.00000065
-0.76756746 -0.46827659 -0.00000083
-0.34745219 0.45165542 0.00000196
-0.27383396 -0.16860978 0.00000197
-0.61479938 -0.14524001 -0.00000010
-0.14577518 -0.20995054 0.00000184
-0.72673196 -0.38939735 -0.00000096
-0.67518759 -0.55785370 -0.00000033
-0.34937984 -0.03450096 0.00000236
-0.38082930 -0.62788355 0.00000054
-0.53455591 0.15124796 0.00000042
-0.21464314 -0.18176447 0.00000193
-0.48848340 -0.19337834 0.00000116
-0.67543644 -0.30371723 -0.00000054
-0.60440528 0.12985648 -0.00000023
-0.41736856 -0.49147010 0.00000096
-0.14312303 -0.25666595 0.00000170
-0.78263253 -0.33210763 -0.00000117
-0.28512779 -0.63656473 0.00000051
-0.17589572 -0.18692708 0.00000192
-0.69271761 -0.35478482 -0.00000067
-0.19636527 -0.72149646 0.00000025
-0.62884289 -0.18337934 -0.00000020
-0.20063479 -0.36342573 0.00000136
-0.15607747 -0.61001921 0.00000059
-0.76162279 -0.39027339 -0.00000102
-0.63209283 -0.19881405 -0.00000022
-0.14593057 -0.53458709 0.00000083
-0.05188534 -0.04669217 0.00000235
-0.51922619 -0.02078337 0.00000071
-0.78437597 -0.19270664 -0.00000152
-0.47049886 0.28633374 0.00000092
-0.10051236 -0.16557924 0.00000198
-0.62083352 -0.25718346 -0.00000006
-0.65841848 -0.16326603 -0.00000050
-0.70215714 -0.61639309 -0.00000046
-0.17882718 -0.19466850 0.00000189
-0.64664954 -0.61537164 -0.00000000
-0.12707548 0.13209713 -0.00000574
-0.07039993 -0.48003319 0.00000100
-0.62979984 -0.69754589 0.00000023
-0.74495649 -0.22873802 -0.00000128
-0.49788144 -0.47508064 0.00000102
-0.46862099 -0.06299040 0.00000124
-0.40473920 -0.17865112 0.00000194
-0.40113112 -0.42311895 0.00000118
-0.30302748 -0.26160789 0.00000168
-0.28524628 -0.65232188 0.00000046
-0.22461268 -0.13930909 0.00000206
-0.60510927 -0.50444210 0.00000030
-0.69807374 -0.46781459 -0.00000062
-0.07952675 0.55894238 0.00000204
-0.17397593 -0.64181387 0.00000049
-0.45547998 -0.27086511 0.00000154
-0.17641284 -0.16599737 0.00000198
-0.71218336 -0.34361809 -0.00000086
-0.36061299 -0.69206017 0.00000034
-0.34010908 0.42433184 0.00000205
-0.70282388 -0.49174264 -0.00000065
-0.15181097 -0.70040506 0.00000031
-0.79516518 -0.32616255 -0.00000118
-0.42551142 -0.69294667 0.00000033
-0.50730801 -0.02539036 0.00000083
-0.64444935 0.04768650 -0.00000055
-0.13575381 -0.31599760 0.00000151
-0.67237198 -0.20306200 -0.00000060
-0.16059466 0.36349884 0.00000009
-0.13571623 -0.55461007 0.00000077
-0.43465093 -0.16143462 0.00000165
-0.45544210 -0.33655486 0.00000145
-0.63359481 -0.02758166 -0.00000038
-0.08150184 -0.46913165 0.00000103
-0.57836628 -0.46260732 0.00000052
-0.08309712 0.49639606 0.00000081
-0.19877920 0.22858769 -0.00000174
-0.33617431 0.07429475 0.00000239
-0.43521532 -0.78007817 0.00000006
-0.79061317 -0.42131895 -0.00000095
-0.33598769 0.23696142 0.00000225
-0.64902079 -0.79356760 0.00000002
-0.40860790 -0.54472637 0.00000080
-0.49477503 -0.76441181 0.00000011
-0.48732650 0.22493088 0.00000081
-0.61432308 -0.19751462 -0.00000005
-0.47278148 0.00225541 0.00000114
-0.25826988 0.36421672 0.00000289
-0.63616812 -0.16200146 -0.00000029
-0.45994338 0.00242519 0.00000126
-0.16404895 -0.72738856 0.00000023
-0.28949270 0.03983824 -0.00000329
-0.39834037 -0.04325291 0.00000189
-0.21232697 -0.54242504 0.00000080
-0.27557313 0.18192299 0.00000288
-0.31305262 0.17492081 0.00000253
-0.46371862 -0.15116809 0.00000136
-0.06251505 -0.54226595 0.00000081
-0.57559532 -0.71587330 0.00000026
-0.55931765 -0.72645068 0.00000023
-0.14299610 -0.22090137 0.00000181
-0.26634520 -0.63936418 0.00000050
-0.15216064 0.60790902 0.00000370
-0.14564222 0.46757060 0.00000388
-0.11143011 -0.08276092 0.00000224
-0.20444289 0.39795807 0.00000338
-0.52764028 0.24162789 0.00000041
-0.13346414 -0.18022890 0.00000194
-0.00158809 0.41530079 -0.00000313
-0.15822209 -0.18114012 0.00000193
-0.01697184 0.29617354 -0.00000525
-0.65422904 -0.19733296 -0.00000043
-0.20886454 -0.43832102 0.00000113
-0.57492453 -0.68911231 0.00000035
-0.30402261 -0.49741116 0.00000095
-0.28820491 -0.73018032 0.00000022
-0.13440938 -0.33820811 0.00000144
-0.59363514 -0.36754343 0.00000029
-0.53596050 -0.20111479 0.00000071
-0.30173200 0.23714148 0.00000258
-0.38802528 -0.43509686 0.00000114
-0.15098056 0.54759139 0.00000377
-0.45220768 -0.46375501 0.00000105
-0.36169437 0.41281772 0.00000186
-0.51172763 0.25744575 0.00000055
-0.25544143 -0.10272252 0.00000218
-0.63495266 -0.36270350 -0.00000011
-0.15420693 0.50734329 0.00000377
-0.13586628 -0.54524356 0.00000080
-0.01904794 -0.33521524 0.00000145
-0.29559046 0.12669756 0.00000274
-0.49071535 -0.23417769 0.00000117
-0.38725048 -0.79325414 0.00000002
-0.09266701 0.50272536 0.00000120
-0.32819059 0.03724879 0.00000250
-0.64546955 -0.62388951 0.00000002
-0.34764537 -0.12808995 0.00000210
-0.63085932 0.12823413 -0.00000049
-0.60898417 -0.71109402 0.00000028
-0.35138351 -0.79782510 0.00000001
-0.07280257 -0.72748899 0.00000023
-0.27676484 0.18017466 0.00000287
-0.33266956 -0.60667020 0.00000060
-0.38711768 -0.79583430 0.00000001
-0.18647756 0.00775380 -0.00000677
-0.11203699 0.14939076 -0.00000578
-0.01004574 -0.02233644 0.00000243
-0.75439525 -0.60560328 -0.00000049
-0.21354979 0.10145725 -0.00000404
-0.17997970 0.51974285 0.00000351
-0.51650071 0.07500105 0.00000066
-0.23848037 -0.02510222 0.00000242
-0.67286837 0.06819419 -0.00000084
-0.03684869 -0.52120954 0.00000087
-0.07420333 -0.62428868 0.00000055
-0.15136018 -0.30365318 0.00000155
-0.12241880 -0.73684704 0.00000020
-0.14925341 -0.76245338 0.00000012
-0.65166795 -0.77205247 0.00000008
-0.40802616 -0.28525442 0.00000161
-0.41540194 -0.02341615 0.00000171
-0.28163627 0.08304708 -0.00000259
-0.43494907 -0.41842535 0.00000119
-0.37633803 0.20219724 0.00000190
-0.46568817 -0.46902937 0.00000103
-0.69845045 -0.45079100 -0.00000064
-0.35380346 -0.36847797 0.00000135
-0.25920117 -0.39863619 0.00000125
-0.28740990 -0.30642185 0.00000154
-0.00129572 -0.63269842 0.00000053
-0.59067553 0.18221927 -0.00000015
-0.17529038 -0.31105110 0.00000153
-0.69811118 0.01885704 -0.00000104
-0.64227879 -0.55941069 -0.00000001
-0.28146896 -0.10122372 0.00000218
-0.20207199 -0.57298607 0.00000071
-0.55550259 0.03842415 0.00000032
-0.34916899 -0.29027215 0.00000159
-0.62698996 -0.28688136 -0.00000009
-0.31744626 0.43502381 0.00000226
-0.19938362 -0.04107929 0.00000237
-0.79641354 -0.26025629 -0.00000135
-0.16241042 -0.47072038 0.00000103
-0.40959367 0.20334943 0.00000158
-0.12380236 -0.19859935 0.00000188
-0.17411266 -0.22332567 0.00000180
-0.60855448 -0.29593861 0.00000009
-0.03922143 0.20134260 -0.00000666
-0.54313910 -0.42180800 0.00000083
-0.53971493 -0.57324988 0.00000071
-0.75690150 -0.77240932 -0.00000007
-0.35827839 0.06795143 0.00000218
-0.67121327 -0.29610226 -0.00000051
-0.07452729 -0.42507699 0.00000117
-0.40270659 0.13509569 0.00000170
-0.03389996 -0.38774249 0.00000129
-0.68120503 0.10486206 -0.00000095
-0.03679333 -0.28355637 0.00000161
-0.02068891 0.64323378 0.00000223
-0.67653888 -0.71473521 -0.00000021
-0.15424430 0.48128957 0.00000379
-0.75168103 -0.60503113 -0.00000049
-0.43424001 -0.40180466 0.00000124
-0.08612309 0.18043707 -0.00000583
-0.53388178 0.20070650 0.00000038
-0.58967733 -0.78733426 0.00000004
-0.33630973 0.19245099 0.00000229
-0.00354678 -0.66064680 0.00000046
-0.40810657 -0.28116459 0.00000162
-0.11610689 0.57319599 0.00000408
-0.78214610 0.00065397 -0.00000183
-0.45059776 -0.70529324 0.00000030
-0.14773172 0.64956069 0.00000371
-0.21856421 -0.01062238 0.00000247
-0.00513120 -0.32499468 0.00000152
-0.20165984 0.57973331 0.00000325
-0.15443549 0.11371236 -0.00000539
-0.40327916 -0.21282306 0.00000183
-0.00384634 -0.65194619 0.00000049
-0.14610481 0.00340273 -0.00000796
-0.76236194 -0.61130005 -0.00000047
-0.64339542 -0.43916723 -0.00000012
-0.31065565 0.14523856 0.00000258
-0.65914899 -0.69097823 -0.00000006
-0.62021261 -0.36069557 0.00000003
-0.32669440 -0.69869173 0.00000032
-0.26091492 -0.23504055 0.00000177
-0.46633950 0.31622323 0.00000093
-0.15946658 -0.75805527 0.00000013
-0.76952428 -0.10491592 -0.00000162
-0.47351357 -0.03280642 0.00000116
-0.27122742 0.35110587 0.00000278
-0.04405792 -0.48380023 0.00000099
-0.64526904 -0.08487982 -0.00000044
-0.40713683 0.36856234 0.00000146
-0.05907891 -0.12184937 0.00000212
-0.64878011 0.05126446 -0.00000059
-0.06924488 -0.26688340 0.00000167
-0.57870936 0.04910907 0.00000008
-0.15836290 0.09609808 -0.00000566
-0.49250984 -0.44776186 0.00000110
-0.36786616 -0.67849988 0.00000038
-0.27725559 0.03241292 -0.00000378
-0.35280499 -0.63759941 0.00000051
-0.51047671 -0.17927857 0.00000093
-0.34481373 0.06667198 0.00000231
-0.28537288 -0.62582880 0.00000054
-0.20950063 0.22083601 -0.00000162
-0.49447474 -0.13439378 0.00000105
-0.01683803 -0.32347515 0.00000149
-0.03953425 -0.12118795 0.00000212
-0.02635512 0.46036759 -0.00000150
-0.79013580 -0.70653236 -0.00000023
-0.26907906 -0.02635866 0.00000242
-0.20215566 0.02485512 -0.00000598
-0.06638770 -0.49693805 0.00000095
-0.02500998 0.03843416 -0.00001050
-0.04974605 -0.49492428 0.00000095
-0.07970759 -0.00156974 0.00000250
-0.24485667 -0.32111317 0.00000150
-0.02967502 0.24384893 -0.00000601
-0.22516480 0.33678851 0.00000323
-0.30696464 -0.29960889 0.00000156
-0.27312791 0.02306522 -0.00000409
-0.18767002 -0.17419656 0.00000196
-0.39352626 0.00074881 0.00000190
-0.29838464 -0.75857598 0.00000013
-0.77360052 -0.63660514 -0.00000041
-0.47957942 -0.26277053 0.00000130
-0.59123749 -0.68170267 0.00000037
-0.52094066 -0.14159171 0.00000080
-0.59333944 -0.70115453 0.00000031
-0.56159562 -0.32053450 0.00000056
-0.24586877 0.37135553 0.00000300
-0.22606669 -0.61713576 0.00000057
-0.51772428 -0.06690366 0.00000077
-0.03961774 0.62659538 0.00000239
-0.24401316 0.42204937 0.00000298
-0.69325471 -0.67148221 -0.00000032
-0.56987971 -0.31565446 0.00000048
-0.69962919 -0.75043637 -0.00000012
-0.45429781 -0.06196989 0.00000137
-0.59897876 0.18704937 -0.00000023
-0.05906533 -0.68304241 0.00000037
-0.03465912 0.07469415 -0.00000947
-0.78906715 -0.72949302 -0.00000018
-0.14111279 0.05086014 -0.00000709
-0.26994994 -0.74893397 0.00000016
-0.04518017 -0.58642107 0.00000067
-0.53335619 -0.47609982 0.00000097
-0.34405559 -0.04746686 0.00000235
-0.10038613 0.36079875 -0.00000161
-0.49446082 -0.28816384 0.00000118
-0.00032766 0.63384700 0.00000148
-0.01214094 -0.06919767 0.00000228
-0.24737552 0.03496512 -0.00000454
-0.04372089 0.44891798 -0.00000127
-0.04420632 -0.65970749 0.00000044
-0.55649048 -0.21360534 0.00000052
-0.09119260 0.25204065 -0.00000417
-0.38282013 0.19429539 0.00000184
-0.71724445 -0.25897551 -0.00000098
-0.08970047 -0.42624411 0.00000117
-0.33910295 0.36002079 0.00000212
-0.05038206 0.35230610 -0.00000315
-0.02410692 -0.12590171 0.00000211
-0.09352977 0.13367195 -0.00000662
-0.00195741 0.41780940 -0.00000307
-0.66528451 -0.55908769 -0.00000023
-0.10038801 -0.39561227 0.00000126
-0.10818055 -0.69830096 0.00000032
-0.00333273 -0.63737702 0.00000053
-0.35139111 -0.41465819 0.00000120
-0.32210028 0.32134679 0.00000232
-0.10338988 0.53955221 0.00000227
-0.26709017 0.44962311 0.00000273
-0.66599339 -0.30161610 -0.00000046
-0.17068028 -0.78312755 0.00000005
-0.45468131 -0.24194580 0.00000152
-0.07121826 -0.35727462 0.00000138
-0.47861421 -0.74059999 0.00000019
-0.21221696 0.47864160 0.00000324
-0.02720323 0.26471856 -0.00000564
-0.01774948 0.30868721 -0.00000496
-0.09673873 0.35241634 -0.00000188
-0.05352752 0.31614304 -0.00000383
-0.04015574 0.61777645 0.00000222
-0.59122622 -0.34775972 0.00000030
-0.61123437 0.01940747 -0.00000020
-0.11317406 0.41061887 -0.00000020
-0.35897630 -0.18647806 0.00000192
-0.63289708 -0.22000046 -0.00000021
-0.01639502 -0.75369072 0.00000014
-0.66398889 -0.42456055 -0.00000033
-0.02203300 -0.71076447 0.00000028
-0.40536603 -0.75419503 0.00000014
-0.52374107 -0.69545209 0.00000033
-0.57089955 -0.07537508 0.00000026
-0.38566703 -0.41142350 0.00000121
-0.26884350 0.33571693 0.00000281
-0.23356348 -0.12131151 0.00000212
-0.44940510 -0.20010775 0.00000154
-0.49585223 0.08582360 0.00000085
-0.79845566 -0.66619134 -0.00000033
-0.23238923 0.51098835 0.00000301
-0.01417222 0.67686224 0.00000277
-0.00251213 0.31163231 -0.00000531
-0.64729208 -0.79547894 0.00000001
-0.21069378 0.14717144 -0.00000315
-0.34991667 0.27289960 0.00000209
-0.16310255 0.33881274 -0.00000037
-0.23077314 0.40496936 0.00000312
-0.65282118 -0.77081966 0.00000007
-0.66756964 -0.24776742 -0.00000052
-0.52621853 -0.06994145 0.00000069
-0.07780170 0.38008380 -0.00000181
-0.23690876 0.22491221 -0.00000079
-0.00721942 -0.26869234 0.00000166
-0.79971725 -0.67303371 -0.00000032
-0.76926553 -0.76851708 -0.00000008
-0.73778665 -0.80845559 0.06273340
-0.11263151 0.10948205 -0.00000661
-0.38788226 0.10115368 0.00000187
-0.27537000 -0.14412469 0.00000205
-0.05628523 -0.12865464 0.00000210
-0.43933490 -0.30203101 0.00000156
-0.29302114 -0.68284792 0.00000037
-0.69802648 -0.52488834 -0.00000057
-0.27881831 0.15016432 0.00000288
-0.62931448 -0.36094818 -0.00000005
-0.13439742 -0.19245221 0.00000190
-0.53839689 -0.54706806 0.00000079
-0.39157903 -0.24747875 0.00000173
-0.23869956 -0.18625212 0.00000192
-0.23773029 0.45299447 0.00000301
-0.38628882 -0.68246490 0.00000037
-0.05540576 -0.39387256 0.00000127
-0.33450076 -0.33681101 0.00000145
-0.12105855 0.02501737 -0.00000818
-0.53535748 -0.55586076 0.00000076
-0.08676488 -0.70065671 0.00000031
-0.19253026 0.58396268 0.00000334
-0.35175288 -0.45142892 0.00000109
-0.28403592 -0.52178681 0.00000087
-0.28934532 0.16704719 0.00000276
-0.56235629 -0.01296095 0.00000029
-0.22294527 0.01056428 -0.00000572
-0.39022624 -0.72159010 0.00000025
-0.03904281 -0.74848104 0.00000016
-0.32029709 0.10006278 0.00000252
-0.16937427 0.50143266 0.00000363
-0.34287146 0.02000699 0.00000237
-0.00353665 -0.33143255 0.00000149
-0.33790171 -0.73503113 0.00000020
-0.04413143 0.72098267 0.00000464
-0.46056724 -0.62349379 0.00000055
-0.78214794 -0.16377871 -0.00000159
-0.43932137 -0.51456040 0.00000089
-0.05097084 -0.04931243 0.00000235
-0.10393729 -0.57317096 0.00000071
-0.12394523 0.43205827 0.00000055
-0.46012571 -0.58670247 0.00000067
-0.41790420 -0.72000968 0.00000025
-0.47239378 -0.54497957 0.00000080
-0.01397582 0.65789878 0.00000236
-0.42166078 0.34935293 0.00000134
-0.26334038 -0.40728724 0.00000123
-0.54669505 -0.67647302 0.00000039
-0.59966165 -0.44146991 0.00000030
-0.26864716 0.39526051 0.00000277
-0.66917020 0.08270962 -0.00000081
-0.24117553 -0.73678732 0.00000020
-0.30437896 0.32391348 0.00000248
-0.58731353 -0.49899852 0.00000047
-0.54010439 0.19761394 0.00000033
-0.46914950 0.04498941 0.00000114
-0.66156638 -0.25532970 -0.00000045
-0.02549430 0.35616902 -0.00000374
-0.42528135 -0.34729618 0.00000141
-0.65541983 0.09252194 -0.00000069
-0.75716716 -0.39322138 -0.00000102
-0.78471965 -0.54036915 -0.00000065
-0.68342745 -0.08905785 -0.00000080
-0.71908528 -0.41680852 -0.00000087
-0.18967567 -0.24602833 0.00000173
-0.53966463 -0.78206748 0.00000006
-0.19950746 -0.51329058 0.00000090
-0.48007059 0.26361361 0.00000085
-0.30901891 0.25390100 0.00000250
-0.20765115 -0.79946339 0.00000000
-0.24183425 -0.79395556 0.00000002
-0.51682925 -0.36982942 0.00000103
-0.51067507 0.23069651 0.00000058
-0.73053586 -0.17982268 -0.00000118
-0.61498684 -0.15133241 -0.00000009
-0.67514467 0.04556519 -0.00000084
-0.03975455 -0.42420894 0.00000117
-0.33502942 -0.25545213 0.00000170
-0.12672262 0.25445122 -0.00000315
-0.50556791 -0.24272588 0.00000103
-0.30800554 -0.78348666 0.00000005
-0.36089927 -0.50180519 0.00000093
-0.52679080 0.11774644 0.00000052
-0.76604569 -0.44324690 -0.00000089
-0.55262214 -0.28792658 0.00000062
-0.49501482 -0.27995968 0.00000117
-0.39912525 0.30383289 0.00000159
-0.04467283 0.27993420 -0.00000484
-0.32774833 0.11763438 0.00000243
-0.33236128 0.46423453 0.00000209
-0.01071517 -0.31748843 0.00000151
-0.24453934 -0.14689311 0.00000204
-0.17562313 0.17773573 -0.00000345
-0.48530105 0.19030850 0.00000086
-0.36061177 0.26520064 0.00000199
-0.70525515 0.02870566 -0.00000111
-0.63030726 -0.69182771 0.00000022
-0.71466398 -0.55808359 -0.00000060
-0.20632145 -0.47257304 0.00000102
-0.05801175 -0.32467312 0.00000149
-0.45701090 0.08806823 0.00000122
-0.15113646 0.45121223 0.00000385
-0.72476691 -0.16656978 -0.00000114
-0.49798521 0.12394344 0.00000079
-0.10827732 0.39916450 -0.00000058
-0.51659364 -0.03680123 0.00000075
-0.18274368 -0.40873140 0.00000122
-0.11432089 -0.61285108 0.00000058
-0.31371802 -0.16206799 0.00000199
-0.50726312 -0.34816644 0.00000111
-0.10606130 -0.28001371 0.00000162
-0.53879631 0.24160483 0.00000030
-0.03218444 -0.43760064 0.00000113
-0.39130074 -0.22595739 0.00000179
-0.14875828 -0.03953366 0.00000238
-0.27763936 -0.32614878 0.00000148
-0.60475272 -0.33485860 0.00000016
-0.55061162 -0.54914993 0.00000078
-0.28392991 -0.23361062 0.00000177
-0.29415461 -0.57962406 0.00000069
-0.08011435 0.13238037 -0.00000701
-0.47032768 -0.10781763 0.00000126
-0.43275821 -0.17833450 0.00000168
-0.07352474 -0.57674146 0.00000070
-0.77028394 -0.15087476 -0.00000159
-0.68036425 -0.14944363 -0.00000072
-0.41999963 0.00466427 0.00000164
-0.09511365 0.10065905 -0.00000728
-0.43833944 -0.50435770 0.00000092
-0.55368137 -0.39534995 0.00000070
-0.12974858 -0.23303775 0.00000177
-0.00447496 -0.37825304 0.00000134
-0.30610931 0.28631493 0.00000250
-0.00926123 0.37853101 -0.00000370
-0.04824458 -0.42010570 0.00000119
-0.05961773 0.05248117 -0.00000927
-0.23129292 -0.64502496 0.00000048
-0.58617002 -0.33545226 0.00000034
-0.56254792 -0.26303032 0.00000050
-0.27031463 0.45771131 0.00000270
-0.43164158 -0.78368813 0.00000005
-0.74756408 -0.34882873 -0.00000113
-0.60752177 -0.69059986 0.00000034
-0.22317354 -0.62464601 0.00000055
-0.59064871 -0.23965390 0.00000021
-0.44897941 -0.43904838 0.00000113
-0.02661433 -0.74579829 0.00000017
-0.43628824 0.19810122 0.00000132
-0.42016295 -0.62209225 0.00000056
-0.74153894 -0.35922718 -0.00000110
-0.49224544 0.02688528 0.00000093
-0.61317635 -0.64011914 0.00000034
-0.27273935 0.24124020 0.00000286
-0.05708912 0.18635428 -0.00000649
-0.00196734 -0.48799801 0.00000099
-0.10356155 -0.54471797 0.00000080
-0.42012045 -0.49021345 0.00000097
-0.45405936 0.21045551 0.00000114
-0.07753700 0.19951105 -0.00000565
-0.00784758 -0.27419958 0.00000169
-0.07132786 -0.07998123 0.00000225
-0.08009511 -0.22122645 0.00000181
-0.31535509 -0.62551993 0.00000055
-0.62732553 -0.02289639 -0.00000032
-0.09853835 0.33251640 -0.00000226
-0.64736450 -0.50735533 -0.00000010
-0.08499566 0.14158781 -0.00000668
-0.53990686 -0.19637764 0.00000066
-0.75083369 -0.58009040 -0.00000055
-0.68014199 -0.09010782 -0.00000077
-0.07376877 -0.59380138 0.00000064
-0.43421876 0.25462782 0.00000130
-0.14800692 -0.05162964 0.00000234
-0.11556855 -0.24803150 0.00000172
-0.59945005 -0.78345513 0.00000005
-0.38776442 0.32880622 0.00000168
-0.69192171 -0.57923573 -0.00000047
-0.53485757 0.05362185 0.00000050
-0.37975767 -0.25396696 0.00000171
-0.72900438 -0.56028855 -0.00000060
-0.77712786 -0.02149117 -0.00000176
-0.00484463 -0.58991861 0.00000066
-0.20198716 -0.11457276 0.00000214
-0.78386706 -0.35796529 -0.00000111
-0.37620300 0.35556185 0.00000177
-0.18849352 -0.43547210 0.00000114
-0.57970738 0.09528080 0.00000003
-0.46431708 0.22463475 0.00000103
-0.38826746 -0.05478132 0.00000200
-0.10132055 -0.29524586 0.00000158
-0.29234973 -0.18683876 0.00000192
-0.55223137 -0.76205242 0.00000012
-0.06687410 -0.22548705 0.00000180
-0.27930695 -0.41078347 0.00000122
-0.11354154 -0.67195684 0.00000040
-0.34469774 -0.70525086 0.00000030
-0.75849849 -0.61895746 -0.00000045
-0.12297232 0.23357850 -0.00000370
-0.61289018 -0.56695348 0.00000028
-0.29353717 -0.66658443 0.00000042
-0.40146974 0.07563849 0.00000176
-0.18611754 -0.79332030 0.00000002
-0.44998950 -0.11749201 0.00000146
-0.67309254 -0.71441674 -0.00000017
-0.08499031 0.53564912 0.00000169
-0.30560002 -0.61127657 0.00000059
-0.53507382 -0.44226620 0.00000092
-0.19647063 -0.17484578 0.00000195
-0.31186524 -0.40420589 0.00000124
-0.09990116 -0.19385767 0.00000189
-0.75038481 -0.38099217 -0.00000105
-0.30323130 0.36597943 0.00000246
-0.74285066 -0.41514143 -0.00000096
-0.26108190 -0.39206454 0.00000127
-0.19969641 -0.79834366 0.00000001
-0.59461874 -0.47044143 0.00000037
-0.09716082 -0.77690852 0.00000007
-0.45322353 -0.59744585 0.00000063
-0.48307225 -0.12997071 0.00000115
-0.07253931 0.51048857 0.00000082
-0.15574872 -0.45649561 0.00000107
-0.61921024 -0.52292007 0.00000018
-0.37151590 0.16686396 0.00000197
-0.18843147 0.34241158 0.00000039
-0.78221774 -0.29920772 -0.00000125
-0.37867093 -0.15514614 0.00000202
-0.31926501 0.24338444 0.00000241
-0.78228742 -0.28766346 -0.00000128
-0.10189105 0.27727598 -0.00000334
-0.00178387 -0.01039749 0.00000248
-0.12081574 -0.40717420 0.00000123
-0.18241505 0.35896030 0.00000058
-0.08352286 0.26314828 -0.00000414
-0.58346748 -0.74082530 0.00000018
-0.66469061 -0.58936989 -0.00000020
-0.07869981 0.60199183 0.00000293
-0.15063331 0.58545661 0.00000374
-0.29904398 -0.10972041 0.00000216
-0.79201943 -0.34493193 -0.00000114
-0.53288549 -0.58930886 0.00000066
-0.16697972 0.55192852 0.00000361
-0.70798153 -0.77712178 -0.00000006
-0.54462135 0.25199395 0.00000024
-0.25052390 -0.76281947 0.00000012
-0.11317770 0.45682383 0.00000078
-0.42082781 -0.28517574 0.00000161
-0.65813959 -0.47428861 -0.00000023
-0.21247634 0.46240854 0.00000325
-0.54783618 -0.59080720 0.00000065
-0.00177307 -0.71624035 0.00000026
-0.49244487 -0.65108055 0.00000047
-0.31561473 -0.58892065 0.00000066
-0.17569472 -0.57347959 0.00000071
-0.58711970 -0.56464154 0.00000053
-0.42521942 -0.47281259 0.00000102
-0.15273607 -0.10575686 0.00000217
-0.09019149 0.66314554 0.00000425
-0.50123036 0.26015383 0.00000065
-0.21685597 -0.42309275 0.00000118
-0.39749128 0.39134946 0.00000153
-0.28784162 0.41420558 0.00000256
-0.09894184 0.42348832 -0.00000031
-0.50085467 0.01072922 0.00000086
-0.56562525 -0.34115154 0.00000054
-0.66973686 -0.01395364 -0.00000074
-0.70400220 -0.01220110 -0.00000107
-0.56901628 -0.31914562 0.00000049
-0.56113678 0.04189279 0.00000026
-0.76575768 -0.23152494 -0.00000142
-0.41759464 -0.62925512 0.00000053
-0.05744029 0.65195584 0.00000341
-0.56397122 -0.12312336 0.00000037
-0.23754229 0.22678696 0.00000321
-0.70872098 -0.42937806 -0.00000076
-0.14902745 0.10372528 -0.00000575
-0.68161958 -0.48897579 -0.00000045
-0.33323005 0.06175229 0.00000243
-0.34518546 -0.35764676 0.00000138
-0.16670290 0.24190880 -0.00000233
-0.32842660 0.10500861 0.00000244
-0.55680329 -0.32571560 0.00000061
-0.10349643 -0.14355323 0.00000205
-0.76060319 -0.76165670 -0.00000010
-0.22163898 -0.45444959 0.00000108
-0.35627761 -0.57050657 0.00000072
-0.75934678 -0.56217867 -0.00000059
-0.18507279 0.09553192 -0.00000494
-0.26473817 -0.59392923 0.00000064
-0.52959704 -0.34536090 0.00000089
-0.09413236 -0.50034869 0.00000094
-0.56937629 -0.35032332 0.00000051
-0.51147598 -0.01353139 0.00000078
-0.64933187 -0.69854867 0.00000004
-0.32108256 -0.33733973 0.00000145
-0.07968411 -0.42952487 0.00000116
-0.25099939 -0.72004825 0.00000025
-0.08169256 0.22483104 -0.00000500
-0.45395818 0.07801587 0.00000126
-0.48982039 -0.49654123 0.00000095
-0.45699811 0.08833050 0.00000122
-0.43199268 -0.24182181 0.00000174
-0.13749933 0.05292213 -0.00000714
-0.44436625 0.16782387 0.00000127
-0.13214172 0.51857919 0.00000397
-0.42468402 -0.32290319 0.00000149
-0.37800372 -0.15625402 0.00000201
-0.73975140 -0.16009997 -0.00000128
-0.57558548 -0.32979393 0.00000044
-0.02032765 -0.53926003 0.00000081
-0.06497582 -0.53139108 0.00000084
-0.39060983 -0.42095181 0.00000118
-0.74255461 -0.61129999 -0.00000047
-0.73033404 0.04756334 -0.00000137
-0.61243504 -0.15613002 -0.00000007
-0.03349321 -0.05334133 0.00000233
