ply
format ascii 1.0
element vertex 1376
property float x
property float y
property float z
end_header
-0.57194644 -0.05845886 0.00000047
-0.08110643 0.45641044 0.00000735
-0.37011638 0.04746386 0.12121144
-0.12866153 -0.28829619 0.00000192
-0.11668211 0.61005640 0.07887810
-0.36635825 0.22009347 0.00000430
-0.08899922 -0.48626995 0.00000118
-0.09945920 -0.22411466 0.00000216
-0.17272609 -0.43043229 0.00000139
-0.01023125 0.78345799 0.00702484
-0.28140512 0.27874368 0.13592085
-0.25515407 0.24680938 0.05399597
-0.00281891 -0.04130958 0.00000285
-0.58573461 -0.73973793 0.00000023
-0.36194584 -0.14795521 0.00000245
-0.26123697 0.31055295 0.12141071
-0.63485295 -0.24353848 -0.00000007
-0.66017628 -0.57113105 0.19141106
-0.22196697 -0.51820463 0.00000106
-0.56602091 -0.37696713 0.16291988
-0.11451036 -0.10953038 0.00000259
-0.01960485 0.41404063 0.00000860
-0.00157278 0.70686328 0.00000667
-0.68224496 -0.75102490 0.08257688
-0.17590736 0.51825035 0.12286698
-0.27425775 0.20539086 0.05803737
-0.40901190 0.31403348 0.00000262
-0.27524126 0.21077660 0.06470771
-0.32877502 -0.54098868 0.00000097
-0.60268074 -0.45122460 0.17516594
-0.65511096 -0.70841521 0.06289535
-0.43982470 0.06831845 0.00000429
-0.35730359 -0.28449652 0.00000193
-0.51691395 -0.41761419 0.02607600
-0.24578674 -0.26613826 0.00000200
-0.40404105 -0.45946404 0.00000128
-0.43902463 0.08484969 0.00000415
-0.50179154 -0.16676433 0.21031611
-0.00181691 -0.24263410 0.00000209
-0.03240331 -0.07768480 0.00000271
-0.78313428 -0.30030307 -0.00000125
-0.33371538 -0.71436340 0.00000032
-0.54447800 0.23145936 0.00000078
-0.55362535 -0.55820912 0.00000091
-0.67033154 -0.13656236 -0.00000053
-0.53706324 0.23057485 0.00000093
-0.56461477 -0.40224463 0.13827422
-0.10561167 -0.59269315 0.00000078
-0.67165494 -0.65000087 0.14743748
-0.10239418 -0.38893479 0.00000154
-0.48080426 -0.38334948 0.00000156
-0.35394150 -0.47661468 0.00000121
-0.56833571 -0.15392824 0.35943976
-0.60720521 -0.73893028 0.00000023
-0.52724600 -0.63810670 0.00000061
-0.04306817 -0.77114785 0.00000011
-0.03231648 -0.21945167 0.00000218
-0.35046887 -0.13587534 0.00000249
-0.09370102 0.61475825 0.03523009
-0.52469540 -0.51904058 0.00000105
-0.60905224 -0.34277123 0.28161049
-0.56578648 -0.78102779 0.00000007
-0.32566535 -0.55768579 0.00000091
-0.32103169 0.26897192 0.20975310
-0.53880149 0.05646098 0.00000250
-0.55913478 -0.51344055 0.03132226
-0.19264065 -0.74823958 0.00000019
-0.09320623 -0.73085147 0.00000026
-0.77778161 -0.18109269 -0.00000155
-0.14589263 -0.44370055 0.00000134
-0.31650567 -0.22265661 0.00000217
-0.14606915 0.54139435 0.00000558
-0.20994754 -0.72562653 0.00000028
-0.06196107 0.59083831 0.00000663
-0.16767094 0.50532055 0.09466107
-0.46825308 -0.73299396 0.00000025
-0.11431299 -0.02933629 0.00000289
-0.20950741 -0.21860494 0.00000218
-0.48401892 -0.33668441 0.02737777
-0.58338356 -0.67827451 0.00000046
-0.25300944 -0.22851346 0.00000214
-0.37139046 0.32405028 0.00000325
-0.18734875 -0.69381374 0.00000040
-0.46776867 -0.36874869 0.00000162
-0.46344531 0.25172421 0.00000215
-0.66373658 -0.00860101 -0.00000054
-0.47719151 -0.32865760 0.02010928
-0.19617158 -0.77684963 0.00000009
-0.17054801 0.40483359 0.01425646
-0.39220709 -0.10254666 0.03810958
-0.69592828 -0.42810470 -0.00000060
-0.67662191 -0.79973549 0.02903838
-0.60604399 0.18998653 -0.00000002
-0.25568888 0.34645879 0.14076088
-0.53226542 -0.17819619 0.26372811
-0.15750626 -0.76348102 0.00000014
-0.36694303 -0.40442756 0.00000148
-0.65759248 -0.56118143 0.19460168
-0.40080538 0.06180688 0.19722493
-0.33897808 -0.07853243 0.00000271
-0.10471991 -0.49623230 0.00000114
-0.12855907 -0.63703638 0.00000061
-0.56108880 -0.16486433 0.33500096
-0.39185026 -0.12194949 0.02069110
-0.47517559 -0.00101026 0.00000147
-0.34250134 -0.24942029 0.00000206
-0.54450244 -0.21780911 0.25507200
-0.48450872 -0.58809942 0.00000079
-0.05126122 -0.56636423 0.00000088
-0.16417190 -0.10551080 0.00000260
-0.12643175 -0.33820832 0.00000173
-0.12734981 -0.30266961 0.00000186
-0.29847282 -0.08381182 0.00000269
-0.17851487 0.54370928 0.00000493
-0.35221434 -0.62763250 0.00000065
-0.14223538 0.22783664 0.00000815
-0.06179679 0.25219464 0.00000918
-0.29568410 -0.14725761 0.00000245
-0.43006587 -0.08492027 0.13182379
-0.51799244 0.27760896 0.00000086
-0.16647086 -0.32010198 0.00000180
-0.25048709 -0.03131783 0.00000288
-0.56787884 -0.15343028 0.35891968
-0.50463915 -0.00675388 0.35376477
-0.42155057 -0.47119710 0.00000123
-0.64791304 -0.26481640 -0.00000020
-0.39448619 -0.78838080 0.00000004
-0.25778359 0.25526902 0.06672426
-0.08657348 0.43230972 0.00000745
-0.56467170 -0.11496796 0.38532522
-0.41154850 0.11424613 0.26459357
-0.22497874 -0.05954415 0.00000278
-0.56331247 -0.24459943 0.27107799
-0.74286300 -0.38942757 -0.00000103
-0.23434795 0.03029506 0.00000824
-0.57571536 -0.46260819 0.10942333
-0.30118427 -0.09794841 0.00000263
-0.13810810 -0.17933130 0.00000233
-0.19589657 -0.24129397 0.00000210
-0.35031444 0.00084650 0.04004851
-0.79147464 -0.29986054 -0.00000125
-0.08039281 -0.06143868 0.00000277
-0.18059798 -0.44431067 0.00000133
-0.12870868 -0.76746804 0.00000012
-0.58839512 -0.78594100 0.00000005
-0.75660425 -0.05133146 -0.00000150
-0.44074115 -0.06103794 0.17450520
-0.14521804 0.64342380 0.00000456
-0.34994531 -0.58351654 0.00000081
-0.33800724 -0.21442568 0.00000220
-0.42992336 0.11002994 0.29910037
-0.13076420 -0.36962962 0.00000161
-0.28229854 0.43614021 0.00000393
-0.68826491 -0.37831104 -0.00000055
-0.35708097 0.21227783 0.23582906
-0.62763697 -0.69139737 0.02051018
-0.54618335 -0.65801132 0.00000053
-0.40197667 -0.08921117 0.06984574
-0.20444658 0.37131742 0.05579226
-0.43324700 -0.56172788 0.00000089
-0.29342598 0.27806473 0.16028252
-0.29302746 -0.08035918 0.00000270
-0.19312364 -0.65912610 0.00000053
-0.05384244 -0.06813948 0.00000274
-0.53542715 -0.24625173 0.21179111
-0.45159498 0.06591514 0.30615306
-0.57375121 -0.43942645 0.12527364
-0.56890160 0.17682613 0.00000081
-0.28960788 0.35267922 0.00000456
-0.78089243 -0.58984458 -0.00000053
-0.46027213 -0.00083231 0.26678580
-0.38160455 0.38989258 0.00000245
-0.11250010 -0.67331892 0.00000048
-0.70625478 -0.38864720 -0.00000074
-0.33636540 -0.39554012 0.00000152
-0.24827513 -0.59336555 0.00000077
-0.03839812 0.37641868 0.00000860
-0.33291802 0.25497901 0.22239137
-0.51945370 -0.63930833 0.00000060
-0.00220388 -0.52210873 0.00000104
-0.78008336 -0.02057770 -0.00000177
-0.46785089 -0.20256747 0.10910862
-0.06861611 0.65718567 0.01964385
-0.15970118 0.63488203 0.00000445
-0.48800418 -0.06216924 0.27161136
-0.57253218 -0.54475951 0.03220335
-0.38050267 -0.36535555 0.00000163
-0.78141254 -0.07847909 -0.00000175
-0.49382317 -0.36806664 0.02074811
-0.15214165 -0.71612853 0.00000031
-0.28154081 0.25778478 0.11818687
-0.12474981 -0.36043364 0.00000165
-0.37326941 -0.17898297 0.00000233
-0.16583611 0.05957258 0.00000905
-0.01213007 0.68958235 0.00000665
-0.36042583 0.06126614 0.11296589
-0.40518841 0.07725694 0.21960074
-0.61664838 -0.44502118 0.20948336
-0.51737213 -0.11174053 0.28994495
-0.43861669 -0.25447193 0.00382756
-0.50058544 -0.51045978 0.00000109
-0.25376198 0.41899243 0.00000463
-0.47618499 -0.15046793 0.17118616
-0.56828249 -0.74301356 0.00000021
-0.45849267 -0.02314973 0.24390988
-0.59110665 -0.61891127 0.00701028
-0.53257829 -0.02278319 0.00000087
-0.10592523 0.53895146 0.00000636
-0.20799005 -0.35392010 0.00000167
-0.42968333 -0.29849747 0.00000188
-0.74942285 -0.76950175 -0.00000008
-0.03670129 0.06308599 0.00001097
-0.28092057 -0.70207143 0.00000037
-0.19609219 0.00304403 0.00000902
-0.01549806 -0.39429858 0.00000152
-0.36767021 0.28847182 0.00000365
-0.09215969 0.54159504 0.00000655
-0.39554605 -0.53592080 0.00000099
-0.40062398 0.04134418 0.17925949
-0.79668450 -0.17789362 -0.00000156
-0.51623791 0.13468239 0.00000221
-0.39274731 -0.32921645 0.00000177
-0.22132972 -0.08091984 0.00000270
-0.23830318 -0.00291119 0.00000299
-0.36610168 0.15917484 0.20890304
-0.39413321 -0.29320773 0.00000190
-0.06648962 -0.08101074 0.00000270
-0.07832616 -0.66686010 0.00000050
-0.57795733 -0.36477253 0.19817188
-0.12997682 -0.61793935 0.00000068
-0.08105495 -0.54827893 0.00000094
-0.52539539 -0.19679016 0.23348892
-0.61637622 -0.57797277 0.09463811
-0.40366694 -0.62459552 0.00000066
-0.12930392 -0.43928459 0.00000135
-0.38280427 0.09288215 0.18658087
-0.61091506 -0.32629308 0.29964009
-0.45962474 -0.64220685 0.00000059
-0.46510774 -0.52672774 0.00000102
-0.58645254 -0.41549736 0.17219964
-0.76197672 -0.29854128 -0.00000125
-0.56683093 -0.36742938 0.17279904
-0.23656864 -0.21477024 0.00000219
-0.73699236 -0.37804574 -0.00000105
-0.08441251 -0.71486181 0.00000032
-0.05877283 0.68741697 0.02520315
-0.03642299 0.68306369 0.00000633
-0.78138626 -0.27110302 -0.00000132
-0.58205384 -0.37425122 0.19852534
-0.46032336 -0.34729010 0.00000170
-0.02160320 -0.69725513 0.00000039
-0.37565801 -0.61050290 0.00000071
-0.58676738 -0.45177466 0.14167029
-0.02989146 -0.74756932 0.00000020
-0.18565880 0.17714292 0.00000787
-0.47128829 -0.19294617 0.12451189
-0.03341486 -0.30808827 0.00000184
-0.47693661 -0.47133231 0.00000123
-0.07282930 0.46464598 0.00000742
-0.00447271 -0.71311951 0.00000033
-0.28398049 -0.73769641 0.00000023
-0.67086804 -0.58197910 0.20427357
-0.15093482 -0.19841073 0.00000226
-0.01037092 -0.20041126 0.00000225
-0.66187525 -0.20735171 -0.00000039
-0.55695027 -0.41575566 0.11075555
-0.40905455 0.29623422 0.00000278
-0.38394433 -0.13765645 0.00000248
-0.53667861 -0.15789270 0.29033840
-0.00915514 0.00323813 0.00001184
-0.23348610 -0.62451810 0.00000066
-0.60729086 -0.34727365 0.27408522
-0.28628397 0.22473504 0.09962137
-0.46907127 -0.45503047 0.00000129
-0.48484528 -0.31048375 0.05161373
-0.23892291 0.41807669 0.00000493
-0.76849258 -0.46785355 -0.00000083
-0.22258136 -0.07817113 0.00000271
-0.14526750 -0.70528454 0.00000036
-0.45840541 -0.08649953 0.18927555
-0.08809848 -0.66921592 0.00000049
-0.10959410 -0.61224163 0.00000070
-0.76200265 -0.66803980 -0.00000033
-0.43207496 -0.73715997 0.00000024
-0.07226414 -0.07665051 0.00000271
-0.21652141 -0.10353583 0.00000261
-0.29649711 0.48771819 0.00000318
-0.53614682 0.17851590 0.00000142
-0.57409906 -0.12326006 0.00000049
-0.57722515 -0.42951491 0.14100219
-0.33389828 -0.51912653 0.00000105
-0.64622122 -0.31841281 -0.00000015
-0.38238889 -0.27103063 0.00000198
-0.47297573 0.00110685 0.29481474
-0.00475369 -0.13866828 0.00000248
-0.44535324 0.01973072 0.00000463
-0.33772156 -0.29532671 0.00000189
-0.11373788 -0.26684633 0.00000200
-0.32613948 0.10363517 0.07823493
-0.12057559 0.60678351 0.00000546
-0.48179719 -0.06632821 0.25515589
-0.29841799 0.07201722 0.00000696
-0.36773035 -0.30226034 0.00000187
-0.29668033 -0.01670690 0.00000294
-0.14328438 0.44136605 0.00000653
-0.15455469 0.63335943 0.00000457
-0.28041318 0.51723409 0.00000320
-0.16107954 -0.46940288 0.00000124
-0.34672296 0.20053104 0.20423736
-0.61925578 0.02165835 0.00000127
-0.72876608 -0.10533643 -0.00000117
-0.09808543 -0.69195271 0.00000041
-0.28333354 0.06321643 0.00000725
-0.48008481 -0.42623454 0.00000140
-0.12872949 -0.04671853 0.00000282
-0.42036307 -0.36032283 0.00000165
-0.61658007 0.00663278 0.00000146
-0.11186729 -0.74054962 0.00000022
-0.58774018 -0.39848024 0.18949899
-0.28880492 0.40630084 0.00000408
-0.39834663 0.32366624 0.00000273
-0.46433723 -0.50824893 0.00000109
-0.09942576 -0.14145030 0.00000247
-0.78400832 -0.76017618 -0.00000010
-0.36292100 -0.60197675 0.00000074
-0.00475232 0.23661394 0.00001015
-0.16493098 -0.78614610 0.00000005
-0.20928110 0.46036953 0.14237075
-0.46821326 -0.26129150 0.05938346
-0.75151294 -0.12455907 -0.00000140
-0.39226562 0.17100093 0.00000426
-0.50590456 0.25471467 0.00000130
-0.24579255 -0.60796660 0.00000072
-0.03228439 0.25034189 0.00000964
-0.14686747 -0.12520424 0.00000253
-0.53437859 -0.36647546 0.10627506
-0.51513439 -0.51579487 0.00000107
-0.68830293 -0.73629677 0.10780786
-0.32004258 0.22013734 0.16572405
-0.78916097 -0.66715407 -0.00000033
-0.61656886 -0.37692523 0.26785108
-0.58546120 -0.22214834 0.33633834
-0.67627716 -0.76920003 0.05457015
-0.27338603 -0.34822085 0.00000169
-0.39533758 -0.14586312 0.00737255
-0.18450066 -0.33815727 0.00000173
-0.75988829 -0.19834407 -0.00000144
-0.08299380 -0.31404284 0.00000182
-0.38328388 0.26698181 0.00000355
-0.56592947 -0.11858709 0.00000058
-0.09584662 -0.30267882 0.00000186
-0.19273134 -0.32939661 0.00000176
-0.29794994 -0.10602211 0.00000260
-0.61929250 -0.44599077 0.21413682
-0.62674880 -0.30997312 0.00000006
-0.57573801 -0.44700265 0.12288442
-0.34275666 -0.69817370 0.00000038
-0.03384033 -0.00743983 0.00000297
-0.65546256 -0.76680207 0.01343773
-0.40164715 -0.22303449 0.00000216
-0.76929092 -0.17491838 -0.00000156
-0.16813970 0.46475500 0.06076514
-0.02789478 -0.11856618 0.00000256
-0.39151627 -0.12926689 0.01370821
-0.77100122 -0.79983759 -0.00000000
-0.73532695 -0.54082507 -0.00000065
-0.15526444 -0.41006631 0.00000146
-0.27069059 -0.66598576 0.00000050
-0.13202727 0.38732862 0.00000710
-0.38274980 -0.45534825 0.00000129
-0.48560274 -0.04326678 0.28287587
-0.45637667 -0.18968682 0.09636944
-0.37589967 -0.66434842 0.00000051
-0.20119312 -0.33883464 0.00000173
-0.25083914 -0.23144966 0.00000213
-0.71884423 -0.43801060 -0.00000084
-0.61358005 -0.29369077 0.00000019
-0.60930961 -0.14092523 0.00000013
-0.45593405 -0.69876754 0.00000038
-0.57590204 -0.39813915 0.16522612
-0.35750172 0.16415183 0.19533475
-0.59327531 -0.38805413 0.20994718
-0.16201895 -0.03947539 0.00000285
-0.17185096 0.34413147 0.00000683
-0.51093698 -0.68187618 0.00000044
-0.35817355 -0.17014778 0.00000236
-0.31133509 -0.11485472 0.00000257
-0.41333875 -0.52336133 0.00000104
-0.39530021 0.16207694 0.27198941
-0.36030608 0.12425222 0.16685797
-0.47925439 -0.51700950 0.00000106
-0.56126928 -0.53238571 0.01946708
-0.50609225 -0.21613355 0.17680480
-0.51814997 0.02114987 0.00000322
-0.17338336 0.34705463 0.00000678
-0.21556318 -0.17088170 0.00000236
-0.13700141 -0.13977505 0.00000248
-0.33216649 0.07000380 0.06183365
-0.18985474 -0.71715343 0.00000031
-0.20051663 -0.40916651 0.00000147
-0.20884474 0.18484683 0.00000746
-0.25227091 0.30392018 0.09710340
-0.35855621 -0.26602203 0.00000200
-0.51347053 -0.60950726 0.00000071
-0.55702150 -0.35494989 0.16316979
-0.08030183 0.01301432 0.00001069
-0.33534849 -0.15344064 0.00000242
-0.03898466 -0.08852507 0.00000267
-0.39295691 0.14903916 0.25591987
-0.00600068 -0.72624433 0.00000028
-0.00428992 0.74486870 0.00000635
-0.33635646 -0.75338173 0.00000017
-0.02171696 -0.63019162 0.00000064
-0.41593489 0.25349200 0.00000304
-0.38275743 -0.60640514 0.00000073
-0.54016316 -0.23043491 0.23521467
-0.77358091 -0.73138136 -0.00000017
-0.17905082 -0.61112469 0.00000071
-0.47163600 -0.52883190 0.00000102
-0.16423556 -0.28525609 0.00000193
-0.07601906 0.64204341 0.02199042
-0.07941955 -0.51449120 0.00000107
-0.10031236 -0.06571669 0.00000275
-0.33184066 -0.60801423 0.00000072
-0.51797533 -0.22309878 0.19547711
-0.59473246 -0.30046284 0.28826138
-0.29881439 -0.65210962 0.00000055
-0.09914385 -0.68762964 0.00000042
-0.36333725 0.13062815 0.17862870
-0.50727117 -0.29873374 0.10825106
-0.42586640 -0.04706479 0.15564847
-0.08792807 0.65562540 0.05837821
-0.43504250 0.09970995 0.30085275
-0.17996998 -0.64219779 0.00000059
-0.55959153 -0.16739348 0.32971990
-0.19527435 -0.65846455 0.00000053
-0.72384971 -0.25615871 -0.00000102
-0.26243618 -0.28466883 0.00000193
-0.56442499 -0.53753710 0.02158772
-0.17595714 -0.56763440 0.00000087
-0.47245899 -0.64099187 0.00000060
-0.41168401 -0.70843977 0.00000034
-0.06552523 -0.51835227 0.00000106
-0.31371132 -0.43143544 0.00000138
-0.36363631 -0.20409173 0.00000223
-0.32641369 -0.03165301 0.00000288
-0.40551525 -0.42030957 0.00000142
-0.50016969 -0.60432333 0.00000073
-0.25318202 -0.55914325 0.00000090
-0.09262628 -0.06525366 0.00000276
-0.68577570 -0.21080352 -0.00000064
-0.10328085 -0.76969320 0.00000011
-0.09208438 0.34020826 0.00000806
-0.40334609 -0.12895373 0.03852626
-0.61966544 -0.68686020 0.00786796
-0.05874195 -0.33077961 0.00000176
-0.44563323 -0.72467220 0.00000028
-0.56622207 -0.22080640 0.29756752
-0.70876092 -0.80879962 0.08794063
-0.45462945 -0.20556267 0.07909734
-0.58924526 0.00542445 0.00000200
-0.61641026 0.10011609 0.00000060
-0.73846513 -0.36080781 -0.00000110
-0.08381778 0.59843457 0.00068945
-0.13079035 -0.50026327 0.00000112
-0.34057572 0.08015864 0.08801292
-0.24532329 -0.74000490 0.00000022
-0.08499490 -0.51234651 0.00000108
-0.29284444 -0.51370656 0.00000107
-0.29423866 -0.35286599 0.00000168
-0.36052349 0.08028355 0.12951525
-0.45133758 -0.77866274 0.00000008
-0.30640286 -0.57856727 0.00000083
-0.63740671 -0.60997951 0.11076791
-0.27717173 -0.14768296 0.00000245
-0.33064798 0.44545802 0.00000291
-0.05220458 0.40766895 0.00000815
-0.12641399 -0.50828338 0.00000109
-0.70643371 -0.42256355 -0.00000072
-0.04734813 0.04764159 0.00001093
-0.30411753 0.19207646 0.10855679
-0.15139034 -0.66823626 0.00000049
-0.29207215 0.14708298 0.04488580
-0.48025364 -0.71997237 0.00000030
-0.34955290 0.01323376 0.04911583
-0.15220504 -0.44277072 0.00000134
-0.42622840 -0.04889099 0.15482989
-0.03970772 -0.38300633 0.00000156
-0.63223332 0.07738181 0.00000051
-0.03863182 0.07149038 0.00001088
-0.13993226 -0.73306203 0.00000025
-0.65554386 -0.63831550 0.12404886
-0.35011241 -0.05458883 0.00000280
-0.42330861 0.23394352 0.00000308
-0.12751530 0.58076364 0.00000557
-0.17826065 -0.28845897 0.00000192
-0.28628230 -0.66875505 0.00000049
-0.25901699 -0.19981022 0.00000225
-0.59082270 -0.64875966 0.00000057
-0.19477282 0.44375661 0.09798380
-0.29805544 -0.47572121 0.00000122
-0.15850671 -0.37335926 0.00000160
-0.57910812 -0.40199983 0.16856076
-0.03615191 -0.76047796 0.00000015
-0.01673186 0.14497773 0.00001066
-0.33081809 -0.33657622 0.00000174
-0.37066808 -0.39410168 0.00000152
-0.37466946 0.04763878 0.13081017
-0.12597197 -0.63583863 0.00000062
-0.03026565 -0.38394737 0.00000156
-0.44710076 -0.69303960 0.00000040
-0.50575924 -0.34007823 0.06957530
-0.45056078 0.16165248 0.00000322
-0.41030633 -0.03582759 0.13301785
-0.51319975 -0.73534137 0.00000024
-0.11355940 -0.12514107 0.00000253
-0.19424146 -0.32788590 0.00000177
-0.34880438 -0.72109294 0.00000030
-0.19147776 -0.04797679 0.00000282
-0.31128880 0.26434588 0.18555859
-0.00930895 -0.30877861 0.00000184
-0.38102320 -0.28762737 0.00000192
-0.00666286 0.05327776 0.00001150
-0.06027940 0.40519729 0.00000805
-0.00274035 0.73173475 0.00000647
-0.17034458 0.39707902 0.00716871
-0.04024249 -0.04010548 0.00000285
-0.02088195 0.15204273 0.00001054
-0.78421950 -0.36808124 -0.00000108
-0.13938802 -0.72235602 0.00000029
-0.44018671 -0.66026461 0.00000052
-0.15327889 -0.62473255 0.00000066
-0.11553600 -0.43078968 0.00000138
-0.06434138 0.47703925 0.00000745
-0.22905442 0.32797712 0.06960381
-0.56871790 -0.71803725 0.00000031
-0.10134589 0.45070899 0.00000709
-0.09549992 -0.09572095 0.00000264
-0.56796414 0.00369053 0.00000242
-0.60876656 -0.45083785 0.18812746
-0.51418078 -0.11715807 0.27866569
-0.13972872 -0.73480946 0.00000024
-0.30976027 0.16805200 0.09961580
-0.05617881 -0.43189070 0.00000138
-0.14455557 -0.58935851 0.00000079
-0.12830354 0.43253726 0.00000682
-0.43856677 -0.18482292 0.06359177
-0.01712200 -0.17260057 0.00000235
-0.11648499 0.55975920 0.03523534
-0.10231384 -0.52447838 0.00000103
-0.41077197 -0.00010967 0.16468595
-0.06161331 -0.16494021 0.00000238
-0.17278554 0.41357508 0.02641355
-0.16671447 -0.67855263 0.00000046
-0.30286968 -0.48863375 0.00000117
-0.13458943 0.55220461 0.06631139
-0.59352130 -0.30458230 0.28220710
-0.21559156 -0.60756946 0.00000072
-0.65689009 -0.16877428 -0.00000036
-0.42527333 0.31961960 0.00000225
-0.47742274 -0.07596990 0.23779055
-0.33984122 -0.63028097 0.00000064
-0.56588423 -0.37656817 0.16297914
-0.06252558 -0.13408695 0.00000250
-0.38446891 0.15525977 0.24365287
-0.50562531 -0.22263409 0.17024817
-0.12623578 -0.36251125 0.00000164
-0.34050876 0.35798883 0.00000353
-0.20552574 -0.06329714 0.00000276
-0.22143801 -0.46858928 0.00000124
-0.21069983 0.26382551 0.00000684
-0.53245056 -0.60943621 0.00000071
-0.54989576 -0.57697135 0.00000084
-0.57690370 -0.19805743 0.33928785
-0.60118163 -0.21324942 0.00000026
-0.63937211 -0.13937587 -0.00000019
-0.30873257 0.33170384 0.00000438
-0.18753344 -0.49621424 0.00000114
-0.13390325 -0.05129452 0.00000281
-0.03928866 -0.62136203 0.00000067
-0.25987992 -0.72337282 0.00000029
-0.18865854 0.36216527 0.01516258
-0.18175665 -0.30393943 0.00000186
-0.20702162 0.07411228 0.00000832
-0.10721403 -0.06729845 0.00000275
-0.01471695 -0.57632703 0.00000084
-0.38129410 -0.24084763 0.00000210
-0.11310447 0.67673516 0.00000496
-0.07376293 -0.57185960 0.00000086
-0.08473498 0.58836150 0.00000631
-0.19130529 -0.56274313 0.00000089
-0.36311474 0.20401442 0.24124721
-0.61162376 0.05539516 0.00000111
-0.24463876 -0.18728721 0.00000230
-0.38098100 0.19080181 0.26696554
-0.63132024 -0.43250260 0.25069022
-0.59657472 -0.72814649 0.00000027
-0.58996427 -0.31383032 0.26687637
-0.08513237 -0.35917595 0.00000165
-0.21467716 -0.73408884 0.00000025
-0.14050832 -0.48977706 0.00000116
-0.51952618 0.21701974 0.00000139
-0.53155005 -0.43290842 0.04330188
-0.45724532 -0.07891714 0.19338572
-0.22319727 0.44105819 0.00000502
-0.36395445 0.19148263 0.23221782
-0.38452408 -0.23674051 0.00000211
-0.35756582 -0.29601681 0.00000189
-0.30856186 0.12130565 0.05694738
-0.07914580 -0.17142203 0.00000236
-0.48087239 0.13833073 0.00000286
-0.48878828 0.00363281 0.32979962
-0.01433261 -0.58018976 0.00000082
-0.24140187 -0.21061322 0.00000221
-0.01861626 0.62107491 0.00000706
-0.49615377 0.23121646 0.00000171
-0.00358544 -0.27224791 0.00000198
-0.35737070 -0.39657688 0.00000151
-0.09715099 -0.24684969 0.00000207
-0.48860228 -0.64574367 0.00000058
-0.15159228 0.05029742 0.00000934
-0.50162727 0.17046092 0.00000216
-0.23494573 0.15102091 0.00000732
-0.51978636 -0.24219994 0.18281665
-0.57062644 0.15700185 0.00000096
-0.16844469 -0.30955780 0.00000184
-0.12705168 -0.11009824 0.00000259
-0.06384997 0.05752224 0.00001061
-0.78672355 -0.21775605 -0.00000146
-0.59483421 -0.26131392 0.32212350
-0.16425069 0.58926004 0.00000479
-0.52775133 -0.76556176 0.00000013
-0.52882701 -0.09429045 0.00000096
-0.55493456 -0.29354864 0.21161744
-0.62921047 -0.71709043 0.00169068
-0.43145293 0.13486971 0.00000384
-0.10321404 0.58736426 0.03142425
-0.63662785 -0.79919016 0.00000000
-0.34888878 -0.51109475 0.00000108
-0.55528957 -0.20028841 0.29251724
-0.61031508 -0.75893992 0.00000015
-0.58811951 -0.28802070 0.28523332
-0.53760302 -0.23248906 0.22813626
-0.37765697 0.17732124 0.24848020
-0.38522431 -0.57707739 0.00000084
-0.68456674 -0.24397789 -0.00000061
-0.15075526 -0.55778641 0.00000091
-0.48320162 -0.04743432 0.27431083
-0.08442904 0.11818573 0.00000984
-0.25494722 -0.63104624 0.00000063
-0.04533768 0.42394596 0.00000814
-0.47901535 -0.07185584 0.24463177
-0.16767089 -0.64309609 0.00000059
-0.65013874 -0.72016340 0.04247884
-0.10616299 0.33973882 0.00000785
-0.00850061 0.04885063 0.00001151
-0.54174060 -0.43396279 0.06354274
-0.57787210 -0.67896849 0.00000045
-0.01975065 -0.78656703 0.00000005
-0.41258803 -0.66573244 0.00000050
-0.48014030 0.28510633 0.00000152
-0.23451814 0.35006714 0.09992975
-0.29093009 -0.57501733 0.00000084
-0.08623130 0.50529873 0.00000691
-0.60186315 0.04283946 0.00000141
-0.44700065 -0.05574631 0.19204320
-0.33730456 -0.34238800 0.00000172
-0.13240194 -0.11954479 0.00000255
-0.48872271 -0.55326509 0.00000093
-0.16326892 -0.29549965 0.00000189
-0.22536011 -0.46572596 0.00000125
-0.23155290 -0.28172100 0.00000194
-0.33153987 -0.26919931 0.00000199
-0.35284272 0.13869596 0.16378561
-0.37316081 -0.76521719 0.00000013
-0.61325914 -0.67756599 0.00256275
-0.02059058 -0.45972356 0.00000128
-0.27977744 -0.76199740 0.00000014
-0.59115189 -0.64380449 0.00000059
-0.22457950 -0.23959506 0.00000210
-0.55957854 -0.46544185 0.07350112
-0.34820154 -0.19477335 0.00000227
-0.04887721 -0.39606568 0.00000151
-0.29921028 0.20274863 0.10754683
-0.36300173 0.43249276 0.00000241
-0.69519567 -0.68141574 0.16928513
-0.64875829 -0.54024065 0.19426921
-0.09596144 0.48155209 0.00000694
-0.15645789 0.29492843 0.00000743
-0.10032750 -0.35063174 0.00000169
-0.65300322 -0.59679621 0.15446506
-0.19798715 -0.12708753 0.00000252
-0.31453910 -0.71789956 0.00000031
-0.48922643 -0.30667189 0.06398190
-0.73183650 -0.32166603 -0.00000106
-0.09648426 -0.70325208 0.00000036
-0.47804821 0.02987756 0.33007124
-0.41935620 -0.07726726 0.11617775
-0.29772416 0.31532028 0.20122553
-0.30610451 -0.25802347 0.00000203
-0.26511672 -0.01705117 0.00000294
-0.20626011 0.44804135 0.00000528
-0.00546893 -0.25431380 0.00000205
-0.00007432 -0.30825767 0.00000184
-0.58738941 -0.27631682 0.29377842
-0.61678863 0.10437127 0.00000056
-0.04784506 0.72069842 0.03113379
-0.49526227 -0.29828203 0.08371887
-0.10053200 0.28808689 0.00000832
-0.69500399 -0.33219066 -0.00000066
-0.14476724 -0.16774166 0.00000237
-0.52497941 0.27032974 0.00000079
-0.07195565 -0.55811983 0.00000091
-0.16584630 -0.24113622 0.00000210
-0.67210215 -0.22790527 -0.00000048
-0.72649652 0.07317667 -0.00000126
-0.42377496 -0.41364107 0.00000145
-0.29665771 -0.31892201 0.00000180
-0.54736108 -0.35732052 0.14108516
-0.06495011 -0.48802966 0.00000117
-0.42575145 -0.33840778 0.00000173
-0.11053923 -0.29080033 0.00000191
-0.03287316 0.71890438 0.00000611
-0.15085343 -0.77404946 0.00000010
-0.35314673 -0.52380115 0.00000104
-0.30154890 0.01397306 0.00000735
-0.17004623 -0.01531476 0.00000294
-0.12217619 -0.02018815 0.00000292
-0.24675989 -0.30182102 0.00000187
-0.53063297 -0.27630895 0.17600618
-0.33222115 -0.50499165 0.00000111
-0.29701027 0.11395014 0.02665338
-0.28048828 0.46011758 0.00000374
-0.45328081 -0.46879688 0.00000124
-0.62561911 0.03273202 0.00000105
-0.17966571 -0.29204005 0.00000190
-0.54964656 -0.41987926 0.09205462
-0.11124523 0.25267810 0.00000843
-0.19355766 -0.00112899 0.00000300
-0.66321051 -0.65027559 0.12967785
-0.57353574 0.21202423 0.00000040
-0.47943422 -0.40863666 0.00000147
-0.12028525 -0.66006941 0.00000052
-0.31503880 -0.63262206 0.00000063
-0.64956862 -0.74854326 0.01690144
-0.33000779 -0.50122893 0.00000112
-0.50290769 -0.08537825 0.28258899
-0.77576011 -0.77169979 -0.00000007
-0.42491460 -0.21528716 0.00907526
-0.38970613 0.33491400 0.00000280
-0.45020205 -0.65813810 0.00000053
-0.35150817 0.16514327 0.18374935
-0.56400084 -0.17705140 0.33056840
-0.23099604 0.34782994 0.09069779
-0.30328217 0.30405608 0.00000474
-0.34685904 0.22648221 0.00000462
-0.40868971 0.03418503 0.18984348
-0.76936638 -0.49258608 -0.00000077
-0.48850965 -0.71007359 0.00000034
-0.40473261 0.11489995 0.00000453
-0.02336118 0.00735310 0.00001159
-0.47552332 0.27457073 0.00000170
-0.44697204 -0.76840550 0.00000012
-0.21390136 -0.21397866 0.00000220
-0.52018523 -0.20015261 0.21978679
-0.17741607 -0.28050160 0.00000195
-0.18773682 0.54824215 0.00000471
-0.48301867 -0.61988765 0.00000068
-0.58851236 -0.24944545 0.31920645
-0.31366792 -0.01365931 0.00000295
-0.11013813 -0.77916723 0.00000008
-0.55468482 -0.29645306 0.20860258
-0.02791861 -0.27340195 0.00000197
-0.40844366 -0.11987832 0.05690542
-0.42122203 -0.73203975 0.00000025
-0.41069418 0.00179647 0.16616298
-0.61076480 -0.49951121 0.15043618
-0.46649545 -0.45991993 0.00000128
-0.25165781 0.26574925 0.06302071
-0.31567031 0.29604065 0.22189464
-0.02141178 -0.27731621 0.00000196
-0.60321027 -0.38535607 0.23288313
-0.46243691 -0.61926252 0.00000068
-0.26093400 -0.19620651 0.00000226
-0.15575135 0.64222437 0.00000446
-0.29649931 -0.31663838 0.00000181
-0.45637459 0.02604712 0.00000436
-0.30310777 0.45046607 0.00000340
-0.27439111 -0.32928914 0.00000177
-0.04510542 0.70326841 0.01046637
-0.78420275 -0.43764573 -0.00000091
-0.48807114 -0.43408439 0.00000137
-0.01899569 0.42727566 0.00000851
-0.35731676 -0.63528240 0.00000062
-0.14544138 -0.58933890 0.00000079
-0.37650236 0.12454314 0.20071803
-0.46808043 -0.08642621 0.20941582
-0.32212114 -0.76847780 0.00000012
-0.46025306 0.26449218 0.00000209
-0.45402569 -0.79992414 0.00000000
-0.30961370 -0.04146443 0.00000284
-0.46506232 0.11333687 0.00000339
-0.60928518 -0.23465285 0.00000019
-0.20409884 -0.21067435 0.00000221
-0.48806289 -0.57905447 0.00000083
-0.50971037 -0.43233421 0.00000138
-0.07816755 0.17883125 0.00000948
-0.27842933 0.22240783 0.08132132
-0.42201740 -0.54655445 0.00000095
-0.27123520 -0.66602546 0.00000050
-0.42246434 0.00178006 0.19057395
-0.13509175 -0.76028323 0.00000015
-0.51316965 -0.05060096 0.00000109
-0.43827358 -0.77698839 0.00000009
-0.48860905 -0.23949964 0.12043963
-0.62171179 -0.67618054 0.02129435
-0.62157959 0.13762504 0.00000016
-0.77095258 -0.65418154 -0.00000036
-0.17955893 0.13142031 0.00000830
-0.22478300 -0.28023306 0.00000195
-0.59315723 -0.45470574 0.15241081
-0.28000066 -0.75429076 0.00000017
-0.07766669 -0.50901431 0.00000109
-0.79833549 -0.06683227 -0.00000183
-0.29435584 -0.78289765 0.00000006
-0.18625516 0.41713324 0.05742371
-0.40229416 0.05433438 0.19389127
-0.13058919 -0.35973290 0.00000165
-0.18171044 -0.70246983 0.00000037
-0.25987139 -0.25187552 0.00000206
-0.12245545 0.44047406 0.00000685
-0.11220258 0.45013008 0.00000693
-0.54625118 -0.74061680 0.00000022
-0.52580929 -0.10867692 0.00000100
-0.44570640 -0.67711365 0.00000046
-0.32126647 -0.18988357 0.00000229
-0.45108956 0.16987173 0.00000314
-0.51947379 0.24451892 0.00000114
-0.15733305 -0.10784935 0.00000260
-0.54341000 -0.40680110 0.09035427
-0.31443465 0.35214415 0.00000408
-0.25282288 -0.77274430 0.00000010
-0.27514505 0.24189653 0.09125768
-0.22335473 -0.79921716 0.00000000
-0.11723714 -0.16631265 0.00000238
-0.47829342 -0.74325788 0.00000021
-0.31583613 -0.50343508 0.00000111
-0.07966669 0.24457178 0.00000896
-0.45267969 -0.49888700 0.00000113
-0.08702701 -0.77678680 0.00000009
-0.06600232 -0.57040870 0.00000086
-0.46988797 -0.00364341 0.00000152
-0.63823342 -0.19438928 -0.00000014
-0.13422847 -0.18508615 0.00000231
-0.13632914 -0.79110140 0.00000003
-0.11690417 0.12118810 0.00000933
-0.39147156 -0.40385208 0.00000149
-0.46917990 -0.33955285 0.00000173
-0.59708065 -0.52881891 0.09684751
-0.14127934 -0.08243934 0.00000269
-0.30433181 -0.23238280 0.00000213
-0.00648605 0.09176746 0.00001121
-0.68321007 -0.25643662 -0.00000058
-0.70348144 0.07149422 -0.00000080
-0.13500161 -0.71317798 0.00000033
-0.14533830 -0.45396957 0.00000130
-0.22813784 -0.48956388 0.00000116
-0.46143630 -0.14362736 0.14646010
-0.77339888 -0.47179797 -0.00000082
-0.39768428 0.17121682 0.00000415
-0.36378431 -0.74846423 0.00000019
-0.36413345 -0.53245395 0.00000100
-0.02906206 0.11299184 0.00001071
-0.09347569 0.59982467 0.02192610
-0.44853756 -0.30538481 0.00000185
-0.35829958 -0.21134780 0.00000221
-0.62916809 -0.09539397 -0.00000011
-0.44285598 0.32377681 0.00000188
-0.43028349 -0.35880792 0.00000165
-0.48987299 -0.07735939 0.26243252
-0.64834654 -0.56972975 0.16806708
-0.18265505 0.42996439 0.06098211
-0.68076241 -0.37938854 -0.00000047
-0.22436631 -0.66965431 0.00000049
-0.09705175 -0.61458790 0.00000070
-0.41520774 -0.51833338 0.00000106
-0.43516123 0.06487090 0.27115273
-0.55005521 0.14923966 0.00000143
-0.33499545 -0.02015692 0.00000292
-0.31745291 -0.04263363 0.00000284
-0.34801024 -0.25477865 0.00000204
-0.25711542 0.02276166 0.00000795
-0.01234816 0.75579411 0.00000615
-0.14159957 0.47736746 0.01653118
-0.06047214 0.17652425 0.00000976
-0.52225190 -0.01576128 0.00000097
-0.16372591 0.10129302 0.00000877
-0.71691477 -0.08811007 -0.00000105
-0.32394376 -0.67547464 0.00000047
-0.08164378 -0.75184411 0.00000018
-0.13971637 -0.32513398 0.00000178
-0.44207188 0.25038561 0.00000257
-0.52035284 -0.37236878 0.07210356
-0.38894337 -0.21004599 0.00000221
-0.51707840 0.07845598 0.00000271
-0.13206202 0.16687620 0.00000876
-0.34928587 0.17187563 0.18492466
-0.14995237 0.52010697 0.07060202
-0.41137108 -0.38873702 0.00000154
-0.10078942 -0.27489212 0.00000197
-0.41206214 -0.56267148 0.00000089
-0.78136432 -0.11264545 -0.00000172
-0.77534896 -0.18276975 -0.00000154
-0.01335255 0.70180005 0.00000653
-0.02123951 0.74873817 0.00002486
-0.38228899 0.06840331 0.16447040
-0.29665551 -0.06332461 0.00000276
-0.21931119 0.16320606 0.00000747
-0.04213974 -0.65887445 0.00000053
-0.16071628 -0.36613017 0.00000163
-0.21568809 -0.51558942 0.00000107
-0.43921754 -0.40486425 0.00000148
-0.03579491 -0.50968325 0.00000109
-0.00069049 -0.43404025 0.00000137
-0.21396945 -0.04368802 0.00000284
-0.29016498 -0.19627602 0.00000226
-0.56527382 -0.32281506 0.20791672
-0.49223253 -0.27535665 0.09713749
-0.11961267 0.46994478 0.00000667
-0.19942144 -0.65740520 0.00000053
-0.12942907 -0.21045765 0.00000221
-0.08184081 -0.78976750 0.00000004
-0.09846050 -0.34161323 0.00000172
-0.35780495 0.14714569 0.18134615
-0.39576235 -0.65100735 0.00000056
-0.18537062 -0.70480502 0.00000036
-0.33626729 -0.63565248 0.00000062
-0.69844866 -0.31013146 -0.00000071
-0.27839294 -0.18589360 0.00000230
-0.07521725 -0.56960642 0.00000086
-0.14143650 -0.65636456 0.00000054
-0.23940027 -0.56123060 0.00000090
-0.41870844 -0.10403688 0.09182330
-0.21065244 -0.49760565 0.00000113
-0.24487378 -0.24415202 0.00000208
-0.48644674 -0.22989084 0.12421186
-0.22248279 0.41491988 0.13069949
-0.33088696 -0.00343794 0.00000299
-0.59367943 -0.57536030 0.04978404
-0.15166442 0.11280699 0.00000887
-0.28263223 -0.66627640 0.00000050
-0.67146528 -0.77108949 0.04296053
-0.50120813 0.13760345 0.00000247
-0.00743764 -0.35882229 0.00000165
-0.11991123 -0.54841161 0.00000094
-0.06668587 -0.28873137 0.00000192
-0.19083287 -0.18628153 0.00000230
-0.65969300 -0.70548064 0.07492620
-0.37877616 -0.56976408 0.00000086
-0.18966793 -0.08962403 0.00000266
-0.33498147 0.19524230 0.17532580
-0.51832145 -0.37138921 0.06873015
-0.25306645 -0.56425416 0.00000088
-0.17913164 -0.57164478 0.00000086
-0.23772405 -0.75534278 0.00000017
-0.30319101 -0.64907330 0.00000057
-0.59305638 -0.62444586 0.00629898
-0.16484366 0.58527786 0.00000481
-0.65437800 -0.62486184 0.13319370
-0.01162818 -0.38714382 0.00000155
-0.20632707 -0.32569808 0.00000178
-0.03022133 0.76056588 0.00000578
-0.20627739 -0.34846830 0.00000169
-0.24193084 0.29402950 0.06714435
-0.20240638 -0.43740052 0.00000136
-0.24664234 -0.69598293 0.00000039
-0.69125807 -0.75520962 0.09768345
-0.17791782 0.04764937 0.00000896
-0.48281041 0.08191143 0.00000334
-0.30677697 0.30708584 0.00000465
-0.36797193 -0.46436933 0.00000126
-0.03412096 -0.33678541 0.00000174
-0.55037487 -0.38192183 0.12619278
-0.22131620 -0.55955446 0.00000090
-0.46248493 0.05528980 0.00000397
-0.60407597 -0.75293958 0.00000018
-0.22536653 -0.75226003 0.00000018
-0.27120957 0.26004317 0.09868907
-0.73441452 -0.67633653 -0.00000031
-0.04712983 -0.21850990 0.00000218
-0.66828924 -0.58849239 0.19332360
-0.59776253 -0.44842663 0.16736491
-0.38558090 0.28793430 0.00000331
-0.46572572 0.10589295 0.00000344
-0.37327665 -0.21389662 0.00000220
-0.00817355 0.69034547 0.00000670
-0.72469586 -0.24201503 -0.00000103
-0.19973268 -0.76474679 0.00000013
-0.13029547 0.21803778 0.00000840
-0.33632034 -0.59552288 0.00000077
-0.01892135 -0.79825401 0.00000001
-0.77581823 -0.55425268 -0.00000061
-0.12779395 -0.27874351 0.00000195
-0.36800694 0.20233677 0.24995726
-0.23003854 0.24811031 0.00299533
-0.43497759 0.04519679 0.00000459
-0.04828677 0.59431750 0.00000681
-0.50784087 -0.49206570 0.00000115
-0.45981517 -0.00172602 0.00000163
-0.33708397 -0.24759392 0.00000207
-0.09504543 0.59846723 0.02401676
-0.53350085 -0.38257831 0.09061210
-0.14209150 0.10824197 0.00000904
-0.19483781 0.24722666 0.00000721
-0.62160760 -0.56516719 0.11650123
-0.55135208 -0.10325523 0.00000072
-0.40600055 -0.33216906 0.00000175
-0.31602782 0.27345237 0.20322046
-0.72790319 -0.00480152 -0.00000123
-0.00058300 -0.49906057 0.00000113
-0.47933596 0.11590037 0.00000309
-0.47352615 -0.71677142 0.00000031
-0.78525054 -0.03933016 -0.00000182
-0.03881262 0.61116260 0.00000683
-0.36738613 -0.43809387 0.00000136
-0.46710894 -0.43146196 0.00000138
-0.67515683 -0.26593894 -0.00000049
-0.33799005 0.23224512 0.21337543
-0.31001562 0.30396122 0.00000461
-0.16852291 -0.68124586 0.00000045
-0.27913237 0.36996004 0.00000460
-0.05090063 0.69279265 0.01348777
-0.20218258 -0.12988418 0.00000251
-0.24798031 -0.75551027 0.00000017
-0.52934951 -0.26610801 0.18211114
-0.27775687 -0.09394362 0.00000265
-0.27465385 -0.57643443 0.00000084
-0.20206447 -0.17498232 0.00000234
-0.27037480 -0.41672444 0.00000144
-0.66222352 -0.58503139 0.18371119
-0.45718718 0.24729966 0.00000231
-0.77125096 -0.58714724 -0.00000053
-0.68406481 -0.39467171 -0.00000050
-0.41214663 -0.02830792 0.14330040
-0.58025616 -0.39134267 0.18010364
-0.13978393 -0.73428059 0.00000025
-0.08531234 -0.42676479 0.00000140
-0.33946642 -0.26613799 0.00000200
-0.56137425 -0.78733444 0.00000005
-0.74741220 -0.16457044 -0.00000133
-0.43967190 -0.04221460 0.18846619
-0.74256527 -0.23033333 -0.00000123
-0.15299092 -0.71395636 0.00000032
-0.38277695 0.19302300 0.00000424
-0.61055374 -0.03840789 0.00000005
-0.02983371 0.15175401 0.00001041
-0.30629784 0.21340147 0.13141146
-0.32052979 -0.77763921 0.00000008
-0.55585003 -0.69155145 0.00000041
-0.03290103 -0.43163365 0.00000138
-0.03303370 0.51920152 0.00000761
-0.41324365 0.26054928 0.00000303
-0.49418864 0.05052591 0.00000341
-0.43182769 -0.74621791 0.00000020
-0.60632110 -0.00855131 0.00000007
-0.28507924 -0.46878287 0.00000124
-0.19047461 -0.30796808 0.00000185
-0.29459566 -0.77806205 0.00000008
-0.43025285 -0.76339287 0.00000014
-0.26847139 -0.04942403 0.00000281
-0.40133432 0.21539469 0.00000367
-0.06161530 -0.71602374 0.00000031
-0.59413409 0.20566002 0.00000006
-0.02809462 -0.62786257 0.00000065
-0.78769338 -0.15783557 -0.00000161
-0.74690092 -0.41555330 -0.00000096
-0.61442792 -0.54246879 0.12111303
-0.39819351 0.35204211 0.00000248
-0.04424311 -0.27127901 0.00000198
-0.79620343 -0.78355777 -0.00000004
-0.64446914 0.07954391 0.00000025
-0.31128916 -0.07458616 0.00000272
-0.15148588 -0.53809547 0.00000098
-0.42608652 -0.05224708 0.15165070
-0.53876024 -0.13722438 0.31242380
-0.72924632 -0.03101601 -0.00000122
-0.48350751 -0.34827730 0.01635164
-0.45345715 0.03169083 0.28059933
-0.39224339 -0.65374786 0.00000055
-0.15857463 -0.51428092 0.00000107
-0.12630834 0.45234889 0.00000670
-0.57869977 0.16503713 0.00000073
-0.08223350 0.62814718 0.02294174
-0.36521754 -0.13402574 0.00000250
-0.64572376 -0.76478893 0.00000013
-0.41708073 -0.03493658 0.14784172
-0.43350020 0.10453958 0.30180359
-0.05276304 -0.55698597 0.00000091
-0.38142291 -0.25838494 0.00000203
-0.35690057 0.08067688 0.12233520
-0.42602113 -0.37977633 0.00000158
-0.75351024 -0.57097381 -0.00000057
-0.13553974 -0.69609231 0.00000039
-0.54546994 -0.26042154 0.22045165
-0.22241023 -0.48090544 0.00000120
-0.19350626 -0.33969530 0.00000173
-0.44892812 -0.61908108 0.00000068
-0.19646478 -0.16068269 0.00000240
-0.27543035 -0.75431550 0.00000017
-0.15644614 -0.71421075 0.00000032
-0.08818164 -0.08856219 0.00000267
-0.27965674 -0.66572630 0.00000050
-0.27094215 0.25295413 0.09204064
-0.21426764 -0.47468603 0.00000122
-0.52794772 -0.75805444 0.00000016
-0.03682112 -0.46614558 0.00000125
-0.47410390 -0.02380210 0.27574500
-0.40394422 0.23160844 0.00000347
-0.36896998 -0.03960898 0.04398770
-0.66767746 -0.34931517 -0.00000035
-0.64273918 -0.74725962 0.00383260
-0.44204497 -0.53547221 0.00000099
-0.42905295 -0.35160542 0.00000168
-0.39171931 -0.50121343 0.00000112
-0.64588231 -0.68042767 0.06780152
-0.50918782 -0.19987489 0.19720396
-0.64557672 -0.77487767 0.00000009
-0.21362093 -0.66981953 0.00000049
-0.44408146 -0.29720667 0.00000189
-0.49944314 -0.56524199 0.00000088
-0.47438815 -0.26441118 0.06951583
-0.52745140 0.26800382 0.00000073
-0.05951193 -0.69269568 0.00000040
-0.05891714 -0.14729409 0.00000245
-0.43692696 -0.62855548 0.00000064
-0.01684352 0.23810412 0.00000996
-0.40844989 -0.69152373 0.00000041
-0.65865356 -0.72570527 0.05538482
-0.00169859 -0.53649104 0.00000099
-0.60357034 -0.50186658 0.13348201
-0.00979502 0.78555632 0.00000594
-0.38150024 0.22856100 0.00000393
-0.15039857 0.06001182 0.00000928
-0.44407633 -0.59959435 0.00000075
-0.71506155 -0.10356613 -0.00000102
-0.12690297 -0.39553776 0.00000152
-0.07832348 0.32754239 0.00000836
-0.09605358 -0.47430101 0.00000122
-0.40547198 -0.62065035 0.00000067
-0.30390915 -0.66462404 0.00000051
-0.52067387 -0.06533153 0.33668822
-0.47141653 0.10785462 0.00000332
-0.44485632 0.20301653 0.00000295
-0.23586893 -0.63189721 0.00000063
-0.45034626 -0.72124213 0.00000030
-0.26543695 -0.72644681 0.00000028
-0.00101472 -0.38576213 0.00000155
-0.54360300 -0.30319434 0.17981142
-0.02912067 -0.26080689 0.00000202
-0.41869140 0.20687817 0.00000342
-0.64939064 0.04524151 0.00000048
-0.47062734 -0.26806286 0.05857267
-0.42085558 -0.36797509 0.00000162
-0.25167990 -0.43326980 0.00000138
-0.74218529 -0.02687474 -0.00000137
-0.63761556 -0.74149549 0.00000022
-0.54740620 -0.22876532 0.25168025
-0.48667240 -0.33695522 0.03265134
-0.00054170 -0.73049527 0.00000026
-0.40240765 -0.22844033 0.00000214
-0.13893491 -0.64706051 0.00000057
-0.29530895 -0.05839765 0.00000278
-0.31469867 -0.66035807 0.00000052
-0.14102402 -0.04116732 0.00000285
-0.42038247 -0.25929517 0.00000203
-0.12878577 0.06676346 0.00000956
-0.66334236 -0.74471766 0.04877249
-0.36407971 0.37346354 0.00000293
-0.18090896 0.37147954 0.00708719
-0.58062410 -0.39882228 0.17443791
-0.33434814 -0.70085692 0.00000037
-0.25467387 -0.74115819 0.00000022
-0.43956015 -0.43414205 0.00000137
-0.59149545 0.16477530 0.00000049
-0.56784981 -0.57751238 0.00000083
-0.06628561 0.26636410 0.00000900
-0.21603832 -0.66983932 0.00000049
-0.20886765 0.51244360 0.00000464
-0.28032506 -0.77284950 0.00000010
-0.18637984 -0.65867299 0.00000053
-0.65143603 -0.12632389 -0.00000033
-0.45739979 -0.05613019 0.21329312
-0.29908150 -0.03205010 0.00000288
-0.47153139 -0.36125869 0.00000165
-0.33894467 -0.36079341 0.00000165
-0.49066755 -0.51705056 0.00000106
-0.17750697 -0.56230402 0.00000089
-0.25780970 -0.42664361 0.00000140
-0.11946787 0.55711937 0.03915618
-0.22434692 -0.76313281 0.00000014
-0.26636550 0.23969716 0.07114816
-0.01106140 -0.62295341 0.00000066
-0.34531075 -0.21204902 0.00000220
-0.06906286 -0.12927756 0.00000252
-0.26781151 -0.39170659 0.00000153
-0.41380945 -0.44194466 0.00000134
-0.58039570 -0.20731680 0.33857530
-0.39676258 0.20382532 0.00000387
-0.37153077 -0.64709765 0.00000057
-0.50146931 -0.03304164 0.00000121
-0.04628865 -0.57766092 0.00000083
-0.51314092 0.03499907 0.00000319
-0.07598633 -0.47011757 0.00000124
-0.46833488 -0.05299728 0.23867817
-0.04589977 -0.29855350 0.00000188
-0.62274092 -0.14627686 -0.00000001
-0.49452782 -0.56232631 0.00000089
-0.22834975 0.25573468 0.00604445
-0.08882584 0.37249225 0.00000787
-0.45938542 -0.15994102 0.12818152
-0.20898829 0.14158244 0.00000778
-0.07393582 -0.12493548 0.00000253
-0.36677042 -0.50967401 0.00000109
-0.21970508 0.43801630 0.00000511
-0.09517652 -0.65565759 0.00000054
-0.20652530 0.35207924 0.04356948
-0.09691753 0.34212995 0.00000797
-0.25890973 0.24168354 0.05738360
-0.73979270 -0.52625549 -0.00000068
-0.07242412 -0.73602515 0.00000024
-0.22305205 0.32479784 0.05441513
-0.37848955 0.15970263 0.23506361
-0.07726312 -0.54668301 0.00000095
-0.11710652 -0.31460693 0.00000182
-0.60124999 -0.17722091 0.00000024
-0.70879024 0.01116546 -0.00000035
-0.53909165 -0.60516351 0.00000073
-0.10531782 0.02284422 0.00001024
-0.71872407 -0.05484616 -0.00000110
-0.18592790 0.58766723 0.00000438
-0.71488202 -0.02185640 -0.00000108
-0.17974338 -0.34780082 0.00000170
-0.62216187 -0.78332508 0.00000006
-0.20769419 0.12181746 0.00000795
-0.35267010 -0.49585170 0.00000114
-0.10422115 -0.76010740 0.00000015
-0.69577646 -0.69031906 0.16283748
-0.32150328 -0.59144646 0.00000078
-0.11896817 -0.41185644 0.00000146
-0.41080251 -0.61748111 0.00000068
-0.23819800 -0.01524277 0.00000294
-0.25767446 -0.39978763 0.00000150
-0.08942765 -0.54784042 0.00000095
-0.30837974 -0.22491862 0.00000216
-0.11564764 -0.62549996 0.00000065
-0.08578922 -0.02473034 0.00000291
-0.16075306 -0.21018557 0.00000221
-0.33344629 -0.73748606 0.00000023
-0.47517827 0.13947693 0.00000295
-0.45072129 -0.59772164 0.00000076
-0.43516451 0.29720688 0.00000227
-0.12218439 0.06150594 0.00000970
-0.56547350 0.21031363 0.00000057
-0.24926877 -0.77530384 0.00000009
-0.43558988 -0.70492077 0.00000036
-0.36998591 -0.36189836 0.00000164
-0.25297093 -0.59259039 0.00000078
-0.68101102 -0.12572229 -0.00000065
-0.51307887 -0.26719803 0.14740998
-0.28051281 0.43544331 0.00000397
-0.75525898 -0.36783183 -0.00000108
-0.10636125 -0.02979514 0.00000289
-0.18971971 -0.60446399 0.00000073
-0.14091113 -0.43325147 0.00000138
-0.41273823 -0.28366062 0.00000194
-0.64965451 -0.57176483 0.16903202
-0.47250763 0.03166393 0.32010913
-0.68982095 -0.51620430 -0.00000048
-0.53567421 -0.11032693 0.32913986
-0.69539946 -0.27059886 -0.00000070
-0.52857441 -0.79460067 0.00000002
-0.51187807 -0.49490672 0.00000114
-0.07449741 -0.18598916 0.00000230
-0.03224555 0.75961620 0.00000568
-0.32889381 0.20945638 0.17491081
-0.16998795 0.27999929 0.00000734
-0.10090118 -0.43484873 0.00000137
-0.42828837 -0.24466109 0.00000208
-0.61180872 -0.78320688 0.00000006
-0.25307202 -0.70440930 0.00000036
-0.42753831 -0.13423450 0.08418992
-0.14899866 0.42126089 0.00000659
-0.00879709 -0.71245354 0.00000033
-0.35107908 0.22568396 0.00000454
-0.18906201 -0.28814331 0.00000192
-0.43692011 0.08421635 0.00000420
-0.09807919 -0.67361224 0.00000047
-0.23773013 -0.03418464 0.00000287
-0.56850922 -0.38355651 0.16241947
-0.36805326 0.00889416 0.08377697
-0.13705435 -0.77217346 0.00000010
-0.04569255 -0.70564914 0.00000035
-0.48995212 0.10298002 0.00000301
-0.28239965 0.27657929 0.13612422
-0.42972714 0.12510854 0.00000396
-0.43534824 -0.00421808 0.21215436
-0.63016850 -0.77963454 0.00000008
-0.56628644 -0.17907263 0.33357400
-0.44568393 0.09040881 0.00000397
-0.05772687 -0.65721369 0.00000054
-0.43461439 -0.45592996 0.00000129
-0.00712691 -0.16720952 0.00000237
-0.48949650 -0.00409538 0.32462642
-0.14603269 -0.26687327 0.00000200
-0.09956113 -0.05583826 0.00000279
-0.62670785 -0.50568891 0.17821047
-0.00498192 -0.66170269 0.00000052
-0.16121659 0.49093333 0.06890048
-0.33416751 0.40166384 0.00000325
-0.10123307 0.69348198 0.00000504
-0.03946964 -0.67348295 0.00000047
-0.67272043 -0.43398935 -0.00000035
-0.56330860 -0.20532905 0.30482531
-0.43145698 -0.62769365 0.00000065
-0.20750049 0.21716028 0.00000724
-0.70068228 -0.10267975 -0.00000087
-0.47628412 0.13101988 0.00000301
-0.32071412 -0.77753341 0.00000008
-0.06291419 -0.05904463 0.00000278
-0.60599363 -0.68497431 0.00000043
-0.28760514 -0.00984888 0.00000296
-0.13025253 -0.51293963 0.00000108
-0.06298298 -0.73724639 0.00000024
-0.73514801 -0.02308651 -0.00000129
-0.00941265 0.77184021 0.00000607
-0.53701299 -0.14925250 0.29845908
-0.29744565 -0.18408068 0.00000231
-0.01194503 0.58009088 0.00000747
-0.54064602 -0.15811270 0.29838222
-0.07096899 -0.52381617 0.00000104
-0.47905353 -0.03447843 0.27683929
-0.31192654 -0.16610099 0.00000238
-0.48080698 -0.68637019 0.00000043
-0.25495955 0.30439088 0.10308734
-0.27163374 0.20454802 0.05186764
-0.11906268 0.16473132 0.00000897
-0.78524399 -0.49655703 -0.00000076
-0.04434806 0.12304020 0.00001041
-0.00267391 -0.50709587 0.00000110
-0.32704455 0.19523209 0.15884663
-0.44617850 -0.72555524 0.00000028
-0.30835378 -0.68592972 0.00000043
-0.46180320 -0.20950656 0.09059407
-0.08206332 0.38075840 0.00000791
-0.00492688 -0.00839253 0.00000297
-0.27037337 0.08037353 0.00000732
-0.01975578 -0.63260061 0.00000063
-0.24370900 0.45257512 0.00000452
-0.24037553 -0.26013434 0.00000202
-0.75526512 -0.17926657 -0.00000140
-0.77608764 -0.28188232 -0.00000130
-0.51534587 -0.49867520 0.00000113
-0.76763862 -0.76672822 -0.00000008
-0.52834201 -0.31012765 0.14218269
-0.30254060 0.23531929 0.14245437
-0.08709522 -0.12216863 0.00000254
-0.41422617 -0.18771891 0.01059171
-0.25514171 -0.51936901 0.00000105
-0.22183137 0.28383496 0.01667174
-0.65024018 -0.16244154 -0.00000029
-0.74966466 -0.35136396 -0.00000112
-0.45507097 0.00190968 0.00000461
-0.03485403 -0.09369066 0.00000265
-0.15085083 0.30799818 0.00000741
-0.69597799 -0.19290075 -0.00000076
-0.19736817 -0.56487155 0.00000088
