ply
format ascii 1.0
element vertex 1371
property float x
property float y
property float z
end_header
-0.37606132 0.25074729 -0.00000050
-0.72980672 -0.39710775 -0.00000000
-0.02624100 -0.43232158 -0.00000023
0.66305566 -0.27820966 -0.00000056
0.33483070 -0.21040867 -0.00000037
0.30115321 -0.49688381 -0.00000019
0.67414695 -0.35414213 -0.00000049
-0.21482752 -0.33432165 -0.00000029
0.43822739 0.14382643 0.22010182
0.78325808 -0.70354646 -0.00000012
-0.68628085 -0.75504279 0.00000000
-0.69147491 0.62784368 -0.00000014
0.01458235 0.39710483 -0.00000075
-0.62657809 0.40580672 -0.00000022
0.36368158 0.40285003 0.03379773
-0.15010580 0.42478120 -0.00000077
0.38949120 0.31712195 0.09430937
-0.58093959 0.24850550 -0.00000027
-0.38278893 -0.28911844 -0.00000032
-0.25004691 0.68162847 -0.00000069
0.22860800 0.28460649 0.28962079
0.48069888 -0.49614945 -0.00000019
-0.28357911 -0.11550492 -0.00000043
0.15029654 0.06448486 -0.00000054
-0.77325606 -0.10251449 -0.00000001
-0.34929425 0.74237466 -0.00000056
-0.73169643 -0.70723468 0.00000000
0.16583668 0.58794564 0.04667325
0.11267891 0.66436583 0.02318054
0.28650600 0.33620310 0.17904405
0.31292814 0.41483232 0.07295272
-0.39825472 0.50237274 -0.00000050
-0.32497638 -0.57974410 -0.00000014
0.03580166 -0.56689441 -0.00000015
-0.78576094 -0.61213750 0.00000000
0.17918915 -0.75979573 -0.00000003
-0.65979612 -0.40482542 -0.00000008
-0.14699449 -0.21807690 -0.00000036
0.77733582 -0.52321094 -0.00000035
-0.36194018 -0.79294139 -0.00000000
0.24003632 -0.39518499 -0.00000025
0.26455355 -0.39859208 -0.00000025
0.56929737 -0.43583855 -0.00000029
0.08318687 -0.21039568 -0.00000037
0.46710774 -0.24365035 -0.00000038
-0.18147004 -0.08909848 -0.00000044
0.58965939 0.06712238 0.14463405
-0.44964707 -0.54892629 -0.00000016
0.56641871 -0.19672455 -0.00000054
-0.69947720 -0.77743655 0.00000000
-0.11996465 -0.58616501 -0.00000013
-0.75903225 -0.38994113 0.00000000
0.15810168 0.27139539 0.37416536
-0.21632230 -0.78808069 -0.00000001
0.34234563 -0.72103107 -0.00000005
-0.25080606 0.52050501 -0.00000068
-0.33980885 -0.31169876 -0.00000031
-0.70764333 0.00778098 -0.00000010
0.70221680 0.06393660 0.03417968
-0.54221982 0.64766771 -0.00000032
0.18221301 0.28017938 0.34094498
-0.13254213 -0.26178744 -0.00000034
0.01614743 0.76553524 0.01849657
-0.62272036 -0.53372639 -0.00000009
0.25327885 -0.25769687 -0.00000034
0.25777376 -0.22930537 -0.00000036
0.62205482 -0.73733377 -0.00000004
-0.61434299 -0.39011973 -0.00000013
-0.38430303 0.39984035 -0.00000052
-0.33971447 0.07022924 -0.00000050
0.21289043 -0.38476634 -0.00000026
-0.57262319 -0.73287511 -0.00000004
0.16463389 -0.44345236 -0.00000022
-0.70533156 -0.45899850 -0.00000002
0.09330770 0.45820099 0.25094685
-0.23469833 0.23765080 -0.00000065
-0.63602281 0.12998413 -0.00000020
-0.57606584 0.37668172 -0.00000028
0.49108022 -0.48817232 -0.00000019
0.65282792 -0.58945721 -0.00000021
0.63714767 -0.27609390 -0.00000053
0.65302056 -0.31845242 -0.00000050
0.17735200 -0.18138792 -0.00000039
-0.13614176 0.53887987 -0.00000081
-0.15039404 0.41197410 -0.00000076
0.28694317 -0.38911733 -0.00000026
-0.20710769 -0.56228459 -0.00000015
0.63451445 0.08798448 0.07826633
-0.56140631 0.08581090 -0.00000027
-0.17108439 0.22787631 -0.00000064
0.12528139 -0.25201324 -0.00000034
-0.03846655 0.77237183 -0.00000095
-0.12609383 -0.79774660 -0.00000000
0.59144157 -0.40316316 -0.00000035
0.11738096 -0.21342301 -0.00000037
-0.22368710 -0.62576979 -0.00000011
-0.34534609 0.08171244 -0.00000050
0.44515398 -0.18379517 -0.00000043
-0.62091285 -0.07849493 -0.00000018
-0.04930581 -0.08126296 -0.00000045
0.39712235 0.25318635 0.15117122
-0.58316344 -0.65830410 -0.00000009
0.20448916 0.52425957 0.07195468
0.32213363 -0.09938912 -0.00000044
0.21290608 -0.46679309 -0.00000021
0.36416581 -0.22622451 -0.00000036
0.22875936 0.49722007 0.07475135
-0.16212073 -0.15451893 -0.00000040
-0.58939940 0.67858559 -0.00000026
-0.75136346 0.53719664 -0.00000006
0.38620439 -0.52058756 -0.00000017
0.05421869 0.26024738 -0.00000066
-0.35922116 -0.47820735 -0.00000020
-0.21670230 -0.34986147 -0.00000028
0.46976325 -0.72533315 -0.00000005
0.77633655 -0.35865390 -0.00000055
0.40125811 0.12929142 0.27211577
-0.27148923 -0.12999353 -0.00000042
-0.16628903 0.74968451 -0.00000079
0.46773064 -0.24727377 -0.00000038
-0.48527405 0.55040681 -0.00000039
-0.23273870 -0.38287124 -0.00000026
-0.71835274 -0.54203981 0.00000000
0.30747733 0.31980264 0.17442796
-0.26215130 -0.43429747 -0.00000023
-0.66950077 0.46284935 -0.00000016
-0.49675733 0.03247427 -0.00000033
-0.77568299 -0.53937078 0.00000000
0.24791510 -0.19119102 -0.00000038
-0.56711745 -0.34090617 -0.00000019
0.78389502 -0.24553654 -0.00000069
-0.04434514 -0.46544313 -0.00000021
-0.59038931 0.55652851 -0.00000026
-0.74141771 0.59838891 -0.00000007
-0.37584695 0.58241940 -0.00000053
-0.18066335 -0.16687173 -0.00000040
-0.67161965 -0.31988138 -0.00000008
-0.47257355 -0.34156084 -0.00000029
0.40568614 -0.45039573 -0.00000022
-0.51258570 -0.33252323 -0.00000025
-0.02987356 -0.57976711 -0.00000014
0.14293873 0.41861910 0.24079879
-0.43152979 0.78042018 -0.00000046
-0.23856315 0.19873247 -0.00000062
-0.22285554 0.16864984 -0.00000061
0.72154021 -0.03042077 -0.00000088
0.27746597 -0.76523966 -0.00000002
-0.25520813 0.09778369 -0.00000056
0.75642049 -0.58280897 -0.00000027
0.16315293 -0.33866957 -0.00000029
0.22519927 -0.48420548 -0.00000020
0.76603597 -0.78443998 -0.00000002
0.19187067 -0.56081849 -0.00000015
0.01189434 -0.31478468 -0.00000030
0.29995173 0.43392301 0.06677789
0.61074460 0.17613254 0.01325079
0.11665464 0.39906955 0.28708538
0.00516638 -0.64032233 -0.00000010
-0.57684350 0.36756632 -0.00000028
-0.62798685 0.14470631 -0.00000021
0.14443669 0.37288785 0.28546944
-0.20101526 -0.75581640 -0.00000003
-0.16493456 -0.40447187 -0.00000025
-0.21478859 -0.02911911 -0.00000048
0.25631720 -0.49695644 -0.00000019
0.11260789 -0.68692172 -0.00000007
-0.51345456 -0.69200504 -0.00000007
-0.38311777 0.05580927 -0.00000046
-0.45874631 -0.06202329 -0.00000035
-0.28233308 -0.00044197 -0.00000050
-0.37730062 0.53842556 -0.00000053
-0.71956760 -0.24521516 -0.00000004
-0.43728644 -0.14686735 -0.00000036
0.45566770 0.12091086 0.22563131
-0.49111521 0.48725045 -0.00000039
0.74859363 -0.14426202 -0.00000079
0.09331664 0.51613265 0.19243345
-0.64732397 -0.44869959 -0.00000008
0.60727978 -0.44674957 -0.00000032
-0.59485239 -0.42356202 -0.00000014
-0.20411311 0.17889024 -0.00000061
-0.09955078 -0.36482728 -0.00000027
0.05539137 -0.01590475 -0.00000049
0.14616852 -0.41591260 -0.00000024
0.44142216 -0.68455219 -0.00000007
0.46642321 -0.50443792 -0.00000018
-0.40114015 -0.12509668 -0.00000040
0.36257565 0.23707573 0.20233005
-0.65405935 -0.62082273 -0.00000004
-0.28455901 0.46371457 -0.00000063
-0.62391764 -0.18564065 -0.00000015
-0.22693747 -0.39180383 -0.00000026
0.55531007 -0.73100036 -0.00000004
-0.65557152 0.74997932 -0.00000018
0.38501391 0.24229656 0.17439714
-0.79997194 0.37181333 -0.00000000
-0.41813838 0.69232285 -0.00000048
0.14491002 0.33171853 0.32656774
-0.46025825 -0.11223423 -0.00000034
0.01653183 0.53197110 -0.00000083
0.05267675 0.02594451 -0.00000052
0.31258103 0.31559193 0.17352611
-0.68764496 0.28088239 -0.00000014
-0.15965959 -0.64503068 -0.00000010
-0.52139747 0.04608644 -0.00000031
-0.31416583 -0.17468479 -0.00000039
-0.56725526 -0.73231453 -0.00000004
0.58208519 -0.55463123 -0.00000018
0.11502983 0.63342500 0.05205346
-0.23703466 -0.19919719 -0.00000038
-0.31158036 0.05159595 -0.00000053
-0.18398450 -0.72065747 -0.00000005
0.08548393 -0.05609995 -0.00000046
0.20727800 -0.32778859 -0.00000030
0.01127189 -0.49975413 -0.00000019
0.16291268 0.54798126 0.08998618
0.45260459 0.32973590 0.01783231
0.03157330 0.45469826 -0.00000078
-0.54654020 -0.72917587 -0.00000004
0.34169504 -0.17779306 -0.00000039
-0.32829303 0.17060316 -0.00000053
-0.54338360 -0.37764344 -0.00000020
-0.75014639 -0.13993122 -0.00000003
-0.64769220 -0.45056111 -0.00000008
0.63252157 -0.70663416 -0.00000007
0.37905404 -0.64516580 -0.00000010
-0.64803731 -0.33340642 -0.00000010
-0.27387697 0.76132655 -0.00000066
-0.23080871 0.00112407 -0.00000050
0.18951696 -0.20380779 -0.00000037
-0.24804743 0.06641828 -0.00000054
-0.66745842 0.42860910 -0.00000017
-0.43789294 0.67157739 -0.00000045
-0.01253916 0.21056928 -0.00000063
0.49113125 -0.18432900 -0.00000047
-0.77056593 -0.40404084 0.00000000
0.13467872 0.52871794 0.13795304
-0.44689569 -0.45256317 -0.00000022
0.12883343 -0.54311901 -0.00000016
-0.78118712 0.75324190 -0.00000002
-0.21895213 0.78139871 -0.00000073
-0.79890788 -0.17524940 0.00000000
-0.36039600 0.00934708 -0.00000047
0.45707297 0.23316260 0.11084910
0.36899942 -0.69797480 -0.00000006
-0.55229837 -0.64016938 -0.00000010
0.45711008 0.34132755 0.00157584
0.51127452 -0.63036263 -0.00000011
0.55846834 0.08370524 0.15938690
-0.34902987 -0.70584995 -0.00000006
-0.19493607 0.47912717 -0.00000073
-0.17704420 0.28276965 -0.00000068
-0.52491468 0.59023660 -0.00000034
0.17923947 -0.52275926 -0.00000017
0.21594125 -0.47456715 -0.00000020
0.08107297 0.39346677 -0.00000075
-0.12576328 0.60896504 -0.00000083
-0.37107161 0.37908164 -0.00000053
0.10293059 0.65076518 0.04676064
-0.45628080 -0.78666025 -0.00000001
-0.31427312 -0.13621476 -0.00000041
-0.29021010 0.64148855 -0.00000064
0.39927840 -0.50095111 -0.00000019
0.66919410 -0.47033402 -0.00000036
0.33170545 0.30727884 0.16260777
-0.65154445 0.34438410 -0.00000019
0.00819981 0.27230215 -0.00000067
-0.51051825 -0.43536076 -0.00000023
0.16429308 -0.78912479 -0.00000001
0.16730995 -0.18329415 -0.00000039
-0.79604274 -0.73798680 0.00000000
-0.72047579 -0.57989621 0.00000000
-0.18438777 -0.46006653 -0.00000021
-0.49121964 -0.45863220 -0.00000021
0.17139378 -0.48368701 -0.00000020
0.74958903 -0.44626066 -0.00000044
-0.71925372 -0.68616015 0.00000000
-0.09744782 0.59739208 -0.00000086
-0.23778862 0.17221330 -0.00000061
-0.54875106 0.64776742 -0.00000031
0.07820363 -0.24794123 -0.00000035
0.56125480 -0.20821518 -0.00000052
-0.46931598 -0.21716444 -0.00000031
0.25980920 -0.75982594 -0.00000003
-0.21979630 -0.05741516 -0.00000046
0.38498399 -0.46062991 -0.00000021
0.39922965 -0.55348909 -0.00000015
-0.33856136 0.58714855 -0.00000058
0.53182971 -0.41566595 -0.00000027
-0.39181763 -0.44972920 -0.00000022
-0.73355663 0.13366134 -0.00000008
0.59380883 0.12352130 0.08348632
0.50296879 -0.34302905 -0.00000032
0.01889410 -0.31358138 -0.00000030
0.15351310 0.40665713 0.24220017
-0.21573049 0.71275091 -0.00000073
-0.16079623 -0.43308255 -0.00000023
-0.36051157 -0.36167955 -0.00000027
-0.75818640 -0.75663501 0.00000000
-0.73930997 0.25633320 -0.00000008
-0.79751819 0.34099358 -0.00000000
0.04180373 -0.16662130 -0.00000040
-0.31556180 -0.09277730 -0.00000044
-0.38170230 0.06404157 -0.00000046
0.03505172 0.73489702 0.03034669
-0.18673663 0.75367647 -0.00000077
0.08087152 -0.72602820 -0.00000005
0.17583856 0.35703227 0.26976967
-0.20672917 0.38757294 -0.00000070
-0.21220633 0.49189183 -0.00000072
0.29891938 -0.39184090 -0.00000026
-0.45972690 0.75157690 -0.00000043
0.53171402 -0.36842588 -0.00000032
-0.68893504 0.51202899 -0.00000014
-0.32358530 0.24710971 -0.00000055
0.58323503 0.08489887 0.13316956
0.04127363 -0.25510234 -0.00000034
-0.76750195 0.44930694 -0.00000004
-0.00297644 -0.18197875 -0.00000039
0.43370393 0.12581426 0.24286057
0.17066574 -0.49135911 -0.00000019
-0.52530682 -0.71213084 -0.00000005
0.24333104 0.23732030 0.32250598
-0.16109209 -0.49925178 -0.00000019
-0.25361860 -0.73543316 -0.00000004
0.29157257 -0.21684605 -0.00000036
-0.64141852 -0.72574824 -0.00000004
0.03040813 0.43589297 -0.00000077
-0.34388900 -0.49483058 -0.00000019
-0.48912740 0.04286215 -0.00000034
-0.49056396 0.08442523 -0.00000035
-0.63065743 0.53670907 -0.00000021
0.17633486 -0.52012712 -0.00000017
-0.68512440 0.15101162 -0.00000014
0.12779541 -0.28569141 -0.00000032
-0.22562917 0.19077426 -0.00000062
-0.61380380 0.70313495 -0.00000023
0.35578287 -0.40252426 -0.00000025
-0.78819394 -0.20206983 0.00000000
0.31016061 0.30480587 0.18686333
-0.64323246 0.12009709 -0.00000019
0.11861521 -0.33050948 -0.00000029
0.03161226 0.22776395 -0.00000064
-0.78453344 0.41760719 -0.00000002
-0.15684672 0.14756574 -0.00000059
-0.26715586 -0.25198561 -0.00000034
-0.11329324 -0.13174219 -0.00000042
0.02748197 0.33952811 -0.00000071
-0.53187901 0.53923595 -0.00000034
-0.60319769 -0.16448098 -0.00000018
0.56458253 -0.36595491 -0.00000036
-0.13843174 -0.04259817 -0.00000047
0.10745921 0.54124200 0.15279354
0.41620064 -0.38702795 -0.00000026
-0.20118147 0.64360434 -0.00000075
-0.71975511 -0.00713060 -0.00000008
0.18947309 -0.43638238 -0.00000023
0.59253293 -0.50048178 -0.00000024
0.09845409 -0.43895271 -0.00000023
-0.30882972 0.73890650 -0.00000061
-0.36728349 0.25696924 -0.00000051
-0.16740865 0.12005441 -0.00000058
-0.16562076 -0.25760636 -0.00000034
0.30171153 -0.48946220 -0.00000019
0.31331459 -0.10107336 -0.00000044
-0.32145530 0.36694011 -0.00000058
-0.58401358 0.20122452 -0.00000027
-0.06740618 -0.68742228 -0.00000007
0.02496240 0.21900862 -0.00000064
-0.58340675 -0.44354758 -0.00000015
-0.75455022 0.66688639 -0.00000006
0.26904953 0.19763087 0.33661529
0.61117464 -0.39988947 -0.00000037
-0.14251888 0.63056886 -0.00000082
-0.37839395 -0.29904631 -0.00000031
-0.56628549 0.19826251 -0.00000029
-0.15926678 -0.48003113 -0.00000020
0.64015096 -0.38738778 -0.00000042
-0.30971655 0.42195147 -0.00000060
-0.14144246 -0.18658324 -0.00000038
0.07829767 0.27476680 -0.00000067
-0.30586559 0.13882837 -0.00000055
0.13447668 0.09793215 -0.00000056
0.35567066 -0.33159170 -0.00000029
0.42397928 -0.40576661 -0.00000025
-0.09999882 -0.29653549 -0.00000031
-0.77428007 -0.64985228 0.00000000
0.63883591 -0.24870276 -0.00000056
-0.10727889 0.36457983 -0.00000073
0.06954121 0.67694479 0.05404164
0.65177453 0.04616267 0.10307121
0.21694782 0.41315469 0.17157699
-0.50145960 -0.41774654 -0.00000024
-0.00169205 0.19407997 -0.00000062
0.29675287 -0.52099240 -0.00000017
0.76833498 -0.27119613 -0.00000066
0.05244183 0.63552636 0.11313792
0.26674044 -0.36301988 -0.00000027
0.47274399 0.14700975 0.18202867
-0.68503517 -0.77151155 0.00000000
0.38239974 0.34365809 0.07467217
0.54691154 -0.53146756 -0.00000017
0.72060645 -0.13397516 -0.00000077
0.37346828 -0.09627788 -0.00000044
0.42940897 -0.62910020 -0.00000011
-0.45978081 0.32750538 -0.00000042
-0.35162380 0.25096959 -0.00000052
0.05210562 0.51639616 -0.00000082
-0.02853132 -0.73680317 -0.00000004
0.32112202 -0.48388967 -0.00000020
-0.24199232 0.41382664 -0.00000067
-0.45483994 0.62675291 -0.00000043
0.07641253 0.56932259 0.15578869
0.17478573 0.55590868 0.06998970
0.79527509 -0.75338370 -0.00000006
-0.33999532 0.71415025 -0.00000058
-0.51588273 -0.66340494 -0.00000009
-0.13934702 -0.21142948 -0.00000037
-0.38941306 0.72678620 -0.00000051
-0.03262558 -0.44013485 -0.00000022
0.06289696 0.08660255 -0.00000055
-0.15019909 0.32270113 -0.00000070
-0.08432647 -0.12600321 -0.00000042
0.01221485 0.05623568 -0.00000054
-0.45140511 0.58080918 -0.00000044
-0.09502998 0.61357027 -0.00000086
0.15264574 0.29282364 0.35803509
-0.27130237 -0.30646032 -0.00000031
-0.19160342 0.67762870 -0.00000076
-0.56246102 -0.33740437 -0.00000019
0.20323870 0.17673083 0.42418292
0.20685565 -0.63764066 -0.00000010
-0.20727842 -0.30782747 -0.00000031
-0.29261595 0.54718977 -0.00000063
-0.08671790 -0.61542588 -0.00000012
-0.24190792 0.64831227 -0.00000070
-0.20799872 0.71318102 -0.00000074
-0.73942280 -0.16443340 -0.00000003
-0.37897125 -0.19976214 -0.00000038
0.14794272 0.14099534 -0.00000059
-0.29950762 -0.13868521 -0.00000041
-0.23967747 0.03419470 -0.00000052
0.49600446 -0.60677588 -0.00000012
-0.54299873 0.22665463 -0.00000032
-0.16116604 0.34874952 -0.00000072
-0.42590985 -0.58288002 -0.00000014
-0.00477829 -0.30599487 -0.00000031
-0.74374443 -0.62914425 0.00000000
0.12498496 -0.36049759 -0.00000027
-0.31066367 -0.30326512 -0.00000031
-0.40011534 -0.34999609 -0.00000028
0.01313560 0.70888597 -0.00000094
-0.37491027 -0.24558175 -0.00000035
-0.38570046 0.39558989 -0.00000051
0.06944776 0.36278400 -0.00000073
-0.58137715 0.14714567 -0.00000026
0.08017674 -0.58420831 -0.00000013
0.62166381 -0.73843288 -0.00000004
0.13093515 -0.69644910 -0.00000006
-0.06724263 -0.37441698 -0.00000027
0.55500668 -0.53227711 -0.00000017
0.14213394 -0.68021113 -0.00000007
0.27986842 0.48750970 0.03294282
0.43705121 0.29961887 0.06395487
0.29158035 -0.21168789 -0.00000037
-0.32449844 0.79949838 -0.00000059
-0.28084451 -0.09492269 -0.00000044
-0.21601194 -0.09334474 -0.00000044
0.22910242 -0.22432506 -0.00000036
0.51866883 -0.23919106 -0.00000044
0.28945172 0.25552189 0.25754815
0.10140499 -0.47709614 -0.00000020
-0.25779647 0.79660052 -0.00000068
0.15852305 0.58954799 0.05244106
-0.20544960 0.43580365 -0.00000071
0.66861564 0.05525152 0.07688454
0.33652511 0.45417196 0.00939300
0.02624607 -0.04216080 -0.00000047
-0.04717947 0.45894998 -0.00000079
-0.20562831 -0.47266150 -0.00000020
0.03756532 0.50475943 -0.00000082
-0.66163427 -0.51698351 -0.00000005
0.42692399 0.20858809 0.16611435
0.59004837 -0.62758809 -0.00000011
-0.14873680 -0.22149645 -0.00000036
-0.68143511 0.47595474 -0.00000015
-0.76303923 -0.50473052 0.00000000
-0.23836453 0.75436300 -0.00000070
-0.45834222 0.64638829 -0.00000043
0.48964450 -0.18601795 -0.00000047
-0.73011315 0.53483033 -0.00000009
0.21396697 -0.55836397 -0.00000015
-0.33651343 0.56293577 -0.00000058
0.06873143 -0.28150353 -0.00000032
0.41167784 0.31466326 0.07438613
-0.54816711 0.08690229 -0.00000028
-0.43461534 0.59481108 -0.00000046
0.54577005 0.13002267 0.12543492
-0.31554136 0.79719841 -0.00000061
0.71893722 -0.31052971 -0.00000058
-0.68637520 -0.53729761 -0.00000002
0.24854927 -0.54731846 -0.00000016
0.42278376 -0.73855144 -0.00000004
-0.67261440 -0.54224688 -0.00000004
0.60642606 0.18490493 0.00875283
-0.09921044 0.52684289 -0.00000083
-0.28738052 0.33775768 -0.00000061
0.55533314 -0.05188011 -0.00000068
0.18434249 0.43801546 0.17939788
0.09998250 0.18254478 -0.00000061
-0.51977259 -0.05153806 -0.00000029
-0.67029679 0.15986785 -0.00000016
0.57866842 0.20806693 0.01339399
0.54206020 0.24654874 0.01150181
0.23330043 0.39481297 0.17358594
0.31651798 0.40487203 0.07938621
0.46782744 0.31736150 0.01495568
0.19688269 0.54399222 0.05970841
-0.27928704 -0.19940147 -0.00000038
-0.60576802 -0.13626601 -0.00000018
-0.36346376 -0.39739642 -0.00000025
-0.70543170 0.75896478 -0.00000012
0.22642671 0.31762075 0.25848296
-0.44808117 0.43954760 -0.00000044
0.52970439 -0.10521425 -0.00000060
-0.26676768 0.74021518 -0.00000067
-0.10531611 0.15180109 -0.00000059
0.09326728 0.23410948 -0.00000065
-0.24751990 -0.06668297 -0.00000046
-0.70465803 0.16676979 -0.00000012
0.33257923 0.18519403 0.28501779
-0.12521604 -0.74245101 -0.00000004
0.02548577 -0.54046375 -0.00000016
-0.78405148 0.08417912 -0.00000002
-0.13965198 0.78168994 -0.00000083
-0.07824242 -0.33553728 -0.00000029
-0.11225728 -0.70598304 -0.00000006
-0.18813249 0.64761466 -0.00000076
0.45599455 -0.16411434 -0.00000046
-0.47291499 0.57286578 -0.00000041
-0.35495323 0.49055567 -0.00000056
0.57803828 0.21301194 0.00903638
0.44519821 0.17183138 0.18477979
0.66461700 -0.74379748 -0.00000006
0.23329668 -0.40748000 -0.00000025
-0.27284992 -0.68177253 -0.00000007
-0.60163802 -0.71169895 -0.00000006
-0.29270816 -0.39428681 -0.00000025
-0.72108072 -0.31328070 -0.00000003
-0.57574159 0.78034770 -0.00000028
-0.24691258 -0.23956093 -0.00000035
-0.60636771 -0.07661150 -0.00000019
0.34387922 0.22151192 0.23692921
0.50832474 -0.58046341 -0.00000014
0.42746606 0.26248854 0.11113287
-0.73390949 -0.74375343 0.00000000
-0.73085797 -0.06619486 -0.00000006
-0.41649213 -0.79579550 -0.00000000
-0.16178256 0.70410728 -0.00000080
0.65299731 -0.15681483 -0.00000068
-0.57400382 -0.54358763 -0.00000014
0.22957125 0.49170530 0.07950079
0.29117858 0.45478487 0.05456952
0.64620984 0.08834088 0.06609524
0.19785830 0.32759064 0.27726510
0.52003622 -0.51689661 -0.00000018
-0.17055708 -0.72763264 -0.00000005
-0.72974414 -0.42242587 0.00000000
0.35767275 -0.70099074 -0.00000006
-0.44356617 -0.36397317 -0.00000027
-0.18867292 -0.12928736 -0.00000042
0.36873072 -0.19642375 -0.00000038
0.60326517 0.07985782 0.11803210
-0.63289809 -0.75962234 -0.00000003
-0.31420493 -0.11832337 -0.00000043
0.30302808 0.15092739 0.34946632
-0.33909506 -0.76781553 -0.00000002
-0.53836262 0.49910164 -0.00000033
-0.77388149 -0.61738312 0.00000000
-0.15178177 -0.45334801 -0.00000022
0.11347176 0.05501285 -0.00000053
0.45152861 0.24883379 0.10062200
-0.68673325 0.36374718 -0.00000014
-0.48460686 -0.36422551 -0.00000027
0.60940313 -0.23558787 -0.00000055
-0.19032362 -0.29932690 -0.00000031
-0.10542140 0.65115267 -0.00000086
0.65014589 -0.57990366 -0.00000022
0.31778225 -0.41457179 -0.00000024
-0.15843916 -0.76667148 -0.00000002
0.39817643 -0.14402629 -0.00000042
0.11443976 -0.58247006 -0.00000014
-0.36389303 0.28696370 -0.00000052
-0.30153388 0.77964211 -0.00000062
0.23414344 0.50105894 0.06543714
0.48936242 -0.11645585 -0.00000054
0.48992452 0.12183184 0.19010523
0.18606657 -0.54889226 -0.00000016
0.19611458 0.59050250 0.01351339
0.07849197 0.28242004 -0.00000068
0.78635675 -0.20403261 -0.00000074
0.46823290 -0.58649868 -0.00000013
0.17532115 -0.00807712 -0.00000049
0.33563381 0.44524655 0.01930694
-0.27598110 -0.68784428 -0.00000007
-0.64870864 -0.73272252 -0.00000003
0.11687803 -0.70810503 -0.00000006
0.33314499 -0.48873144 -0.00000019
-0.41144672 0.31534982 -0.00000047
0.36845481 -0.38637808 -0.00000026
0.56440330 -0.76067626 -0.00000002
0.20992951 0.53287339 0.05776132
-0.18036878 0.32303101 -0.00000070
-0.77307618 0.62382782 -0.00000003
0.28092343 0.50762588 0.01156204
-0.61827356 -0.05732456 -0.00000018
0.34247249 0.43150881 0.02627429
0.09070850 -0.63699365 -0.00000010
-0.58311599 0.02769602 -0.00000024
-0.15754312 -0.21976572 -0.00000036
0.31466132 0.20148920 0.28665644
0.41098812 -0.48734978 -0.00000020
-0.12755944 -0.69029289 -0.00000007
-0.71577901 0.65862286 -0.00000011
0.41946054 -0.16150901 -0.00000042
-0.64807785 -0.52265459 -0.00000007
-0.04719365 -0.25256097 -0.00000034
-0.22233337 -0.25427887 -0.00000034
-0.46651086 0.51470119 -0.00000042
-0.40106153 -0.05314723 -0.00000042
0.14745472 0.06932730 -0.00000054
-0.70909387 -0.65711170 0.00000000
-0.54369289 0.19763240 -0.00000031
0.15098539 -0.42288479 -0.00000024
0.42809090 -0.69810724 -0.00000006
0.42043635 -0.79329604 -0.00000000
0.56643730 -0.53298867 -0.00000018
-0.61518800 -0.50644344 -0.00000010
0.07497192 0.02998679 -0.00000052
0.78614837 -0.13552001 -0.00000083
-0.26065972 0.75257856 -0.00000067
-0.26444989 0.23054567 -0.00000061
-0.63190150 0.70130867 -0.00000021
-0.52958971 0.58109319 -0.00000034
-0.39808244 -0.26300308 -0.00000034
-0.66928107 0.77263409 -0.00000016
-0.35682365 -0.00734673 -0.00000047
0.44936228 0.20156346 0.15054809
0.16125406 -0.19864452 -0.00000038
-0.11125383 0.49506348 -0.00000081
-0.10102017 0.19336210 -0.00000062
-0.24213162 0.57578242 -0.00000070
-0.39198184 0.59890133 -0.00000051
0.40694621 -0.56576258 -0.00000015
-0.67842400 0.38910365 -0.00000015
0.70825464 -0.74118441 -0.00000007
0.79665774 -0.45667383 -0.00000043
-0.35451818 0.32033584 -0.00000053
0.68845606 -0.15311392 -0.00000072
-0.63161910 0.14621428 -0.00000021
0.23418161 -0.25378370 -0.00000034
-0.23779932 -0.51600087 -0.00000018
-0.10865232 0.43284652 -0.00000077
-0.69882381 0.31775165 -0.00000013
0.51382786 -0.12468668 -0.00000056
-0.61670280 0.71931583 -0.00000023
0.26704589 0.51347154 0.01967344
-0.35590804 -0.28324914 -0.00000032
0.41701263 -0.15994561 -0.00000042
-0.16235819 -0.48080689 -0.00000020
-0.33297858 -0.24868780 -0.00000034
0.32579941 -0.40696499 -0.00000025
-0.54212618 -0.28951308 -0.00000022
-0.65425718 -0.31208107 -0.00000010
-0.06660650 -0.30731413 -0.00000031
0.61319661 -0.06748369 -0.00000073
0.17477848 -0.40043551 -0.00000025
0.13808165 0.29431936 0.37123251
-0.79146731 0.10578668 -0.00000001
-0.05182424 0.41979432 -0.00000076
0.01133829 0.27812815 -0.00000067
0.18146525 -0.27636448 -0.00000033
0.04581674 -0.68406165 -0.00000007
0.24943297 -0.35481134 -0.00000028
0.58231258 -0.28829715 -0.00000046
-0.56935024 -0.02756203 -0.00000024
0.59286666 0.11146874 0.09660967
-0.29740962 -0.62035638 -0.00000011
-0.41364279 -0.04333407 -0.00000040
0.28320864 -0.75838327 -0.00000003
0.15502048 0.33030969 0.31778020
0.65678763 -0.37109858 -0.00000045
-0.76071149 0.76922572 -0.00000005
-0.24180473 0.38109761 -0.00000067
-0.57441527 -0.23398861 -0.00000020
0.25271529 -0.44193193 -0.00000022
-0.38016689 -0.62921923 -0.00000011
-0.23408262 -0.37007064 -0.00000027
-0.64782906 -0.38559264 -0.00000009
-0.23389740 0.59425932 -0.00000071
0.11381726 -0.45383978 -0.00000022
0.14859755 0.37160727 0.28256068
-0.51714015 -0.56255925 -0.00000015
0.50558794 -0.45263597 -0.00000022
-0.19045669 -0.60864055 -0.00000012
-0.72498077 -0.67969537 0.00000000
0.31053865 -0.26829231 -0.00000033
0.07457317 -0.02870713 -0.00000048
0.17400058 -0.48278540 -0.00000020
-0.18017671 -0.20163918 -0.00000037
-0.29604292 -0.53570580 -0.00000017
0.04129984 0.22133005 -0.00000064
0.14412126 0.47575849 0.18190026
0.68418199 0.06470680 0.05161523
-0.24061938 -0.75644600 -0.00000003
0.02746692 -0.02600043 -0.00000048
-0.33986896 -0.51075548 -0.00000018
-0.19845483 -0.62251782 -0.00000011
-0.52464372 -0.03983282 -0.00000029
0.34093368 0.28747445 0.17328861
-0.41430563 0.72223264 -0.00000048
0.58298928 -0.10001481 -0.00000066
0.31686807 0.21793258 0.26782191
-0.14546244 0.65658206 -0.00000082
0.17652433 0.57699972 0.04693407
0.76918107 -0.78308624 -0.00000002
0.33029622 -0.48617199 -0.00000020
0.38462463 -0.53639036 -0.00000016
0.26189569 -0.59254318 -0.00000013
-0.60419804 0.49178025 -0.00000024
0.48282543 -0.42748880 -0.00000023
0.28133526 0.48651931 0.03246167
0.22818977 0.26840380 0.30640602
-0.52039808 -0.18776229 -0.00000026
-0.78633779 0.50619018 -0.00000002
-0.51369011 0.27493113 -0.00000036
-0.63195807 0.03944425 -0.00000019
-0.17534453 -0.23646036 -0.00000035
0.69739848 0.09149874 0.01121068
0.18813170 0.25311485 0.36229995
0.48289937 -0.68833327 -0.00000007
-0.38452682 -0.60298210 -0.00000012
-0.48872420 0.40294093 -0.00000039
0.33026439 0.42035601 0.04986647
0.25617886 -0.68383014 -0.00000007
-0.12743878 0.47809479 -0.00000080
0.51576579 -0.75088286 -0.00000003
0.00410896 0.71991336 -0.00000095
-0.19029082 -0.07990650 -0.00000045
0.64707220 -0.39456952 -0.00000042
-0.40129113 0.58889949 -0.00000050
-0.62418777 0.04960748 -0.00000020
-0.51976496 -0.43429673 -0.00000022
-0.07442008 0.33793944 -0.00000071
-0.68360519 -0.30937105 -0.00000007
-0.12033484 0.66752577 -0.00000085
-0.03591079 -0.50891948 -0.00000018
-0.47429961 -0.28646976 -0.00000030
-0.29245225 0.16687720 -0.00000057
0.09231834 -0.28717434 -0.00000032
0.17550242 0.26683956 0.36119357
-0.17700830 -0.48720509 -0.00000020
-0.15436268 -0.25649983 -0.00000034
-0.56068152 -0.36364901 -0.00000019
0.32320228 -0.55179894 -0.00000016
0.12767334 0.16774112 -0.00000060
-0.30393115 -0.43258387 -0.00000023
-0.33480528 -0.57629770 -0.00000014
-0.26901567 -0.14226659 -0.00000041
0.78069562 -0.12517667 -0.00000084
-0.10233846 -0.58724880 -0.00000013
0.72814006 -0.31593788 -0.00000059
0.39676762 -0.14195649 -0.00000042
-0.15670469 -0.75257838 -0.00000003
0.49405530 -0.71707731 -0.00000005
0.33310479 0.18505022 0.28463224
0.11985158 0.66943181 0.01082071
0.26530823 -0.69491982 -0.00000007
-0.57472557 -0.76538152 -0.00000002
-0.75849432 0.05294742 -0.00000005
0.23270094 -0.38100427 -0.00000026
0.66747344 -0.45023808 -0.00000038
-0.49401453 0.72101170 -0.00000038
0.62160665 0.04960863 0.13005765
-0.64290285 0.58680838 -0.00000020
0.64705294 -0.24564756 -0.00000057
0.00342765 0.04663633 -0.00000053
-0.47222009 0.37660450 -0.00000041
0.31335294 -0.52608591 -0.00000017
-0.72834611 -0.34077370 -0.00000001
-0.50631946 -0.08643388 -0.00000030
0.22673124 0.34554598 0.22997409
-0.33642203 0.34846321 -0.00000056
0.01352095 0.69302458 -0.00000093
0.02459872 0.74157584 0.03415808
0.72443235 -0.13690957 -0.00000077
-0.71426350 -0.37125131 -0.00000002
-0.57901865 0.52851355 -0.00000028
0.30233538 -0.74332148 -0.00000004
0.08385231 -0.37013265 -0.00000027
-0.06146861 -0.19413494 -0.00000038
-0.66283113 -0.72987056 -0.00000001
-0.64022660 -0.60657805 -0.00000006
-0.65047646 -0.00155553 -0.00000016
-0.29101306 0.50674736 -0.00000064
-0.46509668 -0.45911440 -0.00000021
-0.49676731 0.33225662 -0.00000038
-0.47814488 -0.74567097 -0.00000003
0.29700273 -0.36097649 -0.00000027
-0.29813206 -0.69832361 -0.00000006
-0.08563139 -0.40962362 -0.00000024
0.11092928 0.64453089 0.04497877
0.34790421 0.42600638 0.02634571
-0.67443007 -0.17139871 -0.00000010
0.74914622 -0.36237267 -0.00000055
-0.31811181 0.31270811 -0.00000057
-0.54492128 -0.08565624 -0.00000026
-0.12829717 -0.44420791 -0.00000022
0.44467834 -0.30723688 -0.00000031
0.33882990 -0.32919544 -0.00000029
-0.54950690 -0.23754507 -0.00000022
-0.67540312 -0.51904434 -0.00000004
-0.65426332 -0.70232421 -0.00000003
0.12928981 -0.72594553 -0.00000005
-0.05477422 0.53842938 -0.00000084
-0.79817408 -0.75285345 0.00000000
0.21513136 0.51873249 0.06678891
-0.22844072 0.71856683 -0.00000071
-0.14420104 0.07468077 -0.00000055
-0.49268314 0.79298240 -0.00000038
-0.71611756 0.15014639 -0.00000010
-0.33787289 0.24957833 -0.00000054
0.27593207 0.37612125 0.14940932
0.41706130 -0.42912340 -0.00000023
0.05248639 0.69712651 0.05088373
0.59465694 -0.71030599 -0.00000006
-0.10973010 -0.64627993 -0.00000010
0.53788865 0.12936278 0.13406076
0.03503734 -0.07917345 -0.00000045
0.50355190 -0.38587004 -0.00000027
0.54909295 0.16818310 0.08354093
-0.56470621 -0.32913867 -0.00000019
-0.32061613 -0.39568034 -0.00000025
0.39829430 -0.20671681 -0.00000037
0.22785918 0.40489647 0.16889773
-0.08472166 0.15137507 -0.00000059
-0.01713541 0.31299508 -0.00000070
-0.46593654 -0.66166061 -0.00000009
-0.24355693 -0.15687510 -0.00000040
0.00255744 -0.09203061 -0.00000044
0.10094920 -0.59636295 -0.00000013
-0.17758808 -0.03626343 -0.00000048
-0.32457605 0.01769203 -0.00000051
-0.43051285 0.38249943 -0.00000046
0.12959076 -0.70524764 -0.00000006
0.07412833 0.68008906 0.04623388
-0.59345102 0.45091599 -0.00000026
0.20058827 0.53136045 0.06872296
0.71930194 -0.38373709 -0.00000050
-0.64238775 0.07446320 -0.00000018
-0.52886754 0.01354824 -0.00000029
0.61009938 -0.18876448 -0.00000060
0.26974490 0.29841265 0.23413484
-0.65959340 -0.52480549 -0.00000005
0.68391305 -0.03741832 -0.00000084
-0.77500588 -0.71025229 0.00000000
0.54063398 -0.36730218 -0.00000033
-0.40875474 0.71196246 -0.00000049
0.03617475 -0.33522508 -0.00000029
0.03309618 -0.34450197 -0.00000028
0.37858877 0.39714220 0.02450730
-0.28775415 -0.47093618 -0.00000021
-0.63306379 -0.55697477 -0.00000008
-0.05092046 -0.07764966 -0.00000045
-0.45506468 -0.04529902 -0.00000036
0.30721727 -0.76487178 -0.00000002
0.25669661 0.32222402 0.22326523
-0.34931475 -0.23077157 -0.00000036
-0.34663716 -0.13863061 -0.00000041
-0.72256911 -0.70231670 0.00000000
0.25145769 0.34163165 0.20895641
-0.54915196 0.17245315 -0.00000030
0.06025007 0.65806526 0.08249075
0.69301796 -0.44483545 -0.00000041
0.59542853 -0.70138884 -0.00000006
0.55471545 -0.17452671 -0.00000055
-0.65530998 0.24641155 -0.00000018
-0.16487806 -0.42429873 -0.00000023
-0.74858308 0.27641234 -0.00000006
0.09672537 0.67165101 0.03193467
0.33403727 0.38082853 0.08597501
0.14720032 -0.55043894 -0.00000016
-0.09463386 -0.55092263 -0.00000016
-0.22867221 -0.68669713 -0.00000007
0.48957893 0.18806133 0.12356909
0.09552816 -0.71467888 -0.00000005
-0.08629091 0.48912764 -0.00000081
-0.38596201 0.77302092 -0.00000052
0.28377181 0.38335070 0.13419095
-0.04079724 0.59045219 -0.00000087
-0.65310425 0.00004676 -0.00000016
0.27793509 0.33422294 0.18969940
-0.48450074 0.32832637 -0.00000039
-0.74991655 -0.76957524 0.00000000
0.15592493 0.28434914 0.36328179
-0.01970334 0.01473955 -0.00000051
-0.19048531 0.69198298 -0.00000076
-0.00449836 -0.30164164 -0.00000031
0.14777683 0.39638087 0.25837100
-0.23781665 -0.44022706 -0.00000022
-0.20693421 0.30794489 -0.00000069
-0.24379200 0.62520498 -0.00000070
-0.77035034 -0.50406480 0.00000000
-0.17710498 0.47802410 -0.00000075
-0.15697354 0.43392855 -0.00000077
-0.28739721 -0.52833617 -0.00000017
0.49603897 0.20503560 0.09990277
-0.21349695 0.24668390 -0.00000065
-0.57232428 0.33898970 -0.00000028
0.29044288 0.15552483 0.35753292
-0.57031709 -0.50037795 -0.00000015
-0.73486054 -0.48465690 0.00000000
-0.17866220 0.59507501 -0.00000077
-0.48712280 -0.61160415 -0.00000012
0.01637679 0.22182888 -0.00000064
-0.48465553 0.56007147 -0.00000039
0.31920385 0.47379044 0.00707306
0.47992468 -0.44091544 -0.00000022
-0.45251054 0.71820903 -0.00000043
-0.23094548 -0.02856615 -0.00000048
-0.47352153 0.75735080 -0.00000041
-0.79524505 -0.75057733 0.00000000
-0.71861714 0.54452860 -0.00000010
-0.01968307 0.70923144 -0.00000094
0.23416971 0.32770815 0.24047633
-0.30438128 -0.61629564 -0.00000011
-0.44236648 0.05203817 -0.00000039
0.74866682 -0.39159191 -0.00000051
0.47157627 0.20633446 0.12329594
0.63875353 -0.44465080 -0.00000035
0.09315138 0.53038579 0.17820624
-0.53821623 0.48225096 -0.00000033
-0.24405321 0.16676000 -0.00000060
-0.46886063 0.46346781 -0.00000041
0.42162418 -0.28563714 -0.00000032
0.24521592 -0.68031698 -0.00000007
-0.34648293 0.36606735 -0.00000055
0.64173645 0.07859136 0.08045895
0.38427874 -0.57452697 -0.00000014
-0.01678186 -0.79950798 -0.00000000
0.28876740 0.32529673 0.18777457
-0.00015783 0.23893672 -0.00000065
0.18953811 -0.34571353 -0.00000028
-0.25026393 0.25153303 -0.00000063
0.09710064 -0.73758322 -0.00000004
-0.57917160 -0.47428718 -0.00000015
0.29629058 0.24465635 0.26161471
-0.55274379 0.43905637 -0.00000031
-0.52898258 -0.13313191 -0.00000026
-0.59471273 -0.67300749 -0.00000008
-0.09174079 -0.24743298 -0.00000035
0.54868245 0.11909157 0.13353299
-0.24379510 0.56081003 -0.00000070
0.15029666 -0.50642842 -0.00000018
-0.71900356 -0.50503904 0.00000000
-0.27483729 0.17612936 -0.00000059
-0.56953394 0.59357816 -0.00000029
0.37943968 -0.72970456 -0.00000004
0.47380123 -0.52234656 -0.00000017
0.63241631 0.12954387 0.03841440
-0.00333141 0.01388369 -0.00000051
0.70199686 0.08482141 0.01331022
-0.47641411 -0.64502019 -0.00000010
-0.72659135 0.36582056 -0.00000009
-0.77405769 -0.03648173 -0.00000002
-0.71526420 -0.04000879 -0.00000008
-0.35839605 0.07429391 -0.00000048
0.11203183 -0.60619104 -0.00000012
-0.09369606 0.40982574 -0.00000076
0.13745701 0.47383285 0.19057503
-0.37752596 -0.41956705 -0.00000024
0.14099243 0.44448033 0.21664739
-0.76778990 0.17068234 -0.00000004
-0.34621665 -0.12598640 -0.00000042
-0.75063121 0.29652989 -0.00000006
-0.52700728 0.38092384 -0.00000034
0.72308749 -0.10283403 -0.00000081
-0.19989523 0.70642370 -0.00000075
0.43803620 -0.16073553 -0.00000044
-0.50967783 0.61283189 -0.00000036
0.26819557 0.32210293 0.21177498
0.32126084 -0.21152008 -0.00000037
0.46885845 -0.46668494 -0.00000021
-0.79144573 -0.56167209 0.00000000
-0.07523875 -0.09001039 -0.00000044
0.10895343 0.45839730 0.23494834
-0.54839206 -0.47517195 -0.00000018
-0.52841753 0.01634033 -0.00000029
0.48151869 -0.57160085 -0.00000014
0.03854967 0.21168032 -0.00000063
0.47291911 -0.43914965 -0.00000023
0.18503983 -0.24147379 -0.00000035
-0.64934719 0.77108312 -0.00000019
-0.40350696 0.53119862 -0.00000050
0.36522862 0.41190898 0.02308673
-0.74442393 0.63456637 -0.00000007
0.56719494 -0.79589784 -0.00000000
-0.07381700 -0.54712081 -0.00000016
0.28349108 -0.22496872 -0.00000036
-0.55804867 -0.25571224 -0.00000021
0.42520204 -0.79198271 -0.00000001
0.66193980 -0.50625485 -0.00000031
0.00119342 -0.75506163 -0.00000003
0.10281670 0.61305422 0.08495969
-0.06016804 0.02644907 -0.00000052
-0.45840475 0.22256126 -0.00000041
0.37932080 0.16808322 0.25509444
-0.33660817 0.22900404 -0.00000054
-0.57058734 -0.52390277 -0.00000015
0.22820348 0.29026985 0.28430995
-0.39747846 0.50268066 -0.00000050
0.54834169 -0.79051447 -0.00000001
-0.79161102 0.59116393 -0.00000001
0.66849196 -0.03153698 -0.00000083
-0.35563701 -0.16726296 -0.00000040
0.65476036 -0.56840754 -0.00000024
-0.06790231 -0.04481855 -0.00000047
0.08765469 0.24791022 -0.00000065
0.76868206 -0.07802021 -0.00000088
-0.15717353 -0.33421540 -0.00000029
-0.50195324 0.74408001 -0.00000037
0.24051955 -0.42665741 -0.00000023
-0.28441650 -0.03094588 -0.00000048
0.58766061 -0.47151643 -0.00000027
0.74266231 -0.06836507 -0.00000087
-0.74292183 0.55111116 -0.00000007
-0.72692227 0.33600703 -0.00000009
0.47566643 -0.34720188 -0.00000028
0.04076381 -0.70699722 -0.00000006
0.74668819 -0.38243854 -0.00000052
0.51266509 -0.76281083 -0.00000002
-0.63840842 0.63394713 -0.00000020
-0.31542158 -0.32722533 -0.00000030
-0.62598193 0.13319466 -0.00000021
0.32468551 0.32318658 0.15363196
0.22970380 0.56697148 0.00335562
0.25615290 0.21756954 0.32950351
-0.26530251 -0.67744362 -0.00000008
-0.65899771 0.57787043 -0.00000018
0.06355134 -0.46868601 -0.00000021
0.50489211 -0.24381872 -0.00000042
0.36459810 -0.73292786 -0.00000004
-0.23234780 -0.27420846 -0.00000033
-0.16614869 -0.07537255 -0.00000045
-0.02557227 -0.67453277 -0.00000008
0.50788277 -0.63141274 -0.00000011
0.19610497 -0.47581878 -0.00000020
-0.26338544 -0.04463187 -0.00000047
-0.78546065 0.74147666 -0.00000002
-0.42713082 0.43652400 -0.00000047
0.22015084 -0.38593841 -0.00000026
-0.10415107 0.18363696 -0.00000061
0.17499170 -0.79477817 -0.00000000
0.17984347 0.38931876 0.23311950
-0.46525091 -0.64333451 -0.00000010
0.27020738 0.43362087 0.09712184
-0.61411148 -0.64959162 -0.00000008
0.57167321 -0.26407528 -0.00000047
0.16691396 -0.63463151 -0.00000010
-0.10476930 -0.68760520 -0.00000007
0.54656202 -0.47434169 -0.00000022
0.02497814 -0.73799664 -0.00000004
0.09848636 -0.67057186 -0.00000008
-0.49236107 -0.02519627 -0.00000032
-0.56492752 0.71472424 -0.00000029
-0.22313373 -0.64803678 -0.00000009
-0.40803933 -0.70856905 -0.00000006
-0.63640869 0.21224315 -0.00000020
0.42606673 -0.29054347 -0.00000032
0.23955315 -0.49309814 -0.00000019
0.67407155 -0.18213682 -0.00000067
-0.78840274 -0.37669799 0.00000000
-0.36840665 0.26430807 -0.00000051
-0.33847761 -0.34583101 -0.00000028
0.42038679 -0.15514322 -0.00000043
0.08101461 -0.19522730 -0.00000038
-0.31521964 0.47950524 -0.00000061
0.17000280 -0.74409580 -0.00000003
-0.26553848 0.28580019 -0.00000062
0.03675224 -0.34914863 -0.00000028
-0.69008541 0.45352685 -0.00000014
0.48860437 -0.29806212 -0.00000035
-0.14659880 0.36137348 -0.00000073
-0.06514583 0.24924050 -0.00000066
-0.09227215 -0.05303810 -0.00000047
-0.04644045 0.14488892 -0.00000059
-0.13637646 -0.14057656 -0.00000041
-0.08640667 -0.78625584 -0.00000001
0.23241475 -0.43645790 -0.00000023
-0.43256891 0.65165347 -0.00000046
0.08985547 0.25380826 -0.00000066
-0.20445830 0.18034403 -0.00000061
-0.77703315 0.08538283 -0.00000003
-0.75706530 0.53555721 -0.00000005
-0.60525298 -0.33333820 -0.00000015
0.09388837 -0.14141822 -0.00000041
-0.27821776 -0.75408298 -0.00000003
0.22974144 0.23428264 0.33929753
-0.76725668 -0.67895973 0.00000000
-0.15827937 0.14730114 -0.00000059
-0.22929208 -0.15646245 -0.00000040
0.15664499 0.01079046 -0.00000051
0.51464713 0.13032232 0.15656336
-0.70130754 -0.38980430 -0.00000003
0.36201131 -0.36439931 -0.00000027
0.24135804 -0.59913141 -0.00000013
-0.16488510 0.65036261 -0.00000079
-0.02524493 -0.55446100 -0.00000015
-0.38800800 -0.65410340 -0.00000009
0.05085118 -0.48988891 -0.00000019
-0.64578539 0.77155656 -0.00000019
-0.47322136 -0.00368022 -0.00000035
-0.22759706 0.07488127 -0.00000055
0.64839697 -0.44323739 -0.00000037
0.72869313 -0.09501980 -0.00000082
0.48406267 -0.15333454 -0.00000050
-0.17077580 -0.27359560 -0.00000033
0.41533646 -0.77226764 -0.00000002
-0.41070679 0.21700253 -0.00000046
0.23147155 0.19201066 0.38024026
-0.19690350 0.24777979 -0.00000065
-0.78403813 -0.40168497 0.00000000
0.59363300 0.11023287 0.09708385
-0.31979996 0.57748652 -0.00000060
-0.13359819 -0.19811860 -0.00000038
-0.14775732 0.39034465 -0.00000074
-0.45114484 -0.06293235 -0.00000036
-0.15186743 -0.41523045 -0.00000024
0.26431605 0.22388174 0.31488511
-0.26756361 -0.40918651 -0.00000024
-0.04787950 0.38003683 -0.00000074
-0.03698755 0.64633816 -0.00000090
-0.65214050 0.65865946 -0.00000018
0.04593522 -0.32718596 -0.00000030
-0.35040665 -0.78087229 -0.00000001
-0.73616505 0.42487726 -0.00000008
0.17136802 0.33097586 0.30059841
0.71232724 -0.58804971 -0.00000026
0.00087588 -0.07042592 -0.00000046
0.01018025 0.72173762 -0.00000095
-0.26684397 0.28696287 -0.00000062
0.03654601 -0.29203007 -0.00000032
-0.02529958 0.30762753 -0.00000069
0.15036164 0.57166600 0.07874228
-0.25934708 -0.29181865 -0.00000032
-0.49468759 -0.09551689 -0.00000031
-0.31783947 0.42668948 -0.00000059
-0.78512639 -0.05106801 -0.00000001
-0.28949237 -0.10143276 -0.00000044
-0.24509320 -0.55770165 -0.00000015
0.41291648 0.12578905 0.26387924
-0.62999046 -0.07877754 -0.00000017
-0.74549073 0.22487792 -0.00000007
-0.14429981 -0.32897928 -0.00000029
-0.43734863 0.68379003 -0.00000045
-0.76784587 -0.65111691 0.00000000
0.59124023 -0.08325595 -0.00000069
0.50114834 -0.47274822 -0.00000020
-0.22500560 0.58689922 -0.00000072
0.33612725 -0.20765600 -0.00000037
-0.73355246 -0.57819617 0.00000000
0.76076967 -0.12203597 -0.00000083
0.27084863 -0.28628090 -0.00000032
-0.71349299 0.61020207 -0.00000011
0.09433175 0.60277396 0.10391036
0.14101397 0.61838907 0.04099688
0.58968872 -0.59699404 -0.00000014
0.44788924 0.22364384 0.12973672
-0.53268522 0.35016644 -0.00000033
-0.28934100 -0.78905022 -0.00000001
-0.08471717 0.38992026 -0.00000074
-0.28961670 0.04452827 -0.00000053
-0.55173844 -0.38558218 -0.00000019
-0.00468254 0.44874695 -0.00000078
-0.36091158 0.06093866 -0.00000048
0.75132865 -0.36231667 -0.00000055
0.61597455 -0.66610903 -0.00000009
-0.60346782 -0.19748317 -0.00000017
0.41562191 0.33202496 0.05286943
0.36437279 0.31547794 0.12133673
-0.76206857 0.55235583 -0.00000005
-0.22512443 0.07552858 -0.00000055
0.74663770 -0.10024563 -0.00000084
-0.31551915 0.14611883 -0.00000054
0.42680386 -0.58866352 -0.00000013
0.30009824 -0.40783682 -0.00000025
-0.76265436 0.16932212 -0.00000005
0.18842973 -0.61667931 -0.00000011
-0.49956501 0.54832363 -0.00000038
0.28015178 -0.75826448 -0.00000003
0.46434316 0.17632701 0.16090520
0.04323193 -0.44133204 -0.00000022
0.54313505 -0.62625456 -0.00000011
0.24604572 -0.47213912 -0.00000020
0.38538116 0.23714940 0.17922439
0.58042294 -0.23290887 -0.00000052
-0.18591069 0.19697219 -0.00000062
-0.39223948 -0.13785338 -0.00000041
0.44118583 0.31181556 0.04746188
-0.53597713 0.02240298 -0.00000029
0.52834010 -0.69862109 -0.00000006
0.70897102 0.07230695 0.01890535
-0.50865501 0.32583770 -0.00000036
-0.15040281 0.05358497 -0.00000053
0.14876676 0.06796645 -0.00000054
-0.06442894 -0.71474624 -0.00000005
0.45415592 0.33421063 0.01174661
-0.17187823 -0.19208598 -0.00000038
-0.07572321 0.51808679 -0.00000082
-0.59713298 0.29235107 -0.00000025
-0.60177106 0.72738594 -0.00000025
-0.76202101 0.72944355 -0.00000005
0.77557141 -0.19895449 -0.00000075
-0.53299272 0.48112592 -0.00000033
-0.52974349 -0.10039102 -0.00000027
0.28387734 -0.49890438 -0.00000019
-0.14993915 -0.18224749 -0.00000039
0.32624406 -0.46243846 -0.00000021
-0.47461829 0.70792007 -0.00000041
-0.72381294 0.79779816 -0.00000010
-0.44659534 -0.36014587 -0.00000027
0.19514991 -0.69107741 -0.00000007
-0.70371032 0.72589028 -0.00000012
-0.02316881 -0.05302921 -0.00000047
-0.22504517 0.19261077 -0.00000062
-0.68133932 0.16157117 -0.00000015
-0.57232839 -0.21314029 -0.00000020
0.52961081 -0.14249811 -0.00000056
0.56156301 -0.70629996 -0.00000006
-0.18857618 -0.37929994 -0.00000026
0.48280862 -0.26912108 -0.00000037
0.58513868 -0.48835510 -0.00000025
-0.33564806 -0.16914418 -0.00000039
-0.07945723 -0.79649764 -0.00000000
-0.26676607 -0.33343595 -0.00000029
-0.32344806 -0.61179900 -0.00000012
-0.25809863 -0.10855478 -0.00000043
0.72202396 -0.16674252 -0.00000074
-0.61725527 -0.06009395 -0.00000018
-0.50215113 -0.78870851 -0.00000001
-0.15583679 -0.59056020 -0.00000013
-0.06748811 -0.33717713 -0.00000029
-0.43229967 0.51598853 -0.00000046
0.04855463 -0.30614302 -0.00000031
0.77641422 -0.59427375 -0.00000026
0.14410400 0.13819525 -0.00000059
-0.70588881 0.69803435 -0.00000012
-0.78896636 -0.10710710 0.00000000
-0.46075082 -0.51674211 -0.00000018
-0.37273383 0.07004017 -0.00000047
-0.51348251 0.25459310 -0.00000035
-0.19133776 0.50628299 -0.00000074
-0.05818955 -0.73822069 -0.00000004
-0.69475061 -0.74357283 0.00000000
-0.53227359 -0.49919489 -0.00000019
0.08321193 0.67062044 0.04662265
-0.77920651 -0.43661261 0.00000000
-0.38844073 -0.05323001 -0.00000043
0.52050531 0.18037923 0.10009472
-0.78792465 -0.37005600 0.00000000
-0.05290001 -0.36790386 -0.00000027
0.42820457 -0.47559404 -0.00000020
0.36693728 -0.27186322 -0.00000033
0.09306024 0.29257187 -0.00000068
0.17680448 0.53943914 0.08458352
-0.77596718 0.22255999 -0.00000003
0.16466177 -0.26563022 -0.00000033
-0.76767927 0.01963106 -0.00000004
-0.48961815 -0.61720967 -0.00000011
0.51818144 0.08336364 0.20041758
-0.05004892 -0.26080844 -0.00000034
0.63506925 -0.63872385 -0.00000014
-0.70311034 -0.76467580 0.00000000
0.77527332 -0.68981040 -0.00000014
-0.78684855 -0.47642344 0.00000000
-0.24858446 -0.16259843 -0.00000040
0.10459549 -0.28626603 -0.00000032
-0.42491195 -0.31601375 -0.00000030
0.18682811 0.45414692 0.16059674
-0.21676303 0.70621568 -0.00000073
0.55852038 -0.70913333 -0.00000006
-0.71491939 -0.17282532 -0.00000006
-0.77120143 0.42713651 -0.00000004
0.57223719 -0.26870319 -0.00000047
0.05959412 -0.38969031 -0.00000026
-0.30795282 0.61777288 -0.00000062
-0.26693660 -0.43309778 -0.00000023
-0.63842136 -0.55442458 -0.00000007
-0.71581829 0.51968771 -0.00000011
-0.03464451 0.24424189 -0.00000065
0.09654603 0.59324843 0.11129394
0.22039519 -0.65640974 -0.00000009
-0.51176268 -0.75767446 -0.00000003
-0.53939432 0.24967846 -0.00000032
0.72207266 -0.25755605 -0.00000064
-0.37748909 0.12909222 -0.00000047
-0.02034251 -0.36204839 -0.00000027
0.26068822 -0.65720773 -0.00000009
-0.41227332 0.08963119 -0.00000043
0.07005281 0.02044124 -0.00000051
-0.04917340 0.62546194 -0.00000089
0.39316502 0.16484550 0.24438316
-0.31937939 -0.05445180 -0.00000047
0.20762695 -0.19510746 -0.00000038
-0.05974162 0.39949757 -0.00000075
0.70995796 -0.26792908 -0.00000062
-0.39735204 -0.56066984 -0.00000015
0.26851690 0.15173914 0.38349861
0.12492588 -0.19617052 -0.00000038
0.33149284 0.13587363 0.33592293
-0.39899230 -0.50041300 -0.00000019
0.28244820 0.50850028 0.00913916
0.63696790 -0.59666622 -0.00000019
-0.57427782 0.06359394 -0.00000025
-0.73442560 0.25868833 -0.00000008
-0.62429893 0.25465274 -0.00000022
0.37163886 0.14525981 0.28590134
-0.57457143 0.28406927 -0.00000028
-0.53376573 0.22083829 -0.00000032
-0.08878391 -0.12546164 -0.00000042
-0.32637706 0.69396883 -0.00000059
0.60193074 0.07734410 0.12191833
0.52238637 0.15552793 0.12329232
-0.49799550 0.04364542 -0.00000033
-0.61963207 -0.66874290 -0.00000007
-0.26728293 0.07383740 -0.00000055
0.07833857 -0.24818812 -0.00000034
-0.21633573 0.19021945 -0.00000062
-0.53968650 -0.14765985 -0.00000025
-0.55904597 -0.61910993 -0.00000011
-0.08810801 -0.76657230 -0.00000002
-0.15742184 0.18188196 -0.00000061
0.57923830 -0.30072060 -0.00000044
0.22792263 -0.61840141 -0.00000011
0.64679146 -0.38590199 -0.00000042
0.50041503 -0.12682694 -0.00000055
-0.60553104 0.03374010 -0.00000021
-0.11888464 0.01564974 -0.00000051
0.30935574 -0.36532104 -0.00000027
-0.53592443 0.12778082 -0.00000031
-0.36333969 0.47557652 -0.00000055
0.33950308 0.15419617 0.30932984
0.72176337 -0.39371091 -0.00000050
0.06577604 0.56329179 0.17262068
-0.04806286 -0.42131820 -0.00000024
-0.08746062 -0.33043134 -0.00000029
-0.34135824 0.10460977 -0.00000051
-0.67379147 0.41672662 -0.00000016
-0.10100926 0.56929922 -0.00000085
-0.60365063 -0.06263491 -0.00000020
-0.40024081 -0.63643247 -0.00000010
-0.28204921 0.02251096 -0.00000051
-0.11191970 0.58262742 -0.00000084
0.10821180 0.06675748 -0.00000054
0.15569140 0.25270942 0.39547017
0.74562746 -0.20123848 -0.00000073
0.49702397 -0.31936598 -0.00000034
0.35056493 0.12630744 0.32632318
0.49741253 0.25632122 0.04672230
0.29700062 -0.12181836 -0.00000042
-0.10845726 -0.44195884 -0.00000022
