ply
format ascii 1.0
element vertex 1192
property float x
property float y
property float z
end_header
-0.55244136 0.23626819 0.05995988
-0.56099814 -0.39241636 0.01261885
-0.15986964 0.49383780 0.00621636
-0.75736386 -0.28912759 0.05757493
-0.32440734 -0.12885208 0.00000531
-0.63006514 -0.41556814 0.02379988
-0.23273154 -0.10722874 0.00000394
-0.25794715 0.06717818 0.00000718
-0.25452185 0.37000266 0.01436781
-0.71621674 -0.09623351 0.06485872
-0.57405084 -0.21263392 0.02907051
-0.04717056 -0.42729062 0.00000094
-0.32743591 -0.00039434 0.00000544
-0.01798321 0.59593421 0.00000353
-0.34583303 0.17915592 0.01667364
-0.25553501 -0.01745917 0.00000434
-0.21245094 -0.57997167 0.00000334
-0.48033729 -0.11665034 0.01892698
-0.10907407 -0.46700048 0.00000185
-0.68794763 0.04065668 0.07020284
-0.26963824 -0.04572239 0.00000454
-0.57414907 -0.64304394 0.00000876
-0.04875019 -0.34515950 0.00000102
-0.61574942 -0.52477360 0.01260593
-0.41610998 0.27488852 0.03733852
-0.57951945 -0.41314033 0.01448702
-0.12284765 -0.20146424 0.00000223
-0.73086280 -0.44342029 0.04057981
-0.03897053 0.31055784 0.00000714
-0.25710997 -0.05817014 0.00000434
-0.20988894 0.40137085 0.00841978
-0.13410842 0.00652238 0.00000989
-0.43612289 0.29835501 0.04292777
-0.66472071 -0.49553418 0.02408845
-0.02082339 0.26135769 0.00000809
-0.47681674 -0.29819769 0.00412981
-0.78335565 0.00089371 -0.00000169
-0.03945851 0.51611590 0.00000431
-0.64960653 -0.09673372 0.05229797
-0.27697355 -0.71690911 0.00000423
-0.05931580 0.57795948 0.00000316
-0.26688501 -0.42628694 0.00000426
-0.10547442 0.03293672 0.00000996
-0.75867462 -0.30316886 0.05672806
-0.46647903 -0.08783030 0.01856576
-0.73179179 0.05465729 -0.00000153
-0.29444942 -0.71140385 0.00000450
-0.00898086 -0.54627120 0.00000029
-0.59448200 -0.76500803 0.00000899
-0.71994191 -0.76395082 0.01357001
-0.67088062 -0.58251870 0.01847378
-0.08924169 -0.56564939 0.00000149
-0.73727858 -0.62809992 0.02740649
-0.29595798 0.02997067 0.00000712
-0.30508476 -0.58246553 0.00000474
-0.26444793 -0.63605666 0.00000409
-0.54369390 -0.38614964 0.00985382
-0.09911780 -0.50054109 0.00000168
-0.66879874 -0.09208770 0.05626758
-0.14644597 -0.53068703 0.00000238
-0.65468001 -0.39882708 0.02973059
-0.46056589 0.03479977 0.02700220
-0.40606603 -0.30066994 0.00000644
-0.31495622 0.10459991 0.00506426
-0.59302866 -0.33149594 0.02338343
-0.68705910 -0.72903770 0.01010702
-0.59057921 -0.13790801 0.03799580
-0.12625845 0.03045193 0.00000968
-0.23973551 0.51800096 0.02311139
-0.24639735 -0.18887687 0.00000410
-0.40886110 -0.36893749 0.00000644
-0.63783765 -0.27417135 0.03627022
-0.22917420 0.22293118 0.00000548
-0.27040559 -0.55522263 0.00000423
-0.41777217 -0.64071494 0.00000640
-0.20619342 0.12629996 0.00000715
-0.39696032 -0.67420489 0.00000607
-0.13835210 -0.05023010 0.00000256
-0.29205823 0.32996121 0.01830649
-0.30765429 -0.02390592 0.00000513
-0.19696009 -0.63677835 0.00000307
-0.04103882 -0.15097512 0.00000102
-0.37868658 0.35549286 0.03657932
-0.49552029 0.04419757 0.03430486
-0.13972129 -0.05369182 0.00000257
-0.28927228 -0.21339612 0.00000473
-0.40409064 -0.73618656 0.00000614
-0.33487949 -0.39026576 0.00000531
-0.07733482 0.30926046 0.00000658
-0.01772102 -0.32677999 0.00000056
-0.71588039 -0.44569167 0.03758653
-0.14503063 0.54724330 0.00758501
-0.49582687 -0.48568350 0.00000768
-0.52743828 -0.09602177 0.02938746
-0.20226701 0.19676650 0.00000624
-0.56932533 -0.29324469 0.02190578
-0.29308006 0.50193310 0.03188838
-0.37892491 0.22049761 0.02611333
-0.15942171 0.59219998 0.01379068
-0.19192153 0.18885840 0.00000651
-0.25134793 0.30954292 0.00906374
-0.49104244 0.05258539 0.03411616
-0.77057272 -0.74683172 0.02442058
-0.74831992 -0.00563345 0.07794783
-0.74461579 -0.65888977 0.02638841
-0.69679451 -0.66920120 0.01659604
-0.32838848 -0.70058060 0.00000502
-0.38939443 0.25517261 0.03078127
-0.26245096 -0.53019047 0.00000413
-0.43628955 -0.72387666 0.00000663
-0.00296808 -0.38819784 0.00000026
-0.08348462 -0.10705236 0.00000169
-0.63598084 -0.43176538 0.02365083
-0.14736372 -0.04524620 0.00000270
-0.52484328 0.05871557 0.04094755
-0.31860253 -0.21663500 0.00000517
-0.48229250 -0.02384716 0.02652023
-0.51146656 -0.55032933 0.00000787
-0.78282547 -0.77198982 0.02476503
-0.08457561 0.12074491 0.00000906
-0.50900149 -0.29006344 0.01081344
-0.72137147 -0.01240510 0.07235464
-0.25902528 0.10042272 0.00000671
-0.09651024 -0.56016904 0.00000161
-0.14774483 -0.26715794 0.00000256
-0.66383314 -0.23213485 0.04442998
-0.43625388 0.18090634 0.03380780
-0.53275311 -0.50073969 0.00000823
-0.27832425 -0.23349275 0.00000455
-0.05091115 -0.43309456 0.00000100
-0.35038862 -0.47180414 0.00000549
-0.25555676 0.27722329 0.00733852
-0.22805133 -0.40950885 0.00000369
-0.21049108 -0.60490304 0.00000330
-0.32342467 -0.66427386 0.00000496
-0.03388405 -0.13557386 0.00000093
-0.01471118 -0.76115662 0.00000025
-0.49949273 0.07537380 0.03747902
-0.35419342 -0.56016171 0.00000549
-0.24142674 0.45773554 0.01873703
-0.63976920 -0.76136816 0.00000968
-0.54049027 0.17723261 0.05311676
-0.38668913 -0.54456937 0.00000599
-0.34412724 0.42042124 0.03513799
-0.44562721 -0.03259435 0.01894660
-0.49384239 -0.37352183 0.00146563
-0.26989773 -0.69883180 0.00000414
-0.12629285 0.41534373 0.00000438
-0.54025650 -0.44652426 0.00450684
-0.44811794 -0.20348068 0.00610954
-0.69024885 -0.12261413 0.05792310
-0.69414473 -0.79118955 0.00659978
-0.61997640 -0.30401456 0.03058894
-0.07822152 -0.21789037 0.00000154
-0.76928556 -0.03354475 0.07971588
-0.08365314 0.16074771 0.00000853
-0.37495235 0.38392523 0.03809109
-0.24685594 -0.45287180 0.00000394
-0.26511073 0.07388657 0.00000698
-0.18570670 -0.70275664 0.00000286
-0.70627177 -0.01177645 0.06956506
-0.70388943 -0.76772875 0.01025828
-0.21033628 -0.29785100 0.00000349
-0.31450048 0.46765456 0.03324618
-0.10718366 0.50342137 0.00000346
-0.04661102 0.33903140 0.00000664
-0.07242087 0.03761012 0.00001039
-0.18591261 -0.03266852 0.00000328
-0.25897411 -0.30090803 0.00000422
-0.49390537 -0.69344634 0.00000752
-0.00087653 -0.07210314 0.00000047
-0.43219361 -0.58741242 0.00000665
-0.53378993 -0.63477302 0.00000816
-0.25853142 0.46664295 0.02264601
-0.57668328 -0.01463555 0.04498161
-0.55409390 -0.21903501 0.02482048
-0.52476317 -0.63881457 0.00000802
-0.37950656 0.03108588 0.01147500
-0.25036180 -0.45704141 0.00000399
-0.74781632 -0.01307558 0.07727371
-0.78097117 -0.73456627 0.02733030
-0.52390313 -0.77655220 0.00000792
-0.12382716 -0.28734109 0.00000219
-0.71701294 -0.67507219 0.01993961
-0.78156817 -0.36637631 0.05611022
-0.70401418 -0.39723206 0.03912893
-0.42682412 0.07821440 0.02403949
-0.76592976 -0.03326706 0.07910666
-0.13230602 -0.03035466 0.00000248
-0.06148165 0.28749180 0.00000712
-0.05526466 -0.49390674 0.00000103
-0.31862548 0.01985173 0.00000692
-0.75573939 -0.70792145 0.02466178
-0.69950938 -0.38094872 0.03954992
-0.75561982 -0.66212797 0.02820484
-0.17566596 -0.45521659 0.00000287
-0.39666826 0.31475952 0.03678811
-0.18161856 -0.46086681 0.00000295
-0.15054426 -0.41633737 0.00000251
-0.57447946 -0.16875798 0.03256728
-0.43648729 -0.73189944 0.00000663
-0.28705934 0.43308127 0.02539573
-0.31067455 -0.49436149 0.00000488
-0.43715760 0.35045561 0.04717886
-0.47589886 0.20731927 0.04331702
-0.56126779 -0.76876479 0.00000849
-0.62482268 -0.17711423 0.04138049
-0.10281972 0.09723002 0.00000911
-0.08051473 0.36876744 0.00000571
-0.35416040 0.26799116 0.02515582
-0.51137686 -0.41985473 0.00115437
-0.32749361 -0.15755875 0.00000534
-0.17391121 -0.70374024 0.00000268
-0.01862781 -0.50195426 0.00000047
-0.61028486 -0.41322199 0.02026412
-0.09550441 0.65257716 0.00647610
-0.49443522 0.25537646 0.05054336
-0.29812905 -0.07780195 0.00000495
-0.59799027 0.15190761 0.06195414
-0.52331960 -0.73935395 0.00000793
-0.53775650 0.07846336 0.04491263
-0.39140132 -0.42332792 0.00000614
-0.73576003 -0.35648483 0.04826930
-0.42875633 -0.31138286 0.00000677
-0.57517219 -0.00681144 0.04530673
-0.54279035 -0.70272171 0.00000825
-0.16667908 -0.28504968 0.00000284
-0.04594311 0.71300548 0.00186424
-0.71571863 -0.17360336 0.05874102
-0.11842927 -0.61806691 0.00000190
-0.57222706 -0.06755026 0.04002394
-0.11147833 -0.71530879 0.00000174
-0.55712372 0.06193179 0.04726625
-0.77072257 -0.77658337 0.02213224
-0.13475262 -0.77046543 0.00000205
-0.46212333 -0.51201004 0.00000715
-0.29672274 0.42061463 0.02624166
-0.58152330 -0.78696102 0.00000878
-0.11737717 -0.60953164 0.00000189
-0.18146433 -0.64801037 0.00000283
-0.69226509 -0.71983165 0.01180244
-0.00295996 0.18276073 0.00000944
-0.08407468 -0.45088348 0.00000149
-0.68429977 -0.26194307 0.04595655
-0.13472898 0.11433748 0.00000839
-0.15086752 0.12139468 0.00000805
-0.46295688 -0.05064989 0.02079852
-0.14499605 -0.19242427 0.00000257
-0.56926095 -0.75111943 0.00000862
-0.14473222 0.22038606 0.00000679
-0.36346129 0.10170542 0.01395718
-0.41217449 0.24030115 0.03390571
-0.04496200 0.32028627 0.00000692
-0.01002773 0.11530205 0.00001026
-0.05875307 -0.65400505 0.00000098
-0.60294527 -0.65703326 0.00000919
-0.69717884 -0.42562866 0.03563301
-0.10463952 0.49250358 0.00000365
-0.17678250 -0.25701916 0.00000301
-0.24428757 0.32214892 0.00871799
-0.28903407 -0.46164453 0.00000457
-0.50244826 -0.12401078 0.02251044
-0.06457173 -0.32060710 0.00000127
-0.06577744 -0.67549580 0.00000107
-0.37172860 -0.43438175 0.00000584
-0.13141368 -0.63721979 0.00000208
-0.70777738 -0.23378102 0.05256272
-0.63557690 0.11218503 0.06592710
-0.77727580 -0.51707286 0.04356993
-0.17687356 -0.20055109 0.00000304
-0.35673013 0.14684437 0.01620636
-0.24533784 -0.48136082 0.00000390
-0.06473866 -0.67809016 0.00000105
-0.06863621 -0.59140396 0.00000117
-0.30601797 -0.32023093 0.00000492
-0.73774183 -0.80011666 0.01410015
-0.20152028 0.34172752 0.00220274
-0.46995452 -0.01906658 0.02457307
-0.32275975 0.28454441 0.02054177
-0.34477755 -0.66438019 0.00000529
-0.23947139 0.19242001 0.00000574
-0.31038678 -0.14383996 0.00000509
-0.52263659 0.05164717 0.03998238
-0.04818805 -0.15113394 0.00000113
-0.53505254 -0.55898803 0.00000822
-0.22358122 -0.29252249 0.00000369
-0.44437778 0.28367525 0.04333661
-0.62084472 -0.56036925 0.01079229
-0.70457000 -0.36356741 0.04185455
-0.43092415 0.27412900 0.04006424
-0.17489856 0.10637640 0.00000790
-0.28305748 -0.16339852 0.00000467
-0.30352199 -0.07998284 0.00000503
-0.30841511 -0.57184869 0.00000480
-0.06281935 -0.52299380 0.00000112
-0.66255891 -0.30891144 0.03821259
-0.41567758 -0.61996704 0.00000638
-0.05119193 0.14818589 0.00000919
-0.19323383 -0.09189422 0.00000336
-0.03993691 0.08413712 0.00001024
-0.27810308 -0.75760752 0.00000422
-0.35699451 0.34012839 0.03130523
-0.10707497 -0.62582326 0.00000172
-0.03297531 -0.66326416 0.00000058
-0.62057120 -0.10061387 0.04653762
-0.14848574 0.07551820 0.00000872
-0.49331480 0.04846613 0.03422261
-0.28659827 0.40666610 0.02325237
-0.24105486 0.45732695 0.01863531
-0.29491532 -0.67010725 0.00000453
-0.32626703 -0.27384040 0.00000525
-0.36611959 -0.04979483 0.00266103
-0.53960001 -0.46570688 0.00288986
-0.47684842 -0.22813769 0.00959067
-0.72387856 -0.46627200 0.03748765
-0.29936436 -0.04622753 0.00000499
-0.09172333 0.55405861 0.00000300
-0.11205528 0.57351059 0.00343128
-0.63438529 0.10836758 0.06540586
-0.29432443 -0.30298498 0.00000475
-0.05778290 -0.34293744 0.00000116
-0.70875323 -0.41161674 0.03889980
-0.30105066 0.43296036 0.02801649
-0.10082893 -0.73239815 0.00000156
-0.26070267 0.01453283 0.00000787
-0.27525213 -0.67331660 0.00000423
-0.70618272 -0.69340020 0.01647669
-0.54120547 0.06614305 0.04460173
-0.06924317 -0.68382043 0.00000112
-0.45207816 0.23843884 0.04126205
-0.47587985 -0.63630497 0.00000728
-0.05609418 -0.12659834 0.00000127
-0.36521831 0.31287840 0.03072950
-0.74241674 -0.23989752 0.05859821
-0.26248398 -0.11115580 0.00000439
-0.25530282 -0.21890724 0.00000422
-0.46020520 0.25580716 0.04414212
-0.13051391 -0.54201645 0.00000213
-0.11448074 0.30225307 0.00000612
-0.38524979 -0.59254789 0.00000594
-0.18441407 -0.29312196 0.00000310
-0.60929763 -0.77234393 0.00000921
-0.25419274 0.27100548 0.00659798
-0.19718599 -0.45154124 0.00000319
-0.17257763 0.22023381 0.00000637
-0.06880657 -0.15833651 0.00000144
-0.34066674 -0.36382931 0.00000541
-0.00340250 -0.18389863 0.00000044
-0.54113156 -0.62218177 0.00000828
-0.23237053 -0.30558437 0.00000382
-0.61305588 -0.33103529 0.02718414
-0.37761855 -0.01845927 0.00726247
-0.46701887 0.13567442 0.03606941
-0.07174417 0.03381806 0.00001045
-0.15273039 0.61528528 0.01433023
-0.30998164 -0.31163961 0.00000498
-0.26107913 -0.35713112 0.00000422
-0.27576974 -0.33787903 0.00000445
-0.17439127 -0.53856748 0.00000279
-0.50732166 -0.13722515 0.02239770
-0.13031983 -0.78066939 0.00000198
-0.79229265 -0.17490730 0.07303423
-0.03614219 0.46638453 0.00000504
-0.01198176 -0.14741185 0.00000059
-0.66366458 -0.13068870 0.05229694
-0.51692599 0.25963673 0.05510302
-0.28238070 -0.32728398 0.00000456
-0.02024182 -0.66635913 0.00000039
-0.35732776 0.34748298 0.03194051
-0.21328352 -0.24752304 0.00000356
-0.63306963 -0.25017470 0.03724229
-0.41081637 -0.31733018 0.00000650
-0.03297457 0.33179185 0.00000694
-0.26282892 0.07747898 0.00000697
-0.71556920 0.05524215 0.07653094
-0.30712590 -0.79716623 0.00000464
-0.69129944 -0.32444254 0.04240616
-0.11597861 0.30905533 0.00000600
-0.05896698 0.02496105 0.00001077
-0.68550748 -0.76624435 0.00691839
-0.04531448 -0.49115333 0.00000088
-0.03769272 0.13088870 0.00000963
-0.10516041 -0.59790182 0.00000171
-0.38888291 0.13188887 0.02108619
-0.21913804 -0.74828666 0.00000334
-0.06782405 0.20235199 0.00000819
-0.74837828 -0.10794076 0.06999311
-0.26206812 0.09386451 0.00000676
-0.07506078 0.65861386 0.00310300
-0.64148223 -0.28202826 0.03634361
-0.36580965 -0.43489203 0.00000575
-0.43460834 -0.07253106 0.01376572
-0.17722912 -0.47632626 0.00000288
-0.09374177 0.63412631 0.00470816
-0.01005426 -0.14580642 0.00000056
-0.05741722 0.39581749 0.00000569
-0.46127093 -0.56323975 0.00000711
-0.28960678 0.49091402 0.03037750
-0.76513082 -0.43008891 0.04805956
-0.08985870 0.18044980 0.00000816
-0.65875095 -0.52106863 0.02097810
-0.60731620 -0.41972834 0.01919947
-0.05803803 0.38023114 0.00000590
-0.15248197 -0.50391132 0.00000249
-0.12612356 -0.03276279 0.00000238
-0.58963460 -0.00623855 0.04807007
-0.71276581 -0.45316795 0.03641892
-0.03634873 -0.56826490 0.00000069
-0.63669264 -0.68135929 0.00435114
-0.49888605 -0.07630669 0.02555506
-0.06757537 0.64864290 0.00091951
-0.44796929 -0.73939013 0.00000680
-0.11389292 0.24973544 0.00000685
-0.49246907 0.27960578 0.05206025
-0.28788069 0.23719285 0.01029818
-0.22585209 0.34658155 0.00715471
-0.20873851 -0.06094416 0.00000361
-0.10214342 -0.15169339 0.00000195
-0.77920723 -0.28971609 0.06163526
-0.36257577 -0.47093147 0.00000568
-0.28094411 -0.41593859 0.00000448
-0.19278812 -0.21970981 0.00000327
-0.00183032 -0.04868785 0.00000050
-0.01781709 -0.52997339 0.00000044
-0.74202287 -0.13011055 0.06707222
-0.19950461 0.47858423 0.01247954
-0.57722533 -0.17807800 0.03235781
-0.49302700 -0.24215615 0.01154054
-0.25916255 0.43936673 0.02064091
-0.00088170 0.47211072 0.00000550
-0.08866936 -0.74758822 0.00000137
-0.48024890 -0.78919429 0.00000725
-0.16987199 -0.33949360 0.00000285
-0.18691820 0.02420397 0.00000885
-0.78118223 -0.34460953 0.05773245
-0.20066112 -0.54908288 0.00000318
-0.27016625 0.30557880 0.01229267
-0.00489420 -0.23138952 0.00000043
-0.18370403 -0.26061019 0.00000311
-0.42835394 -0.09048061 0.01119241
-0.18875682 0.46998003 0.00978918
-0.24852227 -0.65716571 0.00000384
-0.23870252 0.50837088 0.02216740
-0.65630430 -0.25325409 0.04137032
-0.16453619 -0.50841391 0.00000266
-0.48949060 0.30428940 -0.00000074
-0.11205052 0.17151403 0.00000795
-0.33242086 0.09036550 0.00723908
-0.05542088 0.54862171 0.00000362
-0.03945540 -0.67203254 0.00000068
-0.08601920 -0.13026366 0.00000172
-0.58017063 -0.49393433 0.00831878
-0.73039722 -0.73195487 0.01802665
-0.53575397 -0.22515862 0.02089605
-0.52281314 0.14637248 0.04739092
-0.13986298 0.19875216 0.00000716
-0.20622161 -0.78064108 0.00000312
-0.53631872 -0.13803811 0.02778545
-0.21410467 0.19225949 0.00000613
-0.73696220 -0.65048975 0.02560371
-0.53787142 -0.12217073 0.02931277
-0.17556909 -0.41212454 0.00000289
-0.21662433 0.51392609 0.01844954
-0.14955746 0.55376178 0.00894352
-0.18898420 0.17644444 0.00000672
-0.73771036 -0.72523814 0.01992436
-0.33858380 -0.15770955 0.00000551
-0.75889921 -0.71004397 0.02509051
-0.27932677 -0.29781637 0.00000453
-0.06697986 0.45431712 0.00000474
-0.79055464 -0.12729345 0.07641478
-0.01448538 0.39983687 0.00000628
-0.56319058 0.09823633 0.05123341
-0.07714217 -0.60345894 0.00000129
-0.33836886 0.28562823 0.02356046
-0.64312297 -0.68218613 0.00549558
-0.19675766 -0.25650534 0.00000331
-0.12346182 -0.62077397 0.00000197
-0.54071975 -0.13961963 0.02848964
-0.63468957 -0.31952775 0.03214695
-0.46434340 -0.55658609 0.00000716
-0.34759763 0.29322928 0.02588716
-0.04553047 0.33900374 0.00000665
-0.09755017 0.65643597 0.00716113
-0.27826166 0.22662751 0.00766732
-0.26752508 -0.57292056 0.00000418
-0.34400055 -0.62846142 0.00000530
-0.53218699 -0.55941266 0.00000818
-0.08085021 0.13762292 0.00000889
-0.70161170 0.01326043 0.07063841
-0.35247946 0.01883274 0.00544024
-0.30154368 -0.54527420 0.00000471
-0.50155306 -0.04548578 0.02845615
-0.44472098 0.21014811 0.03767627
-0.65863580 -0.14108983 0.05054176
-0.20336419 0.42597535 0.00910893
-0.18589820 0.23657431 0.00000594
-0.18898606 -0.71615344 0.00000290
-0.40055919 -0.45994815 0.00000626
-0.41989511 0.05464341 0.02090169
-0.56784123 -0.24969763 0.02501740
-0.26832277 -0.79378510 0.00000405
-0.18984325 0.28598273 0.00000520
-0.17703377 0.62286055 0.00000034
-0.25413120 0.42419335 0.01851368
-0.54571193 0.17067528 0.05358781
-0.02772857 0.40140447 0.00000606
-0.63636774 -0.57757264 0.01237094
-0.04933867 0.13979799 0.00000933
-0.60380328 -0.21267371 0.03466045
-0.33187798 -0.12061045 0.00000543
-0.28987142 0.27175367 0.01336333
-0.47669330 0.31509656 -0.00000066
-0.46699652 -0.62271363 0.00000716
-0.51551187 0.18776859 0.04924150
-0.42573518 -0.62272525 0.00000653
-0.73376501 0.00929783 0.07637426
-0.24324667 -0.75510454 0.00000370
-0.00946050 -0.08488512 0.00000059
-0.18435012 0.47954595 0.00970558
-0.54128212 -0.51171923 0.00000835
-0.32836831 -0.50665760 0.00000514
-0.02644530 0.41659108 0.00000587
-0.42855334 -0.28975347 0.00000679
-0.32188028 -0.12363923 0.00000528
-0.01696799 -0.07947650 0.00000071
-0.16132827 -0.41703856 0.00000267
-0.47239906 -0.45475003 0.00000734
-0.19453260 -0.62348521 0.00000305
-0.47193488 0.04181069 0.02968529
-0.35725069 -0.04435698 0.00141719
-0.58079487 0.03486578 0.04960872
-0.14873356 0.39176083 0.00000437
-0.64719063 -0.30624187 0.03553142
-0.12390233 0.38120845 0.00000489
-0.72795868 -0.54748732 0.03193111
-0.41683355 -0.30787992 0.00000660
-0.52232933 0.23947008 0.05454859
-0.23421395 -0.05592412 0.00000400
-0.33823088 -0.45745009 0.00000532
-0.02685332 0.02604594 0.00001124
-0.12740123 -0.61229569 0.00000204
-0.37560037 -0.58634138 0.00000580
-0.52986687 -0.69157529 0.00000806
-0.36475608 0.35903335 0.03423624
-0.74709767 -0.51456243 0.03809246
-0.17518294 0.06497074 0.00000846
-0.69773954 -0.48426965 0.03117260
-0.49176607 -0.53232574 0.00000759
-0.49333757 -0.56962609 0.00000759
-0.15226132 0.12173220 0.00000803
-0.40294760 0.06352754 0.01840752
-0.22251467 -0.66478872 0.00000344
-0.49163663 0.02304482 0.03192782
-0.24791560 0.54629391 0.02685203
-0.42963454 -0.15464289 0.00643745
-0.15563525 -0.78699952 0.00000236
-0.55234087 -0.10894973 0.03306223
-0.40334794 -0.16862452 0.00040731
-0.69975060 -0.12490245 0.05953113
-0.44692987 0.12980533 0.03183599
-0.08625146 -0.75998145 0.00000133
-0.31263757 -0.74028909 0.00000475
-0.05362317 -0.26650512 0.00000114
-0.60768765 -0.78119761 0.00000918
-0.09777237 -0.39525551 0.00000173
-0.05313968 0.72924155 0.00448124
-0.37065649 -0.07532467 0.00152614
-0.32715100 -0.59028244 0.00000507
-0.02291630 0.42290494 0.00000584
-0.43172148 -0.11572124 0.00986022
-0.12627105 -0.43811733 0.00000213
-0.59351951 -0.61521310 0.00138536
-0.05456089 -0.59762508 0.00000095
-0.13054878 -0.17163046 0.00000236
-0.15449081 0.39620379 0.00000422
-0.38630384 -0.66210449 0.00000592
-0.64466810 -0.29414192 0.03599933
-0.40068847 0.06275033 0.01792231
-0.40103179 -0.52893746 0.00000622
-0.38933119 -0.66316342 0.00000596
-0.75188071 -0.72192496 0.02284610
-0.68596524 -0.66727334 0.01471044
-0.18034104 -0.59037852 0.00000285
-0.24244197 -0.04336753 0.00000413
-0.29416373 0.14345933 0.00418118
-0.22449189 0.08857449 0.00000739
-0.51619303 -0.57903212 0.00000793
-0.47493711 -0.23347241 0.00881601
-0.51747990 -0.50019932 0.00000800
-0.76714069 -0.73695058 0.02454478
-0.61676097 -0.54501933 0.01121975
-0.69636542 -0.48699838 0.03070182
-0.19675253 -0.75920296 0.00000299
-0.39896968 -0.50290579 0.00000621
-0.28774071 0.17144802 0.00515295
-0.11819460 -0.38271990 0.00000204
-0.06151224 0.45124325 0.00000487
-0.47224662 -0.48650017 0.00000732
-0.57090485 0.07128963 0.05058551
-0.01416556 0.75122291 0.00000146
-0.71400905 -0.70604414 0.01696342
-0.36427030 0.31915480 0.03103996
-0.28948200 -0.63733679 0.00000447
-0.42076001 0.17332923 0.03030521
-0.49394950 0.29369482 0.05343554
-0.15494169 -0.43643820 0.00000257
-0.54144752 -0.18994285 0.02470827
-0.56289786 -0.16041237 0.03103989
-0.16337053 0.19083089 0.00000691
-0.12455714 -0.68635482 0.00000195
-0.34284747 -0.40210879 0.00000542
-0.41079733 -0.75820273 0.00000622
-0.62426752 -0.45430633 0.01969384
-0.66982299 0.11597378 -0.00000129
-0.25509134 -0.28942317 0.00000417
-0.72268873 -0.68257904 0.02042206
-0.49640456 -0.51516700 0.00000767
-0.31778255 0.23115271 0.01544903
-0.57527465 0.14802872 0.05738191
-0.14826740 -0.10556109 0.00000267
-0.40238014 -0.60612220 0.00000619
-0.43771431 -0.10236757 0.01202651
-0.29406276 0.02016645 0.00000729
-0.00254164 0.47186553 0.00000547
-0.44406521 -0.19432323 0.00606069
-0.58922929 0.10455092 0.05661999
-0.22867566 0.47065160 0.01734565
-0.22359733 0.34317526 0.00646564
-0.15189946 -0.21861085 0.00000266
-0.24719317 0.19166821 0.00000563
-0.53545582 -0.19824733 0.02293533
-0.06029392 0.52367789 0.00000389
-0.45524675 -0.36955124 0.00000714
-0.57548684 -0.49967590 0.00699125
-0.09129568 -0.73237908 0.00000142
-0.23647524 -0.29138774 0.00000389
-0.14144905 -0.44056770 0.00000236
-0.44899473 -0.43075657 0.00000701
-0.59597719 -0.15043570 0.03803514
-0.23535097 -0.56831264 0.00000370
-0.66916227 -0.45330709 0.02821122
-0.17886993 -0.69742864 0.00000276
-0.43041816 0.10869224 0.02708814
-0.70751607 -0.24530485 0.05161635
-0.26472005 0.28453556 0.00963042
-0.32359758 -0.06885526 0.00000534
-0.58335382 -0.68247926 0.00000888
-0.28665429 0.06167697 0.00000683
-0.00950092 -0.15641958 0.00000055
-0.39574105 0.11176667 0.02080870
-0.33715838 0.45049855 0.03616977
-0.49988180 -0.79396784 0.00000755
-0.29763922 -0.37861684 0.00000475
-0.55963713 0.23769382 -0.00000106
-0.30757609 -0.70532483 0.00000470
-0.66506296 0.02475227 0.06466251
-0.35718167 -0.02246073 0.00310907
-0.65824169 -0.31104046 0.03723524
-0.56803519 -0.76913005 0.00000859
-0.01160319 -0.17592306 0.00000057
-0.40581319 -0.77168447 0.00000614
-0.34497690 -0.77922577 0.00000522
-0.26151702 -0.37465155 0.00000421
-0.01991680 0.01553439 0.00001149
-0.33659095 0.36080903 0.02907984
-0.00805990 0.50347507 0.00000496
-0.36545816 0.30962902 0.03052158
-0.42527536 -0.55020249 0.00000657
-0.59669220 -0.02032091 0.04830034
-0.25114575 0.03268302 0.00000776
-0.29980415 -0.40653884 0.00000477
-0.39060986 -0.24859165 0.00000624
-0.71625638 -0.70218676 0.01768622
-0.39073384 -0.38759369 0.00000615
-0.54929125 -0.52183723 0.00034134
-0.45659524 -0.30444187 0.00000720
-0.13955149 0.18431726 0.00000736
-0.05259750 0.42087469 0.00000542
-0.21946117 0.01963946 0.00000842
-0.04775904 0.09285756 0.00001000
-0.04049065 0.61413068 0.00000294
-0.56580156 -0.70432138 0.00000860
-0.05643390 0.20095178 0.00000839
-0.55929464 -0.05680967 0.03842909
-0.42809644 0.14167243 0.02921954
-0.09030322 -0.11674700 0.00000179
-0.15425114 0.10566257 0.00000822
-0.27400690 0.50913507 0.02886364
-0.19252847 -0.78370303 0.00000292
-0.12137349 -0.75196463 0.00000186
-0.17530553 -0.75325274 0.00000267
-0.00419179 0.17653660 0.00000951
-0.46086371 -0.50002640 0.00000714
-0.17647071 -0.49921423 0.00000285
-0.39358583 -0.59043539 0.00000607
-0.11780751 -0.07867272 0.00000223
-0.00725145 -0.32093343 0.00000041
-0.22080460 0.22983207 0.00000551
-0.05795284 -0.68524194 0.00000095
-0.35148337 -0.20894893 0.00000567
-0.38119611 0.41327378 0.04154992
-0.37284175 -0.20765910 0.00000600
-0.22770762 0.46724004 0.01689805
-0.72646570 -0.05465136 0.07002298
-0.34980142 -0.27726170 0.00000560
-0.19052607 -0.23711129 0.00000323
-0.05748357 -0.31600976 0.00000117
-0.05769601 -0.78021717 0.00000088
-0.67574912 -0.39233720 0.03419660
-0.19380777 -0.75087208 0.00000296
-0.38211745 -0.30316028 0.00000608
-0.33033568 -0.50374669 0.00000517
-0.37052342 -0.38126442 0.00000585
-0.02099076 0.19497856 0.00000900
-0.61966431 0.01145773 0.05509308
-0.46811196 -0.06818298 0.02040248
-0.66669506 -0.33654681 0.03683843
-0.03576309 -0.50986439 0.00000072
-0.50760317 0.19294403 0.04815773
-0.56366163 0.14197630 0.05472758
-0.02939615 0.52462769 0.00000434
-0.07319902 -0.29402411 0.00000142
-0.75185841 -0.21247377 0.06250834
-0.06341460 -0.62324750 0.00000107
-0.22182487 -0.08167902 0.00000380
-0.02490446 0.60670453 0.00000328
-0.33477691 -0.58518052 0.00000519
-0.46882969 0.05926881 0.03046085
-0.08036638 -0.48076314 0.00000141
-0.55841672 -0.72272730 0.00000847
-0.70785779 -0.34649619 0.04380179
-0.49057850 -0.66721648 0.00000749
-0.76913553 -0.04681857 0.07865418
-0.33392462 -0.25274858 0.00000538
-0.24752326 -0.06931794 0.00000419
-0.71808732 0.02550413 0.07468890
-0.42008582 -0.73056364 0.00000638
-0.13841903 -0.03633146 0.00000257
-0.51105088 -0.44676423 0.00000793
-0.00444715 -0.73721701 0.00000011
-0.16346484 -0.43807954 0.00000269
-0.08594781 0.21286415 0.00000778
-0.37329373 0.40440381 0.03937377
-0.16350038 0.43521163 0.00233423
-0.10032071 -0.44521958 0.00000174
-0.07737791 -0.18270376 0.00000155
-0.24370156 -0.05793167 0.00000414
-0.30524644 0.16902594 0.00825520
-0.57599205 -0.44462228 0.01137271
-0.53251243 -0.30387211 0.01415802
-0.49296695 -0.78873742 0.00000745
-0.32079539 0.05887435 0.00260174
-0.46528763 -0.66188025 0.00000711
-0.56549090 0.04614533 0.04761002
-0.13266726 0.43225026 0.00000405
-0.37540844 -0.16758962 0.00000606
-0.21594314 0.21730083 0.00000575
-0.52365834 -0.11947273 0.02685098
-0.07850486 0.51067781 0.00000379
-0.71111727 -0.11469658 0.06246255
-0.07112795 -0.11465586 0.00000150
-0.14641604 -0.13198616 0.00000263
-0.61468649 0.16732746 0.06629339
-0.07471269 0.50819468 0.00000388
-0.33449331 -0.77129799 0.00000507
-0.11841611 -0.15197469 0.00000219
-0.36549872 -0.32434240 0.00000581
-0.05266190 0.73453903 0.00480389
-0.18511763 -0.05457801 0.00000326
-0.44980794 -0.46557829 0.00000700
-0.44263986 -0.00371537 0.02063355
-0.10013970 -0.62469876 0.00000162
-0.72202438 -0.68523830 0.02009012
-0.00873836 -0.11411166 0.00000056
-0.36572528 0.05176411 0.01049433
-0.10743463 0.02844354 0.00000999
-0.62735307 -0.55940336 0.01209098
-0.44169050 -0.00219414 0.02057353
-0.19722956 0.53016979 0.01606833
-0.15217102 -0.19612831 0.00000267
-0.36490244 0.09510279 0.01371401
-0.04520731 -0.49684733 0.00000087
-0.11580996 -0.62414259 0.00000186
-0.40686893 -0.63824713 0.00000624
-0.54817784 -0.69221604 0.00000834
-0.00133679 -0.52080661 0.00000017
-0.25873643 -0.53055638 0.00000407
-0.56457305 -0.05303589 0.03971518
-0.21687649 -0.64873248 0.00000337
-0.64488834 -0.56272900 0.01512843
-0.14602409 -0.06542830 0.00000266
-0.51076639 -0.62120146 0.00000782
-0.06404259 -0.44792306 0.00000119
-0.35954416 -0.38629809 0.00000568
-0.12588504 -0.54028416 0.00000206
-0.04288192 0.44976142 0.00000517
-0.42803302 -0.01202629 0.01724057
-0.09649879 0.14895166 0.00000850
-0.46600920 0.22097069 0.04252081
-0.29057586 -0.41676524 0.00000462
-0.70069879 -0.05005192 0.06553727
-0.33684635 -0.73301542 0.00000512
-0.18604429 0.50615400 0.01209578
-0.61970127 -0.56263566 0.01040087
-0.20686969 0.13011840 0.00000709
-0.42394733 -0.28007185 0.00000672
-0.22980161 0.40947863 0.01279436
-0.07766089 -0.29797655 0.00000149
-0.54316109 -0.46353191 0.00372864
-0.54149622 -0.29335168 0.01666597
-0.58349603 -0.39846128 0.01637748
-0.40049100 -0.26452127 0.00000638
-0.41986793 -0.63014352 0.00000644
-0.24835092 0.13124698 0.00000645
-0.77731466 -0.36308804 0.05556667
-0.23431639 0.17651191 0.00000604
-0.61920375 -0.41403586 0.02187739
-0.11115056 -0.76262110 0.00000170
-0.76832592 -0.70867646 0.02696904
-0.21261194 -0.44367176 0.00000343
-0.18104926 -0.69909906 0.00000279
-0.57999820 -0.66284132 0.00000884
-0.24521627 0.19238994 0.00000565
-0.30447316 0.00325648 0.00000736
-0.75629908 -0.74957287 0.02152397
-0.50153095 -0.54031372 0.00000773
-0.04999837 -0.30996683 0.00000106
-0.37331879 -0.60079914 0.00000576
-0.79267472 -0.45285097 0.05146503
-0.16368695 0.36743209 0.00000448
-0.63398033 -0.76908225 0.00000959
-0.33285296 -0.14746056 0.00000543
-0.59254801 0.04380127 0.05251387
-0.10480107 -0.10291276 0.00000202
-0.22459885 0.01722886 0.00000837
-0.62743378 -0.15718123 0.04342333
-0.23996669 -0.13553277 0.00000404
-0.20449856 0.06422887 0.00000803
-0.70069432 0.00537279 0.06985182
-0.18768404 0.42401299 0.00600849
-0.72940588 -0.75113475 0.01634693
-0.58810711 -0.15121394 0.03649508
-0.16127852 0.46229631 0.00402538
-0.64876270 -0.29766944 0.03649440
-0.26590750 -0.42730772 0.00000425
-0.67782927 -0.14169730 0.05410257
-0.02529081 -0.78930289 0.00000039
-0.28602588 -0.18377754 0.00000470
-0.23061170 -0.79958355 0.00000348
-0.27998495 -0.78045011 0.00000424
-0.09350871 0.58217388 0.00061931
-0.09363169 -0.30935112 0.00000172
-0.10858516 0.20091374 0.00000760
-0.23748367 -0.30598700 0.00000389
-0.28680554 -0.79890484 0.00000433
-0.35471100 -0.31887192 0.00000565
-0.59286749 0.16209023 0.06178395
-0.42831719 0.35145810 0.04559504
-0.57896328 -0.06168145 0.04174720
-0.72200167 -0.56509560 0.02944030
-0.35977378 -0.77464187 0.00000544
-0.09375874 -0.33803657 0.00000170
-0.75312638 -0.49762383 0.04054461
-0.48508319 0.21331763 0.04551058
-0.39355376 -0.60193354 0.00000606
-0.16890164 0.41420671 0.00171414
-0.52223170 0.13054171 0.04604902
-0.35529485 -0.05215304 0.00044252
-0.05158295 0.05217653 0.00001050
-0.06115686 -0.41003695 0.00000117
-0.57795984 0.15402555 0.05835360
-0.34108505 -0.05165072 0.00000561
-0.32739237 -0.18874389 0.00000532
-0.43161106 -0.77120554 0.00000653
-0.14848669 0.08398110 0.00000860
-0.26870418 -0.58189535 0.00000419
-0.57200372 -0.63567370 0.00000873
-0.23288453 -0.13604183 0.00000393
-0.35860959 -0.78561443 0.00000542
-0.30148378 0.20613174 0.01043694
-0.37371966 0.21785095 0.02492875
-0.23213486 -0.72974986 0.00000355
-0.77526128 -0.37951514 0.05390164
-0.14641689 -0.65590316 0.00000230
-0.55289519 0.13554938 0.05220323
-0.74095440 -0.04789698 0.07327255
-0.18540213 0.54143065 0.01472171
-0.75460547 -0.12510853 0.06982704
-0.40958783 -0.16890885 0.00155819
-0.26547059 -0.74024463 0.00000404
-0.58546680 0.21169657 -0.00000119
-0.56517732 -0.15203108 0.03212097
-0.22505932 -0.10593312 0.00000383
-0.52983272 0.10697480 0.04564298
-0.28456810 0.31124136 0.01544091
-0.18884365 -0.05604039 0.00000331
-0.42813134 -0.40118158 0.00000671
-0.17524818 0.36040327 0.00000440
-0.70653689 -0.65921086 0.01920528
-0.49775335 0.27189553 0.05245330
-0.40471670 0.14619042 0.02517625
-0.64559442 -0.27273232 0.03784042
-0.38972211 -0.46085519 0.00000609
-0.30747065 -0.06311693 0.00000510
-0.70064110 -0.04316547 0.06606261
-0.44272906 -0.62884158 0.00000679
-0.00918499 0.03187131 0.00001142
-0.26634449 -0.49614379 0.00000421
-0.55037618 -0.11844922 0.03195326
-0.10545732 -0.75424474 0.00000162
-0.49603659 -0.64621842 0.00000758
-0.08313460 -0.19098932 0.00000164
-0.62822819 0.16018526 -0.00000118
-0.22890614 -0.21797910 0.00000382
-0.50574148 -0.00520177 0.03238005
-0.70310634 -0.15274639 0.05799402
-0.62123066 -0.57151675 0.00999689
-0.38916737 0.17236237 0.02429094
-0.16076352 -0.27324450 0.00000275
-0.43776825 0.03628203 0.02283197
-0.00626630 -0.74721569 0.00000013
-0.11555794 -0.74534374 0.00000178
-0.08395901 -0.16336741 0.00000166
-0.21279114 -0.56641543 0.00000336
-0.34463608 -0.70842183 0.00000526
-0.31420332 0.15099257 0.00853488
-0.79287601 -0.23680480 0.06832447
-0.66008693 -0.21403289 0.04513518
-0.73569471 -0.13141485 0.06578107
-0.18521480 -0.76249778 0.00000282
-0.40464759 -0.33299822 0.00000640
-0.52045679 -0.17903829 0.02161133
-0.03087400 -0.55773038 0.00000062
-0.49076357 -0.00506284 0.02957523
-0.29681635 -0.25774115 0.00000482
-0.50623858 0.28293735 0.05490808
-0.12589718 0.19885492 0.00000737
-0.51688492 -0.39553380 0.00408344
-0.47753671 -0.00882564 0.02679579
-0.35312831 0.13843019 0.01487413
-0.00065927 -0.04110206 0.00000048
-0.15578844 0.20415445 0.00000684
-0.19788513 0.26530302 0.00000537
-0.78318185 -0.38013846 0.05534202
-0.03524675 0.61976594 0.00000295
-0.03326333 -0.79013199 0.00000051
-0.57094610 -0.15619984 0.03288084
-0.08010612 0.27539685 0.00000700
-0.28429478 -0.50178313 0.00000448
-0.69379300 -0.06043916 0.06343032
-0.42323124 0.31118733 0.04150345
-0.00115680 -0.71790636 0.00000005
-0.64047295 -0.65195656 0.00735110
-0.06992019 -0.18524280 0.00000144
-0.16653103 0.63041198 0.01810233
-0.61626536 -0.05352053 0.04939488
-0.23713119 0.06438357 0.00000754
-0.47061738 0.13564049 0.03674324
-0.24559352 -0.38229805 0.00000397
-0.12394880 -0.57125515 0.00000201
-0.51512241 -0.66898465 0.00000785
-0.74184835 -0.28120112 0.05527544
-0.01157358 0.65874064 0.00000277
-0.36828315 0.09578006 0.01440227
-0.73336416 -0.40214723 0.04426359
-0.21051930 -0.19733945 0.00000355
-0.63311863 -0.68215257 0.00361751
-0.30460370 -0.61594576 0.00000471
-0.22716458 -0.74418837 0.00000346
-0.46658126 -0.07529060 0.01956132
-0.77339250 -0.05100172 0.07912873
-0.14904892 -0.30864862 0.00000256
-0.49957848 -0.26684159 0.01085010
-0.50602615 -0.49216253 0.00000783
-0.11939537 0.64188200 0.01013454
-0.46110702 -0.62452585 0.00000707
-0.19329149 0.43807060 0.00815715
-0.55191618 0.07971237 0.04767171
-0.26295736 0.51314914 0.02709901
-0.70360672 -0.29217216 0.04723234
-0.77472216 -0.52686453 0.04232749
-0.25562114 0.01328275 0.00000796
-0.26286790 -0.79151052 0.00000397
-0.03840633 -0.20141529 0.00000095
-0.16858825 -0.01711684 0.00000303
-0.03451721 -0.31778815 0.00000082
-0.00853795 0.26418751 0.00000824
-0.64905965 -0.57803452 0.01472089
-0.44806701 -0.48788854 0.00000696
-0.41185325 -0.59026921 0.00000635
-0.41684571 -0.54619563 0.00000645
-0.31058332 0.18965463 0.01086462
-0.68023950 0.09948156 0.07333395
-0.63995397 -0.48360935 0.02036112
-0.63012391 -0.41776586 0.02363981
-0.06293301 0.48946339 0.00000432
-0.72636563 0.01464370 0.07539950
-0.53765994 -0.48084584 0.00134643
-0.03118593 -0.26053050 0.00000081
-0.01705688 -0.08167609 0.00000071
-0.69798064 -0.39492160 0.03817460
-0.25634798 0.13184276 0.00000632
-0.02005809 -0.78774774 0.00000031
-0.60777497 -0.44763586 0.01711282
-0.43463662 -0.68535548 0.00000663
-0.18750168 0.30126926 0.00000503
-0.72242630 -0.36827978 0.04484439
-0.65083659 -0.46404356 0.02393030
-0.60150200 -0.72594184 0.00000912
-0.39017335 0.15732551 0.02330928
-0.15277655 0.02514987 0.00000935
-0.16651170 -0.62592715 0.00000262
-0.77063358 -0.38317838 0.05274649
-0.34221745 0.17286813 0.01550439
-0.42068291 -0.12284434 0.00723051
-0.23750335 0.34417611 0.00915770
-0.55066115 -0.14712955 0.02977377
-0.27046415 0.42261273 0.02146098
-0.57162154 -0.16329385 0.03245547
-0.17037904 0.49138251 0.00800081
-0.18337278 -0.06390676 0.00000323
-0.05594587 -0.36071375 0.00000112
-0.25900707 -0.20965973 0.00000428
-0.68592417 -0.71726406 0.01081039
-0.29349282 -0.69852823 0.00000449
-0.51395398 -0.30926523 0.01024937
-0.45378315 0.23596273 0.04138977
-0.67695701 -0.56284368 0.02114797
-0.04224340 -0.08028855 0.00000109
-0.37023240 -0.29705676 0.00000590
-0.25398144 -0.23700343 0.00000418
-0.78029716 -0.25215837 0.06476444
-0.20992728 -0.70695686 0.00000323
-0.19140618 0.40448764 0.00518795
-0.67517197 -0.07705725 0.05863593
-0.23352459 -0.31872651 0.00000382
-0.32837269 -0.07188569 0.00000541
-0.69990337 -0.63940603 0.01950033
-0.70654631 0.03873153 0.07354924
-0.42122895 0.19161750 0.03181729
-0.74939185 -0.32184428 0.05352899
-0.02370613 0.71004981 0.00000188
-0.08497560 -0.60503155 0.00000140
-0.02756353 0.02078224 0.00001130
-0.39312845 -0.61964846 0.00000604
-0.03480246 -0.38110077 0.00000079
-0.28887266 -0.23468843 0.00000471
-0.38987795 -0.55044538 0.00000604
-0.66635811 -0.45985678 0.02717412
-0.79314899 -0.25025964 0.06732818
-0.21215449 -0.73636454 0.00000324
-0.16219576 0.62864470 0.01714976
-0.16667885 -0.62005514 0.00000263
-0.02614414 0.28017461 0.00000775
-0.25279620 -0.54993504 0.00000397
-0.64614695 -0.36918926 0.03043412
-0.32079980 -0.40218636 0.00000509
-0.44374445 -0.26179841 0.00074674
-0.04273214 0.05331321 0.00001062
-0.04134636 -0.10864515 0.00000106
-0.01210451 -0.73990005 0.00000022
-0.07094683 0.71223867 0.00650489
-0.06397291 -0.50290632 0.00000115
-0.75474149 -0.46230835 0.04359792
-0.10626146 0.45429924 0.00000415
-0.20104755 0.56498492 0.01949678
-0.06870631 0.60747486 0.00000261
-0.08745681 -0.10758607 0.00000175
-0.41085702 0.00654986 0.01545807
-0.26180571 0.24708200 0.00616642
-0.65015030 -0.09077766 0.05286393
-0.72271949 -0.70406991 0.01875454
-0.72629708 -0.07091625 0.06872489
-0.51893973 -0.53083795 0.00000800
-0.15730038 -0.75274050 0.00000240
-0.04083602 0.16655256 0.00000909
-0.13756806 -0.21237405 0.00000244
-0.71763802 -0.36278090 0.04437240
-0.34465384 -0.22721183 0.00000556
-0.16411497 0.46237284 0.00456455
-0.23631021 0.47180268 0.01887047
-0.69988555 -0.34345627 0.04253980
-0.06451608 -0.58906275 0.00000111
-0.70566815 -0.79275090 0.00864439
-0.58692402 -0.09176689 0.04090125
-0.51573765 -0.76450551 0.00000780
-0.52472430 0.02094547 0.03798439
-0.31945601 -0.36445042 0.00000509
-0.48503080 0.18661752 0.04342186
-0.27093381 -0.79416430 0.00000409
-0.40696913 -0.42877349 0.00000637
-0.73223692 -0.07707341 0.06936210
-0.15634607 -0.16406134 0.00000276
-0.34576476 0.41105333 0.03471643
-0.38319442 0.19082010 0.02460524
-0.01536292 -0.39491168 0.00000048
-0.36647570 -0.53161919 0.00000570
-0.58150101 -0.48256481 0.00945410
-0.11379533 -0.32565275 0.00000201
-0.39554793 -0.54448825 0.00000613
-0.47888225 0.00043401 0.02776969
-0.43853053 0.12556498 0.02992687
-0.37147176 -0.61483341 0.00000572
-0.00172058 0.46627018 0.00000556
-0.44992560 0.06982635 0.02772915
-0.10119622 -0.19006234 0.00000191
-0.67112505 -0.47510082 0.02688333
-0.62879270 -0.57492542 0.01115305
-0.34674591 -0.64697576 0.00000533
-0.63502270 -0.53484648 0.01544477
-0.34783563 0.13448165 0.01357174
-0.61085582 -0.55242258 0.00953325
-0.72059447 -0.12207351 0.06366975
-0.59413934 -0.27922443 0.02766211
-0.51707435 -0.77041650 0.00000782
-0.19001316 -0.17956008 0.00000325
-0.23875678 -0.04841902 0.00000407
-0.76515299 -0.33043256 0.05582309
-0.19178425 0.04373362 0.00000850
-0.74746615 -0.22103857 0.06101580
-0.04482955 -0.54254997 0.00000084
-0.49486566 -0.57184517 0.00000761
-0.21351747 0.00543962 0.00000870
-0.02247491 0.63290995 0.00000296
-0.60932404 -0.16787438 0.03918638
-0.04000922 0.10878780 0.00000990
-0.02226315 0.62691140 0.00000304
-0.30564141 0.40433964 0.02665107
-0.15984885 0.23839553 0.00000631
-0.45314634 -0.08297266 0.01643761
-0.44926804 0.10373252 0.03024549
-0.10888253 0.37818035 0.00000516
-0.13337748 0.59040254 0.00875477
-0.16635744 0.47163737 0.00570744
-0.10013183 0.13192348 0.00000868
-0.03629759 -0.33440393 0.00000084
-0.08673406 -0.21335965 0.00000168
-0.42782098 -0.64530504 0.00000655
-0.57350546 0.21649115 0.06237981
-0.24825545 0.18425415 0.00000572
-0.66935778 -0.49216145 0.02522276
-0.10934980 0.09007521 0.00000911
-0.51774144 -0.16048343 0.02254558
-0.35795987 -0.11038933 0.00000583
-0.57013196 -0.62727213 0.00000871
-0.45742702 -0.09460444 0.01633667
-0.28237882 0.06360490 0.00000686
-0.26735917 -0.24755505 0.00000438
-0.18339115 0.47285068 0.00900401
-0.00474031 0.54744399 0.00000440
-0.35997754 0.16360940 0.01812215
-0.03401456 0.21355553 0.00000855
-0.13320799 0.00029076 0.00000999
-0.00056826 -0.08971863 0.00000044
-0.02818411 -0.39006144 0.00000068
-0.11292318 -0.36588818 0.00000198
-0.34000009 -0.06210826 0.00000559
-0.14424406 -0.12995896 0.00000260
-0.75865167 -0.35917243 0.05236325
-0.58795887 -0.33810097 0.02191611
-0.07114037 0.39306074 0.00000552
-0.38706312 -0.23799886 0.00000619
-0.01094347 0.37988624 0.00000661
-0.62499154 -0.64867932 0.00469597
-0.33696181 0.23108537 0.01904922
-0.10720568 -0.05025136 0.00000209
-0.65411603 -0.51152039 0.02085023
-0.04368294 0.36748299 0.00000629
-0.32456437 -0.69749570 0.00000496
-0.09668234 0.62412900 0.00448255
-0.38426930 -0.62682384 0.00000591
-0.75827253 -0.34856817 0.05311763
-0.17081884 -0.28594702 0.00000290
-0.03163996 -0.39097181 0.00000073
-0.53878409 -0.51141047 0.00000831
-0.21495990 0.01005885 0.00000862
-0.00099276 0.61782789 0.00000349
-0.22663713 -0.79339498 0.00000342
-0.66265178 -0.76800120 0.00248513
-0.23921651 -0.76973850 0.00000363
-0.15030625 -0.71108145 0.00000232
-0.40021881 -0.23056240 0.00000639
-0.21965782 -0.03869458 0.00000379
-0.46221295 0.20096928 0.04024985
-0.11553532 0.67394620 0.01190544
-0.56551331 -0.64985627 0.00000863
-0.33919379 0.12897965 0.01151881
-0.50397950 -0.18042172 0.01840612
-0.09393671 -0.33573180 0.00000171
-0.07632737 0.45519286 0.00000459
-0.76027614 -0.60220259 0.03374600
