ply
format ascii 1.0
element vertex 1373
property float x
property float y
property float z
end_header
-0.17930312 -0.40335661 -0.00000025
-0.24857552 0.27320489 -0.00000064
-0.05626327 0.16057128 -0.00000060
-0.44844666 0.74348837 -0.00000044
-0.41798794 0.42466280 -0.00000048
-0.63917583 0.62484241 -0.00000020
-0.34606308 -0.13735665 -0.00000041
-0.30097172 0.39314216 -0.00000060
0.14286244 0.46299249 0.26372325
0.39422962 -0.25618741 -0.00000034
-0.36759117 -0.48278213 -0.00000020
-0.42006153 0.43727058 -0.00000047
0.23168328 -0.67167550 -0.00000008
-0.01978084 0.12457186 -0.00000058
-0.11780035 -0.73748398 -0.00000004
-0.14256275 -0.60358679 -0.00000012
-0.50007033 -0.47192070 -0.00000021
0.38266644 0.19890679 -0.00000077
-0.17697021 -0.37524903 -0.00000027
-0.64644569 0.44914880 -0.00000019
0.16171376 0.42794710 0.28572121
0.43311000 0.15427402 0.28881544
-0.29654613 -0.04033824 -0.00000047
-0.28901547 0.21644954 -0.00000058
0.57724768 0.18878733 0.04613579
0.28343698 -0.69975901 -0.00000006
-0.14203385 -0.61867237 -0.00000011
0.03451677 0.04779084 -0.00000053
0.11276495 -0.49978814 -0.00000019
0.42591631 -0.33242932 -0.00000029
-0.75263548 0.64863330 -0.00000006
-0.03996907 0.19845030 -0.00000062
0.40547910 0.22403817 0.23158164
-0.74869847 0.02188318 -0.00000006
0.52699721 -0.05962149 -0.00000065
-0.39983404 0.05383874 -0.00000044
-0.61061221 0.16343904 -0.00000023
0.46026042 -0.04766529 -0.00000059
-0.32099441 0.52566677 -0.00000060
0.00660720 -0.24257965 -0.00000035
0.66036022 0.07120171 0.09296405
0.55898952 0.04537166 -0.00000079
0.70440263 -0.26905349 -0.00000061
0.77371836 -0.17503966 -0.00000078
-0.54065895 -0.00980349 -0.00000027
-0.36472026 -0.61031812 -0.00000012
0.64073360 -0.77783453 -0.00000001
-0.28172600 -0.37893477 -0.00000026
-0.22018071 -0.27704084 -0.00000033
-0.10569540 0.34856492 -0.00000072
0.61303478 -0.28414887 -0.00000050
-0.19479859 -0.16351505 -0.00000040
-0.42652681 0.30409703 -0.00000045
0.70313555 -0.41756207 -0.00000045
-0.41581014 -0.29076171 -0.00000032
0.45390230 0.00538817 -0.00000064
-0.59786129 0.09552517 -0.00000023
0.45568267 0.14831117 -0.00000079
0.22656144 -0.56002355 -0.00000015
0.00282836 0.22155961 -0.00000064
0.01667387 -0.44635645 -0.00000022
-0.56081772 0.73638469 -0.00000030
0.45298639 -0.13429566 -0.00000049
-0.38013041 0.37574685 -0.00000052
0.29482740 0.20894703 0.40238923
0.25642094 0.52508563 0.02511917
0.09572239 -0.66530234 -0.00000008
0.36945924 -0.08075605 -0.00000045
-0.53434503 -0.34791782 -0.00000022
-0.19409718 -0.58199257 -0.00000014
-0.74563044 0.65963471 -0.00000007
-0.48794684 -0.31172267 -0.00000028
-0.13275236 -0.39613071 -0.00000025
-0.47031546 -0.62473023 -0.00000011
0.51494664 0.10318133 -0.00000081
0.71951997 -0.41115162 -0.00000048
-0.16698331 0.05444612 -0.00000053
0.58645719 -0.27339768 -0.00000048
-0.48917425 0.04404228 -0.00000034
-0.72508359 0.16126212 -0.00000009
-0.07220770 -0.11805951 -0.00000043
0.19155493 0.35937071 0.33833894
0.34066471 -0.03513442 -0.00000048
-0.31160831 -0.75430834 -0.00000003
0.00006766 0.43641835 -0.00000077
-0.73573565 0.48927125 -0.00000008
-0.18212108 0.48757523 -0.00000075
-0.78839242 0.69682229 -0.00000001
-0.44531596 0.11790424 -0.00000040
0.36931476 0.41050476 0.02741084
-0.71398574 0.41153300 -0.00000011
0.75654429 -0.69674844 -0.00000013
0.26786086 0.35633886 0.23880449
0.46192023 0.20227499 -0.00000086
0.22582354 0.46951187 0.14217418
-0.75639164 0.38723713 -0.00000005
-0.51922661 -0.55470872 -0.00000015
0.56430995 -0.70698118 -0.00000006
0.41243821 -0.39729920 -0.00000025
-0.45017010 -0.29003975 -0.00000032
0.46930465 0.32837448 0.00315033
-0.52550977 0.38893139 -0.00000034
0.38194495 0.21266305 -0.00000078
-0.76805395 -0.05265824 -0.00000002
0.19947834 0.56730109 0.04512451
0.15112704 -0.70691776 -0.00000006
-0.59119987 -0.15889089 -0.00000019
0.59797168 0.07548872 0.17188928
-0.07655869 -0.53249943 -0.00000017
-0.53722864 0.04239499 -0.00000029
-0.67788374 -0.67241842 -0.00000001
0.52979052 0.02370644 -0.00000074
0.11424291 -0.55223686 -0.00000015
0.43613139 0.18563960 -0.00000081
-0.58101088 0.17119835 -0.00000026
0.30462271 0.22919092 0.36158431
0.69712603 -0.47002271 -0.00000039
-0.68328220 0.29177865 -0.00000015
-0.13476527 -0.21517105 -0.00000037
-0.05345137 -0.73062134 -0.00000004
-0.28385770 -0.38202074 -0.00000026
-0.09526817 0.30722398 -0.00000069
0.17948940 0.55588174 0.08778960
0.55626351 -0.50473750 -0.00000020
0.51563007 -0.76429725 -0.00000002
-0.47234541 0.30957475 -0.00000041
0.76344657 -0.09023664 -0.00000086
-0.77712333 0.78878421 -0.00000003
0.20078921 0.31820825 0.38170990
0.25253305 0.39076731 0.21285827
0.33878365 0.28066567 0.24525777
-0.79808718 0.73046362 -0.00000000
0.53271401 0.25079364 0.02240092
0.70972502 -0.70318764 -0.00000012
0.67963505 -0.56404483 -0.00000027
0.21333955 0.03501682 -0.00000052
0.21935908 0.22939768 0.47712433
-0.66483378 -0.59031016 -0.00000004
-0.72074926 0.73993981 -0.00000010
0.77368814 -0.77512819 -0.00000003
0.74478018 0.02882868 -0.00000097
-0.10876577 -0.64712077 -0.00000010
0.24686220 0.33891913 0.29099157
-0.00325565 0.08402912 -0.00000055
-0.37178600 -0.06111868 -0.00000045
-0.18234727 0.24567851 -0.00000065
0.25837132 -0.37135106 -0.00000027
-0.32945442 0.33147055 -0.00000056
0.62962115 -0.72546822 -0.00000005
0.68818635 0.08495472 0.03648288
-0.70324618 0.33895108 -0.00000012
0.20296021 0.17611839 -0.00000061
0.64164609 -0.07878192 -0.00000075
0.04398540 0.37314624 -0.00000073
-0.44221267 0.58684677 -0.00000045
0.32710752 -0.77030116 -0.00000002
0.53637731 -0.16574460 -0.00000054
0.07728614 0.69174784 0.04206193
-0.52832717 -0.20462780 -0.00000025
0.77439994 -0.56131941 -0.00000030
0.24344407 0.26204097 -0.00000069
-0.36438531 0.68836802 -0.00000054
-0.33798572 -0.43200943 -0.00000023
0.58253598 -0.50170577 -0.00000023
0.66039163 -0.58772683 -0.00000022
-0.36040738 0.64462113 -0.00000055
0.29136699 0.26408556 0.33219013
-0.66815859 -0.73175603 -0.00000001
0.71227098 -0.15734896 -0.00000074
-0.62726200 -0.75239235 -0.00000003
0.52550215 0.10550864 0.22955288
0.20959020 -0.38618767 -0.00000026
-0.14280264 0.44408724 -0.00000078
0.49559101 0.25005776 0.07382847
-0.06372082 -0.24214800 -0.00000035
-0.32280988 -0.26806286 -0.00000033
-0.49512225 -0.42833322 -0.00000023
-0.03733570 -0.01830505 -0.00000049
0.52939552 -0.22253400 -0.00000047
-0.68815440 -0.63507426 -0.00000000
-0.34626234 -0.54050630 -0.00000016
-0.50985676 0.18207504 -0.00000034
0.23453759 0.15730309 -0.00000060
0.24110807 0.02795299 -0.00000052
0.42281899 -0.56092060 -0.00000015
0.24870345 -0.24324091 -0.00000035
-0.17468604 -0.32953149 -0.00000029
-0.26094684 0.42054978 -0.00000065
0.71084046 -0.60872972 -0.00000024
0.13488463 0.30278492 -0.00000069
-0.73322302 0.49693644 -0.00000008
-0.28401098 0.23763500 -0.00000059
0.53846997 -0.46997648 -0.00000022
-0.45882022 0.30360976 -0.00000042
0.70931274 0.06510193 0.03475281
0.27233002 -0.27782512 -0.00000033
0.63684136 -0.32992256 -0.00000047
0.41507116 -0.09834386 -0.00000048
0.52462745 0.14450979 0.17776185
-0.23875226 0.26485994 -0.00000065
0.05376771 0.07070146 -0.00000054
0.18593290 0.07303455 -0.00000055
0.45475146 -0.67613578 -0.00000008
-0.29366791 0.16613270 -0.00000057
0.05942463 -0.41224465 -0.00000024
0.06861387 0.33596525 -0.00000071
-0.65572071 -0.75151122 -0.00000002
-0.61692029 -0.22747594 -0.00000015
0.63631308 -0.24207956 -0.00000057
0.60207403 -0.34284228 -0.00000042
-0.36699566 -0.10079425 -0.00000044
-0.20932510 0.36390829 -0.00000070
-0.43154588 -0.72457248 -0.00000005
-0.75652784 0.77406633 -0.00000005
-0.19946896 -0.44101205 -0.00000022
-0.39336020 -0.50818437 -0.00000018
-0.60877520 -0.73466933 -0.00000004
0.64316773 -0.54729760 -0.00000025
-0.77309859 0.07466826 -0.00000003
-0.33246139 -0.43090990 -0.00000023
0.25190651 -0.43470415 -0.00000023
0.10107326 0.07755838 -0.00000055
0.48497346 0.11932810 0.26583469
-0.75563365 0.57206458 -0.00000006
-0.34445718 0.10220077 -0.00000050
0.15201136 -0.07622317 -0.00000045
0.05690301 0.28983331 -0.00000068
0.43056485 0.32987216 0.05374007
-0.55695522 -0.68051243 -0.00000007
-0.76763803 0.17983882 -0.00000004
0.74275309 -0.17572223 -0.00000075
0.25622395 0.35169849 0.26091534
-0.22516882 0.14360346 -0.00000059
0.53513414 -0.52951288 -0.00000017
-0.29771286 -0.14045019 -0.00000041
0.33007187 -0.27045733 -0.00000033
-0.76562512 -0.04905961 -0.00000003
-0.50186348 0.68137258 -0.00000037
-0.24445802 -0.54366493 -0.00000016
0.19199379 0.41152444 0.26689765
0.71149051 -0.58281469 -0.00000027
-0.42214093 -0.69981968 -0.00000006
-0.10265676 0.05095466 -0.00000053
0.38347819 -0.15245326 -0.00000040
0.76176220 -0.66748565 -0.00000017
-0.62360030 0.47044560 -0.00000022
-0.25801817 0.58789462 -0.00000068
0.33126670 0.13066807 -0.00000064
0.01116467 -0.55205834 -0.00000015
-0.17576523 0.08424051 -0.00000055
0.29904556 -0.28573406 -0.00000032
0.35838270 0.25384468 0.25506806
-0.43943101 0.15968461 -0.00000041
0.14891760 0.34187242 -0.00000071
0.07285083 0.42807087 -0.00000077
-0.58583003 0.54126656 -0.00000027
-0.35492912 0.22141613 -0.00000052
0.53845930 0.20847113 0.07208741
-0.49530038 -0.60707146 -0.00000012
0.78265911 -0.11100270 -0.00000086
0.15784249 0.57489640 0.09136529
-0.59047168 0.35717502 -0.00000026
-0.28425321 0.25685024 -0.00000060
-0.65157026 -0.71022278 -0.00000003
0.19359654 -0.72048658 -0.00000005
-0.33100629 0.54358345 -0.00000059
-0.56145841 -0.47426137 -0.00000017
-0.79615891 -0.24573804 0.00000000
-0.50401413 -0.42877209 -0.00000023
0.32723600 0.35118800 0.16514665
-0.43713751 0.15310575 -0.00000042
0.69063735 -0.23551255 -0.00000063
-0.78429466 -0.51131374 0.00000000
0.39450762 0.19356818 0.28787553
-0.71754724 0.60909301 -0.00000010
0.26676351 -0.04300261 -0.00000047
-0.64417690 -0.04740105 -0.00000016
0.02103923 0.05415376 -0.00000053
-0.58663940 -0.64663088 -0.00000010
-0.63819611 0.34299585 -0.00000020
-0.16921856 0.43757966 -0.00000075
0.42290175 -0.25001884 -0.00000034
-0.79947913 0.79576051 -0.00000000
0.18226527 0.57964879 0.05173367
-0.22256684 -0.30661240 -0.00000031
-0.48314723 -0.53393787 -0.00000017
0.00822136 -0.78741670 -0.00000001
-0.37866521 -0.31418598 -0.00000030
0.16517664 -0.59816724 -0.00000013
0.15348057 -0.07622024 -0.00000045
0.20945610 0.23532292 0.48252761
0.09422453 -0.67026961 -0.00000008
0.35467112 -0.20610018 -0.00000037
-0.46767372 0.56968117 -0.00000042
0.48419747 -0.61221904 -0.00000012
0.36488274 -0.00701257 -0.00000053
0.54708087 0.16522013 0.11912813
-0.79048616 0.54198533 -0.00000001
0.71592551 0.04451973 -0.00000096
0.76792449 -0.30590817 -0.00000062
0.24110167 -0.02119335 -0.00000049
0.79346156 -0.27372351 -0.00000066
0.19203572 0.34772527 0.35350487
-0.69608492 -0.00825517 -0.00000011
0.07973868 0.02171034 -0.00000051
0.27029493 -0.69704247 -0.00000006
0.66869330 0.08999554 0.05611480
0.45284748 -0.64680666 -0.00000010
0.08202436 -0.64086461 -0.00000010
-0.42610395 -0.12052356 -0.00000038
0.20076115 -0.42786777 -0.00000023
0.28466940 0.28712279 -0.00000076
0.57052863 0.21166365 0.02418769
-0.51089394 0.11577037 -0.00000033
0.53034490 -0.53907126 -0.00000016
0.32225409 -0.44006079 -0.00000022
0.64309669 -0.58875650 -0.00000020
-0.69114506 -0.35322821 -0.00000005
0.35322106 -0.00516449 -0.00000052
-0.06273426 -0.77288336 -0.00000002
0.32597822 0.44763747 0.03583816
0.64073378 -0.75507230 -0.00000003
-0.64763266 -0.75197864 -0.00000002
-0.48363346 -0.59484941 -0.00000013
0.53365177 0.16078068 0.14340074
-0.00923913 0.10291809 -0.00000056
-0.34942713 -0.70210373 -0.00000006
0.27220601 -0.62347209 -0.00000011
-0.59577769 -0.56765980 -0.00000011
-0.39856073 -0.74302721 -0.00000004
-0.33966067 0.41789466 -0.00000057
0.11531752 0.08904605 -0.00000056
0.12562469 0.64670193 0.03758917
-0.50477666 -0.58494437 -0.00000013
-0.27034250 0.46552259 -0.00000065
0.32738468 -0.02059337 -0.00000049
-0.08030912 0.24074541 -0.00000065
0.48523799 0.27776939 0.05024850
-0.10337924 0.08599727 -0.00000055
0.20673974 -0.73666394 -0.00000004
-0.44336808 -0.54227567 -0.00000016
-0.79293472 0.11314435 -0.00000001
0.63064277 -0.71535707 -0.00000006
0.18595640 -0.04055265 -0.00000047
0.56798619 0.11709576 0.15610246
0.37879986 -0.55342674 -0.00000015
0.06970368 -0.22674848 -0.00000036
-0.65755785 -0.14220896 -0.00000013
-0.77558428 0.62592971 -0.00000003
-0.71805161 -0.02728690 -0.00000008
-0.20505193 -0.11254335 -0.00000043
-0.18487261 -0.39083111 -0.00000026
-0.68577898 -0.56687623 -0.00000002
-0.51183420 0.67897999 -0.00000036
0.77457893 -0.35042819 -0.00000056
0.35220471 0.30598289 0.19263583
-0.36673477 -0.78285730 -0.00000001
0.50730067 -0.23709337 -0.00000043
0.76613510 -0.09521354 -0.00000086
-0.64076251 -0.79964513 -0.00000000
0.45591632 -0.21000461 -0.00000041
0.01783231 -0.12879279 -0.00000042
-0.66392839 0.38268435 -0.00000017
0.58581609 0.08942757 -0.00000087
0.03117198 -0.52069014 -0.00000017
0.54218751 -0.32670698 -0.00000038
0.66163582 -0.07484268 -0.00000077
-0.51708853 -0.55483210 -0.00000015
0.13624184 -0.40914387 -0.00000024
0.57458097 -0.42406419 -0.00000031
-0.69440359 -0.18070026 -0.00000008
-0.39474523 -0.31276307 -0.00000030
0.71640795 -0.78255707 -0.00000002
-0.00661619 -0.50386977 -0.00000019
0.74849135 -0.40834501 -0.00000049
0.21309271 0.37848103 0.28312302
-0.79904890 0.05288604 -0.00000000
-0.21329655 -0.22619966 -0.00000036
0.39153957 -0.07595630 -0.00000048
-0.41504171 0.09559738 -0.00000043
-0.10592078 0.04245066 -0.00000053
-0.24595891 0.30435976 -0.00000065
0.40427396 0.15324572 0.32938275
0.31870097 0.26257804 0.29710782
-0.47580564 0.58413744 -0.00000041
-0.56643844 0.07585940 -0.00000026
-0.08028391 -0.08312615 -0.00000045
0.14256772 -0.49196774 -0.00000019
0.41254860 -0.20885649 -0.00000037
-0.78084755 0.62130362 -0.00000002
-0.67569715 -0.39127901 -0.00000006
0.39990664 -0.22199485 -0.00000036
-0.50778109 0.45824584 -0.00000037
0.68517458 -0.53931600 -0.00000030
0.41161153 -0.03489480 -0.00000055
-0.41357467 0.30793354 -0.00000047
-0.74243385 -0.34979635 0.00000000
0.66915607 -0.13151851 -0.00000072
-0.13423286 0.52599472 -0.00000081
-0.04195424 -0.40718949 -0.00000025
-0.42460936 -0.06719153 -0.00000039
-0.46467835 -0.70871395 -0.00000006
-0.38294885 0.05042139 -0.00000045
0.26753309 -0.29861251 -0.00000031
-0.58403045 -0.13190921 -0.00000021
-0.08235914 0.11598864 -0.00000057
0.37008631 0.23704010 0.26199725
-0.79363418 -0.41630307 0.00000000
-0.26269621 -0.02851549 -0.00000048
-0.62339514 -0.54898512 -0.00000009
0.70385706 0.04937046 0.06353344
0.06028751 -0.21017303 -0.00000037
0.74354714 -0.61255026 -0.00000023
-0.72725159 0.03832763 -0.00000008
0.09128867 -0.32781190 -0.00000030
0.35874429 0.13868636 -0.00000068
-0.54283446 0.09708829 -0.00000029
0.77133846 -0.53230238 -0.00000033
0.22639151 0.26898590 -0.00000067
0.35807338 -0.25238359 -0.00000034
-0.31982994 -0.58494627 -0.00000013
0.07552033 0.20443980 -0.00000063
0.21324871 -0.63724768 -0.00000010
0.36955738 0.24852151 0.24711949
0.10297680 -0.02062758 -0.00000049
-0.75557780 0.33658218 -0.00000006
0.06882565 -0.35062036 -0.00000028
-0.53931975 -0.02566850 -0.00000027
0.60691589 -0.08936726 -0.00000070
-0.31215438 0.29229978 -0.00000057
-0.10195500 0.47386783 -0.00000080
0.23417309 -0.54303694 -0.00000016
0.63892907 -0.42945319 -0.00000037
-0.49999136 -0.33186287 -0.00000026
0.08577845 0.01361395 -0.00000051
0.26582697 0.37169114 0.22071292
-0.47391382 0.28799346 -0.00000040
-0.28169566 0.34800053 -0.00000062
-0.32367095 0.04371562 -0.00000052
0.09847143 -0.51787162 -0.00000018
0.22977979 -0.46270171 -0.00000021
-0.33722875 0.43832254 -0.00000057
0.61377054 -0.42071468 -0.00000035
0.20879298 -0.61622387 -0.00000011
-0.17329015 -0.43278232 -0.00000023
-0.57927561 -0.43895176 -0.00000016
0.38865924 -0.66203254 -0.00000009
-0.76679528 -0.70298833 0.00000000
0.27419078 -0.09659720 -0.00000044
0.27737874 -0.46291387 -0.00000021
0.23754747 -0.32346573 -0.00000030
0.00372805 -0.66462576 -0.00000008
-0.61459410 0.70724523 -0.00000023
0.36018682 0.21173017 0.30982533
0.22812781 -0.19029872 -0.00000038
-0.43331763 -0.77987522 -0.00000001
-0.16269378 -0.40937692 -0.00000024
0.49321336 -0.05279219 -0.00000062
0.05855217 0.65736020 0.11422185
-0.46808529 -0.67099714 -0.00000008
0.06516027 0.68016833 0.07426308
0.72907722 -0.41017744 -0.00000049
0.21154013 0.33130860 0.34931061
-0.74018097 0.21838409 -0.00000007
-0.65128332 -0.73233181 -0.00000002
-0.72458893 0.66678917 -0.00000009
0.36472893 0.26960772 0.22503500
0.30684623 0.17543884 -0.00000066
-0.04335516 0.00417663 -0.00000050
-0.02478049 -0.42190441 -0.00000024
0.20532744 0.48313886 0.15150504
0.65930778 -0.45659071 -0.00000036
0.52640522 -0.34444144 -0.00000034
-0.42663798 -0.61056012 -0.00000012
-0.34334278 0.01061445 -0.00000049
0.51176250 -0.36589301 -0.00000030
0.15676308 0.01586144 -0.00000051
-0.73283297 0.18042801 -0.00000008
-0.33317468 -0.67230701 -0.00000008
-0.01567837 0.33871123 -0.00000071
0.37409785 -0.02573612 -0.00000052
0.61175352 -0.39595455 -0.00000038
0.44719505 0.28606007 0.09066401
-0.69037133 -0.20043454 -0.00000008
-0.09628232 0.47066879 -0.00000079
0.68740636 -0.48591000 -0.00000036
0.43630660 0.30136982 0.08465812
0.15592705 0.25091624 -0.00000066
0.24437369 -0.33282289 -0.00000029
-0.41455391 -0.28354248 -0.00000032
0.33234394 -0.33924618 -0.00000029
0.10822467 0.13024312 -0.00000058
0.37392426 0.12499611 -0.00000068
-0.78504080 0.51111490 -0.00000002
-0.43792376 0.14761129 -0.00000041
-0.69446021 -0.77553850 0.00000000
-0.03474119 -0.32798812 -0.00000030
-0.45532519 -0.66784614 -0.00000008
-0.13940315 0.06139979 -0.00000054
-0.72376031 -0.03670827 -0.00000007
0.28110200 0.41788450 0.13721454
-0.28354436 0.18563139 -0.00000059
-0.61753184 -0.74057782 -0.00000004
-0.09637218 -0.48062500 -0.00000020
-0.11788464 0.26766869 -0.00000067
0.70170927 0.05140027 0.06369374
0.46963334 -0.26617631 -0.00000036
-0.70475233 -0.62054652 0.00000000
-0.57921261 -0.25580144 -0.00000019
0.13138153 0.19316298 -0.00000062
-0.46356311 0.73998964 -0.00000042
0.06208911 0.69669259 0.05598853
-0.40158674 0.48085791 -0.00000050
-0.49156684 -0.28713903 -0.00000028
-0.09215764 0.16697732 -0.00000060
0.65986824 -0.74250573 -0.00000006
0.58795518 0.01145052 -0.00000079
-0.67702043 -0.65339774 -0.00000001
0.10123003 0.21538842 -0.00000063
-0.66675436 -0.11904362 -0.00000012
0.21856619 -0.54682046 -0.00000016
0.69917625 -0.04988311 -0.00000084
0.54588455 0.24831025 0.00788341
0.33685306 -0.04795899 -0.00000047
-0.70110911 -0.76690036 0.00000000
-0.38787311 -0.27480099 -0.00000033
0.25309801 0.32847336 0.29671034
-0.04190039 0.48082101 -0.00000080
-0.10858303 0.44086090 -0.00000078
0.02097280 -0.11320702 -0.00000043
-0.70116127 0.37349060 -0.00000012
0.43983543 -0.33345157 -0.00000029
-0.62495720 0.79120797 -0.00000022
-0.65539610 0.01840608 -0.00000016
0.27134186 0.39749786 0.17816594
-0.14450870 -0.25746197 -0.00000034
0.12173229 0.62845135 0.06766824
0.52350581 -0.64253616 -0.00000010
-0.41327697 -0.58341116 -0.00000014
0.11075013 0.06895205 -0.00000054
-0.65492916 -0.70684206 -0.00000003
-0.44517025 0.09429196 -0.00000040
-0.28208688 0.32995483 -0.00000061
0.55821937 -0.32855025 -0.00000039
0.27809852 -0.75315505 -0.00000003
-0.02930898 0.33009070 -0.00000071
0.24431528 -0.01147157 -0.00000049
-0.55312115 -0.00081909 -0.00000026
-0.54775435 0.26899669 -0.00000032
0.18895124 0.11984322 -0.00000057
-0.69431758 -0.37617719 -0.00000004
0.78751534 -0.75327665 -0.00000006
0.35519344 -0.47349936 -0.00000020
-0.63384587 0.19298980 -0.00000021
-0.34953880 -0.08895173 -0.00000044
0.37894866 0.23650068 -0.00000080
-0.75230646 -0.33335850 0.00000000
-0.24551195 0.05432303 -0.00000053
0.35426006 0.21109623 0.31873730
-0.38950470 -0.23624133 -0.00000035
-0.70989847 -0.62174124 0.00000000
0.09889574 0.20104963 -0.00000063
0.29644623 -0.21167530 -0.00000037
0.25346783 -0.76684195 -0.00000002
0.24213824 -0.44449496 -0.00000022
-0.56551313 -0.64148122 -0.00000010
-0.18803652 -0.40193319 -0.00000025
0.05396808 0.22859949 -0.00000064
0.23832229 -0.23015469 -0.00000036
0.65307093 -0.60369122 -0.00000020
-0.68400514 -0.55395019 -0.00000002
0.52002746 -0.20337629 -0.00000048
-0.63367879 0.26403478 -0.00000021
-0.56042027 -0.46118036 -0.00000017
0.51138991 0.22133163 0.09138880
-0.51382267 -0.65505302 -0.00000009
0.42939132 0.23188353 0.18844213
-0.21062157 0.48091835 -0.00000072
-0.58242494 -0.74927109 -0.00000003
0.02279990 -0.20891707 -0.00000037
-0.64582425 0.66619080 -0.00000019
-0.35343450 0.06383384 -0.00000049
0.57836330 -0.58161283 -0.00000014
0.05773640 0.34600037 -0.00000072
-0.26394963 -0.68582457 -0.00000007
-0.44887465 0.15124559 -0.00000040
-0.14199086 0.37022474 -0.00000073
0.74067110 -0.52600205 -0.00000034
0.65343577 -0.33169886 -0.00000049
0.62600458 -0.53169757 -0.00000025
-0.31991243 -0.29591891 -0.00000032
0.44384244 0.15893374 0.26790676
-0.77004164 -0.56578273 0.00000000
0.06243830 0.32259753 -0.00000070
0.74131602 0.01844592 -0.00000096
0.30878794 0.28065294 0.28602076
0.38149074 0.22636849 0.26100183
0.68223441 -0.13232452 -0.00000073
-0.07697268 -0.56871176 -0.00000014
0.66068131 -0.08364919 -0.00000076
0.39779648 0.13234605 -0.00000071
0.03624419 0.40821669 -0.00000076
0.34312660 0.17137776 -0.00000070
-0.10398863 0.35554937 -0.00000072
0.61272866 0.16394326 0.03168657
-0.43595427 0.43777904 -0.00000046
-0.75244296 0.31182188 -0.00000006
-0.23164663 0.54930592 -0.00000071
-0.31741458 -0.16235153 -0.00000040
-0.42698482 -0.56516534 -0.00000015
0.43746835 0.23255646 0.17655616
0.78538084 -0.15266091 -0.00000081
0.28704852 -0.15583226 -0.00000040
0.46148643 -0.18972246 -0.00000044
0.14274730 0.05576858 -0.00000053
-0.44573748 -0.01483475 -0.00000038
0.17571086 0.55745792 0.09078130
-0.53826511 -0.72742403 -0.00000005
0.67839366 0.08333603 0.05198406
-0.70147383 -0.78101474 0.00000000
0.37088400 -0.20079966 -0.00000037
-0.79028255 0.15649687 -0.00000001
-0.53848267 -0.47474870 -0.00000019
-0.05408665 -0.16265905 -0.00000040
-0.65772337 0.71784401 -0.00000018
-0.77726752 0.02084201 -0.00000003
0.46703592 -0.10821468 -0.00000053
-0.47629240 -0.75272971 -0.00000003
0.19638832 -0.71360725 -0.00000005
0.25420672 -0.04867882 -0.00000047
0.42480913 0.03500295 -0.00000064
-0.69242531 0.12360292 -0.00000013
0.72110796 -0.19372033 -0.00000071
-0.43499801 -0.46355861 -0.00000021
0.59650224 -0.30483016 -0.00000046
-0.66724491 -0.26809266 -0.00000009
0.17977127 -0.51892930 -0.00000018
0.41830140 0.28156781 0.13601550
0.21207164 0.08026683 -0.00000055
0.39804161 0.18620460 0.29307765
-0.44598788 -0.61903274 -0.00000011
0.12236153 -0.12409112 -0.00000042
-0.79464877 0.28848478 -0.00000001
0.17693600 0.49658829 0.17180197
-0.42560375 -0.75838524 -0.00000003
0.32937863 0.25086007 0.29852107
0.22858700 0.56852210 0.00392469
0.46300912 0.20018388 -0.00000085
-0.09531544 0.40580720 -0.00000075
-0.54881686 -0.63846493 -0.00000010
-0.23037216 0.48900959 -0.00000070
-0.49219197 0.58591515 -0.00000038
0.78449708 -0.42316294 -0.00000047
-0.59439898 0.20586307 -0.00000026
0.75941664 -0.78359461 -0.00000002
0.12200167 0.67364579 0.00591011
0.06767801 -0.63488632 -0.00000010
-0.36711189 0.69564950 -0.00000054
-0.72106367 0.66247714 -0.00000010
-0.65590316 -0.16662411 -0.00000012
0.27007464 0.01118466 -0.00000051
-0.33189514 -0.17761207 -0.00000039
0.32988462 0.24175666 -0.00000076
0.33759129 0.30598265 0.21248703
0.59427476 0.12244554 -0.00000091
0.31432030 -0.23193590 -0.00000036
-0.43567050 0.66889125 -0.00000046
0.47444022 0.30518255 0.02767812
-0.56101120 0.39929482 -0.00000030
-0.70704466 0.12879051 -0.00000012
0.10778865 -0.70729339 -0.00000006
0.57544965 0.19421130 0.04121030
0.19988438 0.21027865 -0.00000063
0.27058265 -0.37447500 -0.00000027
-0.32078192 -0.57796991 -0.00000014
0.64624989 -0.33782312 -0.00000048
0.53715581 -0.41975290 -0.00000027
0.16021879 0.38618872 -0.00000074
0.69153970 -0.39152634 -0.00000047
-0.36597410 -0.05986690 -0.00000045
0.15788290 0.09898189 -0.00000056
0.31181255 0.32636091 0.21982288
0.35750544 -0.71042413 -0.00000006
-0.65523320 0.10722136 -0.00000017
-0.30770010 0.33058292 -0.00000059
0.20319717 -0.77144587 -0.00000002
0.12651418 -0.05182571 -0.00000047
0.55708802 0.21991263 0.03123998
0.64614058 -0.38739356 -0.00000042
-0.20559046 0.29360610 -0.00000068
-0.15776873 -0.18411116 -0.00000038
-0.28151700 -0.33054057 -0.00000029
0.46625409 0.12739573 -0.00000078
-0.55654627 -0.04168172 -0.00000025
0.56005055 -0.11841951 -0.00000062
0.12773848 0.21483287 -0.00000063
-0.27223942 -0.05001202 -0.00000047
-0.23586924 -0.40717819 -0.00000025
0.20814839 -0.39868775 -0.00000025
0.05677013 0.06480857 -0.00000054
-0.13645327 -0.35758418 -0.00000028
0.22539639 0.36587927 0.28352800
-0.04816671 -0.15889946 -0.00000040
0.55515999 0.06087858 -0.00000080
0.56674761 -0.26923275 -0.00000046
0.54248273 -0.72107226 -0.00000005
-0.59304702 -0.75830507 -0.00000003
-0.62210560 -0.16711617 -0.00000016
-0.36443529 0.28342283 -0.00000052
-0.40125540 0.22773547 -0.00000047
0.48938930 -0.67256266 -0.00000008
0.30519906 0.01493397 -0.00000051
0.16616473 0.61225265 0.02931552
0.43019959 0.23901810 0.17765254
-0.70810193 0.51584911 -0.00000011
-0.31518897 -0.73175430 -0.00000004
0.27772591 -0.78821707 -0.00000001
-0.32782942 -0.73954123 -0.00000004
-0.06091811 -0.20246466 -0.00000037
0.34320730 0.25015745 0.28069082
0.12441622 0.59521675 0.10916812
-0.34918553 0.13208279 -0.00000051
-0.42940953 -0.09056875 -0.00000038
0.39449549 -0.14489891 -0.00000041
-0.42224124 -0.68080992 -0.00000007
0.43167928 -0.45223838 -0.00000022
-0.47887194 -0.05584594 -0.00000033
-0.50331438 0.27193722 -0.00000037
-0.79386431 0.20790374 -0.00000001
-0.14392652 -0.10098046 -0.00000044
0.28606150 0.04806540 -0.00000053
-0.42774802 -0.25555447 -0.00000034
0.17166688 0.18791923 -0.00000062
-0.19025391 0.33172151 -0.00000071
-0.77507144 -0.62347376 0.00000000
-0.33394346 -0.53179628 -0.00000017
-0.47058025 -0.31535584 -0.00000029
-0.21843322 0.60008371 -0.00000073
0.67655051 -0.15682960 -0.00000070
-0.14753395 0.12659951 -0.00000058
-0.17121115 0.56493306 -0.00000077
0.33292639 0.39950106 0.09178829
0.16625232 0.25317931 -0.00000066
-0.57218921 0.24175829 -0.00000028
-0.59773701 -0.70282108 -0.00000006
0.11485871 -0.59673804 -0.00000013
-0.63162863 0.04865049 -0.00000019
-0.21385942 -0.53118277 -0.00000017
0.78864360 -0.34824744 -0.00000056
0.45160362 0.18354334 0.22393425
0.49012718 -0.09224625 -0.00000057
0.67472053 -0.79565167 -0.00000001
-0.63110763 -0.71515375 -0.00000005
-0.24064289 -0.54627639 -0.00000016
-0.37523490 0.62219453 -0.00000053
-0.15472142 -0.04898806 -0.00000047
-0.79593402 -0.73624206 0.00000000
0.54728442 -0.04031688 -0.00000069
-0.38953477 -0.53543717 -0.00000017
0.50230110 0.03741704 -0.00000072
-0.58055758 -0.73961771 -0.00000004
-0.32248288 -0.39751777 -0.00000025
0.44968584 0.13529059 -0.00000077
-0.47028318 -0.01167597 -0.00000035
0.03596633 -0.41231048 -0.00000024
-0.02784953 -0.38866347 -0.00000026
0.49792433 -0.61938173 -0.00000011
-0.21497218 -0.62335294 -0.00000011
0.53489751 -0.48449489 -0.00000020
0.62312520 0.07074360 -0.00000089
0.28344989 0.22056913 0.40205690
0.43087405 -0.61702096 -0.00000011
-0.03867344 -0.04910673 -0.00000047
-0.00337987 0.15614086 -0.00000060
-0.20740113 0.26343846 -0.00000066
-0.03451050 -0.73796117 -0.00000004
0.43873295 0.21374774 0.20038807
0.08209803 0.66757017 0.06836835
0.05561700 0.68246603 0.08410539
-0.78624153 0.03111918 -0.00000002
-0.54937214 -0.60301936 -0.00000012
-0.52957553 0.58012074 -0.00000034
0.61344469 0.10163576 -0.00000091
0.00533382 0.41154146 -0.00000076
0.71493971 -0.42586231 -0.00000045
-0.65077627 0.35156512 -0.00000019
-0.46668085 0.09294764 -0.00000037
0.23601203 0.46378708 0.13611072
0.58005774 0.08156439 -0.00000085
-0.34366608 0.63829499 -0.00000057
0.09878174 0.56460494 0.18557248
-0.51282042 0.23637632 -0.00000035
-0.41091073 0.72251564 -0.00000049
-0.17039566 -0.77998918 -0.00000001
-0.76607341 0.34739545 -0.00000004
0.14367352 0.46123117 0.26501405
0.27031821 0.52502477 0.00632371
0.79575402 -0.57757145 -0.00000028
-0.38544989 -0.77770174 -0.00000001
-0.53013074 0.75505072 -0.00000034
-0.66569251 0.34238929 -0.00000017
0.44453436 -0.52884871 -0.00000017
-0.69596535 0.19679482 -0.00000013
0.04726373 -0.36633912 -0.00000027
-0.67797482 0.53828090 -0.00000015
0.44455543 0.24866575 0.14504617
0.02285875 0.03041407 -0.00000052
-0.64572656 -0.46926826 -0.00000008
0.38914981 0.04097925 -0.00000061
-0.39490518 -0.55692834 -0.00000015
0.24119732 0.29088581 0.36393467
0.78084213 -0.58994752 -0.00000026
0.63847882 0.01015590 -0.00000084
0.64803499 -0.32751161 -0.00000049
0.36045730 0.20388508 0.32011461
-0.25255287 -0.35380867 -0.00000028
0.23795842 0.14719039 -0.00000059
-0.76076144 -0.36637548 0.00000000
-0.55034041 0.66132581 -0.00000031
0.50137699 0.23970675 0.08002960
0.45554245 -0.62277865 -0.00000011
-0.30850384 0.22751904 -0.00000057
0.06743754 0.35775489 -0.00000072
-0.76883721 0.32179090 -0.00000004
-0.21053782 -0.16762762 -0.00000040
-0.55891544 -0.22848389 -0.00000022
0.74154508 -0.11585473 -0.00000081
-0.48425990 0.30645686 -0.00000039
-0.04940709 -0.70781189 -0.00000006
-0.55526394 -0.08972676 -0.00000024
-0.74178159 0.10908710 -0.00000007
0.12824905 0.03243899 -0.00000052
0.33233181 0.17489938 -0.00000069
-0.36483246 -0.77976716 -0.00000001
0.32394251 0.39178768 0.11446989
0.46587279 0.21154808 0.16650935
0.47406343 0.20073110 0.17007694
0.10983053 0.17689294 -0.00000061
0.61102951 -0.49830538 -0.00000027
0.29563677 -0.34743237 -0.00000028
-0.37096509 0.39736304 -0.00000053
0.43932542 0.19650985 0.22299927
0.53951001 -0.72662991 -0.00000005
0.16572787 0.13006847 -0.00000058
0.09015689 -0.70772380 -0.00000006
0.56210369 -0.75858527 -0.00000003
-0.62151039 0.60911959 -0.00000022
0.54692376 0.02175167 -0.00000075
0.33697096 0.24170414 0.30064502
0.53778440 -0.06715651 -0.00000065
-0.27091017 -0.43212920 -0.00000023
0.19473115 0.06234455 -0.00000054
0.42352518 0.10413033 -0.00000071
0.57171071 -0.41499674 -0.00000031
-0.44622660 0.71475053 -0.00000044
-0.70770931 -0.24115776 -0.00000005
-0.35841596 -0.53420293 -0.00000017
-0.64511257 -0.19752429 -0.00000013
0.46626624 -0.49659592 -0.00000019
-0.47986484 0.65002054 -0.00000040
-0.68551469 0.09755425 -0.00000014
-0.46157953 0.10028419 -0.00000038
0.10770020 0.29293326 -0.00000068
-0.50575155 0.49323183 -0.00000037
-0.58276796 -0.57401603 -0.00000013
-0.39589083 -0.11858718 -0.00000041
-0.44177493 -0.38379046 -0.00000026
-0.02794135 -0.43604162 -0.00000023
0.52287269 0.06371842 -0.00000077
0.14924321 0.47913566 0.23312698
0.15099077 -0.03439144 -0.00000048
-0.50396144 0.60714656 -0.00000037
-0.60171008 -0.49219394 -0.00000012
-0.34824592 -0.60331744 -0.00000012
-0.27278319 -0.65824986 -0.00000009
-0.24637897 -0.47161189 -0.00000021
0.05341782 -0.42937660 -0.00000023
-0.13998616 -0.57967913 -0.00000014
-0.13094561 -0.13014412 -0.00000042
-0.63781810 0.08689973 -0.00000019
0.11307675 -0.04538622 -0.00000047
0.41512784 -0.42455134 -0.00000023
0.53058642 -0.20198485 -0.00000050
-0.10366913 0.27113643 -0.00000067
0.12436448 0.61857873 0.07750366
0.44684464 -0.72995055 -0.00000004
0.50695223 0.09852770 -0.00000079
0.46286684 0.14976214 0.25452271
0.18196015 -0.17283662 -0.00000039
0.18673675 0.28412801 -0.00000068
-0.38812590 0.15185565 -0.00000047
0.31160876 -0.05586160 -0.00000047
0.39428869 0.25568536 0.20379309
0.04558289 -0.74386150 -0.00000004
-0.67348546 -0.72673768 -0.00000000
0.34291643 -0.05617440 -0.00000046
0.36489660 -0.16059540 -0.00000040
-0.49659979 0.36079144 -0.00000038
-0.28867325 -0.58609068 -0.00000013
0.26053032 -0.15384857 -0.00000040
0.28338999 -0.38389847 -0.00000026
-0.70900649 0.24914564 -0.00000011
-0.68215859 0.03360786 -0.00000013
-0.68820268 -0.57001424 -0.00000001
-0.59345186 -0.58599526 -0.00000011
0.05470922 0.35590947 -0.00000072
0.68333352 -0.17853637 -0.00000069
0.58708084 -0.15693992 -0.00000061
0.01914792 0.09412706 -0.00000056
-0.44656712 0.72278684 -0.00000044
0.50765771 0.13620964 0.21208847
0.60305703 -0.63120055 -0.00000012
-0.63182712 0.55053294 -0.00000021
0.46783864 0.19187680 -0.00000085
-0.68563962 -0.02591087 -0.00000012
0.78101230 0.01651039 0.00336287
-0.20355320 -0.27824804 -0.00000033
-0.69078243 -0.25791046 -0.00000007
-0.61434644 -0.59929776 -0.00000009
0.27712628 0.09191732 -0.00000056
-0.31488442 0.67436779 -0.00000061
-0.49379417 0.25374103 -0.00000037
-0.53861165 0.43669012 -0.00000033
0.58706933 -0.38478214 -0.00000036
-0.79694629 -0.21368535 0.00000000
-0.72784382 0.41894677 -0.00000009
0.21867584 -0.46804693 -0.00000021
0.04495130 -0.23716401 -0.00000035
0.20428009 -0.19067773 -0.00000038
-0.48307908 -0.58778036 -0.00000013
-0.63601202 0.47098818 -0.00000020
-0.58261329 -0.28534746 -0.00000018
0.24921247 0.42409635 0.17209505
0.21310060 0.14894465 -0.00000059
0.00270044 -0.72015536 -0.00000005
-0.22199002 -0.25956950 -0.00000034
-0.60608661 0.03449676 -0.00000021
-0.63210326 -0.64662236 -0.00000006
-0.04097555 0.20686321 -0.00000063
0.55570483 0.09997301 0.19604506
0.27346343 -0.16307804 -0.00000040
0.10983941 0.65012765 0.05437848
-0.22386929 -0.54314053 -0.00000016
0.71741283 -0.47709364 -0.00000040
0.68092471 -0.37124386 -0.00000048
-0.14233916 -0.37273502 -0.00000027
-0.00039903 0.03150498 -0.00000052
0.15648939 -0.29816297 -0.00000031
0.51521444 -0.62062669 -0.00000011
-0.72403497 -0.49977767 0.00000000
0.00055986 -0.72963315 -0.00000004
-0.50015384 0.74067467 -0.00000037
-0.71679610 0.54448754 -0.00000010
0.76570064 -0.14227793 -0.00000081
0.31306836 0.48558637 0.00182508
0.41218859 -0.56335747 -0.00000015
0.54703987 -0.42695868 -0.00000027
0.57052678 -0.14894068 -0.00000060
-0.54947978 -0.64096332 -0.00000010
-0.36865425 -0.60569555 -0.00000012
-0.06483998 -0.57278299 -0.00000014
0.32723823 -0.09105067 -0.00000044
-0.69395471 -0.72008294 0.00000000
0.14688236 0.27149248 -0.00000067
0.46811566 0.18072712 -0.00000084
0.46095547 0.29724774 0.05677450
0.23925778 0.22894672 0.45070681
0.56270593 0.19809046 0.05325189
0.21876486 -0.01314833 -0.00000049
0.59296870 -0.08900627 -0.00000068
-0.68377250 -0.07024562 -0.00000011
-0.30808347 0.53303975 -0.00000061
-0.28696206 -0.03674004 -0.00000048
-0.24350767 -0.48183849 -0.00000020
-0.10738378 -0.56960994 -0.00000014
-0.43519041 -0.01608284 -0.00000039
0.25163090 0.26469126 0.38534430
-0.56399298 -0.05848827 -0.00000024
-0.26787278 -0.69467276 -0.00000007
0.23683600 -0.17916194 -0.00000039
0.23487717 -0.35027251 -0.00000028
-0.63765091 0.01202956 -0.00000018
0.10682588 0.51402968 0.24334630
-0.31608963 -0.23900093 -0.00000035
-0.78035444 0.74126679 -0.00000002
-0.78639102 0.55789202 -0.00000002
-0.17322546 0.27525464 -0.00000067
0.21653557 0.22674939 -0.00000064
0.36997727 -0.47821033 -0.00000020
0.28915331 0.19997464 -0.00000067
-0.66953075 -0.67303348 -0.00000002
0.10610236 0.15894218 -0.00000060
0.11297373 -0.12532593 -0.00000042
0.22984540 -0.44179437 -0.00000022
0.47860572 -0.42341501 -0.00000024
-0.59911644 0.78083402 -0.00000025
0.17864379 0.37242183 -0.00000073
-0.35805711 -0.75928694 -0.00000003
-0.74100876 -0.33116731 -0.00000000
0.22894259 0.25179368 -0.00000066
-0.40226653 -0.39218408 -0.00000025
-0.59345907 -0.24911518 -0.00000017
-0.60238206 0.38038635 -0.00000025
0.43048143 0.20748802 0.22010019
-0.74285924 -0.56396633 0.00000000
-0.20782870 -0.31931579 -0.00000030
0.20651612 -0.67268085 -0.00000008
0.62612087 -0.77261388 -0.00000002
-0.24596180 0.42548382 -0.00000067
0.23680022 0.39688632 0.22591753
0.53627115 -0.17241865 -0.00000053
-0.58220607 0.23934983 -0.00000027
0.13761754 -0.43105692 -0.00000023
-0.53030962 -0.33178639 -0.00000023
-0.13782880 0.10308010 -0.00000056
0.47924501 -0.50786942 -0.00000018
0.31363052 0.06270363 -0.00000055
-0.71500516 -0.19732620 -0.00000005
0.15269580 0.11193071 -0.00000057
0.24222665 0.55040222 0.01001059
0.21979053 -0.16513602 -0.00000040
0.73541790 0.04507216 0.02649998
-0.59142029 -0.59890079 -0.00000011
-0.07170912 -0.01526010 -0.00000049
-0.27526706 0.47902045 -0.00000065
0.11331028 0.11940834 -0.00000057
-0.68492168 0.64125901 -0.00000014
0.32968271 0.46967861 0.00086525
0.15000814 0.18287404 -0.00000061
-0.68056619 0.03060043 -0.00000013
-0.13665371 -0.54426694 -0.00000016
0.20083642 -0.16227967 -0.00000040
0.34420568 -0.32896358 -0.00000029
0.39819533 -0.55350417 -0.00000015
0.10730298 -0.64275879 -0.00000010
0.19240610 -0.54453158 -0.00000016
0.57865953 -0.29383793 -0.00000045
-0.03945344 0.31037197 -0.00000069
0.59629315 -0.67460638 -0.00000008
0.60193849 -0.69239348 -0.00000007
0.10125698 -0.26884162 -0.00000033
-0.43658596 0.53430653 -0.00000045
0.32166120 0.26333064 0.29206440
-0.04499580 -0.56179941 -0.00000015
-0.54001337 -0.36368415 -0.00000021
-0.69681245 0.68882197 -0.00000013
-0.21874309 0.41656473 -0.00000070
-0.76064831 -0.17412700 -0.00000001
0.77839613 -0.37881026 -0.00000053
-0.46489069 -0.03344472 -0.00000035
-0.34564686 -0.21186776 -0.00000037
0.34990972 -0.53885674 -0.00000016
0.31962389 -0.09292204 -0.00000044
0.63756233 -0.09605650 -0.00000072
0.00567205 -0.71228188 -0.00000005
-0.59777254 -0.09602323 -0.00000020
-0.68070781 -0.17403977 -0.00000010
0.06059695 -0.05518616 -0.00000047
-0.56667769 0.42567837 -0.00000029
0.08595821 0.62591410 0.11970995
0.06207859 -0.19104628 -0.00000038
0.51774144 -0.58200431 -0.00000014
-0.77043307 -0.60783088 0.00000000
-0.50989741 -0.67489243 -0.00000008
-0.30462655 0.29443660 -0.00000058
-0.73725051 0.42611331 -0.00000008
-0.10769711 0.09033689 -0.00000056
0.14229800 -0.17129730 -0.00000039
-0.27594700 -0.41009989 -0.00000024
0.69061601 0.09141707 0.02440398
-0.78931373 0.08225975 -0.00000001
0.25743929 0.28223053 0.35362908
0.15268326 0.55372792 0.12712862
-0.28719750 -0.06568959 -0.00000046
-0.25141600 0.55534118 -0.00000069
0.31398320 -0.15160365 -0.00000041
-0.57745957 -0.35538509 -0.00000017
0.21198165 0.27056229 -0.00000067
0.37267426 -0.58650279 -0.00000013
0.19040620 -0.19390813 -0.00000038
-0.73923630 -0.72985256 0.00000000
0.39505365 -0.43050933 -0.00000023
-0.20079572 -0.08376345 -0.00000045
-0.62214673 -0.61915427 -0.00000008
-0.03240399 -0.78247625 -0.00000001
0.65161407 -0.32169583 -0.00000050
-0.36171013 0.19158176 -0.00000050
0.24502167 0.32645380 0.31042448
-0.02070199 0.36911544 -0.00000073
-0.78787637 -0.40299284 0.00000000
0.20368049 -0.21914558 -0.00000036
-0.00906957 -0.33603793 -0.00000029
0.28875405 0.27698886 0.31821176
-0.17474948 -0.50817513 -0.00000018
0.39392316 0.39364001 0.01689185
0.16856252 0.27006069 -0.00000067
0.26657495 0.51741165 0.02175028
-0.49078938 -0.24076757 -0.00000029
0.53459471 -0.31881103 -0.00000038
0.38820872 -0.52678585 -0.00000017
-0.26848811 -0.43959650 -0.00000023
-0.37479919 0.27070680 -0.00000050
-0.45550597 -0.21963201 -0.00000033
0.46324027 -0.66146886 -0.00000009
-0.27439037 0.05869312 -0.00000054
0.42229620 -0.02610989 -0.00000057
-0.28174910 -0.29047745 -0.00000032
0.39031789 -0.60094184 -0.00000012
-0.45132563 0.50011224 -0.00000044
-0.03676763 0.18626136 -0.00000062
-0.28976259 0.08110110 -0.00000055
-0.15387861 0.18744393 -0.00000062
0.69889033 -0.77827698 -0.00000003
0.15634488 0.59074968 0.07186444
-0.28391185 -0.46023890 -0.00000021
0.56672090 -0.20575289 -0.00000053
0.15193278 0.29955786 -0.00000069
-0.68798798 -0.32047018 -0.00000006
0.56736332 0.16790773 0.08792556
-0.61929840 0.75707221 -0.00000023
-0.06814348 0.22423975 -0.00000064
0.10464340 0.38823524 -0.00000074
-0.29071495 0.10433715 -0.00000056
0.71191806 -0.51018566 -0.00000036
-0.23677830 0.22814348 -0.00000064
-0.69533426 -0.48907095 -0.00000002
0.51838756 -0.74267817 -0.00000004
0.32517934 0.24702688 -0.00000076
-0.72590619 -0.73412961 0.00000000
-0.39252639 0.52054155 -0.00000051
0.64283293 -0.46104306 -0.00000034
0.62091768 -0.35643223 -0.00000043
0.03640789 0.29543567 -0.00000068
-0.75387335 -0.39987493 0.00000000
-0.30789286 -0.01654553 -0.00000049
0.56120980 -0.28995901 -0.00000044
0.14488900 -0.27928311 -0.00000033
-0.08361145 -0.20912871 -0.00000037
-0.49410427 0.38468206 -0.00000038
-0.43294832 -0.06834787 -0.00000038
0.17530921 -0.09267227 -0.00000044
0.52876073 0.17336389 0.13295174
-0.03707174 -0.43129399 -0.00000023
0.34438571 0.08261775 -0.00000060
-0.74596596 -0.20357399 -0.00000002
-0.69665104 -0.60102868 -0.00000000
-0.26693720 0.00294528 -0.00000050
-0.09488660 0.18952788 -0.00000062
0.31587625 0.04855838 -0.00000054
0.66675776 -0.22562101 -0.00000062
-0.76821685 0.63046485 -0.00000004
0.07678333 0.59881729 0.16898105
-0.33558348 -0.64346367 -0.00000010
0.06618119 -0.39905581 -0.00000025
-0.07522818 -0.50065720 -0.00000019
0.11212890 -0.68243170 -0.00000007
0.34493744 -0.48408261 -0.00000020
-0.44451728 0.03674257 -0.00000039
0.27340585 -0.53118920 -0.00000017
-0.46421102 -0.24386354 -0.00000031
0.13129792 0.55033439 0.16078793
-0.74201387 0.09663083 -0.00000007
0.41250503 0.14521305 -0.00000074
-0.08169450 0.14230578 -0.00000059
-0.48663083 0.12574810 -0.00000036
-0.42776936 -0.06638830 -0.00000038
-0.09469245 -0.73493916 -0.00000004
0.53720599 0.00643838 -0.00000073
0.48316464 -0.33141935 -0.00000031
0.28563002 0.46844387 0.06238375
0.66066134 0.13479371 0.00617148
0.49334878 -0.74875104 -0.00000003
0.40373623 0.13109002 -0.00000072
0.22232433 0.19174938 -0.00000062
0.12458186 -0.62467515 -0.00000011
0.18462954 0.60510594 0.01394103
-0.59930390 -0.03405234 -0.00000021
-0.73599911 -0.67754805 0.00000000
0.24857216 0.51050609 0.05558584
-0.51622564 -0.43655750 -0.00000022
0.73965919 -0.66000104 -0.00000017
0.01219973 -0.14490591 -0.00000041
-0.02091973 -0.35582131 -0.00000028
0.45758149 -0.29829308 -0.00000032
-0.11763128 0.54449898 -0.00000083
-0.08644717 -0.55658942 -0.00000015
0.08075568 -0.71903068 -0.00000005
-0.36054730 0.66813767 -0.00000055
-0.29549402 -0.45043734 -0.00000022
-0.09379568 0.12144960 -0.00000058
0.00277024 0.00588316 -0.00000050
0.46437997 -0.49973115 -0.00000019
-0.12015972 0.27909163 -0.00000067
-0.07140089 -0.40923339 -0.00000024
-0.79624736 0.19862522 -0.00000000
0.14251719 0.54428267 0.15376838
-0.14725602 -0.43209612 -0.00000023
0.18605217 -0.15487374 -0.00000040
-0.20792387 0.13180234 -0.00000058
-0.20606199 0.28132150 -0.00000068
-0.14895339 -0.06196279 -0.00000046
0.64046025 -0.51294392 -0.00000028
-0.03282774 0.15155855 -0.00000059
-0.26008701 -0.16985232 -0.00000039
0.35907695 0.39268368 0.06552605
0.50367689 0.12873743 0.22764625
-0.45114705 0.67715758 -0.00000044
0.21478385 0.52119601 0.08696270
0.01915466 0.75488126 0.03526714
0.13879775 0.30045104 -0.00000069
-0.06477389 0.41017255 -0.00000076
-0.03438180 0.40263179 -0.00000075
0.22453332 -0.41759387 -0.00000024
-0.10748395 0.36432418 -0.00000073
0.20244125 0.29519638 -0.00000068
0.54033202 0.23468301 0.03393728
0.68261892 -0.37508422 -0.00000047
0.21062192 0.14334565 -0.00000059
-0.15052605 -0.09766758 -0.00000044
-0.44648275 -0.34650236 -0.00000028
-0.16086654 -0.78451574 -0.00000001
-0.45800835 -0.40376011 -0.00000025
0.20751299 -0.52625793 -0.00000017
-0.30050933 0.07353078 -0.00000055
-0.13094100 0.44968385 -0.00000078
0.09200500 0.03465230 -0.00000052
-0.70782286 -0.45217216 -0.00000002
0.51073670 -0.07136274 -0.00000062
-0.47818491 -0.20867182 -0.00000031
0.13691662 -0.71797204 -0.00000005
-0.33901513 -0.12882933 -0.00000042
0.04826262 -0.13791853 -0.00000041
0.00201210 0.11908569 -0.00000057
0.09689000 -0.68549842 -0.00000007
0.58650035 -0.59801698 -0.00000013
-0.62174124 0.09140113 -0.00000021
0.78642607 -0.62749290 -0.00000022
0.62996787 -0.31383678 -0.00000048
-0.40522930 -0.56297261 -0.00000015
0.75719863 -0.44006121 -0.00000045
0.43143585 0.28576845 0.11246744
-0.22419140 -0.58248830 -0.00000014
0.12331728 0.55486137 0.16547924
-0.12065276 0.14129384 -0.00000059
0.40906692 -0.34057656 -0.00000029
0.23633815 0.05085814 -0.00000053
0.39418346 -0.40147758 -0.00000025
0.06138365 -0.52878654 -0.00000017
0.12304366 0.62731326 0.06743292
0.07150239 -0.28844386 -0.00000032
-0.29505330 0.28494340 -0.00000059
-0.23397695 -0.38416794 -0.00000026
0.23456007 -0.67916310 -0.00000008
-0.02891918 -0.11431526 -0.00000043
0.08326761 -0.61747128 -0.00000011
0.68313301 0.04491952 0.09773121
-0.04137567 -0.62517560 -0.00000011
-0.57339722 0.67840314 -0.00000028
0.37962338 0.38495401 0.04811577
0.71407455 -0.72139508 -0.00000010
-0.65339100 -0.27742165 -0.00000011
-0.70894444 0.66773993 -0.00000011
-0.12016248 0.44556937 -0.00000078
-0.05669352 0.39036015 -0.00000074
0.67681915 -0.27754408 -0.00000057
-0.28687191 0.30960187 -0.00000060
0.07694486 -0.17409772 -0.00000039
0.28414565 0.46030951 0.07544982
0.23259796 0.31007698 0.34954682
-0.67525303 -0.24849357 -0.00000009
0.19878256 0.53216171 0.09380305
-0.15107569 0.45769316 -0.00000078
-0.26479554 -0.45532006 -0.00000022
-0.61893952 -0.36463475 -0.00000013
-0.49265018 0.22030412 -0.00000037
0.40686306 -0.16619535 -0.00000040
-0.33243605 -0.08820521 -0.00000044
-0.00132847 -0.78238922 -0.00000001
0.36642620 -0.42186901 -0.00000024
-0.11518609 -0.58721989 -0.00000013
-0.22109801 -0.23878174 -0.00000035
0.68640876 0.06256730 0.06930862
-0.66911823 -0.37187344 -0.00000007
-0.04159113 0.17817637 -0.00000061
0.30241138 0.13142116 -0.00000061
0.43788365 -0.17958058 -0.00000042
0.40996128 -0.27102003 -0.00000033
0.06280995 0.34820065 -0.00000072
-0.65439135 0.00394759 -0.00000016
0.22777884 -0.14451183 -0.00000041
-0.24203321 -0.20126532 -0.00000037
-0.33599150 -0.29099303 -0.00000032
-0.03429998 0.33705670 -0.00000071
0.39186189 -0.17000873 -0.00000039
-0.00611068 -0.73543555 -0.00000004
0.43297729 0.36666778 0.00047979
0.44172323 0.16521145 0.26225787
-0.36476609 0.09834578 -0.00000048
-0.44289830 -0.16266255 -0.00000035
-0.03747385 -0.12564638 -0.00000042
0.08474901 0.11884031 -0.00000057
0.19355986 0.34151730 0.35986736
0.46030897 -0.12376220 -0.00000051
0.08111008 -0.35996142 -0.00000028
-0.33519086 0.34701031 -0.00000056
0.65455711 -0.66661507 -0.00000013
0.10746917 -0.13135961 -0.00000042
-0.21763232 -0.56632406 -0.00000015
-0.21918194 -0.26361138 -0.00000034
0.28417999 0.21441048 -0.00000068
-0.78356886 0.71711123 -0.00000002
-0.64326161 -0.67166781 -0.00000004
-0.53394866 -0.61597753 -0.00000012
-0.74146909 0.22401446 -0.00000007
0.24711640 0.17942703 -0.00000061
-0.69950199 0.13184515 -0.00000013
-0.66090357 -0.22861722 -0.00000011
0.09630522 0.66378093 0.05421673
-0.22183529 0.34025955 -0.00000068
0.13041028 -0.23944995 -0.00000035
0.57066178 0.17691934 0.07120357
0.39258450 -0.49750423 -0.00000019
-0.10946425 0.39555106 -0.00000075
0.68439603 -0.09143429 -0.00000078
-0.33739623 -0.43480489 -0.00000023
0.31448761 0.26081809 -0.00000076
-0.55896038 0.35570058 -0.00000030
-0.05865686 0.08496229 -0.00000055
-0.40630335 -0.02850034 -0.00000041
0.33955196 -0.03530019 -0.00000048
-0.32879466 -0.64280194 -0.00000010
-0.39786145 -0.45400771 -0.00000022
0.17127369 0.43580851 0.26205629
-0.07497871 -0.14045222 -0.00000041
-0.70181787 -0.53867793 -0.00000001
-0.53518695 -0.49131796 -0.00000019
0.54287630 -0.23123170 -0.00000048
-0.54852593 0.51118213 -0.00000031
0.45043409 0.10429230 -0.00000074
0.65867794 0.08558197 0.07571506
-0.58247477 -0.16510314 -0.00000020
0.19387011 -0.08247257 -0.00000045
-0.59550852 -0.42449126 -0.00000014
-0.13426974 -0.51915121 -0.00000018
-0.31378108 -0.34925553 -0.00000028
-0.70428950 -0.75346488 0.00000000
0.47256416 0.12018087 -0.00000078
0.54579043 -0.58962888 -0.00000013
-0.60324305 -0.51983076 -0.00000011
0.12643264 0.25971550 -0.00000066
-0.45735738 0.00351919 -0.00000037
-0.60945052 -0.36836949 -0.00000014
-0.52726614 -0.15679532 -0.00000026
0.47879794 -0.74936914 -0.00000003
0.48888591 0.00848877 -0.00000068
0.14851968 0.05953960 -0.00000054
-0.14920999 0.31976581 -0.00000070
-0.29706270 0.62749892 -0.00000063
-0.16940342 -0.75088096 -0.00000003
0.58161664 -0.56916994 -0.00000016
0.29814708 0.16009244 -0.00000064
0.26864240 0.33101442 0.27214336
-0.04437472 -0.58947021 -0.00000013
0.50769866 0.16073769 -0.00000086
0.12186621 -0.76737273 -0.00000002
-0.41353536 0.39032981 -0.00000048
-0.23214583 0.31968540 -0.00000066
-0.20394894 -0.53976738 -0.00000016
-0.74546826 0.39410567 -0.00000007
0.52492464 -0.30547455 -0.00000038
-0.42154810 0.46998811 -0.00000047
-0.09318343 -0.78165770 -0.00000001
-0.30449870 0.51326829 -0.00000062
