ply
format ascii 1.0
element vertex 1370
property float x
property float y
property float z
end_header
-0.01325227 0.73032898 -0.00000096
-0.51843870 0.49562791 -0.00000035
0.17403527 -0.04412027 -0.00000047
0.35293418 0.30733246 0.01388731
0.16543929 0.61065686 0.00237463
0.56712294 -0.20248587 -0.00000086
-0.46839178 0.35379612 -0.00000041
-0.21177161 -0.64159822 -0.00000010
-0.23823875 -0.64896679 -0.00000009
0.49079227 -0.12316811 -0.00000077
0.09522382 -0.34318650 -0.00000029
-0.68833560 0.16379249 -0.00000014
0.16857424 -0.25618395 -0.00000034
0.36515573 -0.30180624 -0.00000031
-0.75425828 0.16632473 -0.00000006
-0.62013257 0.76191950 -0.00000022
-0.62903261 0.53797817 -0.00000021
0.16862775 0.38235411 0.02474990
0.09704771 0.16717018 0.05325197
-0.16353205 0.53893751 -0.00000078
0.26950958 -0.17025559 -0.00000039
-0.10991370 -0.27450907 -0.00000033
-0.26519582 0.45850474 -0.00000065
-0.61503947 0.32590413 -0.00000023
0.22204594 -0.79425561 -0.00000000
0.00439199 0.25157601 0.05407172
-0.55937433 0.47433871 -0.00000030
-0.57684863 -0.29192656 -0.00000018
-0.56316525 0.48085988 -0.00000030
-0.16527405 0.22076362 -0.00000064
-0.60188454 0.06702079 -0.00000022
-0.12396127 -0.00771730 -0.00000050
0.45929089 -0.21046419 -0.00000050
0.76812249 -0.22321400 -0.00000144
0.48681715 -0.74074036 -0.00000004
-0.71971780 0.32136819 -0.00000010
-0.76302522 -0.47007671 0.00000000
-0.74543053 -0.19050851 -0.00000002
0.20535216 -0.28327546 -0.00000032
0.51057488 0.24341969 0.00457099
-0.33116618 -0.38213938 -0.00000026
-0.50741464 0.70005947 -0.00000037
0.37074786 0.03025730 0.03965668
0.04096290 0.60787249 0.01502366
0.03300173 0.12124566 0.06418208
0.31680036 0.46899199 0.00141068
0.14194864 0.06245455 0.05919723
0.46737716 -0.26987240 -0.00000041
-0.63144195 -0.55830026 -0.00000008
0.75784612 -0.07469167 -0.00000172
0.19666660 0.48323289 0.01193609
-0.58493078 0.17449041 -0.00000026
-0.08651583 -0.31184882 -0.00000031
0.78924227 -0.34484410 -0.00000114
0.04327367 -0.36018494 -0.00000027
0.50833333 -0.02251820 -0.00000102
0.12396651 0.46039408 0.02143219
-0.76010239 -0.58994073 0.00000000
0.17895421 -0.60250616 -0.00000012
-0.39867085 -0.44680610 -0.00000022
0.02669452 0.27282894 0.04974268
0.61629915 0.09746259 0.00856981
0.24067752 -0.72670233 -0.00000005
-0.72520602 -0.31275037 -0.00000002
-0.52420521 -0.24064916 -0.00000025
-0.46074566 0.49264202 -0.00000042
-0.71088260 0.44897890 -0.00000011
-0.44581717 -0.19881642 -0.00000034
0.11295561 0.07137121 0.06119260
0.26960883 -0.53402585 -0.00000017
0.06855533 -0.49561927 -0.00000019
0.50151563 -0.08945221 -0.00000087
0.19378453 -0.61102927 -0.00000012
-0.60812253 -0.52922994 -0.00000011
-0.38433978 -0.68078446 -0.00000007
-0.46631280 -0.32985565 -0.00000029
-0.47397852 -0.61980939 -0.00000011
0.58677697 -0.78041244 -0.00000001
-0.44298410 0.04082283 -0.00000039
-0.62480438 0.07225661 -0.00000020
-0.58702779 -0.65945756 -0.00000009
0.38611925 0.03230239 0.03792555
-0.07081117 -0.59190565 -0.00000013
-0.52214062 0.39310709 -0.00000035
0.10456121 -0.21788669 -0.00000036
-0.77095902 0.57067347 -0.00000004
0.15789111 -0.06341682 -0.00000046
-0.03235397 -0.08331384 -0.00000045
-0.49809805 0.78901660 -0.00000038
-0.76520681 0.73680377 -0.00000004
-0.43122920 0.65587807 -0.00000046
0.34487996 -0.32539156 -0.00000030
-0.24278671 -0.76248562 -0.00000002
-0.63836598 0.07862050 -0.00000019
-0.68919861 -0.21515097 -0.00000008
-0.62267447 0.14251059 -0.00000022
0.38005584 0.38560170 0.00341191
0.57519954 -0.06719284 -0.00000115
-0.50356513 0.71498507 -0.00000037
0.22462241 0.02968415 -0.00000052
-0.42454243 0.63159901 -0.00000047
0.34696281 0.22382697 0.02278090
0.20746143 0.44018340 0.01514204
0.03101219 0.13816993 0.06269767
-0.58343977 0.25768214 -0.00000027
0.21197757 0.32339597 0.02630128
-0.07808608 -0.18290353 -0.00000039
0.04780342 0.03889202 0.07089629
-0.22730345 -0.02270716 -0.00000049
-0.56838274 0.21483850 -0.00000029
0.18033136 0.24769814 0.03697050
-0.16910557 -0.13855655 -0.00000041
-0.33012906 -0.03423835 -0.00000048
-0.31578630 -0.76568115 -0.00000002
-0.60072339 0.14448506 -0.00000024
-0.64295596 -0.64759958 -0.00000005
0.44232011 -0.56873864 -0.00000014
0.32954118 -0.58359033 -0.00000014
-0.42496338 0.35116747 -0.00000046
-0.12707108 0.01431507 -0.00000051
0.38248444 -0.26920241 -0.00000033
0.71753937 -0.42982849 -0.00000090
0.00173646 0.46363041 0.03325900
0.02611355 -0.44000277 -0.00000022
-0.02947658 -0.54855359 -0.00000016
0.75508946 -0.26429653 -0.00000134
0.21900073 -0.29712388 -0.00000031
0.14002639 0.12251675 0.05341854
0.03261821 -0.16276981 -0.00000040
0.29035029 -0.31530568 -0.00000030
0.13402879 0.46672800 0.01980256
0.12408508 -0.47804525 -0.00000020
-0.04044459 -0.72944474 -0.00000004
-0.22313526 -0.55236232 -0.00000015
0.06951305 0.28908342 0.04387136
-0.63202035 -0.59417140 -0.00000007
-0.72957778 0.58529437 -0.00000009
0.50720137 -0.55604511 -0.00000015
-0.33177492 0.48270577 -0.00000059
0.23746453 0.08856784 0.04710841
-0.62107182 -0.67142928 -0.00000007
0.62970394 -0.47290877 -0.00000053
-0.19454378 -0.01889039 -0.00000049
-0.33023888 -0.14469448 -0.00000041
0.21670964 0.30115068 0.02804201
0.79230231 -0.21928631 -0.00000145
-0.11548048 0.23130070 -0.00000064
-0.65375239 -0.54469812 -0.00000006
-0.73474038 -0.64084035 0.00000000
-0.35262600 -0.54933846 -0.00000016
0.44109905 0.06847167 0.02886568
-0.14267889 -0.31157070 -0.00000031
0.14775248 -0.26627678 -0.00000033
-0.61521143 0.36818260 -0.00000023
0.47539109 -0.67612112 -0.00000008
0.70118678 -0.05726830 -0.00000157
0.01649569 0.28608182 0.04943911
-0.58457023 -0.46780095 -0.00000014
-0.79618549 0.69529289 -0.00000000
-0.36222076 -0.02471006 -0.00000046
0.09120472 -0.37983474 -0.00000026
-0.42578372 -0.33104187 -0.00000029
0.17962566 0.18912084 0.04286280
-0.79507065 0.15347725 -0.00000001
-0.56002527 0.25836280 -0.00000030
0.19446100 -0.54045939 -0.00000016
-0.23562327 0.52744085 -0.00000070
0.55725235 -0.56849599 -0.00000014
-0.18138579 -0.32317421 -0.00000030
-0.06889837 0.48308420 -0.00000080
0.25972185 -0.63684314 -0.00000010
-0.44285169 0.61225349 -0.00000045
0.20484251 -0.61330158 -0.00000012
0.51404864 -0.37842947 -0.00000035
-0.64450246 0.62436998 -0.00000019
-0.14429383 0.46132034 -0.00000078
0.26342046 -0.54607010 -0.00000016
-0.56030279 -0.69373864 -0.00000007
0.54049951 -0.10483341 -0.00000096
-0.22067744 0.48877871 -0.00000071
0.51439255 0.06769648 0.02165760
-0.46466544 -0.55926126 -0.00000015
0.02318499 0.23401938 0.05394888
-0.54590946 -0.24792983 -0.00000023
0.23093414 0.03559579 0.05302250
0.32836479 -0.18925996 -0.00000038
0.29041365 -0.67117321 -0.00000008
-0.34781161 -0.45428804 -0.00000022
-0.27767086 0.30609560 -0.00000061
-0.49276158 -0.16705705 -0.00000030
-0.68268299 -0.07224926 -0.00000011
-0.31388465 -0.65292585 -0.00000009
-0.56429362 -0.58999062 -0.00000013
0.58406961 -0.78919351 -0.00000001
0.50722080 -0.63613939 -0.00000010
-0.13181897 0.32267356 -0.00000070
-0.26730901 -0.06404066 -0.00000046
-0.29904780 -0.71897745 -0.00000005
-0.71878821 0.20640832 -0.00000010
0.23507053 0.26527837 0.02978254
-0.34420657 0.42318347 -0.00000056
0.74144900 -0.53238595 -0.00000067
-0.67726147 -0.14232761 -0.00000010
-0.51769149 0.26556334 -0.00000035
-0.31766161 0.77965754 -0.00000060
-0.69273907 -0.43577090 -0.00000003
-0.04877243 -0.25474495 -0.00000034
0.35484919 0.00175549 -0.00000058
-0.55151182 0.16847435 -0.00000030
-0.52755600 0.48319590 -0.00000034
-0.77608728 0.41683698 -0.00000003
-0.15795027 -0.78612053 -0.00000001
-0.66985863 -0.18564804 -0.00000010
-0.75197065 0.62181461 -0.00000006
0.34825450 -0.77064937 -0.00000002
0.12441230 -0.25750476 -0.00000034
0.00296799 0.38991290 0.04046358
0.45343632 -0.39845949 -0.00000025
-0.28071138 0.48635596 -0.00000064
0.26026422 -0.15081084 -0.00000041
0.78469229 -0.34119123 -0.00000115
-0.53462422 0.39357051 -0.00000033
0.25195286 -0.68348259 -0.00000007
0.01716147 -0.66821855 -0.00000008
0.23471506 0.40265879 0.01616290
-0.28810322 -0.10116159 -0.00000044
0.45322487 -0.73707378 -0.00000004
-0.27216649 0.23907623 -0.00000061
0.25529209 -0.69119930 -0.00000007
-0.48743239 0.37078199 -0.00000039
0.41373807 -0.36461177 -0.00000027
0.77176744 -0.56720454 -0.00000058
-0.05616059 -0.00784535 -0.00000050
0.78897411 -0.18432775 -0.00000154
0.23258686 0.29406500 0.02716815
-0.05791758 -0.54773688 -0.00000016
-0.08577231 0.33820474 -0.00000071
0.58591586 -0.57594848 -0.00000019
0.00863535 0.78728664 0.00040423
-0.70281452 -0.11107272 -0.00000008
0.71446931 -0.39505973 -0.00000096
0.09650620 -0.08925872 -0.00000044
0.16584502 0.34423551 0.02881519
0.11584049 -0.03897728 -0.00000048
0.01759775 -0.25804541 -0.00000034
-0.15397099 0.05196170 -0.00000053
0.74399090 -0.51155144 -0.00000072
-0.32330289 -0.67378849 -0.00000008
0.16424613 0.50003743 0.01348828
0.52455151 -0.35374123 -0.00000043
0.30240411 0.24110687 0.02549235
-0.19502363 -0.67003745 -0.00000008
-0.28611735 0.71150428 -0.00000064
0.02498452 -0.23937409 -0.00000035
-0.04576322 -0.69116116 -0.00000007
-0.03159175 -0.11398677 -0.00000043
0.46809745 -0.17983358 -0.00000059
0.66273469 -0.46799865 -0.00000065
0.71205199 -0.09809826 -0.00000153
-0.68942398 -0.59360176 -0.00000001
-0.71313059 -0.26115075 -0.00000004
0.51676959 -0.65823400 -0.00000009
-0.48642603 0.05945027 -0.00000035
-0.07837054 0.50941217 -0.00000082
-0.40430304 -0.11375696 -0.00000040
0.55192620 -0.67377597 -0.00000008
-0.51063168 0.68982238 -0.00000036
-0.35968611 0.11548546 -0.00000049
-0.35817674 0.72272086 -0.00000055
0.09411137 0.00622843 -0.00000050
-0.64770746 -0.64305848 -0.00000004
0.07895771 0.59380180 0.01264588
0.75435245 -0.28048834 -0.00000130
-0.77689248 -0.20823307 0.00000000
-0.67485356 -0.61784452 -0.00000002
-0.10502948 -0.37219700 -0.00000027
-0.37119022 -0.19217989 -0.00000038
-0.64791036 0.34129000 -0.00000019
-0.77943665 0.21001340 -0.00000003
0.74765134 -0.34526575 -0.00000114
-0.31498387 0.15432060 -0.00000055
-0.49680194 -0.51202184 -0.00000018
0.67595929 -0.67603225 -0.00000028
0.21559364 0.18235643 0.03996026
-0.48344350 0.23938432 -0.00000038
-0.17231120 -0.06823019 -0.00000046
-0.39557266 -0.30798650 -0.00000031
-0.48563492 0.10912431 -0.00000036
-0.73511237 -0.05786730 -0.00000006
0.09771971 0.33202916 0.03679940
0.54249555 -0.21801051 -0.00000075
0.65217733 -0.06423455 -0.00000140
-0.28272703 -0.47518304 -0.00000020
-0.28142738 -0.46534565 -0.00000021
-0.77121693 0.45373136 -0.00000004
0.10603038 0.19422628 0.04967000
-0.50138044 0.63615572 -0.00000037
0.66716850 -0.48617530 -0.00000063
0.20532899 -0.40587649 -0.00000025
0.16656676 0.53838360 0.00944619
0.73276347 -0.18331853 -0.00000143
0.68409592 -0.35580701 -0.00000093
-0.59312493 0.16290279 -0.00000025
0.49826249 -0.71379614 -0.00000005
-0.52433872 -0.62189388 -0.00000011
0.16783004 0.12815931 0.05009430
-0.38059419 0.67690170 -0.00000052
0.34999615 0.10274289 0.03451460
-0.50669408 -0.78578150 -0.00000001
0.18273692 -0.24603368 -0.00000035
0.59152788 -0.04776582 -0.00000124
-0.12098117 0.42224208 -0.00000076
0.08047238 -0.32681328 -0.00000030
-0.50229341 -0.48788717 -0.00000020
0.70794308 -0.39543238 -0.00000093
-0.64619488 0.77691007 -0.00000019
-0.26329556 -0.48162898 -0.00000020
0.30607364 -0.79040927 -0.00000001
-0.64387643 -0.28125197 -0.00000012
-0.13557541 0.45474958 -0.00000078
-0.72369683 -0.29613832 -0.00000003
0.58960414 -0.41672608 -0.00000051
0.28316316 -0.50388676 -0.00000019
0.45532590 0.03302862 0.03097445
0.33894801 0.18989907 0.02694982
0.33370903 -0.18715344 -0.00000038
0.05946611 -0.64706713 -0.00000010
0.18627839 -0.36498606 -0.00000027
-0.27295440 0.30909234 -0.00000062
-0.34012324 0.67851585 -0.00000057
-0.12822066 -0.02740560 -0.00000048
-0.38779074 -0.76493156 -0.00000002
-0.05983387 -0.47195128 -0.00000021
-0.69316679 -0.17474060 -0.00000008
-0.16454068 0.79670286 -0.00000079
0.79979616 -0.59015441 -0.00000052
-0.56201899 -0.07895082 -0.00000024
-0.75596064 0.70278925 -0.00000006
-0.72079802 0.56911147 -0.00000010
0.00400586 0.54822713 0.02462514
-0.42993215 -0.69160712 -0.00000007
0.10714523 -0.47791940 -0.00000020
-0.58873665 0.53808701 -0.00000026
-0.22573373 0.76014417 -0.00000072
0.32539502 0.04162296 0.04303491
-0.75384778 0.01369208 -0.00000005
-0.69481516 -0.10643485 -0.00000009
0.04913756 0.04247210 -0.00000053
0.32185107 0.02971063 -0.00000053
0.08298905 0.10159070 0.06116739
-0.11495262 -0.51579094 -0.00000018
-0.01029568 -0.64633507 -0.00000010
0.08214511 -0.67608625 -0.00000008
0.62286341 -0.35545400 -0.00000074
0.53752381 -0.12578006 -0.00000091
0.65089267 -0.56373155 -0.00000042
0.17208201 0.09841910 0.05262765
-0.28317890 0.32295009 -0.00000061
0.50563675 0.23323698 0.00607394
-0.26013529 -0.25259063 -0.00000034
0.07925571 -0.35757416 -0.00000028
0.69916570 -0.58954996 -0.00000053
0.04344715 -0.19662134 -0.00000038
-0.13882950 0.61326134 -0.00000082
0.60177547 -0.01319529 -0.00000134
-0.12026189 0.65699410 -0.00000085
-0.33066329 -0.05147514 -0.00000047
0.26013538 0.51785660 0.00218608
0.66715062 -0.08436871 -0.00000141
-0.58763635 0.38099539 -0.00000027
0.42675829 -0.69530851 -0.00000007
-0.44248900 -0.58807492 -0.00000013
-0.69561452 -0.66309357 0.00000000
-0.01546125 -0.16610862 -0.00000040
-0.32305875 0.64893979 -0.00000060
-0.58302474 0.09179502 -0.00000025
-0.73015326 -0.70316374 0.00000000
-0.64552534 0.14332402 -0.00000019
-0.73039788 0.17682345 -0.00000009
-0.53444439 0.71301275 -0.00000033
-0.49484366 -0.08788387 -0.00000031
-0.71396416 0.22806875 -0.00000011
-0.25678027 -0.04747286 -0.00000047
-0.35050511 0.24016882 -0.00000052
0.42917001 0.11197589 0.02572727
-0.09826866 -0.24346291 -0.00000035
-0.21786290 -0.53975129 -0.00000016
0.65678114 -0.75161994 -0.00000008
-0.56281543 0.79642898 -0.00000030
-0.56619585 -0.47846445 -0.00000016
-0.18447477 -0.60913938 -0.00000012
-0.05263807 -0.10634195 -0.00000043
0.61261624 -0.65187961 -0.00000013
-0.01073305 -0.14600994 -0.00000041
0.29163370 -0.72329998 -0.00000005
-0.74503976 -0.57356358 0.00000000
0.12953824 -0.55471641 -0.00000015
0.39403185 -0.76392663 -0.00000002
-0.09851643 -0.75284708 -0.00000003
0.05268429 -0.79057568 -0.00000001
0.57632303 -0.57513946 -0.00000016
-0.46448398 0.06969607 -0.00000037
-0.45344120 0.45752412 -0.00000043
0.65714902 -0.54729122 -0.00000048
-0.70093387 -0.34093454 -0.00000004
0.01874788 0.39739418 0.03815163
-0.38213608 -0.78422290 -0.00000001
-0.71882528 -0.05306418 -0.00000008
0.22130901 0.33868119 0.02385449
0.20091824 0.46205029 0.01361895
-0.01777461 -0.60656881 -0.00000012
-0.56056708 0.01441933 -0.00000026
0.31597134 0.39784756 0.00856451
0.19450644 0.18309093 0.04198312
-0.57704633 0.53412056 -0.00000028
0.37317169 0.02240677 -0.00000068
-0.30260837 0.24211796 -0.00000058
-0.56461132 0.75094122 -0.00000029
0.29240420 -0.74220073 -0.00000004
-0.35137609 -0.52367210 -0.00000017
-0.32046381 0.35506183 -0.00000058
-0.69454157 -0.21656524 -0.00000007
-0.45659348 0.36779794 -0.00000043
-0.60842699 -0.45496139 -0.00000012
0.47176999 0.23707783 0.00905842
-0.34094006 0.08166745 -0.00000050
0.03123486 -0.54998773 -0.00000016
0.19889867 0.20135248 0.03973151
0.39131400 -0.60276711 -0.00000012
-0.27327719 0.11682055 -0.00000057
-0.02896572 -0.15578787 -0.00000040
0.35554215 0.15694559 0.02857585
-0.25145242 0.13907871 -0.00000059
-0.09588742 -0.32689822 -0.00000030
0.72123677 -0.05806850 -0.00000163
0.29223284 0.48664525 0.00209796
-0.11126871 -0.15031075 -0.00000041
-0.12673461 0.66719854 -0.00000084
0.31321555 -0.11108278 -0.00000043
-0.10976944 -0.61702925 -0.00000011
-0.50977421 0.03171949 -0.00000032
0.02720820 -0.53672564 -0.00000016
0.07888376 -0.51220894 -0.00000018
-0.17816809 0.52082366 -0.00000076
-0.47789708 0.25995299 -0.00000039
0.69066745 -0.43737715 -0.00000080
-0.54440212 0.45491502 -0.00000032
-0.56915319 -0.23116817 -0.00000020
-0.65295827 0.51340085 -0.00000018
-0.77915448 0.36961153 -0.00000003
-0.70010734 0.34034285 -0.00000012
0.36175719 -0.38050792 -0.00000026
-0.71752781 -0.65672660 0.00000000
0.19647856 -0.61929488 -0.00000011
-0.32453701 0.08878062 -0.00000052
0.17256609 0.50463897 0.01220394
-0.27503163 0.60772055 -0.00000066
-0.03538055 -0.76217562 -0.00000002
0.19862741 0.04411843 0.05538639
0.24035774 0.22577900 0.03318307
0.24025038 0.20298427 0.03545937
0.30468890 -0.30547482 -0.00000031
-0.17910971 -0.25577536 -0.00000034
0.70717043 -0.22297923 -0.00000127
-0.48014575 -0.33642939 -0.00000028
0.04038325 0.41773856 0.03397920
0.32295841 -0.50281227 -0.00000019
0.21079075 -0.25309098 -0.00000034
-0.34097368 -0.13794260 -0.00000041
-0.53921431 -0.70196891 -0.00000006
-0.27612445 0.48053822 -0.00000065
0.37787715 -0.53165007 -0.00000017
0.18559586 0.38395858 0.02290389
-0.01700816 -0.74970305 -0.00000003
0.12602209 0.67151624 0.00024342
-0.27783358 0.23666607 -0.00000060
-0.48359588 0.25199071 -0.00000038
-0.73126644 -0.24609193 -0.00000003
-0.47883987 0.61762714 -0.00000040
-0.35399243 0.07924384 -0.00000049
0.36259338 -0.50983489 -0.00000018
-0.67115092 0.26857033 -0.00000016
-0.70248759 0.50309497 -0.00000012
0.19861881 0.29246411 0.03070350
0.32940391 0.26990914 0.01994585
0.05438239 0.56818992 0.01763405
0.35123271 -0.77510780 -0.00000002
0.06111973 -0.01526228 -0.00000049
0.59997493 -0.07686783 -0.00000121
0.18656980 -0.08469999 -0.00000045
0.12691873 0.53365684 0.01385689
0.22989643 -0.29131460 -0.00000032
-0.71465236 -0.72425950 0.00000000
0.04707099 -0.58676213 -0.00000013
0.46236539 0.28120351 0.00560732
-0.31702894 -0.36714071 -0.00000027
-0.23732002 0.77849203 -0.00000070
0.62072706 -0.78871673 -0.00000001
-0.79543632 0.48004970 -0.00000001
0.17694567 0.12456314 0.04954573
0.16679636 -0.59711701 -0.00000013
-0.50517309 -0.78017199 -0.00000001
0.30812842 -0.41953641 -0.00000024
-0.70087898 0.10646643 -0.00000012
-0.53656071 0.62274098 -0.00000033
-0.22557187 0.33743939 -0.00000067
0.16113684 0.22729281 0.04090639
-0.24959011 -0.10660273 -0.00000043
-0.09818987 0.53552312 -0.00000083
-0.59628218 -0.20254657 -0.00000018
-0.14497760 -0.56336343 -0.00000015
0.14216462 0.16297826 0.04918444
-0.31139275 -0.22107580 -0.00000036
0.58135700 -0.37055036 -0.00000058
0.67440104 -0.20352009 -0.00000120
-0.44662949 0.29033422 -0.00000043
0.05638364 0.13623936 0.06036788
0.07397088 -0.15821224 -0.00000040
0.05286114 0.57071632 0.01753415
0.38628975 -0.34710610 -0.00000028
0.55521137 -0.05664669 -0.00000111
-0.58816618 0.56649137 -0.00000026
-0.55694741 0.43276596 -0.00000030
0.45382094 0.22610208 0.01193343
0.34085819 -0.57217038 -0.00000014
0.63415158 0.04962305 0.01155037
-0.50684154 -0.10348073 -0.00000029
-0.33597445 -0.65001392 -0.00000009
-0.65077341 -0.15006980 -0.00000013
0.11440390 0.19693781 0.04856825
0.65026695 -0.64464998 -0.00000026
-0.02407435 0.01530974 -0.00000051
-0.10744414 0.24138750 -0.00000065
-0.23669982 0.43097678 -0.00000068
0.44782451 -0.09551539 -0.00000069
0.15532924 -0.45056438 -0.00000022
0.40880781 0.02513162 -0.00000080
0.33100685 0.02026166 -0.00000054
-0.65222812 0.62429160 -0.00000018
0.01448162 -0.11351772 -0.00000043
-0.07561533 -0.60458684 -0.00000012
-0.15288468 0.15483002 -0.00000060
-0.38065821 -0.36144134 -0.00000027
0.35761833 -0.73073590 -0.00000004
0.73714352 -0.57972723 -0.00000055
0.42870107 -0.45201415 -0.00000022
-0.12397430 -0.76455700 -0.00000002
0.30318382 -0.19326292 -0.00000038
0.69755858 -0.09448310 -0.00000149
-0.31953409 0.54586518 -0.00000060
-0.65908122 -0.39807546 -0.00000008
0.38325003 -0.17451777 -0.00000039
-0.20667566 0.73595154 -0.00000074
0.49200821 -0.12447811 -0.00000077
-0.23707163 -0.70522708 -0.00000006
-0.79833168 -0.21613449 0.00000000
0.37370652 -0.46301317 -0.00000021
-0.68664813 0.28591165 -0.00000014
-0.42477921 0.20392700 -0.00000044
0.00716912 -0.74509746 -0.00000003
0.26872596 -0.21183999 -0.00000037
-0.55106163 -0.32844806 -0.00000021
-0.02949216 -0.13551266 -0.00000042
-0.07655754 0.36618921 -0.00000073
0.28161120 -0.61492777 -0.00000012
0.15825132 0.02443016 0.06135625
0.46006638 -0.40814286 -0.00000024
-0.52634805 -0.65378845 -0.00000009
0.57012641 0.18448067 0.00451003
0.60223109 -0.76623112 -0.00000002
0.64154631 0.07248452 0.00854304
0.08174490 -0.46495116 -0.00000021
0.21468513 -0.79453743 -0.00000000
-0.66799116 -0.12577581 -0.00000012
0.72455806 -0.66732687 -0.00000033
-0.59668463 0.56160825 -0.00000025
-0.69618964 0.28337863 -0.00000013
0.73276287 0.01293349 0.00539552
-0.50113988 0.28824964 -0.00000037
0.49277282 -0.23878086 -0.00000055
-0.59630996 0.53656018 -0.00000025
-0.33295909 0.76547045 -0.00000058
0.43237397 -0.67696023 -0.00000008
-0.18656348 -0.54336905 -0.00000016
0.18605654 -0.78123337 -0.00000001
-0.55873746 -0.19511215 -0.00000022
-0.30560675 0.35437098 -0.00000059
-0.46872711 0.61836362 -0.00000041
0.08704663 -0.54146361 -0.00000016
-0.56797272 0.43898261 -0.00000029
-0.67653179 -0.58776665 -0.00000002
-0.50369680 0.48442593 -0.00000037
0.31850719 -0.56963992 -0.00000014
0.21129616 -0.79045361 -0.00000001
-0.38832477 0.51412708 -0.00000051
-0.47178489 -0.01087747 -0.00000035
-0.73825818 0.71914440 -0.00000008
-0.52953154 -0.18957604 -0.00000025
-0.37115270 -0.36280078 -0.00000027
-0.24848291 0.26933932 -0.00000064
-0.52012604 -0.34682769 -0.00000024
0.34410444 -0.43116078 -0.00000023
0.63748443 -0.36158162 -0.00000077
-0.62801719 0.55899823 -0.00000021
0.21153715 0.18355434 0.04024438
-0.68327832 0.37871906 -0.00000015
0.11663290 -0.66531032 -0.00000008
-0.29286370 -0.75135291 -0.00000003
0.17141035 -0.35950011 -0.00000028
-0.27920538 0.46917146 -0.00000064
0.02492546 -0.00908170 -0.00000049
-0.30178428 -0.49056816 -0.00000019
-0.60967666 0.14632060 -0.00000023
-0.37980452 -0.44092369 -0.00000022
-0.56413364 -0.21303776 -0.00000021
0.47188076 -0.59439069 -0.00000013
0.22068249 0.38688028 0.01912600
0.06266779 0.03386868 0.06991820
-0.48663279 -0.15663849 -0.00000031
-0.11841511 0.19469157 -0.00000062
0.00775991 -0.06691462 -0.00000046
-0.63579315 0.04935806 -0.00000018
0.34727889 -0.07080804 -0.00000046
-0.34748986 -0.69954365 -0.00000006
-0.17424411 0.32579294 -0.00000070
0.30829108 -0.38723615 -0.00000026
0.34984025 -0.10660683 -0.00000043
0.34078279 0.29169822 0.01664909
-0.26440567 -0.30284116 -0.00000031
-0.09490553 -0.45008269 -0.00000022
-0.15170468 -0.28623244 -0.00000032
0.53310573 -0.37651187 -0.00000041
0.27470353 -0.53587985 -0.00000017
-0.21958961 0.16963150 -0.00000061
0.36570004 -0.73363918 -0.00000004
-0.25876114 0.26392326 -0.00000063
-0.63717800 0.54494542 -0.00000020
-0.59689933 0.30853748 -0.00000025
-0.06241809 -0.15653630 -0.00000040
0.52843481 -0.70223677 -0.00000006
-0.48277467 0.65132827 -0.00000040
-0.01525689 -0.15209129 -0.00000040
-0.55033672 -0.43109301 -0.00000019
0.02744376 -0.68052924 -0.00000007
0.44478694 -0.37893450 -0.00000026
0.71756053 0.03062983 0.00514764
-0.61713225 -0.21665122 -0.00000016
0.06503441 -0.70158750 -0.00000006
-0.05582723 0.48491111 -0.00000080
-0.35165581 -0.05571603 -0.00000047
0.25471005 0.39950615 0.01448882
-0.19821054 0.08273141 -0.00000055
0.07204645 -0.17303050 -0.00000039
0.41027927 -0.56386852 -0.00000015
0.06457254 -0.07144709 -0.00000046
-0.00603623 -0.76005518 -0.00000002
0.25992012 -0.76277059 -0.00000002
-0.37887287 -0.32795292 -0.00000030
0.22535984 -0.35802409 -0.00000028
0.63549793 -0.52603316 -0.00000045
-0.13549986 0.26100275 -0.00000066
-0.04943987 0.02096478 -0.00000051
-0.04294909 0.69511461 -0.00000093
-0.53396600 0.11011529 -0.00000030
-0.68665886 0.61434472 -0.00000014
0.34065741 -0.37402302 -0.00000027
-0.77290356 -0.72885656 0.00000000
-0.71054393 -0.57908827 0.00000000
0.07977207 0.01951697 -0.00000051
0.08487949 -0.63314146 -0.00000010
-0.15435208 -0.60570645 -0.00000012
-0.48029545 0.09251069 -0.00000036
-0.03013773 -0.07215118 -0.00000045
0.33866456 0.43915388 0.00220322
0.33283004 -0.69306642 -0.00000007
0.07642288 0.15915658 0.05609837
-0.57117748 -0.45510265 -0.00000016
0.14984788 0.62282413 0.00271499
-0.63688380 -0.03790531 -0.00000017
-0.19318236 -0.13116407 -0.00000042
0.21266648 0.27888244 0.03065721
-0.73253220 -0.63739043 0.00000000
-0.46555468 -0.23019315 -0.00000031
0.41312021 0.02555825 -0.00000081
0.10053926 0.20951381 0.04869630
0.59444976 -0.20136178 -0.00000095
-0.25892165 0.38938501 -0.00000065
-0.39409599 -0.29181117 -0.00000032
0.35147744 0.02902583 0.04169450
-0.43513522 -0.53478557 -0.00000017
-0.55726415 0.37418106 -0.00000030
0.42627260 0.19341169 0.01792092
-0.14120819 0.34250885 -0.00000071
-0.41397950 0.68921781 -0.00000048
0.02255111 -0.76790744 -0.00000002
0.50932729 0.23712999 0.00532017
0.19685169 0.17763872 0.04229193
0.55469418 -0.12240892 -0.00000098
-0.68293214 -0.54109955 -0.00000003
0.61607194 -0.40096357 -0.00000063
0.76878417 -0.77148861 -0.00000007
-0.18055454 -0.12263305 -0.00000042
-0.76136220 -0.04559645 -0.00000003
-0.20159318 0.03096530 -0.00000052
-0.03745626 -0.46792105 -0.00000021
0.27822295 -0.64550871 -0.00000010
0.35336262 -0.60601592 -0.00000012
0.69636166 0.02238056 0.00807468
0.18965229 -0.08517157 -0.00000045
0.62686509 0.00773638 0.01643797
0.05913616 0.54990071 0.01897939
-0.24345882 0.04223938 -0.00000053
-0.67059106 -0.70350510 -0.00000001
0.54212260 0.24640852 0.00113817
-0.68388277 0.49371019 -0.00000015
-0.23820689 -0.50681764 -0.00000018
-0.08619762 -0.37732056 -0.00000026
0.27786827 -0.58671004 -0.00000013
-0.77272052 0.61146456 -0.00000003
-0.27994123 -0.16903843 -0.00000039
0.75809890 -0.29394415 -0.00000127
0.67261785 -0.57855994 -0.00000046
0.74420816 -0.34188032 -0.00000115
0.23117274 -0.45188323 -0.00000022
-0.49771202 -0.61324811 -0.00000012
-0.24993324 0.10832726 -0.00000057
-0.76092333 -0.55785406 0.00000000
0.53431636 -0.72029120 -0.00000005
0.13104288 0.13380979 0.05318896
-0.72517031 0.07246453 -0.00000009
0.68775600 -0.15336230 -0.00000134
0.28389296 -0.19772029 -0.00000038
-0.17895597 -0.31199133 -0.00000031
0.48130783 -0.40061685 -0.00000025
0.51572084 0.14611389 0.01373125
0.24441886 -0.32702935 -0.00000030
-0.79420447 0.21186006 -0.00000001
0.75363111 -0.77303016 -0.00000007
-0.47845337 0.22683871 -0.00000038
0.01548258 0.55790240 0.02252282
-0.18767163 -0.75372547 -0.00000003
-0.60126770 0.70599669 -0.00000025
-0.51844841 -0.53654861 -0.00000016
0.27654681 -0.34707770 -0.00000028
0.62864763 0.01330805 -0.00000148
0.03586207 -0.43391526 -0.00000023
-0.15337014 -0.25796416 -0.00000034
0.03639276 -0.55610859 -0.00000015
-0.16286090 -0.32237095 -0.00000030
0.04736019 -0.13067636 -0.00000042
-0.54986167 0.23908949 -0.00000031
-0.54635704 -0.18760997 -0.00000024
0.14191568 -0.48669961 -0.00000020
0.45874056 -0.31345752 -0.00000030
0.53148359 0.04505483 0.02220928
-0.48051119 -0.43510488 -0.00000023
-0.21374218 0.12100538 -0.00000058
-0.49984425 -0.22409482 -0.00000028
-0.48237285 -0.20232294 -0.00000030
-0.22359721 0.25378385 -0.00000066
-0.63667506 -0.70360166 -0.00000005
0.19042833 0.30187342 0.03058233
-0.73959535 0.35752869 -0.00000008
-0.77180922 -0.34863412 0.00000000
-0.43461162 -0.32993117 -0.00000029
0.39431009 -0.68715346 -0.00000007
0.58828574 -0.78334183 -0.00000001
-0.44719407 -0.14051688 -0.00000035
-0.14831188 0.35612810 -0.00000072
-0.23614223 -0.79875463 -0.00000000
0.60721880 -0.31368089 -0.00000077
-0.18380098 -0.67203903 -0.00000008
-0.48566702 -0.32546672 -0.00000028
-0.60716027 -0.04426000 -0.00000020
-0.64991653 -0.32517278 -0.00000010
-0.60313553 -0.54927588 -0.00000011
0.61734635 -0.56947929 -0.00000030
-0.25909734 0.03217466 -0.00000052
-0.30216253 0.63218856 -0.00000062
-0.47420359 -0.10178193 -0.00000033
0.04431996 0.57079822 0.01837492
0.22595096 0.25424188 0.03178596
-0.71216911 -0.30813500 -0.00000004
-0.02969821 -0.65541142 -0.00000009
-0.10310209 0.02483747 -0.00000052
0.40765232 -0.76500815 -0.00000002
-0.46973640 -0.16112590 -0.00000032
-0.31964204 -0.62698627 -0.00000011
0.17797622 -0.70002019 -0.00000006
0.11052914 -0.02219398 -0.00000049
-0.32552066 -0.31583098 -0.00000030
-0.55812675 0.57327688 -0.00000030
0.42384571 -0.69797564 -0.00000006
0.59155691 0.13175741 0.00762037
0.16785802 -0.39673424 -0.00000025
0.08201461 0.62281299 0.00945850
-0.69564426 0.71487844 -0.00000013
-0.70776349 -0.29827005 -0.00000004
0.72591954 -0.57373810 -0.00000057
0.42633668 -0.56420922 -0.00000015
0.29602158 0.32074058 0.01821152
0.32665402 -0.63744962 -0.00000010
-0.50998646 0.39918345 -0.00000036
-0.65100992 -0.61965001 -0.00000005
0.02083365 0.03397634 0.07406540
0.25435817 0.26752031 0.02764258
-0.28296992 0.04035815 -0.00000053
-0.56765658 -0.02866026 -0.00000024
-0.66668940 0.63861597 -0.00000017
0.19677030 -0.67316401 -0.00000008
0.45029515 0.10227681 0.02459154
0.38713580 -0.78100854 -0.00000001
-0.66272509 -0.76412094 -0.00000001
-0.54883051 -0.30174756 -0.00000021
-0.06019632 0.75670391 -0.00000092
-0.79278392 -0.64577824 0.00000000
0.69614005 -0.69881809 -0.00000025
-0.78837454 -0.05467785 -0.00000000
0.68811870 -0.39780059 -0.00000087
-0.72876579 -0.37752992 -0.00000001
0.31603858 -0.38242581 -0.00000026
0.38107476 -0.53580302 -0.00000017
0.20919035 0.56828725 0.00223726
0.37300482 0.36690947 0.00597068
-0.74898219 -0.68992656 0.00000000
0.43064013 -0.01337481 -0.00000079
-0.37338728 -0.23077890 -0.00000036
-0.07635489 0.57672220 -0.00000086
-0.09559324 0.32743159 -0.00000070
0.07089266 0.49061692 0.02370328
-0.38620457 -0.29870170 -0.00000031
0.15445264 -0.34790111 -0.00000028
0.27305594 0.09933299 0.04250100
0.04486852 0.02716892 -0.00000052
-0.11783797 -0.46594727 -0.00000021
-0.16675578 -0.14490996 -0.00000041
0.06689751 -0.44457924 -0.00000022
0.00008245 -0.54503125 -0.00000016
0.07984986 0.62401032 0.00955466
0.41267690 -0.28319862 -0.00000032
0.18216531 0.13239656 0.04824836
0.17345929 0.06350382 0.05596109
-0.32554948 0.71190989 -0.00000059
0.32165688 -0.12309905 -0.00000042
0.01317772 -0.17460671 -0.00000039
-0.36391711 0.12451940 -0.00000049
0.78942174 -0.59147042 -0.00000052
0.55439758 -0.50391346 -0.00000023
0.03635844 0.44811696 0.03135983
-0.43989670 -0.14558081 -0.00000036
-0.36664617 -0.55517077 -0.00000015
0.18335643 0.41524848 0.02001641
0.19283663 -0.28450394 -0.00000032
0.29167420 -0.26358855 -0.00000034
0.51217479 0.26829034 0.00193994
-0.08007781 -0.00106929 -0.00000050
-0.59966314 0.12193450 -0.00000024
0.48978528 0.25620314 0.00536679
-0.42625451 -0.29264656 -0.00000032
0.18660013 0.49768463 0.01150023
0.31041169 -0.58650875 -0.00000013
0.35276937 -0.19851965 -0.00000038
-0.65668195 -0.46123627 -0.00000007
-0.63472974 0.75399244 -0.00000021
-0.25339153 -0.04326122 -0.00000047
0.56581235 0.11409134 0.01193521
-0.38343999 0.34853017 -0.00000051
-0.38913706 0.27278158 -0.00000049
0.76521617 -0.08366541 -0.00000173
-0.67404032 0.14820075 -0.00000016
-0.54491830 -0.04308570 -0.00000026
0.77356172 -0.10804289 -0.00000170
-0.72332329 0.77558810 -0.00000010
0.27360788 -0.48925170 -0.00000019
0.03537850 -0.15755711 -0.00000040
-0.09364071 -0.22356367 -0.00000036
-0.61396569 -0.10466267 -0.00000018
0.34968019 -0.15278415 -0.00000040
-0.29862666 -0.56891650 -0.00000014
-0.01962060 -0.22231404 -0.00000036
0.33983421 -0.73452598 -0.00000004
0.05565878 0.59006369 0.01533310
-0.33171478 0.28772390 -0.00000055
-0.36601135 0.04238656 -0.00000047
0.29571074 0.28773782 0.02152275
-0.10445739 0.18323699 -0.00000061
-0.61557049 0.56148350 -0.00000023
0.08551416 -0.32101381 -0.00000030
-0.28071147 -0.21871819 -0.00000036
0.05266131 -0.21395914 -0.00000037
0.00740836 0.05224302 -0.00000053
-0.20472372 -0.77987933 -0.00000001
0.42365688 0.20391814 0.01713662
-0.06682421 -0.36722523 -0.00000027
-0.14382973 -0.75833535 -0.00000003
-0.52970892 -0.62776130 -0.00000011
-0.03637244 -0.38378298 -0.00000026
0.25924453 -0.74692088 -0.00000003
0.21529350 -0.31860930 -0.00000030
-0.23318043 -0.66530675 -0.00000008
-0.44325578 -0.76028877 -0.00000002
-0.46162808 0.50796044 -0.00000042
-0.24242106 0.61373597 -0.00000070
0.75715035 -0.07748632 -0.00000171
0.66126156 -0.46779880 -0.00000064
0.35799345 -0.59089309 -0.00000013
-0.40340737 0.72016716 -0.00000050
-0.11493049 -0.50227451 -0.00000019
-0.14637256 0.55217314 -0.00000080
0.00876718 0.04654897 0.07401506
0.53746694 -0.46860430 -0.00000025
-0.46430993 -0.60184991 -0.00000012
0.76555842 -0.69569916 -0.00000026
0.45982093 -0.41767734 -0.00000024
-0.55743641 -0.24516533 -0.00000021
-0.16889904 -0.63324726 -0.00000010
0.05351270 -0.01021002 -0.00000049
-0.17999551 -0.62589169 -0.00000011
0.17020892 0.38575593 0.02425464
-0.52742600 0.08949265 -0.00000031
-0.37183031 0.42396930 -0.00000053
-0.74077260 -0.42265099 0.00000000
0.49544173 -0.74979430 -0.00000003
-0.10554899 0.03001169 -0.00000052
-0.11027057 0.59108144 -0.00000084
0.04297056 -0.01288959 -0.00000049
0.24154957 0.27937865 0.02773705
-0.47464436 0.13624351 -0.00000037
0.09752573 0.17416358 0.05250937
-0.42572027 -0.20793204 -0.00000036
0.19044574 0.10980769 0.04967054
-0.13093542 0.46391809 -0.00000079
-0.79761255 -0.46931806 0.00000000
0.22562511 -0.34865472 -0.00000028
0.66990507 -0.16492809 -0.00000126
-0.75263572 0.03302581 -0.00000006
0.36852455 -0.00246228 -0.00000061
-0.70236623 0.33155710 -0.00000012
0.08643048 0.40210807 0.03095611
-0.18247442 -0.79109174 -0.00000001
-0.21679074 -0.15585557 -0.00000040
-0.72836864 -0.53327835 0.00000000
-0.57727623 -0.76319295 -0.00000002
0.16743733 0.20748122 0.04224931
0.40092048 -0.18789680 -0.00000038
-0.24417318 -0.20962840 -0.00000037
0.19424874 0.08431472 0.05182637
-0.26464450 -0.44233844 -0.00000022
0.58092552 -0.20806257 -0.00000089
0.31218719 0.02822253 -0.00000052
0.14743903 0.59755844 0.00546571
-0.43749458 0.43752956 -0.00000045
-0.10975398 0.69965190 -0.00000086
0.38867426 0.11325185 0.02962558
-0.37125358 0.16342208 -0.00000049
-0.35272560 -0.14071591 -0.00000041
0.11036486 0.26570436 0.04213480
-0.73096985 -0.17598838 -0.00000004
-0.18914475 -0.78922170 -0.00000001
-0.74319279 -0.56761771 0.00000000
0.77499765 -0.39948973 -0.00000100
0.32175073 0.02012108 0.04553429
0.24756323 -0.78508002 -0.00000001
0.55490637 -0.00274372 -0.00000121
-0.22793160 0.19914113 -0.00000062
0.13973950 -0.67336297 -0.00000008
-0.02779380 0.63396525 -0.00000090
-0.50262552 -0.31513217 -0.00000026
0.13593027 -0.47759122 -0.00000020
0.05709650 0.39819294 0.03426076
-0.55918807 0.25329295 -0.00000030
-0.00986332 -0.00780039 -0.00000050
-0.50796944 -0.03095348 -0.00000031
-0.21524665 0.16090019 -0.00000060
0.67236346 0.03347642 0.00935714
0.56698871 -0.20304278 -0.00000086
-0.21309707 -0.19753762 -0.00000038
-0.38839483 0.67031044 -0.00000051
0.40810707 0.25302526 0.01380120
-0.65740269 0.71569043 -0.00000018
-0.00367447 -0.76704544 -0.00000002
0.68693393 -0.07579338 -0.00000149
0.34051892 -0.67249000 -0.00000008
-0.66316634 0.09282126 -0.00000016
0.07733476 0.05572937 0.06628765
-0.52515978 -0.56161219 -0.00000015
0.43635482 0.01092829 0.03505678
-0.65181965 0.40738726 -0.00000019
-0.32681093 -0.59528434 -0.00000013
-0.54935634 -0.18483412 -0.00000023
0.78094566 -0.12010120 -0.00000170
-0.37720773 0.56322092 -0.00000053
-0.16177069 -0.66944104 -0.00000008
-0.07541293 -0.68415868 -0.00000007
-0.26482266 -0.19989116 -0.00000038
-0.34878111 0.14969867 -0.00000051
-0.62060893 -0.50157815 -0.00000010
-0.62793511 -0.54978496 -0.00000008
0.75545919 -0.38806260 -0.00000103
-0.12921137 0.40805519 -0.00000076
-0.45809025 -0.16051333 -0.00000034
-0.17534196 -0.36097917 -0.00000027
-0.42410719 0.08746995 -0.00000042
-0.14732523 -0.75810462 -0.00000003
-0.77223617 -0.36740303 0.00000000
0.31259573 0.09745553 0.03875761
-0.61037284 0.39129820 -0.00000024
0.79001212 -0.05621428 -0.00000186
0.06778368 0.19996931 0.05290054
-0.03977367 -0.17013501 -0.00000039
-0.18294644 0.13683663 -0.00000059
-0.49114564 -0.66205317 -0.00000009
0.22112089 0.01338708 0.05620523
-0.06875934 0.42590073 -0.00000077
0.33819929 -0.30978921 -0.00000031
0.73710865 -0.52075499 -0.00000070
-0.08618807 0.55662322 -0.00000085
-0.79417050 -0.53496575 0.00000000
0.57105666 -0.66779810 -0.00000008
-0.14270987 -0.57565361 -0.00000014
-0.24377505 0.71921945 -0.00000070
0.09895617 -0.08860264 -0.00000044
-0.18590957 -0.43595994 -0.00000023
0.32471406 0.16209748 0.03112798
0.21776778 0.53562641 0.00463103
0.64326388 -0.43357435 -0.00000065
-0.33238205 -0.30844563 -0.00000031
-0.39509436 0.02747159 -0.00000044
0.34935483 0.14792128 0.03008782
-0.00312484 -0.02201460 -0.00000049
0.01576058 0.68678522 0.00968518
-0.62390250 -0.68982339 -0.00000006
-0.16510609 -0.38459206 -0.00000026
-0.38087106 0.32770577 -0.00000051
-0.47081372 -0.72838688 -0.00000004
0.25877601 0.13390622 0.04048395
0.27367884 0.18673117 0.03375223
-0.41889122 0.45866168 -0.00000048
0.40994316 0.11007139 0.02782765
0.49659488 -0.40034264 -0.00000025
-0.76175189 0.08466761 -0.00000005
-0.52459508 0.26854295 -0.00000034
-0.16121234 0.62593734 -0.00000080
-0.39342287 -0.43195975 -0.00000023
0.64275479 -0.68311799 -0.00000016
0.05847541 -0.66653931 -0.00000008
0.52738118 -0.56834257 -0.00000014
-0.77318257 0.33676052 -0.00000003
-0.48724678 -0.43559340 -0.00000023
0.19515182 0.04030693 0.05611067
-0.44944996 0.21287562 -0.00000041
-0.19697550 0.51084131 -0.00000074
-0.22846396 0.71408337 -0.00000071
-0.35514179 0.73441768 -0.00000056
-0.62493628 0.41607377 -0.00000022
-0.71944314 -0.13059025 -0.00000006
-0.19909389 0.01389575 -0.00000051
0.72623241 -0.27361524 -0.00000123
0.29642200 0.22230291 0.02795597
0.11687016 -0.69326532 -0.00000007
-0.67460221 0.06811641 -0.00000015
0.45749760 0.14804387 0.01932661
-0.13384055 0.23324889 -0.00000065
-0.53654659 -0.44322887 -0.00000020
0.34755459 -0.56608278 -0.00000015
-0.74341249 0.73018181 -0.00000007
-0.61900085 0.79066241 -0.00000023
0.11046813 -0.37184727 -0.00000027
0.43385240 -0.62730384 -0.00000011
-0.65544647 -0.06209873 -0.00000014
-0.72977537 -0.20377740 -0.00000004
-0.34144449 -0.12572682 -0.00000042
0.48227379 0.23735382 0.00798694
-0.46554887 -0.39611396 -0.00000025
-0.33537081 0.74876344 -0.00000058
-0.79803914 0.07700099 -0.00000000
-0.20397274 -0.47502843 -0.00000020
-0.35588843 0.55746901 -0.00000056
0.16924432 0.35302344 0.02760388
-0.24892132 0.42371213 -0.00000067
-0.38611290 0.47130480 -0.00000052
0.55195349 -0.14083141 -0.00000093
0.43447566 -0.77051091 -0.00000002
0.50122732 -0.36071235 -0.00000034
-0.35251084 -0.00824642 -0.00000048
0.01576845 0.61301130 0.01701698
-0.57557195 0.38555846 -0.00000028
0.08912093 -0.27286565 -0.00000033
0.25931206 -0.22559474 -0.00000036
0.07755395 0.52847409 0.01927849
-0.35912180 0.54059702 -0.00000055
0.77831507 -0.06699040 -0.00000180
-0.43551177 0.42066306 -0.00000046
-0.45665178 0.34946233 -0.00000043
-0.61776072 -0.66140640 -0.00000007
0.74459451 -0.48405924 -0.00000079
0.64330965 -0.79747546 -0.00000000
-0.09726885 0.43417832 -0.00000077
-0.56946099 -0.27479076 -0.00000020
0.10132646 -0.34835458 -0.00000028
-0.74229985 0.42740938 -0.00000007
0.32657811 -0.04996827 -0.00000047
0.07831012 -0.67739797 -0.00000008
0.16554654 0.05828464 0.05726629
-0.64523762 -0.57211280 -0.00000006
0.66887397 -0.61180800 -0.00000039
0.35019463 -0.79933739 -0.00000000
-0.43787456 0.38956416 -0.00000045
-0.22645661 -0.31131321 -0.00000031
-0.43606290 -0.29612577 -0.00000031
-0.51374698 0.77214861 -0.00000036
0.10518272 -0.61664337 -0.00000011
0.61110610 -0.05249104 -0.00000129
-0.36477274 0.10182184 -0.00000048
-0.44504839 0.36135569 -0.00000044
-0.25901645 -0.26746678 -0.00000033
0.77438241 -0.68271077 -0.00000029
-0.20482650 0.71333903 -0.00000074
-0.35980922 0.06795084 -0.00000048
-0.36500397 -0.18053336 -0.00000039
0.19417083 -0.12601177 -0.00000042
0.28128567 -0.73354346 -0.00000004
-0.05179335 -0.66490275 -0.00000008
0.32010847 -0.47509250 -0.00000020
0.64856350 -0.58169425 -0.00000038
-0.64281756 0.76730561 -0.00000020
0.10751269 -0.40488619 -0.00000025
-0.32379156 -0.60847574 -0.00000012
0.68758035 -0.50151026 -0.00000066
-0.28586349 -0.26072091 -0.00000034
0.71456414 -0.74215996 -0.00000014
-0.09904949 0.67376786 -0.00000087
-0.57235599 -0.25068581 -0.00000020
0.74254888 0.01099008 0.00461598
-0.27414241 -0.12634753 -0.00000042
-0.62057096 0.08718780 -0.00000021
0.22501406 0.38387352 0.01899431
0.56761962 -0.65675205 -0.00000009
-0.73226893 -0.51947522 0.00000000
0.38269913 -0.64931846 -0.00000009
0.06142457 0.65366697 0.00843833
-0.13430899 -0.38510972 -0.00000026
-0.23059781 0.65767729 -0.00000071
-0.16103452 -0.01792331 -0.00000049
-0.52207559 0.19859053 -0.00000033
-0.59274620 -0.49724132 -0.00000013
0.07407810 -0.29254836 -0.00000032
-0.05406775 -0.75886327 -0.00000003
-0.33424431 0.32133800 -0.00000056
-0.60750449 -0.49787387 -0.00000011
0.54410565 0.07527316 0.01795114
-0.12862495 0.76638335 -0.00000084
-0.11804413 0.66211295 -0.00000085
0.66783303 -0.06080421 -0.00000146
0.63803142 -0.74571460 -0.00000003
0.45963997 -0.00367736 -0.00000090
-0.06746057 -0.63262302 -0.00000010
-0.53980273 0.41467085 -0.00000033
0.31033352 -0.58728528 -0.00000013
-0.09983699 -0.12906992 -0.00000042
0.34433371 -0.17254917 -0.00000039
-0.24890073 0.27489302 -0.00000064
-0.53813666 0.68082172 -0.00000033
-0.35803205 -0.50018525 -0.00000019
-0.49947980 -0.04673109 -0.00000031
0.38397145 -0.21177042 -0.00000037
0.40927804 -0.32241726 -0.00000030
0.60709709 -0.72565961 -0.00000005
-0.23368935 -0.15248428 -0.00000040
0.65430617 -0.57297331 -0.00000042
0.78313535 -0.04819652 -0.00000185
0.44048375 -0.03312832 -0.00000078
-0.64315087 -0.69297934 -0.00000004
-0.36024785 0.51507640 -0.00000055
-0.56954008 0.60607457 -0.00000029
0.07062511 0.31408066 0.04127629
0.45727730 -0.45981914 -0.00000021
0.60659891 -0.47991461 -0.00000044
0.28037772 -0.08155031 -0.00000045
-0.50770015 -0.28255391 -0.00000026
-0.58488810 0.49973395 -0.00000027
0.77998507 -0.34784776 -0.00000113
0.01294126 0.36570761 0.04187816
-0.37288907 -0.63648242 -0.00000010
-0.48214012 0.24361460 -0.00000038
0.17555460 -0.36436862 -0.00000027
0.73545671 0.03297631 0.00313559
-0.34932140 0.45727733 -0.00000056
-0.78319377 0.58884639 -0.00000002
-0.45946816 0.18082055 -0.00000040
-0.45512778 -0.54966873 -0.00000016
-0.57633364 0.32579261 -0.00000028
-0.22797726 0.52887040 -0.00000071
0.52654463 0.19972728 0.00732647
0.63633555 0.08032385 0.00828178
-0.22100358 -0.10044920 -0.00000044
-0.45559582 -0.32264549 -0.00000030
-0.11887614 0.43371013 -0.00000077
-0.24923427 0.57548219 -0.00000069
0.08706122 -0.40829945 -0.00000024
-0.79269516 -0.09919552 0.00000000
0.08435158 -0.49131000 -0.00000019
0.02614452 0.07589280 0.06937136
0.05385094 0.60683203 0.01384613
-0.04088782 -0.41229087 -0.00000024
-0.29087231 0.09769680 -0.00000056
-0.40308610 -0.40379164 -0.00000025
-0.27830216 -0.02948442 -0.00000048
-0.62848002 0.16876511 -0.00000021
-0.63953948 -0.47422105 -0.00000008
-0.25342432 0.46725011 -0.00000067
-0.22786784 0.54150659 -0.00000071
0.72089213 0.07427849 0.00047802
-0.42703393 0.19216007 -0.00000043
-0.68912691 -0.31293699 -0.00000006
0.00590262 0.28530553 0.05056911
-0.79726678 -0.05731113 0.00000000
-0.08749114 0.36575857 -0.00000073
0.38098520 -0.26136643 -0.00000034
-0.10457502 -0.23518713 -0.00000035
-0.14007422 -0.40303662 -0.00000025
0.14462225 0.31283167 0.03404584
0.57535571 -0.24847683 -0.00000080
0.30379120 0.18894081 0.03053954
-0.46649414 0.45462891 -0.00000042
-0.53046632 0.28460899 -0.00000034
0.71294963 -0.49850136 -0.00000075
-0.06018436 -0.38079354 -0.00000026
0.18377294 0.42419115 0.01908615
-0.78483045 -0.34929177 0.00000000
-0.38393241 -0.20211291 -0.00000037
0.01143052 -0.06057592 -0.00000046
0.45775566 -0.64108479 -0.00000010
-0.38711604 -0.06204087 -0.00000043
-0.71474040 -0.71729565 0.00000000
0.17550613 0.41439241 0.02088180
0.01051629 -0.60124844 -0.00000012
-0.49986872 -0.55032462 -0.00000016
-0.74180037 0.67242515 -0.00000007
-0.17450176 -0.58074957 -0.00000014
-0.51429546 0.43639022 -0.00000036
-0.53564161 -0.19990125 -0.00000025
0.22475396 -0.02148556 -0.00000049
-0.26600528 -0.60727465 -0.00000012
-0.36526737 0.69171554 -0.00000054
-0.53297889 -0.74000287 -0.00000004
-0.36417860 0.45873407 -0.00000054
-0.52564931 0.19215137 -0.00000033
0.63279963 -0.25040743 -0.00000098
-0.42193967 0.61316478 -0.00000047
-0.28229386 0.45809236 -0.00000064
-0.77008629 -0.36231631 0.00000000
0.15028764 -0.62859195 -0.00000011
-0.36441240 0.47534794 -0.00000054
-0.29080573 -0.76634431 -0.00000002
-0.38214579 -0.75494194 -0.00000003
-0.34769136 -0.55970776 -0.00000015
-0.36438349 -0.23980553 -0.00000035
-0.38331181 -0.76419401 -0.00000002
-0.65321767 0.38107440 -0.00000018
-0.17090139 0.00630081 -0.00000050
-0.23986730 0.43365794 -0.00000068
-0.22677505 -0.05300884 -0.00000047
-0.02897982 -0.32165411 -0.00000030
0.16418052 -0.30091208 -0.00000031
-0.55023432 0.31423715 -0.00000031
0.03723922 -0.47135761 -0.00000021
-0.00297835 0.04683503 -0.00000053
-0.78013515 -0.30631039 0.00000000
0.61105549 -0.24017569 -0.00000093
-0.23397312 -0.28272456 -0.00000032
-0.51704276 0.72069794 -0.00000035
0.34185833 0.22781575 0.02289181
-0.50199938 -0.51292074 -0.00000018
-0.57556272 0.45091784 -0.00000028
0.60046488 -0.74969363 -0.00000003
-0.15535516 0.10571468 -0.00000057
-0.74754655 0.14092365 -0.00000007
0.08182483 -0.12700614 -0.00000042
-0.79085261 0.63452888 -0.00000001
-0.40965268 -0.21678516 -0.00000036
0.50413978 0.02105566 0.02731258
-0.46433866 0.68434435 -0.00000042
-0.71648073 -0.05087080 -0.00000008
0.10740345 0.10219561 0.05868071
-0.12043877 0.01395251 -0.00000051
0.40225363 0.00578009 -0.00000074
0.04269817 0.57378399 0.01823934
-0.39983466 -0.73049223 -0.00000004
-0.59687287 -0.79542172 -0.00000000
-0.75708503 0.02797254 -0.00000005
-0.07932885 -0.32087550 -0.00000030
-0.04121946 -0.22509955 -0.00000036
0.04674199 0.43981290 0.03115317
-0.56697321 0.30873531 -0.00000029
-0.44149643 0.62297052 -0.00000045
-0.61510223 0.10967096 -0.00000022
0.23589830 0.21142794 0.03505268
0.79235631 -0.09184096 -0.00000177
-0.22714531 0.26801315 -0.00000066
0.72359663 0.03991688 0.00362459
-0.32525927 0.01340435 -0.00000051
-0.12841107 -0.58631313 -0.00000013
0.16400594 -0.05982676 -0.00000046
-0.77925426 -0.05678448 -0.00000001
-0.54636985 -0.35295966 -0.00000021
0.12925372 -0.03916353 -0.00000048
0.51527214 -0.22227350 -0.00000066
0.50697511 -0.30604964 -0.00000047
-0.39546683 0.16916826 -0.00000046
-0.77814901 0.63882363 -0.00000003
-0.66429865 -0.48537663 -0.00000006
0.06527434 0.04407986 0.06864421
-0.22793517 0.14916795 -0.00000059
-0.28717545 0.73686612 -0.00000064
0.79908150 -0.28347349 -0.00000129
-0.47258657 -0.02384534 -0.00000034
-0.71424162 -0.02996720 -0.00000009
-0.78568172 0.63858801 -0.00000002
-0.08460719 0.03673173 -0.00000052
-0.69586295 -0.03827297 -0.00000010
0.64655507 0.01268926 0.01398856
0.47498846 -0.31458876 -0.00000035
0.21645305 -0.20811135 -0.00000037
-0.09622051 0.62840950 -0.00000087
0.00529734 0.21522553 0.05759471
0.56539506 -0.34870365 -0.00000057
-0.24915624 0.62191164 -0.00000069
0.58015460 -0.42570433 -0.00000047
-0.48157841 -0.47565743 -0.00000020
0.15688194 -0.50964957 -0.00000018
0.72011465 0.07566951 0.00041704
-0.60282773 0.59522349 -0.00000025
-0.12404246 -0.45997903 -0.00000021
-0.27110267 -0.23399980 -0.00000035
0.16850276 -0.38449147 -0.00000026
0.18756349 0.46216163 0.01493530
-0.59401959 0.37543583 -0.00000026
-0.23749442 -0.24106950 -0.00000035
0.66438305 -0.68803596 -0.00000022
-0.72825772 -0.47766659 0.00000000
0.16200058 -0.36041620 -0.00000027
0.10359715 -0.09933796 -0.00000044
-0.20342410 -0.28569862 -0.00000032
0.62959564 -0.52976000 -0.00000042
-0.40777779 0.59833837 -0.00000049
0.16471282 0.03952924 0.05921330
-0.09244088 -0.47870380 -0.00000020
0.20421855 0.19524202 0.03981010
0.26998207 0.38816151 0.01409844
-0.47673872 0.50018007 -0.00000040
-0.10247408 -0.78653508 -0.00000001
0.08664355 -0.59526998 -0.00000013
-0.28072193 0.72759408 -0.00000065
-0.56331974 -0.57636416 -0.00000014
-0.68669939 -0.52425903 -0.00000002
-0.36864311 -0.09914610 -0.00000044
0.09662033 0.51386195 0.01883582
-0.71669346 -0.37873551 -0.00000002
-0.66904664 -0.21419968 -0.00000010
0.26385683 -0.11806712 -0.00000043
0.25696683 0.31136462 0.02302536
-0.70224917 0.27150294 -0.00000012
0.66226983 -0.16074362 -0.00000125
-0.30097988 0.18192372 -0.00000057
-0.09868029 0.48244703 -0.00000080
-0.78752065 0.01574669 -0.00000002
0.09151615 -0.58321744 -0.00000014
-0.18140745 -0.01370628 -0.00000049
-0.29144865 0.19584142 -0.00000058
