ply
format ascii 1.0
element vertex 1174
property float x
property float y
property float z
end_header
-0.26808342 -0.16828483 0.09231337
-0.28949332 -0.04794216 0.09968578
-0.10880765 -0.41535521 0.03746745
-0.02805664 0.68019372 0.00966118
-0.29498425 0.43502405 0.10157730
-0.07974526 -0.17242132 0.02745994
-0.35604036 0.07735782 0.12260132
-0.59581518 -0.42926839 0.20516697
-0.60120273 -0.16001439 0.20702268
-0.05118942 0.05878330 0.01762686
-0.08067992 -0.15114002 0.02778178
-0.60902309 0.06206203 0.20971605
-0.35996303 0.21479578 0.12395236
-0.48673090 -0.05463553 0.16760445
-0.55348849 0.14393061 0.19059284
-0.00594302 -0.73797423 0.00204645
-0.24420910 0.32582733 0.08409264
-0.54467618 -0.46422490 0.18755715
-0.04623162 0.50277740 0.01591966
-0.10300505 0.59263378 0.03546945
-0.56869406 0.00060921 0.19582862
-0.68363255 -0.71521968 0.23540610
-0.28350449 -0.39644521 0.09762355
-0.25806087 -0.08064671 0.08886215
-0.25301513 0.47379452 0.08712529
-0.04258967 0.02404356 0.01466557
-0.01188185 -0.60239983 0.00409147
-0.03667925 0.75784516 0.01263039
-0.32664108 0.25779447 0.11247801
-0.65406352 -0.10534831 0.22522543
-0.12510777 -0.33815393 0.04308032
-0.35131073 -0.55307877 0.12097234
-0.34524927 -0.50753158 0.11888510
-0.14691883 0.06717220 0.05059087
-0.66160125 -0.14040916 0.22782096
-0.33768967 -0.52074558 0.11628198
-0.30742610 -0.77524108 0.10586085
-0.77907771 -0.77736509 -0.00000006
-0.36901221 0.00565639 0.12706804
-0.08044727 0.61327505 0.02770171
-0.37170497 0.09428500 0.12799548
-0.30800676 -0.18997754 0.10606080
-0.33358300 -0.49660745 0.11486787
-0.39640063 -0.03256931 0.13649920
-0.13471407 0.27109939 0.04638821
-0.67956561 -0.03335946 0.23400722
-0.08793219 -0.76747853 0.03027907
-0.15504366 0.20016196 0.05338862
-0.53509778 -0.14072482 0.18425943
-0.18745519 0.57794988 0.06454988
-0.16565882 -0.42714763 0.05704390
-0.06149231 0.02797776 0.02117461
-0.25404969 -0.70624149 0.08748091
-0.00767247 -0.36837804 0.00264198
-0.05205682 0.42471793 0.01792554
-0.50607640 0.09085649 0.17426635
-0.14500131 -0.15354364 0.04993057
-0.55906445 -0.33228937 0.19251201
-0.06361358 -0.67482358 0.02190506
-0.16782723 -0.43674299 0.05779058
-0.69958991 -0.49675339 0.24090156
-0.69028330 -0.57932615 0.23769665
-0.72272032 -0.39733481 0.24886669
-0.70273119 -0.33022547 0.24198374
-0.15374200 -0.77195084 0.05294040
-0.41255468 0.07680994 0.14206205
-0.62213832 -0.40261561 0.21423140
-0.17003460 -0.73392034 0.05855068
-0.05163127 0.72965801 0.01777913
-0.25744173 -0.23816571 0.08864895
-0.50520355 -0.79964340 0.00000000
-0.22214942 0.15852749 0.07649619
-0.25136009 0.26649281 0.08655497
-0.43450844 0.05363064 0.14962181
-0.31599864 -0.78698581 0.00000000
-0.47149530 -0.49805793 0.16235738
-0.56973529 -0.50206000 0.19618618
-0.54816830 0.08331645 0.18876071
-0.06603576 -0.06878959 0.02273913
-0.20155676 0.42744851 0.06940547
-0.13304241 0.46884513 0.04581260
-0.50823516 -0.03724731 0.17500947
-0.04210168 0.43776602 0.01449753
-0.09846865 -0.14085743 0.03390725
-0.09101673 0.43622538 0.03134122
-0.33020577 -0.14109030 0.11370493
-0.46138936 -0.51148415 0.15887745
-0.73526400 -0.03282673 0.25318700
-0.51607275 0.16705352 0.17770875
-0.44026455 -0.21666095 0.15160342
-0.43385503 0.31649771 0.14939731
-0.58689100 -0.77487427 0.20209339
-0.68996918 -0.21957722 0.23758934
-0.68400055 -0.62988752 0.23553307
-0.23864551 -0.04229188 0.08217655
-0.50107932 -0.52402788 0.17254451
-0.61892384 -0.49384028 0.21312432
-0.64823210 -0.32440388 0.22321695
-0.06361116 -0.52202362 0.02190423
-0.59683996 -0.35525873 0.20551997
-0.61084300 -0.67344856 0.21034132
-0.24440978 -0.23980585 0.08416146
-0.57056427 -0.43992406 0.19647177
-0.55638337 -0.41069365 0.19158863
-0.22969493 0.26158226 0.07909455
-0.33239916 -0.08326074 0.11446022
-0.08804811 -0.39555761 0.03031899
-0.27864957 -0.29292935 0.09595178
-0.53573221 -0.05550858 0.18447807
-0.44189042 -0.54784495 0.15216306
-0.51599926 -0.56560218 0.17768213
-0.44057795 -0.71282059 0.15171112
-0.21896997 0.09495273 0.07540137
-0.21459921 -0.65942836 0.07389631
-0.01284722 -0.02528581 0.00442389
-0.26018697 -0.65528840 0.08959427
-0.05078680 0.21264429 0.01748821
-0.59052604 -0.79891741 0.20334511
-0.67666590 -0.79643142 0.23300695
-0.27442196 -0.77071780 0.09449602
-0.19178382 -0.64969450 0.06603993
-0.30343038 -0.40774134 0.10448495
-0.04858789 -0.01375399 0.01673103
-0.00017764 -0.58240604 0.00006117
-0.24828385 -0.38644391 0.08549548
-0.00803351 0.32948530 0.00276630
-0.26084536 -0.62332159 0.08982097
-0.54692066 -0.05363702 0.18833081
-0.13437621 -0.64818877 0.04627187
-0.58798516 -0.24820371 0.20247103
-0.50912029 -0.43047243 0.17531350
-0.50618142 -0.52378076 0.17430139
-0.32573536 0.07369116 0.11216577
-0.55004865 -0.64127105 0.18940689
-0.69544059 -0.38609728 0.23947310
-0.00020054 -0.70905352 0.00006905
-0.07290629 0.56887639 0.02510497
-0.01694136 0.33011979 0.00583368
-0.58680511 -0.56263882 0.20206407
-0.23411310 -0.28560221 0.08061584
-0.51814210 0.15457959 0.17842130
-0.04208538 0.07244039 0.01449192
-0.55052125 -0.29121462 0.18957023
-0.06444718 -0.33687019 0.02219211
-0.34690353 0.38174000 0.11945564
-0.16811898 0.25061733 0.05789105
-0.70967448 -0.00081547 0.24437530
-0.00186691 0.49398506 0.00064286
-0.25630960 0.12856008 0.08825911
-0.50139254 -0.61980641 0.17265236
-0.68545324 -0.48692188 0.23603369
-0.71703750 -0.25994056 0.24691023
-0.43521208 -0.14110458 0.14986373
-0.09863746 0.03691329 0.03396538
-0.35771102 0.15457180 0.12317676
-0.62231195 0.11673282 0.21429218
-0.00139424 -0.01194471 0.00048010
-0.08146073 -0.19805659 0.02805065
-0.00813131 0.17505811 0.00279998
-0.31015900 -0.79898274 0.00000000
-0.60022640 0.12700824 0.20668703
-0.43862903 -0.50947404 0.15104002
-0.32291165 -0.44534972 0.11119323
-0.49112010 0.08878343 0.16911614
-0.12472375 -0.30023119 0.04294809
-0.55908155 -0.12500145 0.19251829
-0.70811433 -0.06398730 0.24383792
-0.37003735 0.26345077 0.12742154
-0.20748363 -0.23900838 0.07144610
-0.32150486 -0.62639558 0.11070882
-0.53245896 -0.36675382 0.18335032
-0.22632547 -0.08668138 0.07793420
-0.02848553 -0.48846245 0.00980887
-0.06777570 -0.59991765 0.02333827
-0.22978836 0.18382603 0.07912663
-0.30890137 -0.76970255 0.10636885
-0.69456989 -0.77630508 0.23917213
-0.62321585 0.07265889 0.21460335
-0.69777656 -0.74203026 0.24027644
-0.55674100 -0.17195413 0.19171222
-0.03438354 -0.16573970 0.01183982
-0.23514131 -0.11771603 0.08096989
-0.36902502 -0.33929336 0.12707217
-0.44531447 -0.13072480 0.15334252
-0.20532314 0.28050342 0.07070215
-0.58800882 -0.64407653 0.20247841
-0.45602459 -0.23748370 0.15703034
-0.21296497 -0.66138148 0.07333357
-0.36030221 -0.69308168 0.12406851
-0.21422981 -0.44984961 0.07376911
-0.40117228 0.36056083 0.13814308
-0.22677231 0.19293153 0.07808807
-0.16124770 -0.18025415 0.05552495
-0.00359939 -0.79807460 0.00123943
-0.35873184 -0.51169908 0.12352776
-0.50681818 -0.76874000 0.17452066
-0.13303962 0.10024567 0.04581162
-0.33165196 -0.75413662 0.11420292
-0.26860788 -0.47774473 0.09249397
-0.27231219 0.17005761 0.09376966
-0.06600832 -0.46546200 0.02272968
-0.25568366 -0.79924822 0.00000000
-0.10364003 0.41180584 0.03568800
-0.31858745 -0.42272121 0.10970421
-0.28074476 -0.64988446 0.09667324
-0.53774977 0.02410464 0.18517296
-0.70123041 -0.37391379 0.24146682
-0.51552016 0.20181443 0.17751852
-0.05949312 0.49874377 0.02048620
-0.64511043 -0.25381735 0.22214215
-0.03532848 -0.75742728 0.01216521
-0.01728596 -0.01259263 0.00595235
-0.02738364 0.58645231 0.00942944
-0.36738938 0.18042181 0.12650958
-0.24627630 -0.76800156 0.08480418
-0.18303490 -0.51646489 0.06302728
-0.35338771 0.26780549 0.12168825
-0.65399730 0.05091576 0.22520292
-0.56735879 -0.32595354 0.19536817
-0.09991073 0.43304056 0.03440383
-0.05329410 -0.08750327 0.01835159
-0.63054401 -0.66730416 0.21712539
-0.54867858 -0.77628666 0.18893510
-0.22818454 -0.13506834 0.07857436
-0.45373395 -0.60820979 0.15624133
-0.01925643 0.46496210 0.00663087
-0.52239758 0.09465495 0.17988656
-0.29849470 -0.49189529 0.10278537
-0.40987259 -0.40145570 0.14113785
-0.52700436 -0.50808722 0.18147177
-0.06478494 0.67614055 0.02230850
-0.03404558 0.55348301 0.01172345
-0.27364391 -0.00293664 0.09422810
-0.49010056 -0.62376034 0.16876402
-0.44813600 -0.16209897 0.15431406
-0.20443760 0.50667149 0.07039765
-0.09941653 -0.66639090 0.03423365
-0.57523572 -0.74596101 0.19807994
-0.02009552 -0.44347760 0.00691981
-0.40679923 -0.30960721 0.14007956
-0.35910434 -0.48519719 0.12365604
-0.03641172 0.35066739 0.01253822
-0.13444562 0.60887051 0.04629606
-0.70032871 -0.46886018 0.24115606
-0.28680602 0.08302436 0.09876045
-0.30144462 -0.17803252 0.10380115
-0.17128366 0.14355919 0.05898079
-0.21576056 0.42697632 0.07429656
-0.28054219 0.05066358 0.09660349
-0.34146389 -0.23019192 0.11758162
-0.11989159 -0.53966355 0.04128415
-0.73447084 -0.76416564 0.25291184
-0.51376909 -0.34085155 0.17691451
-0.33191252 0.32846326 0.11429337
-0.54276597 -0.78463465 0.00000000
-0.07102450 0.57935292 0.02445698
-0.46124446 -0.73491287 0.15882754
-0.68006331 -0.77897531 -0.00000005
-0.29711238 -0.73380584 0.10230937
-0.46933198 -0.65382522 0.16161244
-0.32359535 -0.37648168 0.11142867
-0.16551198 -0.31281161 0.05699334
-0.30746832 0.00546751 0.10587539
-0.03089513 -0.41107163 0.01063861
-0.13359565 -0.56176841 0.04600308
-0.34289196 0.33567503 0.11807416
-0.48944798 -0.65936571 0.16853932
-0.10491219 0.15133157 0.03612606
-0.37084615 0.27459580 0.12770009
-0.24168544 -0.13230067 0.08322334
-0.01812949 0.19494230 0.00624281
-0.00044955 -0.74453968 0.00015480
-0.38919699 0.24294332 0.13401915
-0.34692788 -0.39269742 0.11946312
-0.14243463 -0.72431731 0.04904675
-0.40049633 -0.65461820 0.13790919
-0.68010575 -0.34748983 0.23419262
-0.44788781 0.12940949 0.15422915
-0.43286470 -0.19695129 0.14905532
-0.12453802 -0.57590282 0.04288413
-0.32220379 0.04588203 0.11094962
-0.41124395 -0.30962956 0.14161009
-0.71352869 -0.22719742 0.24570207
-0.07094441 -0.61955380 0.02442940
-0.47764674 -0.29318762 0.16447584
-0.33462518 -0.40527955 0.11522674
-0.17985196 -0.15498313 0.06193125
-0.23126166 0.05515678 0.07963396
-0.28787658 -0.78541285 0.00000000
-0.24344809 0.51344335 0.08383095
-0.41748336 -0.43617350 0.14375859
-0.41858554 0.23391622 0.14413910
-0.03272028 0.49863952 0.01126709
-0.08361154 0.57822877 0.02879127
-0.32036954 -0.52320242 0.11031787
-0.60554510 -0.45897681 0.20851739
-0.52673304 0.15185443 0.18137959
-0.10602768 0.48374367 0.03651018
-0.54664671 0.21993174 0.18823698
-0.26004115 -0.35729587 0.08954405
-0.04048381 -0.33468929 0.01394042
-0.39135808 -0.78005540 0.13476247
-0.74799550 -0.37395543 0.25757012
-0.21401554 0.08014125 0.07369533
-0.58228093 -0.17189500 0.20050693
-0.21185827 -0.61732852 0.07295248
-0.42254415 -0.76750588 0.14550126
-0.58517480 -0.09354338 0.20150357
-0.06002782 0.13534628 0.02067032
-0.28519690 0.33691505 0.09820684
-0.20370397 0.21402115 0.07014458
-0.33448580 -0.13345800 0.11517875
-0.58281559 -0.43225020 0.20069054
-0.16465566 0.15832631 0.05669846
-0.53501630 -0.30248430 0.18423106
-0.59545529 -0.16875103 0.20504352
-0.00113234 0.72575366 0.00038992
-0.30841762 0.01617121 0.10620228
-0.42354882 -0.75733691 0.14584722
-0.55803335 -0.78256905 0.19215637
-0.39256203 0.24386343 0.13517790
-0.25062674 -0.73221320 0.08630224
-0.59056586 -0.18425584 0.20335981
-0.65554523 -0.16049293 0.22573556
-0.15505266 0.21695723 0.05339171
-0.57971340 -0.21126615 0.19962271
-0.48112288 -0.68006092 0.16567259
-0.12597643 -0.27262408 0.04337944
-0.03278591 0.49153906 0.01128969
-0.24352650 0.34203866 0.08385762
-0.12420572 -0.40510318 0.04276970
-0.66549915 -0.53695160 0.22916247
-0.40446717 -0.79010218 0.13927653
-0.67730129 -0.64421821 0.23322617
-0.02708481 0.00972129 0.00932654
-0.47209659 -0.05331992 0.16256510
-0.19454744 0.58489811 0.06699212
-0.47934178 -0.72525662 0.16505928
-0.35817316 0.36099854 0.12333630
-0.10365821 0.51796347 0.03569426
-0.30230844 0.31537008 0.10409916
-0.23780255 -0.26913053 0.08188629
-0.16931635 0.05039771 0.05830336
-0.57130694 -0.20748124 0.19672796
-0.17412421 -0.23278926 0.05995892
-0.60867649 -0.30752984 0.20959599
-0.50556833 -0.20868924 0.17409082
-0.35952467 -0.18248133 0.12380077
-0.54617047 0.06475236 0.18807273
-0.35509416 -0.05483738 0.12227524
-0.02350302 -0.15605874 0.00809316
-0.14128405 -0.75845218 0.04865056
-0.42997161 -0.30119413 0.14805888
-0.73914224 -0.48892710 0.25452119
-0.56214350 -0.16969556 0.19357260
-0.34328598 -0.25393805 0.11820905
-0.72095704 -0.52696621 0.24825913
-0.15379719 0.54848862 0.05295967
-0.50720423 -0.43185943 0.17465372
-0.26849502 -0.32386714 0.09245511
-0.26382598 -0.07063917 0.09084733
-0.41820052 0.30504227 0.14400665
-0.03607246 -0.05823585 0.01242140
-0.01607687 -0.67540097 0.00553600
-0.59676576 -0.50399888 0.20549415
-0.04746512 0.54522109 0.01634441
-0.06134793 -0.26184636 0.02112490
-0.38635960 0.19849639 0.13304201
-0.26533431 -0.54819989 0.09136673
-0.40473491 -0.20972557 0.13936876
-0.68583238 -0.55157012 0.23616408
-0.41995853 0.26645288 0.14461194
-0.57770896 -0.26475295 0.19893239
-0.71773630 -0.27605587 0.24715082
-0.19209266 -0.66909969 0.06614628
-0.56785822 -0.47774681 0.19553986
-0.61660165 -0.64287418 0.21232437
-0.42913732 -0.52358800 0.14777158
-0.31138653 -0.28093135 0.10722461
-0.00909503 -0.68520170 0.00313184
-0.04379421 -0.15047684 0.01508035
-0.62092465 -0.37280861 0.21381351
-0.60558772 -0.25232676 0.20853248
-0.09676530 -0.33299330 0.03332071
-0.61556578 0.08852167 0.21196908
-0.50309891 -0.16140679 0.17324056
-0.72961599 -0.70502669 0.25124028
-0.70019269 -0.58157998 0.24110889
-0.45665449 0.27731758 0.15724824
-0.21073826 -0.73231274 0.07256681
-0.68095243 -0.44346294 0.23448400
-0.17758600 0.43387219 0.06115114
-0.18672729 -0.58079654 0.06429874
-0.10679913 -0.71219724 0.03677582
-0.69128168 -0.66848671 0.23804016
-0.21521571 0.22638895 0.07410861
-0.65301913 -0.68742740 0.22486462
-0.62643772 -0.59645510 0.21571152
-0.25329849 0.28341728 0.08722250
-0.33372208 0.37929061 0.11491659
-0.60019433 -0.70064545 0.20667440
-0.38051704 -0.68955857 0.13102940
-0.16344912 -0.04273214 0.05628300
-0.03343054 -0.34055111 0.01151166
-0.07124760 0.08861473 0.02453381
-0.04199069 -0.06328891 0.01445931
-0.18799368 0.27300841 0.06473481
-0.33056217 0.35529706 0.11382843
-0.37188673 0.01184275 0.12805791
-0.41544193 -0.06764842 0.14305601
-0.64985240 0.00728840 0.22377554
-0.05602702 -0.46299800 0.01929266
-0.02378510 -0.30881351 0.00819030
-0.03373123 0.06816184 0.01161520
-0.18723603 -0.66232896 0.06447392
-0.60220361 -0.10605021 0.20736744
-0.14092049 0.07494495 0.04852536
-0.23577619 0.18002573 0.08118851
-0.05604128 0.59582174 0.01929757
-0.02739927 0.40691379 0.00943482
-0.10971441 0.07970093 0.03777969
-0.18242909 -0.06269255 0.06281867
-0.24102566 -0.66286278 0.08299615
-0.58183128 0.09837938 0.20035259
-0.26130906 0.07407759 0.08998065
-0.03113879 0.40723172 0.01072251
-0.49720365 -0.17046256 0.17121051
-0.37888288 0.11377279 0.13046724
-0.08098226 -0.49342656 0.02788589
-0.05459766 -0.60834420 0.01880047
-0.27361584 -0.38864148 0.09421843
-0.34571517 0.31104925 0.11904628
-0.33351320 0.35880679 0.11484462
-0.22784081 -0.59973353 0.07845600
-0.69601023 -0.49589697 0.23966892
-0.28515545 -0.38206157 0.09819205
-0.18710171 -0.57669324 0.06442766
-0.38794795 -0.42148811 0.13358819
-0.61188769 -0.74107426 0.21070093
-0.56114835 -0.70523763 0.19322902
-0.22547504 0.47583535 0.07764185
-0.38193175 -0.77386302 0.13151656
-0.17898837 -0.78333175 0.06163387
-0.11884485 0.36940596 0.04092371
-0.43140861 -0.73217136 0.14855368
-0.54167545 -0.12034007 0.18652450
-0.52593458 -0.74465221 0.18110330
-0.26958755 -0.03870814 0.09283131
-0.01446362 0.69084650 0.00498049
-0.73035693 -0.17858405 0.25149694
-0.68775177 -0.61692625 0.23682481
-0.37743515 -0.75522798 0.12996817
-0.17894071 0.59055609 0.06161794
-0.11885439 -0.64155787 0.04092700
-0.16615318 -0.50457251 0.05721413
-0.39160851 -0.08357569 0.13484892
-0.23388107 -0.07948396 0.08053594
-0.10486009 -0.01143457 0.03610812
-0.07645197 0.22215687 0.02632591
-0.49649158 -0.10091017 0.17096543
-0.78884143 -0.78751636 -0.00000003
-0.42409778 0.29109257 0.14603734
-0.42069283 -0.58861357 0.14486375
-0.04647139 -0.09235546 0.01600222
-0.63527662 -0.21617721 0.21875593
-0.75593084 -0.64481586 0.26030183
-0.01014238 0.03757222 0.00349249
-0.26943684 -0.17274079 0.09277942
-0.70213556 -0.47883916 0.24177819
-0.06617469 -0.01451246 0.02278697
-0.04746972 -0.16025352 0.01634599
-0.39867195 -0.40008280 0.13728096
-0.42168754 -0.05792535 0.14520670
-0.58395165 -0.75704300 0.00000000
-0.52559465 -0.79875886 0.00000000
-0.10219143 -0.15306209 0.03518918
-0.20985389 -0.69363743 0.07226228
-0.00850468 0.60966951 0.00292855
-0.13759267 0.29904068 0.04737944
-0.29960343 -0.76552320 0.10316715
-0.10157711 -0.65048909 0.03497764
-0.03299299 0.44122916 0.01136099
-0.42650896 -0.79078221 0.00000000
-0.36076164 -0.24856481 0.12422672
-0.63405216 -0.78490674 0.00000000
-0.63753474 -0.77418691 0.21953239
-0.63814902 -0.54850972 0.21974441
-0.25460270 0.12791400 0.08767134
-0.32495356 -0.34085193 0.11189636
-0.36593390 0.00611748 0.12600803
-0.56822503 -0.76256806 0.00000000
-0.17422734 -0.28385985 0.05999443
-0.55805892 0.05723863 0.19216651
-0.20662323 -0.29588276 0.07114982
-0.34668791 -0.16991828 0.11938049
-0.73501706 -0.26539907 0.25310138
-0.21078432 0.24946097 0.07258267
-0.43080723 0.05184915 0.14834729
-0.64635462 0.04665660 0.22257116
-0.44708562 0.16198596 0.15395297
-0.49202028 -0.68409646 0.16942507
-0.28402987 -0.09733964 0.09780446
-0.71839565 -0.26304963 0.24737792
-0.51695567 -0.79123938 0.17801146
-0.00392656 -0.28566489 0.00135209
-0.67954314 -0.51149797 0.23399852
-0.55145895 -0.70784336 0.18989252
-0.02456620 0.22033954 0.00845927
-0.48568541 -0.08826714 0.16724434
-0.09790018 -0.16014352 0.03371151
-0.47225565 -0.62426537 0.16261919
-0.03801497 0.27672020 0.01309029
-0.15278655 -0.51808059 0.05261139
-0.17797352 0.46742526 0.06128465
-0.35173702 -0.79037166 0.12111913
-0.20711903 0.11524438 0.07132055
-0.14273398 -0.62244189 0.04914983
-0.48038465 -0.12785579 0.16541895
-0.25970215 0.09263459 0.08942732
-0.00260750 0.29846904 0.00089788
-0.73086709 -0.75491816 -0.00000011
-0.66970497 -0.78640300 -0.00000003
-0.18538377 0.56936985 0.06383657
-0.27449360 -0.75556815 0.09452069
-0.10160052 0.47180277 0.03498570
-0.09734884 -0.73859203 0.03352165
-0.03363570 -0.55079323 0.01158231
-0.66520458 -0.05134757 0.22906198
-0.52378142 -0.38553256 0.18036216
-0.05420613 -0.12605412 0.01866565
-0.68110156 -0.34799305 0.23453552
-0.55913866 0.02941038 0.19253825
-0.06361072 0.46244735 0.02190408
-0.07007802 -0.70693004 0.02413107
-0.25163400 -0.45703307 0.08664908
-0.06769692 -0.12612697 0.02331114
-0.17116418 -0.22647420 0.05893965
-0.02492459 0.25454330 0.00858267
-0.71537298 -0.52794534 0.24633630
-0.31433961 -0.28897110 0.10824149
-0.35185221 0.15024087 0.12115927
-0.08705567 -0.04493219 0.02997724
-0.53535622 -0.43393278 0.18434785
-0.01443979 -0.32688025 0.00497228
-0.64277399 -0.02589133 0.22133800
-0.27223936 -0.15150522 0.09374445
-0.16390413 0.27960670 0.05643968
-0.17530425 0.08624093 0.06036526
-0.08535054 0.56509912 0.02939009
-0.34087983 -0.75567585 0.11738050
-0.59379888 0.08060747 0.20447361
-0.43839291 0.09951380 0.15095952
-0.55517727 -0.62518954 0.19117291
-0.29655653 0.27644125 0.10211841
-0.59704989 -0.71968371 0.20559157
-0.50182325 -0.53676540 0.17280068
-0.21622264 -0.79561043 0.00000000
-0.03749048 0.36883473 0.01290969
-0.01117031 -0.15603270 0.00384645
-0.17458598 0.61078328 0.06011836
-0.16419995 -0.47671980 0.05654154
-0.10832426 -0.21958834 0.03730099
-0.69191003 -0.79467738 0.23825619
-0.50523061 -0.04955401 0.17397483
-0.32704973 -0.67438734 0.11261817
-0.03038173 -0.03614679 0.01046182
-0.27303767 0.21784230 0.09401956
-0.02206086 0.48404258 0.00759656
-0.59581441 -0.08197868 0.20516735
-0.30285418 -0.72151756 0.10428653
-0.25432035 0.27123168 0.08757435
-0.02903624 0.38349840 0.00999851
-0.66576546 0.03655860 0.22925527
-0.62206984 0.05483039 0.21420869
-0.37021995 -0.30427507 0.12748365
-0.53514087 0.23289517 0.18427499
-0.02164458 0.48688003 0.00745322
-0.55383694 -0.60029489 0.19071138
-0.25903687 0.24123719 0.08919842
-0.15918283 -0.72470063 0.05481392
-0.71409696 -0.09075117 0.24589802
-0.31003544 -0.71604294 0.10675937
-0.58366239 -0.75843793 0.20098163
-0.18209635 -0.37150383 0.06270409
-0.51030076 0.22093385 0.17572127
-0.24053501 0.47743922 0.08282775
-0.48122889 -0.12257936 0.16570967
-0.71573550 -0.15145013 0.24646211
-0.42087492 -0.56187230 0.14492647
-0.67467928 -0.29549101 0.23232409
-0.20194554 0.23021604 0.06953908
-0.43415171 -0.54964513 0.14949827
-0.74723810 -0.15484214 0.25730994
-0.48884839 -0.79656148 0.00000000
-0.33609721 -0.14357226 0.11573363
-0.24212459 -0.37825876 0.08337456
-0.06965735 -0.70154136 0.02398621
-0.50894952 -0.79237098 0.00000000
-0.14817101 -0.58423334 0.05102205
-0.75355881 -0.34396192 0.25948590
-0.67408276 -0.23970164 0.23211882
-0.22937763 0.19330657 0.07898520
-0.40349197 0.16612773 0.13894150
-0.24422579 0.00062467 0.08409810
-0.08164679 -0.37020147 0.02811472
-0.42521393 -0.69926912 0.14642058
-0.05922151 -0.62634069 0.02039267
-0.27969691 -0.35969147 0.09631243
-0.30552471 0.21087226 0.10520649
-0.02928968 -0.61001647 0.01008578
-0.72608197 -0.32237208 0.25002447
-0.46584168 -0.23702198 0.16041087
-0.22459404 0.42235523 0.07733837
-0.73012465 -0.66310310 0.25141555
-0.06976167 -0.27771515 0.02402213
-0.34138483 0.06408297 0.11755465
-0.39706251 -0.04873880 0.13672708
-0.12227251 -0.05255990 0.04210401
-0.03687490 0.12963210 0.01269771
-0.40513718 -0.61259311 0.13950725
-0.76436657 -0.78778511 -0.00000003
-0.19749682 -0.44836181 0.06800718
-0.01876179 -0.73443002 0.00646054
-0.09244642 -0.61598372 0.03183353
-0.40140000 0.11106596 0.13822100
-0.49515873 0.00473056 0.17050669
-0.40175441 -0.77217472 0.00000000
-0.02277751 0.65552449 0.00784334
-0.43593493 0.27891442 0.15011346
-0.28408924 0.04693466 0.09782490
-0.00640976 0.47783801 0.00220717
-0.27015787 0.45141518 0.09302836
-0.47189036 0.14468937 0.16249447
-0.04044031 0.17737383 0.01392545
-0.00305272 -0.59615004 0.00105119
-0.72036511 -0.35914704 0.24805580
-0.35357296 -0.31822610 0.12175133
-0.26711690 -0.28608659 0.09198055
-0.70400316 -0.36489293 0.24242163
-0.23854296 0.33432981 0.08214152
-0.03022835 -0.26239395 0.01040900
-0.55083907 -0.61027759 0.18967906
-0.70415533 0.04632100 0.24247487
-0.10283169 -0.35358879 0.03540965
-0.71189743 -0.33355477 0.24514008
-0.33451542 -0.59499365 0.11518894
-0.58623701 0.15619519 0.20186983
-0.20683049 -0.13429399 0.07122119
-0.44152647 -0.76478797 0.15203774
-0.01830214 -0.17784084 0.00630226
-0.59358382 -0.28297690 0.20439886
-0.21954758 -0.66509110 0.07560027
-0.63021457 0.03372073 0.21701330
-0.25731772 -0.14590707 0.08860625
-0.63703346 -0.55595309 0.21936025
-0.39188609 -0.35125765 0.13494429
-0.74590474 -0.33130497 0.25685030
-0.73737448 -0.58498794 0.25391221
-0.03511724 0.23022932 0.01209247
-0.00946961 0.40294036 0.00326082
-0.71784127 -0.04283445 0.24718745
-0.03569497 -0.26145592 0.01229141
-0.44720063 -0.58418471 0.15399161
-0.66788739 0.01269941 0.22998592
-0.40292406 -0.51233989 0.13874517
-0.43291578 0.00580717 0.14907327
-0.41973269 -0.19670774 0.14453329
-0.46542847 0.30483338 0.16026957
-0.00827436 0.14214158 0.00284924
-0.43169257 -0.65412891 0.14865147
-0.17640544 -0.27101588 0.06074445
-0.04007104 -0.26077500 0.01379829
-0.55689466 -0.70677805 0.19176428
-0.60421276 0.08450383 0.20805965
-0.35696352 -0.61044377 0.12291885
-0.57347745 -0.14350326 0.19747549
-0.25374064 0.29514518 0.08737477
-0.03548485 0.75391245 0.01221914
-0.45929614 -0.62698549 0.15815663
-0.07946623 -0.05098205 0.02736385
-0.21439008 0.26840255 0.07382433
-0.29343772 0.26739037 0.10104443
-0.20098960 0.43248498 0.06921018
-0.07361092 -0.59935033 0.02534760
-0.48388481 0.21961617 0.16662490
-0.72710073 -0.33219936 0.25037524
-0.03610824 -0.01410903 0.01243372
-0.69261354 0.04851073 0.23850045
-0.25465626 -0.23393823 0.08768979
-0.66654736 -0.21676889 0.22952402
-0.33111048 -0.03540286 0.11401649
-0.52878445 -0.55760878 0.18208466
-0.44583651 0.29428160 0.15352310
-0.48175305 -0.69193757 0.16588958
-0.52380252 -0.20781608 0.18036978
-0.55386382 -0.40575126 0.19072101
-0.67109662 -0.08721439 0.23109083
-0.10897714 0.03746023 0.03752581
-0.75422692 -0.43300480 0.25971571
-0.27893820 0.02566683 0.09605116
-0.40096068 0.03174514 0.13806958
-0.47846282 -0.03805363 0.16475736
-0.42053065 -0.47537681 0.14480792
-0.20365861 -0.23617604 0.07012896
-0.51573020 -0.71378708 0.17758948
-0.14588135 -0.63694853 0.05023362
-0.38584796 -0.43002748 0.13286509
-0.15821365 0.19768111 0.05448019
-0.43531355 -0.76055795 0.14989835
-0.45111513 -0.25859818 0.15533973
-0.19244725 -0.54320312 0.06626838
-0.14559437 -0.54633266 0.05013479
-0.07210817 0.14155197 0.02483014
-0.20472690 0.09604480 0.07049683
-0.05115884 -0.70933336 0.01761633
-0.21282320 0.00229644 0.07328475
-0.21545927 0.29740024 0.07419256
-0.61869627 -0.47319499 0.21304598
-0.64646298 -0.24853113 0.22260791
-0.46836427 -0.44198027 0.16127922
-0.17588483 0.50430101 0.06056548
-0.27415994 -0.74040502 0.09440580
-0.22511922 0.08205823 0.07751883
-0.17559716 0.42164850 0.06046626
-0.59666306 -0.71417648 0.20545837
-0.56779224 -0.49427062 0.19551712
-0.59400421 -0.04005624 0.20454410
-0.18281673 -0.43518573 0.06295215
-0.74671495 -0.43221313 0.25712901
-0.47641832 0.03818811 0.16405348
-0.07587116 -0.07999801 0.02612591
-0.63250262 -0.57446986 0.21780002
-0.06261711 0.07502824 0.02156193
-0.08877640 -0.21295255 0.03056977
-0.33940211 0.03433561 0.11687185
-0.51524025 -0.54516929 0.17742077
-0.14148249 -0.51052547 0.04871888
-0.03022459 0.39256579 0.01040771
-0.17368908 0.42878228 0.05980923
-0.34541050 -0.52873164 0.11894062
-0.03855402 -0.18709069 0.01327591
-0.21512046 -0.64346266 0.07407581
-0.53033352 0.00218841 0.18261912
-0.08363043 -0.39077666 0.02879778
-0.39624792 -0.10466281 0.13644648
-0.53033549 -0.40058812 0.18261904
-0.39565003 0.36409453 0.13624150
-0.64664310 -0.43020904 0.22266959
-0.28729552 -0.67051101 0.09892898
-0.51954246 -0.28046840 0.17890269
-0.43342131 0.12481315 0.14924759
-0.13684241 0.10126476 0.04712110
-0.74020427 0.01356753 0.25488827
-0.69568092 -0.50546497 0.23955551
-0.36218128 -0.51543313 0.12471556
-0.29820549 0.14909893 0.10268599
-0.05914523 0.35079452 0.02036641
-0.11182648 -0.44252861 0.03850697
-0.12083348 -0.43192548 0.04160849
-0.19568366 -0.01632476 0.06738283
-0.51631421 -0.12592070 0.17779133
-0.23966604 -0.36591139 0.08252797
-0.61252689 -0.47136796 0.21092156
-0.40029585 -0.51979727 0.13784017
-0.42311534 -0.39810720 0.14569794
-0.43323803 0.11602302 0.14918447
-0.73700052 -0.06118868 0.25378492
-0.37931061 0.00362776 0.13061430
-0.37393254 -0.66656959 0.12876207
-0.57548594 -0.46306717 0.19816650
-0.19026889 0.54811627 0.06551872
-0.03555813 0.25686827 0.01224429
-0.17834754 0.20017596 0.06141321
-0.32204854 -0.73662418 0.11089603
-0.30482772 0.16075829 0.10496638
-0.06065075 -0.74270511 0.02088482
-0.38513324 -0.43709326 0.13261896
-0.13035062 0.46769392 0.04488568
-0.00108265 -0.73042512 0.00037281
-0.17749019 0.05914152 0.06111798
-0.05597259 0.06763937 0.01927392
-0.27557364 -0.38217086 0.09489259
-0.50155830 -0.53788054 0.17270944
-0.55405128 -0.59746367 0.19078521
-0.09942294 -0.65016347 0.03423586
-0.20915835 0.03009319 0.07202277
-0.44581154 -0.71315479 0.15351328
-0.58888638 -0.27127081 0.20278132
-0.10878522 -0.50150371 0.03745972
-0.34637180 0.37728867 0.11927253
-0.75481230 -0.02103582 0.25991848
-0.26482108 0.35402191 0.09119044
-0.34156477 0.14855191 0.11761678
-0.13809489 -0.55021787 0.04755238
-0.32697406 0.25995696 0.11259268
-0.29973128 -0.11567797 0.10321118
-0.08947912 0.60977095 0.03081182
-0.17879067 -0.30444422 0.06156580
-0.35575464 -0.13993549 0.12250258
-0.01127596 0.19866292 0.00388283
-0.02624385 0.49534491 0.00903696
-0.28405550 -0.60852861 0.09781329
-0.35907519 0.24038032 0.12364669
-0.49592149 -0.37861416 0.17076860
-0.44968244 -0.53848535 0.15484621
-0.12715681 0.37301654 0.04378590
-0.66158623 -0.39265993 0.22781532
-0.32576397 -0.22150518 0.11217542
-0.20685507 0.17792928 0.07122965
-0.29297519 0.42684287 0.10088547
-0.19265714 -0.50313276 0.06634065
-0.22521079 0.05253707 0.07755037
-0.06659854 -0.12317349 0.02293292
-0.22236434 -0.78362757 0.00000000
-0.17597596 -0.29167441 0.06059656
-0.56407624 -0.73467463 0.19423722
-0.25404796 0.46845010 0.08748093
-0.53616381 -0.44158876 0.18462595
-0.70373809 -0.29872772 0.24233052
-0.48090628 -0.76664275 0.16559801
-0.23024464 -0.19114007 0.07928375
-0.57261127 -0.77546299 0.00000000
-0.38774478 -0.28454095 0.13351823
-0.34899774 0.42043722 0.12017686
-0.34252679 -0.46529362 0.11794763
-0.35363561 0.41923210 0.12177390
-0.56994420 -0.76740968 0.00000000
-0.23178750 0.12827533 0.07981503
-0.26753879 -0.36554804 0.09212583
-0.02325257 0.16293509 0.00800692
-0.20536377 -0.30377012 0.07071613
-0.45389947 -0.23653260 0.15629856
-0.03162313 0.66535854 0.01088929
-0.23956920 0.03324881 0.08249462
-0.42005196 -0.24835224 0.14464313
-0.09449028 -0.06691943 0.03253732
-0.10675305 0.31063178 0.03675995
-0.02839945 0.42418078 0.00977923
-0.00028159 -0.13630989 0.00009697
-0.72834343 -0.51435268 0.25080261
-0.22361486 0.06526337 0.07700081
-0.28562796 0.28558770 0.09835517
-0.43264595 0.07336079 0.14898050
-0.01404271 0.23063459 0.00483555
-0.20817827 -0.79990965 0.00000000
-0.05668015 -0.36855018 0.01951757
-0.13883629 0.29973841 0.04780768
-0.12695268 -0.35334742 0.04371561
-0.15413219 0.21831851 0.05307475
-0.06199002 -0.73397547 0.02134600
-0.73577923 -0.22867675 0.25336394
-0.56274354 -0.36111176 0.19377884
-0.34935057 -0.64847535 0.12029737
-0.31387433 -0.30292407 0.10808127
-0.12076195 -0.25513443 0.04158386
-0.68531525 0.04765199 0.23598728
-0.73361593 -0.71673805 0.25261760
-0.01607139 -0.20251666 0.00553411
-0.49691057 -0.57976896 0.17110901
-0.30458248 -0.62662655 0.10488167
-0.74844438 -0.00164550 0.25772575
-0.65984398 -0.37280506 0.22721542
-0.07935085 0.22195853 0.02732412
-0.69626260 -0.44869804 0.23975596
-0.08569000 0.70738274 0.02950722
-0.70129281 -0.30760920 0.24148847
-0.21214867 0.35036609 0.07305266
-0.04835877 0.70199716 0.01665218
-0.32935971 -0.09950863 0.11341360
-0.11975341 0.46208182 0.04123657
-0.12280768 0.65866995 0.04228863
-0.15716732 -0.21854252 0.05411989
-0.45527911 -0.15697259 0.15677379
-0.24821369 -0.71943074 0.08547131
-0.57651657 -0.67544562 0.19852100
-0.41757357 -0.36386994 0.14378966
-0.11114723 -0.63486713 0.03827307
-0.24743713 0.28206173 0.08520413
-0.57471180 -0.15235262 0.19790052
-0.34433228 -0.71017915 0.11856934
-0.63757527 -0.79753000 0.21954629
-0.11867974 -0.67954957 0.04086686
-0.12726338 0.56785065 0.04382278
-0.58205074 0.09757226 0.20042817
-0.12439296 -0.75409335 0.04283418
-0.39028314 -0.09988647 0.13439250
-0.10353113 -0.74344945 0.03565050
-0.32094282 -0.44818905 0.11051527
-0.06041193 -0.09887512 0.02080259
-0.41679966 0.12449953 0.14352392
-0.05566729 -0.01009296 0.01916879
-0.25413951 -0.44637766 0.08751185
-0.66477281 -0.64324135 0.22891206
-0.35254338 -0.79645514 0.00000000
-0.09444451 0.36905104 0.03252156
-0.49418759 -0.34217089 0.17017160
-0.38246793 0.01918825 0.13170156
-0.40702742 0.34377101 0.14015926
-0.71968853 0.03460074 0.24782366
-0.12994941 -0.33359087 0.04474752
-0.43582985 -0.17990725 0.15007639
-0.71993685 -0.11094693 0.24790893
-0.15850507 -0.67343783 0.05458054
-0.03250514 0.39213833 0.01119301
-0.37591138 0.29653507 0.12944435
-0.11095426 -0.30683967 0.03820662
-0.09082861 -0.02026078 0.03127644
-0.16093940 -0.08153393 0.05541879
-0.09289699 -0.74859458 0.03198868
-0.12492879 -0.37585160 0.04301869
-0.17707831 -0.50118273 0.06097615
-0.40567794 -0.42060703 0.13969345
-0.11430786 -0.41713768 0.03936142
-0.31073076 -0.01317048 0.10699880
-0.06166034 0.67920405 0.02123254
-0.35420534 -0.25474474 0.12196909
-0.64523757 -0.49653164 0.22218543
-0.15108065 0.27450502 0.05202397
-0.23249382 0.17294906 0.08005825
-0.69265860 -0.67334592 0.23851429
-0.31887361 0.30753833 0.10980337
-0.49802256 -0.18459330 0.17149249
-0.49769038 0.04252803 0.17137852
-0.48512423 0.13387585 0.16705154
-0.32595360 0.41698265 0.11224158
-0.67745739 -0.78035778 0.23327954
-0.69346148 -0.13960378 0.23879208
-0.48558441 0.00876703 0.16720977
-0.12583974 -0.12488472 0.04333237
-0.02425283 0.09899752 0.00835136
-0.11896307 -0.35537678 0.04096442
-0.16300915 -0.36685064 0.05613150
-0.47980520 -0.10593727 0.16521946
-0.05743189 0.06369917 0.01977642
-0.68626982 -0.41316715 0.23631510
-0.75099838 -0.01110804 0.25860518
-0.45006219 0.32320273 0.15497828
-0.24714471 -0.21069768 0.08510322
-0.36149719 -0.45593753 0.12448000
-0.03370518 0.58195835 0.01160623
-0.14102818 -0.34646511 0.04856245
-0.01306879 0.15211549 0.00450018
-0.01967045 0.06934012 0.00677343
-0.26484606 -0.34366956 0.09119860
-0.25435597 0.22453292 0.08758653
-0.01209941 0.42338467 0.00416638
-0.16183203 0.09793340 0.05572617
-0.14037955 0.49593842 0.04833920
-0.06395934 0.40291411 0.02202412
-0.29073265 -0.03302327 0.10011254
-0.23221269 0.54546922 0.07996209
-0.26451689 0.39007667 0.09108576
-0.45303482 -0.78239381 0.15600058
-0.37887931 0.04532156 0.13046587
-0.49424896 -0.06305592 0.17019325
-0.02820270 -0.55248863 0.00971148
-0.12588508 0.09081744 0.04334798
-0.33987710 0.40532970 0.11703613
-0.29849991 -0.79970950 0.10278716
-0.17184968 -0.42157906 0.05917570
-0.55975813 -0.11451737 0.19275129
-0.51533115 -0.43769649 0.17745222
-0.39600694 -0.00337961 0.13636369
-0.64552689 -0.77104157 0.22228447
-0.73786700 -0.50909472 0.25408205
-0.64364684 -0.31402552 0.22163802
-0.03845870 -0.58662975 0.01324309
-0.45083368 -0.23713909 0.15524285
-0.02589755 -0.50585514 0.00891771
-0.37292451 0.36162701 0.12841594
-0.54846853 -0.48533687 0.18886299
-0.34351483 -0.79570878 0.00000000
-0.36975193 -0.77046466 0.12732248
-0.27409244 -0.68870199 0.09438255
-0.02953194 -0.46658093 0.01016920
-0.21389620 0.27742434 0.07365428
-0.48113826 -0.04447981 0.16567864
-0.04872931 -0.10586201 0.01677973
-0.09374875 0.09157228 0.03228198
-0.43137357 -0.70439065 0.14854163
-0.27759084 0.13800576 0.09558730
-0.35466385 -0.47265983 0.12212696
-0.38409504 -0.58965594 0.13226147
-0.06943941 0.56676763 0.02391116
-0.67778796 -0.76345074 -0.00000009
-0.61591649 -0.27312574 0.21208915
-0.66507214 -0.33899704 0.22901580
-0.34446108 -0.46544179 0.11861369
-0.42593160 -0.24874504 0.14666779
-0.00012954 -0.40163255 0.00004461
-0.59051436 -0.40946862 0.20334163
-0.15905444 -0.66433251 0.05476972
-0.57620025 -0.43655387 0.19841252
-0.23029113 0.33893543 0.07930000
-0.42815673 -0.07099310 0.14743435
-0.00945392 -0.36694318 0.00325542
-0.58206564 -0.30120787 0.20043254
-0.08514104 -0.26885152 0.02931795
-0.34030873 -0.14263383 0.11718385
-0.30213276 -0.72776669 0.10403812
-0.42073396 -0.04244032 0.14487837
-0.33577985 -0.78929287 0.11562435
-0.51433522 -0.62861919 0.17710911
-0.35396567 -0.72535318 0.12188655
-0.40573388 0.28565663 0.13971372
-0.35421214 -0.30257222 0.12197142
-0.33376259 0.18993646 0.11493017
-0.34515977 -0.24357753 0.11885428
-0.32042837 -0.50053126 0.11033813
-0.29853010 -0.21434733 0.10279756
-0.42833269 -0.49116901 0.14749451
-0.05665101 0.40120274 0.01950753
-0.39267600 0.21738334 0.13521710
-0.33329397 -0.32701463 0.11476834
-0.72967434 -0.74465257 0.25126022
-0.09549914 0.64388514 0.03288489
-0.09849908 -0.76730835 0.03391773
-0.05765774 -0.02940456 0.01985420
-0.33673647 -0.68991864 0.11595375
-0.34113279 -0.68256319 0.11746761
-0.35900581 0.37124839 0.12362305
-0.49481192 -0.04157678 0.17038716
-0.46108541 0.25841331 0.15877400
-0.36750722 0.41075498 0.12655059
-0.71605396 -0.39208406 0.24657118
-0.35398912 -0.77798527 0.00000000
-0.35376567 -0.78908485 0.00000000
-0.69859171 -0.58349580 0.24055758
-0.11544497 -0.52049184 0.03975298
-0.56070554 -0.10903865 0.19307755
-0.23224406 -0.59564137 0.07997224
-0.55638415 -0.01235131 0.19158964
-0.43361026 -0.13339086 0.14931215
-0.13696523 -0.47342339 0.04716339
-0.52745217 -0.13174084 0.18162669
-0.42034042 -0.42047849 0.14474241
-0.45313445 0.25531301 0.15603606
-0.41450423 -0.27618405 0.14273275
-0.45712680 -0.22743985 0.15740991
-0.74932617 -0.57593483 0.25802773
-0.35006565 -0.55197728 0.12054360
-0.25598988 -0.17218228 0.08814901
-0.44336414 -0.46875253 0.15267053
-0.22520661 -0.24583086 0.07754892
-0.34022185 -0.61393183 0.11715393
-0.30216604 0.25368637 0.10405001
-0.55698037 -0.41051939 0.19179420
-0.20864619 0.24093586 0.07184642
-0.18647204 -0.01258612 0.06421085
-0.22419752 -0.40208569 0.07720145
-0.29532355 0.43335035 0.10169414
-0.09443937 0.20128578 0.03251979
-0.40908569 0.15298142 0.14086767
-0.47009099 -0.18271187 0.16187422
-0.13822705 0.16544092 0.04759789
-0.47417167 0.13445225 0.16328003
-0.60031384 0.14786527 0.20671719
-0.06654682 -0.46072641 0.02291511
-0.13828035 0.26765606 0.04761624
-0.59830987 0.14402293 0.20602711
-0.21265280 -0.69445139 0.07322608
-0.09518026 0.57834655 0.03277495
-0.63075447 -0.26648241 0.21719863
-0.68686891 -0.36726055 0.23652147
-0.14575215 -0.40924814 0.05018913
-0.10427499 -0.67704511 0.03590664
-0.11373205 0.00787844 0.03916314
-0.24721800 -0.33537090 0.08512845
-0.58402050 0.14474435 0.20110656
-0.09469798 -0.60310578 0.03260884
-0.46879146 -0.49715182 0.16142632
-0.72090280 -0.53210860 0.24824043
-0.59923768 -0.36244079 0.20634562
-0.05035940 -0.78017569 0.01734104
-0.17849058 -0.39413559 0.06146246
-0.01538996 -0.36313421 0.00529947
-0.17834343 -0.75086766 0.06141179
-0.34830955 -0.49245414 0.11993889
-0.62332129 0.04268437 0.21463960
-0.53933531 -0.75618285 0.18571781
-0.30697569 -0.60721660 0.10570576
-0.63284856 -0.11865584 0.21792002
-0.22052352 -0.16315936 0.07593632
-0.27349290 -0.17714666 0.09417610
-0.41571623 -0.49998200 0.14315011
-0.28624663 -0.32312623 0.09856780
-0.68325680 0.03184113 0.23527841
-0.22700749 0.46141529 0.07816952
-0.44938657 -0.21381228 0.15474460
-0.59605598 -0.59326333 0.20524956
-0.35201541 -0.53494376 0.12121499
-0.66917419 -0.45576668 0.23042811
-0.46843004 -0.01014923 0.16130261
-0.50993282 -0.44286722 0.17559329
-0.39779663 -0.22689767 0.13697957
-0.21667483 0.50977623 0.07461156
-0.27375287 0.19955637 0.09426581
-0.29395914 -0.24015148 0.10122356
-0.64466149 -0.40434337 0.22198725
-0.64216375 -0.34462005 0.22112727
-0.51206714 -0.65968156 0.17632812
-0.17880008 -0.05994786 0.06156904
-0.23710635 0.45646450 0.08164705
-0.09944856 0.65617299 0.03424490
-0.09711206 -0.45094556 0.03344012
-0.02807481 0.61680943 0.00966744
-0.20586532 -0.42337462 0.07088884
-0.47925037 -0.41331068 0.16502783
-0.17816091 0.43660522 0.06134911
-0.50674862 -0.32848573 0.17449701
-0.44406268 -0.04508251 0.15291163
-0.21372528 -0.20091605 0.07359538
-0.61670107 0.09232977 0.21236002
-0.27629057 -0.26168203 0.09513946
-0.22533146 0.31937239 0.07759210
-0.03731560 0.08266464 0.01284947
-0.32825240 -0.21261197 0.11303230
-0.53508127 -0.28324172 0.18425347
-0.37189710 -0.67255586 0.12806116
-0.72403902 -0.27153820 0.24932113
-0.14243791 -0.30859730 0.04904788
-0.13444251 0.41760898 0.04629470
-0.12706490 -0.03191533 0.04375425
-0.08522696 0.58845127 0.02934755
-0.56688845 0.10585578 0.19520706
-0.22513641 0.15253754 0.07752476
-0.44945326 -0.55439353 0.15476729
-0.55516618 -0.76252609 0.00000000
-0.04681417 0.74560118 0.01612038
-0.45364383 -0.69455785 0.15621030
-0.73362267 -0.21781129 0.25262138
-0.39576596 -0.08729609 0.13628054
-0.28959352 0.47476277 0.09972108
-0.69682831 -0.46659026 0.23995072
-0.12218628 -0.79440451 0.00000000
-0.17870875 -0.72669119 0.06153759
-0.37007949 -0.79560596 0.12743528
-0.30445156 0.22937389 0.10483698
-0.01209530 -0.31960398 0.00416496
-0.07735045 0.12094662 0.02663530
-0.05942079 0.13866645 0.02046129
-0.04021599 0.43363765 0.01384820
-0.38772258 -0.18403848 0.13351062
-0.22626150 -0.73178720 0.07791217
-0.79356605 -0.75524497 -0.00000011
-0.27885988 -0.08138743 0.09602420
-0.03758158 -0.22235475 0.01294105
-0.51675516 0.21497858 0.17794383
-0.65327388 -0.77020150 0.22495210
-0.24711940 -0.59481913 0.08509450
-0.13923553 -0.73402530 0.04794515
-0.17894529 -0.63202548 0.06161904
-0.06557839 0.66419959 0.02258170
-0.66254294 -0.17040583 0.22814520
-0.54462296 -0.29672292 0.18753913
-0.07576345 -0.76215780 0.02608882
-0.41479719 -0.52157027 0.14283362
-0.44645596 -0.79757226 0.00000000
-0.21433195 -0.19958784 0.07380429
-0.12457461 -0.36527026 0.04289673
-0.65985382 -0.35420468 0.22721885
-0.07667023 0.06999757 0.02640106
-0.10434702 -0.45153725 0.03593145
-0.50616622 0.13789225 0.17429736
-0.19532356 0.53607363 0.06725928
-0.00524040 0.46160200 0.00180451
-0.38911748 -0.69728178 0.13399091
-0.41649821 -0.67012119 0.14341937
-0.56944919 -0.56968129 0.19608752
-0.36716515 -0.07217802 0.12643187
-0.55557263 -0.37825903 0.19130950
-0.11016899 -0.21844706 0.03793622
-0.14067654 0.02279419 0.04844136
-0.59919214 -0.70957547 0.20632929
